ply
format ascii 1.0
element vertex 1592
property float32 x
property float32 y
property float32 z
property float32 I
end_header
-10.5579 -1.3883 -2.0016 0.9576
-10.5014 -1.7660 -2.0016 0.9576
-10.4313 -2.1414 -2.0016 0.9576
-9.4085 -3.0146 -1.8570 0.9606
-9.1682 -3.6812 -1.8570 0.9606
-8.8808 -4.3288 -1.8570 0.9606
-8.1706 -5.5541 -1.8570 0.9606
-8.5864 -6.2985 -2.0016 0.9576
-8.3550 -6.6024 -2.0016 0.9576
-7.8603 -7.1842 -2.0016 0.9576
-7.0433 -7.9868 -2.0016 0.9576
-6.4527 -8.4711 -2.0016 0.9576
-5.5057 -9.1151 -2.0016 0.9576
-4.8382 -9.4863 -2.0016 0.9576
-3.7914 -9.9510 -2.0016 0.9576
-3.0685 -10.1971 -2.0016 0.9576
-2.7008 -10.3006 -2.0016 0.9576
-2.3297 -10.3908 -2.0016 0.9576
-1.9556 -10.4677 -2.0016 0.9576
-1.5790 -10.5311 -2.0016 0.9576
-0.0570 -10.6487 -2.0016 0.9576
0.3249 -10.6439 -2.0016 0.9576
1.0869 -10.5932 -2.0016 0.9576
1.8434 -10.4880 -2.0016 0.9576
2.2183 -10.4152 -2.0016 0.9576
2.5904 -10.3290 -2.0016 0.9576
3.3240 -10.1167 -2.0016 0.9576
3.6847 -9.9910 -2.0016 0.9576
4.0406 -9.8525 -2.0016 0.9576
4.3913 -9.7012 -2.0016 0.9576
4.7363 -9.5375 -2.0016 0.9576
5.4077 -9.1735 -2.0016 0.9576
5.7332 -8.9737 -2.0016 0.9576
6.0513 -8.7623 -2.0016 0.9576
6.6638 -8.3061 -2.0016 0.9576
6.9574 -8.0618 -2.0016 0.9576
7.7829 -7.2680 -2.0016 0.9576
8.7421 -6.0805 -2.0016 0.9576
8.9545 -5.7631 -2.0016 0.9576
9.3446 -5.1065 -2.0016 0.9576
9.6865 -4.4236 -2.0016 0.9576
9.8389 -4.0734 -2.0016 0.9576
10.1056 -3.3577 -2.0016 0.9576
10.3203 -2.6248 -2.0016 0.9576
10.4077 -2.2530 -2.0016 0.9576
10.4819 -1.8783 -2.0016 0.9576
10.6427 -0.3603 -2.0016 0.9576
10.6488 0.0215 -2.0016 0.9576
10.6412 0.4034 -2.0016 0.9576
10.3986 2.2951 -2.0016 0.9576
-9.4629 -0.3396 -2.0016 0.9620
-9.4143 -1.0169 -2.0016 0.9620
-9.3717 -1.3539 -2.0016 0.9620
-9.3172 -1.6891 -2.0016 0.9620
-8.4259 -2.4863 -1.8570 0.9647
-8.3313 -2.7869 -1.8570 0.9647
-8.1101 -3.3768 -1.8570 0.9647
-7.8472 -3.9494 -1.8570 0.9647
-7.7005 -4.2283 -1.8570 0.9647
-7.2019 -5.0309 -1.8570 0.9647
-7.0169 -5.2859 -1.8570 0.9647
-6.8342 -5.5433 -1.8601 0.9647
-7.1354 -6.2248 -2.0016 0.9620
-6.6709 -6.7203 -2.0016 0.9620
-6.4256 -6.9551 -2.0016 0.9620
-6.1721 -7.1811 -2.0016 0.9620
-5.3651 -7.8024 -2.0016 0.9620
-4.7921 -8.1669 -2.0016 0.9620
-4.4962 -8.3335 -2.0016 0.9620
-4.1944 -8.4893 -2.0016 0.9620
-3.8873 -8.6343 -2.0016 0.9620
-3.5752 -8.7681 -2.0016 0.9620
-3.2585 -8.8907 -2.0016 0.9620
-2.6129 -9.1014 -2.0016 0.9620
-2.2848 -9.1892 -2.0016 0.9620
-1.9538 -9.2653 -2.0016 0.9620
-1.6203 -9.3294 -2.0016 0.9620
-0.9475 -9.4215 -2.0016 0.9620
-0.2698 -9.4652 -2.0016 0.9620
0.0698 -9.4688 -2.0016 0.9620
0.7483 -9.4394 -2.0016 0.9620
1.4229 -9.3615 -2.0016 0.9620
2.4201 -9.1545 -2.0016 0.9620
2.7468 -9.0619 -2.0016 0.9620
3.7041 -8.7145 -2.0016 0.9620
4.0142 -8.5760 -2.0016 0.9620
4.6186 -8.2662 -2.0016 0.9620
4.9121 -8.0953 -2.0016 0.9620
5.1992 -7.9140 -2.0016 0.9620
5.4796 -7.7224 -2.0016 0.9620
5.7530 -7.5210 -2.0016 0.9620
7.8418 -5.3074 -2.0016 0.9620
8.0271 -5.0228 -2.0016 0.9620
8.3664 -4.4346 -2.0016 0.9620
8.5200 -4.1317 -2.0016 0.9620
8.6627 -3.8235 -2.0016 0.9620
8.9145 -3.1928 -2.0016 0.9620
9.0233 -2.8711 -2.0016 0.9620
9.1204 -2.5457 -2.0016 0.9620
9.2058 -2.2170 -2.0016 0.9620
9.3411 -1.5514 -2.0016 0.9620
9.4569 0.4791 -2.0016 0.9620
9.4336 0.8179 -2.0016 0.9620
9.3982 1.1557 -2.0016 0.9620
9.3507 1.4920 -2.0016 0.9620
9.2198 2.1583 -2.0016 0.9620
9.1364 2.4876 -2.0016 0.9620
8.8164 3.4544 -2.0016 0.9620
8.6869 3.7683 -2.0016 0.9620
8.3945 4.3812 -2.0016 0.9620
8.2320 4.6794 -2.0016 0.9620
8.0589 4.9716 -2.0016 0.9620
7.2652 6.0728 -2.0016 0.9620
7.0428 6.3294 -2.0016 0.9620
6.5710 6.8179 -2.0016 0.9620
6.3223 7.0492 -2.0016 0.9620
5.5287 7.6874 -2.0016 0.9620
5.2495 7.8807 -2.0016 0.9620
4.6711 8.2367 -2.0016 0.9620
3.7549 8.6799 -1.9991 0.9621
2.6642 8.5917 -1.9014 0.9639
1.3698 8.6411 -1.8494 0.9649
1.0590 8.6847 -1.8494 0.9649
0.1202 8.7482 -1.8494 0.9649
-0.1936 8.7468 -1.8494 0.9649
-0.5071 8.7343 -1.8494 0.9649
-0.8200 8.7105 -1.8494 0.9649
-1.1318 8.6755 -1.8494 0.9649
-1.7507 8.5720 -1.8494 0.9649
-2.6612 8.3344 -1.8494 0.9649
-2.9678 8.2601 -1.8553 0.9648
-4.3767 8.2371 -1.9717 0.9626
-5.3131 7.8331 -2.0007 0.9620
-5.5930 7.6408 -2.0016 0.9620
-5.8634 7.4353 -2.0016 0.9620
-6.1262 7.2202 -2.0016 0.9620
-6.6280 6.7626 -2.0016 0.9620
-7.3159 6.0117 -2.0016 0.9620
-7.5268 5.7454 -2.0016 0.9620
-7.7279 5.4718 -2.0016 0.9620
-7.9192 5.1912 -2.0016 0.9620
-8.1003 4.9039 -2.0016 0.9620
-8.2709 4.6102 -2.0016 0.9620
-8.5801 4.0056 -2.0016 0.9620
-8.8451 3.3803 -2.0016 0.9620
-8.9606 3.0610 -2.0016 0.9620
-9.2375 2.0809 -2.0016 0.9620
-9.4076 1.0768 -2.0016 0.9620
-9.4402 0.7388 -2.0016 0.9620
-9.4688 0.0603 -2.0016 0.9620
-9.4649 -0.2793 -2.0016 0.9620
-9.4488 -0.6185 -2.0016 0.9620
-9.4205 -0.9570 -2.0016 0.9620
-9.3277 -1.6297 -2.0016 0.9620
-8.9199 -2.2274 -1.9434 0.9631
-7.8722 -3.8994 -1.8570 0.9647
-7.1749 -6.1793 -2.0016 0.9620
-6.9486 -6.4326 -2.0016 0.9620
-6.4697 -6.9141 -2.0016 0.9620
-6.2176 -7.1417 -2.0016 0.9620
-5.9575 -7.3600 -2.0016 0.9620
-4.8440 -8.1362 -2.0016 0.9620
-4.5491 -8.3047 -2.0016 0.9620
-4.2484 -8.4625 -2.0016 0.9620
-3.6309 -8.7452 -2.0016 0.9620
-2.6707 -9.0846 -2.0016 0.9620
-1.6796 -9.3189 -2.0016 0.9620
-1.3444 -9.3731 -2.0016 0.9620
-1.0074 -9.4153 -2.0016 0.9620
0.3491 -9.4626 -2.0016 0.9620
2.3618 -9.1697 -2.0016 0.9620
2.6891 -9.0792 -2.0016 0.9620
3.6486 -8.7379 -2.0016 0.9620
2.3054 -4.1886 -1.0106 0.9806
5.1487 -7.9469 -2.0016 0.9620
6.4837 -6.9010 -2.0016 0.9620
6.7270 -6.6641 -2.0016 0.9620
7.4038 -5.9031 -2.0016 0.9620
7.6107 -5.6338 -2.0016 0.9620
7.8078 -5.3573 -2.0016 0.9620
7.9949 -5.0738 -2.0016 0.9620
8.3380 -4.4877 -2.0016 0.9620
8.6382 -3.8786 -2.0016 0.9620
8.7718 -3.5663 -2.0016 0.9620
9.0048 -2.9284 -2.0016 0.9620
9.1040 -2.6037 -2.0016 0.9620
9.1915 -2.2755 -2.0016 0.9620
9.2672 -1.9444 -2.0016 0.9620
9.3310 -1.6109 -2.0016 0.9620
9.3828 -1.2752 -2.0016 0.9620
9.4598 0.4189 -2.0016 0.9620
9.3027 1.7671 -2.0016 0.9620
9.2333 2.0996 -2.0016 0.9620
9.1521 2.4294 -2.0016 0.9620
9.0591 2.7560 -2.0016 0.9620
8.5720 4.0229 -2.0016 0.9620
8.4222 4.3277 -2.0016 0.9620
8.2616 4.6270 -2.0016 0.9620
7.9087 5.2072 -2.0016 0.9620
7.7169 5.4874 -2.0016 0.9620
7.5151 5.7606 -2.0016 0.9620
7.0829 6.2845 -2.0016 0.9620
6.8530 6.5344 -2.0016 0.9620
6.6143 6.7760 -2.0016 0.9620
6.3670 7.0088 -2.0016 0.9620
6.1116 7.2326 -2.0016 0.9620
5.8483 7.4471 -2.0016 0.9620
5.2995 7.8471 -2.0016 0.9620
5.0147 8.0321 -2.0016 0.9620
4.1231 8.5242 -2.0016 0.9620
3.8114 8.6590 -1.9998 0.9621
3.4914 8.7723 -1.9957 0.9621
2.7313 8.6140 -1.9102 0.9637
1.7334 8.5756 -1.8494 0.9649
1.4247 8.6322 -1.8494 0.9649
1.1143 8.6777 -1.8494 0.9649
0.8024 8.7121 -1.8494 0.9649
0.1759 8.7472 -1.8494 0.9649
-0.1379 8.7479 -1.8494 0.9649
-0.4515 8.7373 -1.8494 0.9649
-0.7645 8.7155 -1.8494 0.9649
-1.0743 8.6640 -1.8454 0.9649
-3.2440 8.2551 -1.8749 0.9644
-3.5887 8.2501 -1.9017 0.9639
-5.2618 7.8647 -2.0002 0.9621
-5.5442 7.6762 -2.0016 0.9620
-6.0801 7.2591 -2.0016 0.9620
-6.3365 7.0364 -2.0016 0.9620
-6.5848 6.8046 -2.0016 0.9620
-7.0556 6.3152 -2.0016 0.9620
-7.2775 6.0581 -2.0016 0.9620
-7.4900 5.7932 -2.0016 0.9620
-7.8860 5.2415 -2.0016 0.9620
-8.5544 4.0601 -2.0016 0.9620
-9.1414 2.4691 -2.0016 0.9620
-9.2241 2.1397 -2.0016 0.9620
-9.3537 1.4731 -2.0016 0.9620
-9.4353 0.7989 -2.0016 0.9620
-9.4525 -0.5584 -2.0016 0.9620
-8.4568 -2.3789 -1.8570 0.9647
-8.3661 -2.6806 -1.8570 0.9647
-8.2646 -2.9789 -1.8570 0.9647
-8.1524 -3.2733 -1.8570 0.9647
-8.0298 -3.5636 -1.8570 0.9647
-7.8969 -3.8492 -1.8570 0.9647
-7.7537 -4.1299 -1.8570 0.9647
-7.6007 -4.4053 -1.8570 0.9647
-7.2140 -6.1335 -2.0016 0.9620
-6.9894 -6.3883 -2.0016 0.9620
-6.7559 -6.6348 -2.0016 0.9620
-6.0043 -7.3220 -2.0016 0.9620
-5.7378 -7.5326 -2.0016 0.9620
-5.4640 -7.7335 -2.0016 0.9620
-4.8957 -8.1052 -2.0016 0.9620
-3.6865 -8.7219 -2.0016 0.9620
-1.7389 -9.3080 -2.0016 0.9620
-1.4040 -9.3644 -2.0016 0.9620
-0.7292 -9.4409 -2.0016 0.9620
-0.0507 -9.4689 -2.0016 0.9620
0.2889 -9.4646 -2.0016 0.9620
0.6281 -9.4482 -2.0016 0.9620
1.3037 -9.3788 -2.0016 0.9620
1.6392 -9.3261 -2.0016 0.9620
2.9557 -8.9959 -2.0016 0.9620
3.2764 -8.8841 -2.0016 0.9620
2.2694 -4.1860 -1.0065 0.9807
4.8086 -8.1572 -2.0016 0.9620
5.0980 -7.9795 -2.0016 0.9620
5.3809 -7.7916 -2.0016 0.9620
6.1866 -7.1686 -2.0016 0.9620
6.4396 -6.9421 -2.0016 0.9620
6.9206 -6.4627 -2.0016 0.9620
7.1479 -6.2104 -2.0016 0.9620
7.7736 -5.4068 -2.0016 0.9620
7.9625 -5.1246 -2.0016 0.9620
8.1411 -4.8358 -2.0016 0.9620
8.9860 -2.9857 -2.0016 0.9620
9.1769 -2.3340 -2.0016 0.9620
9.2547 -2.0034 -2.0016 0.9620
9.3745 -1.3349 -2.0016 0.9620
9.4163 -0.9979 -2.0016 0.9620
9.4460 -0.6596 -2.0016 0.9620
9.4433 0.6978 -2.0016 0.9620
9.3690 1.3728 -2.0016 0.9620
9.3137 1.7079 -2.0016 0.9620
9.2465 2.0408 -2.0016 0.9620
-8.5164 0.0000 -2.0016 0.9656
-8.5110 -0.3054 -2.0016 0.9656
-8.4672 -0.9146 -2.0016 0.9656
-8.4289 -1.2177 -2.0016 0.9656
-8.3799 -1.5192 -2.0016 0.9656
-8.2494 -2.1159 -2.0016 0.9656
-7.6030 -2.2435 -1.8631 0.9680
-7.3985 -2.7736 -1.8570 0.9681
-7.2942 -3.0371 -1.8570 0.9681
-7.1806 -3.2968 -1.8570 0.9681
-7.0578 -3.5521 -1.8570 0.9681
-6.6355 -4.2896 -1.8570 0.9681
-6.4774 -4.5248 -1.8570 0.9681
-6.3110 -4.7541 -1.8570 0.9681
-5.9540 -5.1942 -1.8570 0.9681
-5.7639 -5.4044 -1.8570 0.9681
-5.5512 -6.4587 -2.0016 0.9656
-5.3160 -6.6536 -2.0016 0.9656
-4.8254 -7.0175 -2.0016 0.9656
-4.3100 -7.3453 -2.0016 0.9656
-4.0439 -7.4951 -2.0016 0.9656
-3.7725 -7.6353 -2.0016 0.9656
-3.2155 -7.8861 -2.0016 0.9656
-2.9307 -7.9963 -2.0016 0.9656
-2.6420 -8.0963 -2.0016 0.9656
-1.7573 -8.3332 -2.0016 0.9656
-0.8522 -8.4737 -2.0016 0.9656
-0.5477 -8.4988 -2.0016 0.9656
0.0628 -8.5162 -2.0016 0.9656
0.3682 -8.5085 -2.0016 0.9656
0.9770 -8.4602 -2.0016 0.9656
1.5809 -8.3684 -2.0016 0.9656
2.7612 -8.0564 -2.0016 0.9656
3.0483 -7.9522 -2.0016 0.9656
2.1636 -4.2211 -1.1148 0.9807
5.1743 -6.7644 -2.0016 0.9656
5.4135 -6.5745 -2.0016 0.9656
5.6458 -6.3761 -2.0016 0.9656
6.0883 -5.9550 -2.0016 0.9656
6.2979 -5.7329 -2.0016 0.9656
6.6926 -5.2667 -2.0016 0.9656
6.8772 -5.0234 -2.0016 0.9656
7.2195 -4.5175 -2.0016 0.9656
7.6629 -3.7161 -2.0016 0.9656
7.9096 -3.1573 -2.0016 0.9656
8.0177 -2.8716 -2.0016 0.9656
8.2029 -2.2896 -2.0016 0.9656
8.4460 -1.0932 -2.0016 0.9656
8.4798 -0.7896 -2.0016 0.9656
8.5026 -0.4850 -2.0016 0.9656
8.5155 0.1256 -2.0016 0.9656
8.5055 0.4309 -2.0016 0.9656
8.4528 1.0394 -2.0016 0.9656
8.4101 1.3419 -2.0016 0.9656
8.2173 2.2373 -2.0016 0.9656
8.1318 2.5305 -2.0016 0.9656
8.0358 2.8205 -2.0016 0.9656
7.8130 3.3892 -2.0016 0.9656
7.6864 3.6672 -2.0016 0.9656
7.4038 4.2087 -2.0016 0.9656
7.0831 4.7285 -2.0016 0.9656
6.9090 4.9795 -2.0016 0.9656
6.7260 5.2240 -2.0016 0.9656
6.1261 5.9162 -2.0016 0.9656
5.9100 6.1321 -2.0016 0.9656
5.6863 6.3400 -2.0016 0.9656
5.2172 6.7313 -2.0016 0.9656
4.9725 6.9140 -2.0016 0.9656
3.3813 7.8164 -2.0016 0.9656
2.2252 8.2054 -1.9981 0.9657
1.9273 8.2704 -1.9958 0.9657
1.6281 8.3271 -1.9941 0.9657
1.3148 8.2942 -1.9737 0.9661
0.7073 8.2549 -1.9472 0.9665
0.4093 8.2432 -1.9397 0.9667
0.1133 8.2434 -1.9376 0.9667
-0.4786 8.2429 -1.9405 0.9666
-1.0751 8.2406 -1.9531 0.9664
-1.3769 8.2387 -1.9631 0.9663
-1.6822 8.2364 -1.9757 0.9660
-2.5837 8.0917 -1.9963 0.9657
-3.1622 7.8987 -1.9996 0.9656
-3.4466 7.7875 -2.0015 0.9656
-3.9961 7.5207 -2.0016 0.9656
-4.5248 7.2150 -2.0016 0.9656
-5.0303 6.8721 -2.0016 0.9656
-5.2735 6.6873 -2.0016 0.9656
-5.7393 6.2921 -2.0016 0.9656
-6.7696 5.1675 -2.0016 0.9656
-6.9505 4.9214 -2.0016 0.9656
-7.4389 4.1465 -2.0016 0.9656
-7.7169 3.6026 -2.0016 0.9656
-8.0592 2.7530 -2.0016 0.9656
-8.1527 2.4623 -2.0016 0.9656
-8.3700 1.5725 -2.0016 0.9656
-8.5089 0.3596 -2.0016 0.9656
-8.4365 -1.1640 -2.0016 0.9656
-8.3894 -1.4658 -2.0016 0.9656
-7.5090 -2.4588 -1.8570 0.9681
-7.4160 -2.7265 -1.8570 0.9681
-7.2015 -3.2510 -1.8570 0.9681
-7.0803 -3.5071 -1.8570 0.9681
-6.9499 -3.7588 -1.8570 0.9681
-6.6627 -4.2472 -1.8570 0.9681
-6.5061 -4.4834 -1.8570 0.9681
-6.3411 -4.7139 -1.8570 0.9681
-6.1680 -4.9382 -1.8570 0.9681
-5.9869 -5.1562 -1.8570 0.9681
-5.5921 -6.4232 -2.0016 0.9656
-4.6163 -7.1568 -2.0016 0.9656
-4.3567 -7.3177 -2.0016 0.9656
-4.0915 -7.4692 -2.0016 0.9656
-1.8103 -8.3218 -2.0016 0.9656
-1.2092 -8.4302 -2.0016 0.9656
-0.9061 -8.4681 -2.0016 0.9656
-0.2968 -8.5113 -2.0016 0.9656
0.0086 -8.5164 -2.0016 0.9656
0.3140 -8.5107 -2.0016 0.9656
0.9232 -8.4663 -2.0016 0.9656
2.1242 -8.2473 -2.0016 0.9656
2.4186 -8.1658 -2.0016 0.9656
2.9976 -7.9715 -2.0016 0.9656
3.5613 -7.7361 -2.0016 0.9656
2.1495 -4.2601 -1.1214 0.9806
2.2834 -4.1486 -1.1130 0.9807
4.6308 -7.1474 -2.0016 0.9656
4.8841 -6.9768 -2.0016 0.9656
5.1311 -6.7972 -2.0016 0.9656
5.3716 -6.6088 -2.0016 0.9656
5.6051 -6.4119 -2.0016 0.9656
6.4643 -5.5446 -2.0016 0.9656
6.6590 -5.3092 -2.0016 0.9656
7.1906 -4.5634 -2.0016 0.9656
7.6391 -3.7648 -2.0016 0.9656
7.7692 -3.4884 -2.0016 0.9656
7.9993 -2.9226 -2.0016 0.9656
8.1882 -2.3417 -2.0016 0.9656
8.2669 -2.0466 -2.0016 0.9656
8.3350 -1.7488 -2.0016 0.9656
8.5161 0.0714 -2.0016 0.9656
8.5081 0.3768 -2.0016 0.9656
8.4184 1.2883 -2.0016 0.9656
8.3668 1.5894 -2.0016 0.9656
8.3045 1.8884 -2.0016 0.9656
8.1477 2.4787 -2.0016 0.9656
8.0536 2.7693 -2.0016 0.9656
7.8344 3.3394 -2.0016 0.9656
7.5749 3.8924 -2.0016 0.9656
7.1131 4.6834 -2.0016 0.9656
6.9406 4.9354 -2.0016 0.9656
6.7591 5.1811 -2.0016 0.9656
6.3704 5.6523 -2.0016 0.9656
5.4968 6.5050 -2.0016 0.9656
5.2600 6.6979 -2.0016 0.9656
5.0164 6.8823 -2.0016 0.9656
4.2483 7.3812 -2.0016 0.9656
3.9809 7.5288 -2.0016 0.9656
3.7083 7.6667 -2.0016 0.9656
3.1493 7.9128 -2.0016 0.9656
2.2778 8.1928 -1.9985 0.9657
1.9803 8.2596 -1.9962 0.9657
1.3702 8.3017 -1.9775 0.9660
1.0619 8.2701 -1.9596 0.9663
0.7605 8.2572 -1.9488 0.9665
0.4619 8.2440 -1.9406 0.9666
0.1658 8.2434 -1.9378 0.9667
-0.1299 8.2434 -1.9376 0.9667
-0.7230 8.2422 -1.9445 0.9666
-1.3231 8.2391 -1.9612 0.9663
-1.6277 8.2368 -1.9733 0.9661
-2.5318 8.1070 -1.9961 0.9657
-3.3964 7.8080 -2.0011 0.9656
-3.6750 7.6827 -2.0016 0.9656
-4.2162 7.3996 -2.0016 0.9656
-4.4788 7.2436 -2.0016 0.9656
-4.7357 7.0784 -2.0016 0.9656
-4.9865 6.9040 -2.0016 0.9656
-5.6991 6.3285 -2.0016 0.9656
-6.7366 5.2104 -2.0016 0.9656
-7.2572 4.4568 -2.0016 0.9656
-7.4123 4.1937 -2.0016 0.9656
-7.5579 3.9252 -2.0016 0.9656
-7.9358 3.0908 -2.0016 0.9656
-8.0415 2.8043 -2.0016 0.9656
-8.3598 1.6257 -2.0016 0.9656
-8.4128 1.3249 -2.0016 0.9656
-8.5064 0.4137 -2.0016 0.9656
-8.5142 -0.1970 -2.0016 0.9656
-8.2757 -2.0107 -2.0016 0.9656
-7.4332 -2.6792 -1.8570 0.9681
-7.2220 -3.2051 -1.8570 0.9681
-6.3710 -4.6734 -1.8570 0.9681
-6.1993 -4.8989 -1.8570 0.9681
-5.8322 -5.3306 -1.8570 0.9681
-5.4002 -6.5854 -2.0016 0.9656
-3.8694 -7.5867 -2.0016 0.9656
-3.5948 -7.7206 -2.0016 0.9656
-3.0322 -7.9584 -2.0016 0.9656
-0.6559 -8.4912 -2.0016 0.9656
-0.3510 -8.5092 -2.0016 0.9656
0.2598 -8.5125 -2.0016 0.9656
0.5649 -8.4977 -2.0016 0.9656
0.8693 -8.4720 -2.0016 0.9656
1.4743 -8.3879 -2.0016 0.9656
1.7741 -8.3296 -2.0016 0.9656
2.0717 -8.2606 -2.0016 0.9656
2.3665 -8.1810 -2.0016 0.9656
3.5119 -7.7586 -2.0016 0.9656
2.1494 -4.3283 -1.1358 0.9803
2.2524 -4.1547 -1.1107 0.9808
4.3249 -7.3366 -2.0016 0.9656
4.8396 -7.0077 -2.0016 0.9656
5.3294 -6.6428 -2.0016 0.9656
5.5642 -6.4474 -2.0016 0.9656
5.7918 -6.2438 -2.0016 0.9656
6.2244 -5.8126 -2.0016 0.9656
6.9916 -4.8629 -2.0016 0.9656
7.1614 -4.6091 -2.0016 0.9656
7.4734 -4.0839 -2.0016 0.9656
7.7469 -3.5378 -2.0016 0.9656
7.8687 -3.2577 -2.0016 0.9656
7.9805 -2.9734 -2.0016 0.9656
8.0820 -2.6853 -2.0016 0.9656
8.1731 -2.3938 -2.0016 0.9656
8.3829 -1.5022 -2.0016 0.9656
8.4314 -1.2006 -2.0016 0.9656
8.4690 -0.8975 -2.0016 0.9656
8.4958 -0.5932 -2.0016 0.9656
8.4933 0.6276 -2.0016 0.9656
8.4653 0.9317 -2.0016 0.9656
8.3768 1.5361 -2.0016 0.9656
-7.7305 0.0000 -2.0016 0.9686
-7.7255 -0.2772 -2.0016 0.9686
-7.5522 -1.6508 -2.0016 0.9686
-7.4144 -2.1879 -2.0016 0.9686
-6.8016 -2.2752 -1.8570 0.9708
-6.6211 -2.7569 -1.8570 0.9708
-6.4065 -3.2243 -1.8570 0.9708
-6.2867 -3.4520 -1.8570 0.9708
-6.1589 -3.6752 -1.8570 0.9708
-6.0231 -3.8937 -1.8570 0.9708
-5.8796 -4.1072 -1.8570 0.9708
-5.7285 -4.3154 -1.8570 0.9708
-5.5701 -4.5180 -1.8570 0.9708
-5.0527 -5.0901 -1.8570 0.9708
-4.8669 -5.2680 -1.8570 0.9708
-4.4768 -5.6033 -1.8570 0.9708
-4.6057 -6.2087 -2.0016 0.9686
-3.9123 -6.6674 -2.0016 0.9686
-2.6602 -7.2584 -2.0016 0.9686
-1.5951 -7.5641 -2.0016 0.9686
-1.0488 -7.6590 -2.0016 0.9686
-0.2202 -7.7273 -2.0016 0.9686
0.3342 -7.7233 -2.0016 0.9686
0.8869 -7.6794 -2.0016 0.9686
1.4350 -7.5961 -2.0016 0.9686
2.2425 -7.3981 -2.0016 0.9686
2.7670 -7.2183 -2.0016 0.9686
3.0240 -7.1145 -2.0016 0.9686
3.2772 -7.0014 -2.0016 0.9686
2.1205 -4.1369 -1.2036 0.9810
4.6968 -6.1401 -2.0016 0.9686
4.9139 -5.9677 -2.0016 0.9686
5.7167 -5.2038 -2.0016 0.9686
6.4020 -4.3330 -2.0016 0.9686
6.5533 -4.1006 -2.0016 0.9686
6.9558 -3.3731 -2.0016 0.9686
7.0722 -3.1215 -2.0016 0.9686
7.3666 -2.3439 -2.0016 0.9686
7.5757 -1.5393 -2.0016 0.9686
7.6260 -1.2666 -2.0016 0.9686
7.6972 -0.7168 -2.0016 0.9686
7.7179 -0.4403 -2.0016 0.9686
7.7288 -0.1632 -2.0016 0.9686
7.7296 0.1140 -2.0016 0.9686
7.7206 0.3911 -2.0016 0.9686
7.7016 0.6677 -2.0016 0.9686
7.6727 0.9435 -2.0016 0.9686
7.6339 1.2180 -2.0016 0.9686
7.5853 1.4910 -2.0016 0.9686
7.0920 3.0764 -2.0016 0.9686
6.8532 3.5768 -2.0016 0.9686
6.7206 3.8203 -2.0016 0.9686
6.4295 4.2922 -2.0016 0.9686
6.1053 4.7419 -2.0016 0.9686
5.9313 4.9578 -2.0016 0.9686
5.7497 5.1673 -2.0016 0.9686
5.5607 5.3702 -2.0016 0.9686
5.3646 5.5661 -2.0016 0.9686
5.1615 5.7549 -2.0016 0.9686
4.7358 6.1101 -2.0016 0.9686
4.2856 6.4338 -2.0016 0.9686
4.0522 6.5833 -2.0016 0.9686
3.8135 6.7244 -2.0016 0.9686
3.0693 7.0951 -2.0016 0.9686
2.8129 7.2006 -2.0016 0.9686
2.5528 7.2968 -2.0016 0.9686
2.2895 7.3837 -2.0016 0.9686
2.0233 7.4610 -2.0016 0.9686
1.7544 7.5288 -2.0016 0.9686
1.4833 7.5868 -2.0016 0.9686
0.6600 7.7023 -2.0016 0.9686
0.1062 7.7298 -2.0016 0.9686
-0.7245 7.6965 -2.0016 0.9686
-1.0001 7.6655 -2.0016 0.9686
-1.2743 7.6247 -2.0016 0.9686
-1.8175 7.5138 -2.0016 0.9686
-2.0858 7.4438 -2.0016 0.9686
-2.3514 7.3642 -2.0016 0.9686
-2.6140 7.2751 -2.0016 0.9686
-2.8732 7.1767 -2.0016 0.9686
-3.3802 6.9523 -2.0016 0.9686
-3.6273 6.8267 -2.0016 0.9686
-4.1073 6.5491 -2.0016 0.9686
-4.7868 6.0701 -2.0016 0.9686
-5.0014 5.8946 -2.0016 0.9686
-5.2096 5.7114 -2.0016 0.9686
-5.4111 5.5210 -2.0016 0.9686
-5.6055 5.3234 -2.0016 0.9686
-5.9727 4.9079 -2.0016 0.9686
-6.1448 4.6906 -2.0016 0.9686
-6.7524 3.7638 -2.0016 0.9686
-7.0047 3.2701 -2.0016 0.9686
-7.1175 3.0169 -2.0016 0.9686
-7.2211 2.7597 -2.0016 0.9686
-7.3154 2.4990 -2.0016 0.9686
-7.5976 1.4273 -2.0016 0.9686
-7.7236 0.3264 -2.0016 0.9686
-7.7140 -0.5050 -2.0016 0.9686
-7.6579 -1.0566 -2.0016 0.9686
-7.6151 -1.3305 -2.0016 0.9686
-7.5002 -1.8729 -2.0016 0.9686
-6.8465 -2.2419 -1.8653 0.9707
-6.7316 -2.4749 -1.8570 0.9708
-6.5369 -2.9510 -1.8570 0.9708
-6.1821 -3.6359 -1.8570 0.9708
-5.9056 -4.0697 -1.8570 0.9708
-5.5988 -4.4825 -1.8570 0.9708
-5.4344 -4.6804 -1.8570 0.9708
-5.0850 -5.0578 -1.8570 0.9708
-4.7094 -5.4093 -1.8570 0.9708
-4.6451 -6.1793 -2.0016 0.9686
-4.4205 -6.3419 -2.0016 0.9686
-4.1903 -6.4963 -2.0016 0.9686
-3.7139 -6.7799 -2.0016 0.9686
-3.2184 -7.0287 -2.0016 0.9686
-2.7063 -7.2413 -2.0016 0.9686
-0.8224 -7.6866 -2.0016 0.9686
-0.5463 -7.7112 -2.0016 0.9686
-0.2694 -7.7258 -2.0016 0.9686
0.5619 -7.7100 -2.0016 0.9686
1.1130 -7.6499 -2.0016 0.9686
1.3866 -7.6051 -2.0016 0.9686
1.6585 -7.5505 -2.0016 0.9686
2.1119 -4.1856 -1.2139 0.9808
4.2034 -6.4878 -2.0016 0.9686
4.6576 -6.1699 -2.0016 0.9686
4.8758 -5.9989 -2.0016 0.9686
5.2933 -5.6340 -2.0016 0.9686
5.6835 -5.2401 -2.0016 0.9686
6.0444 -4.8193 -2.0016 0.9686
6.3743 -4.3736 -2.0016 0.9686
6.9341 -3.4173 -2.0016 0.9686
7.0522 -3.1665 -2.0016 0.9686
7.2610 -2.6529 -2.0016 0.9686
7.6178 -1.3151 -2.0016 0.9686
7.6601 -1.0411 -2.0016 0.9686
7.6925 -0.7657 -2.0016 0.9686
7.7302 0.0648 -2.0016 0.9686
7.5947 1.4427 -2.0016 0.9686
7.4717 1.9833 -2.0016 0.9686
7.3958 2.2500 -2.0016 0.9686
7.3104 2.5137 -2.0016 0.9686
6.8759 3.5331 -2.0016 0.9686
6.4566 4.2511 -2.0016 0.9686
6.3000 4.4799 -2.0016 0.9686
6.1353 4.7030 -2.0016 0.9686
5.7825 5.1306 -2.0016 0.9686
5.5948 5.3347 -2.0016 0.9686
4.9895 5.9047 -2.0016 0.9686
4.5535 6.2471 -2.0016 0.9686
4.3265 6.4064 -2.0016 0.9686
3.6135 6.8340 -2.0016 0.9686
3.3661 6.9592 -2.0016 0.9686
3.1144 7.0754 -2.0016 0.9686
2.5992 7.2804 -2.0016 0.9686
2.3365 7.3689 -2.0016 0.9686
2.0707 7.4480 -2.0016 0.9686
1.8023 7.5175 -2.0016 0.9686
0.9846 7.6675 -2.0016 0.9686
0.7090 7.6979 -2.0016 0.9686
0.4325 7.7184 -2.0016 0.9686
-0.1218 7.7295 -2.0016 0.9686
-0.6755 7.7009 -2.0016 0.9686
-1.7697 7.5252 -2.0016 0.9686
-2.8274 7.1949 -2.0016 0.9686
-3.3358 6.9737 -2.0016 0.9686
-3.5838 6.8496 -2.0016 0.9686
-4.0655 6.5751 -2.0016 0.9686
-4.2986 6.4251 -2.0016 0.9686
-4.7481 6.1005 -2.0016 0.9686
-4.9638 5.9263 -2.0016 0.9686
-5.1731 5.7445 -2.0016 0.9686
-5.5715 5.3589 -2.0016 0.9686
-5.7601 5.1557 -2.0016 0.9686
-6.4381 4.2791 -2.0016 0.9686
-7.0982 3.0621 -2.0016 0.9686
-7.5883 1.4757 -2.0016 0.9686
-7.7214 0.3755 -2.0016 0.9686
-7.7299 0.0984 -2.0016 0.9686
-7.6234 -1.2820 -2.0016 0.9686
-7.4417 -2.0933 -2.0016 0.9686
-6.6556 -2.6723 -1.8570 0.9708
-6.5555 -2.9093 -1.8570 0.9708
-6.3301 -3.3717 -1.8570 0.9708
-6.2052 -3.5965 -1.8570 0.9708
-6.0722 -3.8167 -1.8570 0.9708
-5.6272 -4.4468 -1.8570 0.9708
-5.4641 -4.6457 -1.8570 0.9708
-5.2940 -4.8386 -1.8570 0.9708
-5.1171 -5.0254 -1.8570 0.9708
-4.5481 -5.5463 -1.8571 0.9708
-4.2316 -6.4695 -2.0016 0.9686
-3.9968 -6.6171 -2.0016 0.9686
-3.2631 -7.0081 -2.0016 0.9686
-3.0097 -7.1206 -2.0016 0.9686
-2.2275 -7.4026 -2.0016 0.9686
-1.9606 -7.4777 -2.0016 0.9686
-1.6912 -7.5432 -2.0016 0.9686
-1.4197 -7.5990 -2.0016 0.9686
-0.5953 -7.7075 -2.0016 0.9686
-0.3186 -7.7239 -2.0016 0.9686
0.2358 -7.7269 -2.0016 0.9686
0.5128 -7.7135 -2.0016 0.9686
1.0643 -7.6569 -2.0016 0.9686
1.3382 -7.6138 -2.0016 0.9686
1.6104 -7.5609 -2.0016 0.9686
2.4131 -7.3442 -2.0016 0.9686
2.9332 -7.1524 -2.0016 0.9686
3.1878 -7.0426 -2.0016 0.9686
2.1098 -4.2485 -1.2282 0.9806
4.3929 -6.3610 -2.0016 0.9686
4.6182 -6.1994 -2.0016 0.9686
4.8376 -6.0298 -2.0016 0.9686
5.0507 -5.8524 -2.0016 0.9686
5.2573 -5.6675 -2.0016 0.9686
5.8356 -5.0702 -2.0016 0.9686
6.1840 -4.6389 -2.0016 0.9686
6.3463 -4.4141 -2.0016 0.9686
7.1426 -2.9571 -2.0016 0.9686
7.3361 -2.4375 -2.0016 0.9686
7.4188 -2.1729 -2.0016 0.9686
7.4920 -1.9055 -2.0016 0.9686
7.5555 -1.6356 -2.0016 0.9686
7.6093 -1.3636 -2.0016 0.9686
7.6874 -0.8147 -2.0016 0.9686
7.7261 -0.2616 -2.0016 0.9686
7.7095 0.5697 -2.0016 0.9686
7.6841 0.8458 -2.0016 0.9686
7.6488 1.1208 -2.0016 0.9686
7.5488 1.6661 -2.0016 0.9686
-7.0703 0.0000 -2.0016 0.9710
-7.0294 -0.7593 -2.0016 0.9710
-6.9072 -1.5099 -2.0016 0.9710
-6.8487 -1.7566 -2.0016 0.9710
-6.7813 -2.0010 -2.0016 0.9710
-6.6377 -2.2204 -1.9814 0.9713
-6.1422 -2.3026 -1.8570 0.9731
-5.9613 -2.7370 -1.8570 0.9731
-5.7498 -3.1572 -1.8570 0.9731
-5.6329 -3.3614 -1.8570 0.9731
-5.5088 -3.5612 -1.8570 0.9731
-5.3775 -3.7564 -1.8570 0.9731
-5.2394 -3.9469 -1.8570 0.9731
-4.6212 -4.6554 -1.8570 0.9731
-4.4513 -4.8181 -1.8570 0.9731
-4.2757 -4.9747 -1.8570 0.9731
-3.9081 -5.2683 -1.8570 0.9731
-3.7167 -5.4051 -1.8570 0.9731
-3.5205 -5.5349 -1.8570 0.9731
-3.3572 -6.2224 -2.0016 0.9710
-3.1319 -6.3388 -2.0016 0.9710
-2.9026 -6.4471 -2.0016 0.9710
-2.6695 -6.5470 -2.0016 0.9710
-2.4330 -6.6385 -2.0016 0.9710
-2.1934 -6.7215 -2.0016 0.9710
-1.9510 -6.7958 -2.0016 0.9710
-1.7060 -6.8614 -2.0016 0.9710
-1.4589 -6.9182 -2.0016 0.9710
-0.9593 -7.0050 -2.0016 0.9710
-0.4547 -7.0557 -2.0016 0.9710
-0.2014 -7.0675 -2.0016 0.9710
0.3057 -7.0637 -2.0016 0.9710
1.0625 -6.9900 -2.0016 0.9710
2.0510 -6.7663 -2.0016 0.9710
2.5307 -6.6019 -2.0016 0.9710
2.7658 -6.5069 -2.0016 0.9710
2.2887 -4.0962 -1.3283 0.9807
3.8821 -5.9092 -2.0016 0.9710
4.0915 -5.7662 -2.0016 0.9710
4.2957 -5.6158 -2.0016 0.9710
4.4943 -5.4581 -2.0016 0.9710
5.2285 -4.7594 -2.0016 0.9710
5.9936 -3.7504 -2.0016 0.9710
6.5665 -2.6212 -2.0016 0.9710
6.8738 -1.6554 -2.0016 0.9710
6.9748 -1.1584 -2.0016 0.9710
7.0118 -0.9076 -2.0016 0.9710
7.0399 -0.6555 -2.0016 0.9710
7.0589 -0.4027 -2.0016 0.9710
7.0688 -0.1493 -2.0016 0.9710
7.0613 0.3577 -2.0016 0.9710
7.0439 0.6107 -2.0016 0.9710
6.9376 1.3637 -2.0016 0.9710
6.8842 1.6116 -2.0016 0.9710
6.8220 1.8574 -2.0016 0.9710
6.7510 2.1009 -2.0016 0.9710
6.6713 2.3416 -2.0016 0.9710
6.4863 2.8137 -2.0016 0.9710
6.3813 3.0445 -2.0016 0.9710
6.2680 3.2714 -2.0016 0.9710
6.1466 3.4940 -2.0016 0.9710
5.8804 3.9256 -2.0016 0.9710
5.4248 4.5344 -2.0016 0.9710
4.9065 5.0908 -2.0016 0.9710
4.3313 5.5883 -2.0016 0.9710
4.1282 5.7400 -2.0016 0.9710
3.9197 5.8844 -2.0016 0.9710
3.4878 6.1502 -2.0016 0.9710
3.2650 6.2713 -2.0016 0.9710
3.0381 6.3843 -2.0016 0.9710
2.5727 6.5857 -2.0016 0.9710
2.0940 6.7531 -2.0016 0.9710
1.3567 6.9390 -2.0016 0.9710
1.1070 6.9831 -2.0016 0.9710
0.6036 7.0445 -2.0016 0.9710
-1.6623 6.8721 -2.0016 0.9710
-2.8615 6.4654 -2.0016 0.9710
-3.5393 6.1207 -2.0016 0.9710
-3.7565 5.9898 -2.0016 0.9710
-3.9689 5.8513 -2.0016 0.9710
-4.3781 5.5518 -2.0016 0.9710
-4.7647 5.2237 -2.0016 0.9710
-5.1269 4.8688 -2.0016 0.9710
-5.4626 4.4888 -2.0016 0.9710
-5.9131 3.8762 -2.0016 0.9710
-6.0483 3.6616 -2.0016 0.9710
-6.1757 3.4424 -2.0016 0.9710
-6.2952 3.2187 -2.0016 0.9710
-6.4066 2.9909 -2.0016 0.9710
-6.5097 2.7592 -2.0016 0.9710
-6.8373 1.8001 -2.0016 0.9710
-6.9488 1.3055 -2.0016 0.9710
-6.9911 1.0554 -2.0016 0.9710
-7.0245 0.8040 -2.0016 0.9710
-7.0640 0.2985 -2.0016 0.9710
-7.0552 -0.4619 -2.0016 0.9710
-7.0040 -0.9664 -2.0016 0.9710
-6.8597 -1.7130 -2.0016 0.9710
-6.7193 -2.2002 -2.0016 0.9710
-6.0716 -2.4828 -1.8570 0.9731
-5.9786 -2.6990 -1.8570 0.9731
-5.8780 -2.9116 -1.8570 0.9731
-5.7698 -3.1205 -1.8570 0.9731
-5.6542 -3.3254 -1.8570 0.9731
-5.5313 -3.5261 -1.8570 0.9731
-5.1206 -4.0997 -1.8570 0.9731
-4.8136 -4.4562 -1.8570 0.9731
-4.6507 -4.6259 -1.8570 0.9731
-4.4819 -4.7897 -1.8570 0.9731
-4.1270 -5.0986 -1.8570 0.9731
-3.5556 -5.5124 -1.8570 0.9731
-3.1722 -6.3188 -2.0016 0.9710
-2.4752 -6.6229 -2.0016 0.9710
-2.2361 -6.7074 -2.0016 0.9710
-1.7497 -6.8504 -2.0016 0.9710
-1.0038 -6.9987 -2.0016 0.9710
-0.7522 -7.0302 -2.0016 0.9710
-0.4996 -7.0527 -2.0016 0.9710
-0.2464 -7.0660 -2.0016 0.9710
0.5139 -7.0516 -2.0016 0.9710
0.7664 -7.0287 -2.0016 0.9710
1.2682 -6.9557 -2.0016 0.9710
1.5168 -6.9057 -2.0016 0.9710
1.7635 -6.8469 -2.0016 0.9710
2.0079 -6.7792 -2.0016 0.9710
2.2497 -6.7029 -2.0016 0.9710
2.4886 -6.6179 -2.0016 0.9710
2.9565 -6.4225 -2.0016 0.9710
2.0982 -4.1585 -1.3186 0.9808
2.2548 -4.0967 -1.3238 0.9807
4.0548 -5.7921 -2.0016 0.9710
4.2599 -5.6430 -2.0016 0.9710
4.4595 -5.4866 -2.0016 0.9710
4.6533 -5.3231 -2.0016 0.9710
5.0229 -4.9759 -2.0016 0.9710
5.3666 -4.6031 -2.0016 0.9710
5.5283 -4.4077 -2.0016 0.9710
5.9696 -3.7885 -2.0016 0.9710
6.1017 -3.5720 -2.0016 0.9710
6.3420 -3.1255 -2.0016 0.9710
6.4500 -2.8961 -2.0016 0.9710
6.5497 -2.6629 -2.0016 0.9710
6.6410 -2.4263 -2.0016 0.9710
6.7237 -2.1866 -2.0016 0.9710
6.7978 -1.9441 -2.0016 0.9710
6.9197 -1.4519 -2.0016 0.9710
6.9673 -1.2028 -2.0016 0.9710
7.0059 -0.9522 -2.0016 0.9710
7.0356 -0.7003 -2.0016 0.9710
7.0677 -0.1943 -2.0016 0.9710
7.0701 0.0593 -2.0016 0.9710
7.0634 0.3128 -2.0016 0.9710
7.0477 0.5659 -2.0016 0.9710
7.0228 0.8182 -2.0016 0.9710
6.9890 1.0696 -2.0016 0.9710
6.9461 1.3195 -2.0016 0.9710
6.8943 1.5677 -2.0016 0.9710
6.8337 1.8139 -2.0016 0.9710
6.6861 2.2991 -2.0016 0.9710
6.5041 2.7724 -2.0016 0.9710
6.0409 3.6738 -2.0016 0.9710
5.6114 4.3014 -2.0016 0.9710
5.2887 4.6925 -2.0016 0.9710
5.1170 4.8791 -2.0016 0.9710
4.9388 5.0595 -2.0016 0.9710
4.7541 5.2333 -2.0016 0.9710
4.5634 5.4004 -2.0016 0.9710
4.3668 5.5606 -2.0016 0.9710
4.1646 5.7136 -2.0016 0.9710
3.9570 5.8593 -2.0016 0.9710
3.7444 5.9974 -2.0016 0.9710
2.8484 6.4712 -2.0016 0.9710
2.6145 6.5692 -2.0016 0.9710
2.1370 6.7397 -2.0016 0.9710
1.8939 6.8120 -2.0016 0.9710
1.6484 6.8755 -2.0016 0.9710
1.4008 6.9302 -2.0016 0.9710
1.1514 6.9759 -2.0016 0.9710
-0.3649 7.0609 -2.0016 0.9710
-0.8700 7.0166 -2.0016 0.9710
-1.8643 6.8201 -2.0016 0.9710
-2.1077 6.7489 -2.0016 0.9710
-3.2777 6.2647 -2.0016 0.9710
-3.7183 6.0136 -2.0016 0.9710
-4.1398 5.7317 -2.0016 0.9710
-4.3426 5.5795 -2.0016 0.9710
-4.7314 5.2539 -2.0016 0.9710
-5.2682 4.7154 -2.0016 0.9710
-5.4339 4.5235 -2.0016 0.9710
-5.5927 4.3257 -2.0016 0.9710
-5.8883 3.9137 -2.0016 0.9710
-6.2746 3.2587 -2.0016 0.9710
-6.4920 2.8006 -2.0016 0.9710
-6.7552 2.0872 -2.0016 0.9710
-6.8257 1.8436 -2.0016 0.9710
-6.9403 1.3496 -2.0016 0.9710
-7.0192 0.8487 -2.0016 0.9710
-7.0451 0.5965 -2.0016 0.9710
-7.0684 -0.1636 -2.0016 0.9710
-7.0580 -0.4169 -2.0016 0.9710
-7.0385 -0.6698 -2.0016 0.9710
-6.9724 -1.1725 -2.0016 0.9710
-6.8704 -1.6693 -2.0016 0.9710
-6.8062 -1.9146 -2.0016 0.9710
-6.7331 -2.1574 -2.0016 0.9710
-5.9957 -2.6609 -1.8570 0.9731
-5.6753 -3.2894 -1.8570 0.9731
-5.4249 -3.6877 -1.8570 0.9731
-4.8419 -4.4254 -1.8570 0.9731
-4.3386 -4.9198 -1.8570 0.9731
-3.9749 -5.2181 -1.8570 0.9731
-3.5906 -5.4896 -1.8570 0.9731
-3.4361 -6.1792 -2.0016 0.9710
-2.9844 -6.4096 -2.0016 0.9710
-2.2788 -6.6930 -2.0016 0.9710
-2.0373 -6.7704 -2.0016 0.9710
-1.7932 -6.8391 -2.0016 0.9710
-1.5468 -6.8991 -2.0016 0.9710
-1.0484 -6.9922 -2.0016 0.9710
-0.5445 -7.0493 -2.0016 0.9710
-0.2914 -7.0643 -2.0016 0.9710
0.2157 -7.0670 -2.0016 0.9710
0.7217 -7.0334 -2.0016 0.9710
1.2239 -6.9636 -2.0016 0.9710
1.4728 -6.9152 -2.0016 0.9710
2.4464 -6.6336 -2.0016 0.9710
2.0960 -4.2207 -1.3341 0.9806
2.4138 -4.0947 -1.3456 0.9804
3.8066 -5.9581 -2.0016 0.9710
4.0178 -5.8178 -2.0016 0.9710
4.4245 -5.5149 -2.0016 0.9710
4.8083 -5.1836 -2.0016 0.9710
5.1675 -4.8256 -2.0016 0.9710
5.3372 -4.6372 -2.0016 0.9710
5.8044 -4.0372 -2.0016 0.9710
5.9454 -3.8264 -2.0016 0.9710
6.0788 -3.6108 -2.0016 0.9710
6.4314 -2.9371 -2.0016 0.9710
6.6254 -2.4685 -2.0016 0.9710
6.7097 -2.2294 -2.0016 0.9710
6.8522 -1.7427 -2.0016 0.9710
6.9595 -1.2471 -2.0016 0.9710
6.9997 -0.9968 -2.0016 0.9710
7.0310 -0.7451 -2.0016 0.9710
7.0532 -0.4925 -2.0016 0.9710
7.0663 -0.2393 -2.0016 0.9710
7.0703 0.0143 -2.0016 0.9710
7.0653 0.2678 -2.0016 0.9710
6.9544 1.2753 -2.0016 0.9710
6.9042 1.5238 -2.0016 0.9710
-6.4907 -0.4664 -2.0016 0.9731
-6.4698 -0.6989 -2.0016 0.9731
-6.4031 -1.1608 -2.0016 0.9731
-6.3574 -1.3897 -2.0016 0.9731
-6.2414 -1.8417 -2.0016 0.9731
-6.1714 -2.0644 -2.0016 0.9731
-5.4868 -2.5191 -1.8570 0.9751
-4.8223 -3.6327 -1.8570 0.9751
-4.5495 -3.9689 -1.8570 0.9751
-4.0969 -4.4346 -1.8570 0.9751
-3.9353 -4.5786 -1.8570 0.9751
-3.7686 -4.7168 -1.8570 0.9751
-3.5970 -4.8489 -1.8570 0.9751
-3.2402 -5.0943 -1.8570 0.9751
-3.0554 -5.2072 -1.8570 0.9751
-2.8667 -5.3134 -1.8570 0.9751
-2.4785 -5.5052 -1.8570 0.9751
-2.2795 -5.5905 -1.8570 0.9751
-2.0776 -5.6687 -1.8570 0.9751
-2.0188 -6.1864 -2.0016 0.9731
-1.7956 -6.2548 -2.0016 0.9731
-0.4185 -6.4940 -2.0016 0.9731
-0.1854 -6.5048 -2.0016 0.9731
0.0480 -6.5073 -2.0016 0.9731
0.2813 -6.5014 -2.0016 0.9731
0.5143 -6.4871 -2.0016 0.9731
1.4365 -6.3469 -2.0016 0.9731
2.1098 -6.1560 -2.0016 0.9731
2.3292 -6.0763 -2.0016 0.9731
2.2806 -4.0817 -1.4381 0.9806
3.3758 -5.5634 -2.0016 0.9731
3.5731 -5.4388 -2.0016 0.9731
4.1365 -5.0236 -2.0016 0.9731
4.4859 -4.7142 -2.0016 0.9731
5.1139 -4.0244 -2.0016 0.9731
5.5165 -3.4519 -2.0016 0.9731
5.7497 -3.0476 -2.0016 0.9731
5.9534 -2.6277 -2.0016 0.9731
6.1264 -2.1942 -2.0016 0.9731
6.2679 -1.7495 -2.0016 0.9731
6.3772 -1.2957 -2.0016 0.9731
6.4195 -1.0662 -2.0016 0.9731
6.4794 -0.6034 -2.0016 0.9731
6.5060 -0.1374 -2.0016 0.9731
6.4992 0.3293 -2.0016 0.9731
6.4832 0.5621 -2.0016 0.9731
6.4262 1.0253 -2.0016 0.9731
6.3853 1.2551 -2.0016 0.9731
6.2789 1.7095 -2.0016 0.9731
6.1402 2.1552 -2.0016 0.9731
5.8733 2.8021 -2.0016 0.9731
5.7690 3.0110 -2.0016 0.9731
5.2792 3.8049 -2.0016 0.9731
5.1394 3.9917 -2.0016 0.9731
4.8401 4.3498 -2.0016 0.9731
4.6810 4.5206 -2.0016 0.9731
4.3449 4.8445 -2.0016 0.9731
4.1684 4.9972 -2.0016 0.9731
3.9865 5.1434 -2.0016 0.9731
3.7995 5.2831 -2.0016 0.9731
3.6076 5.4159 -2.0016 0.9731
3.0051 5.7720 -2.0016 0.9731
2.7962 5.8761 -2.0016 0.9731
2.3679 6.0614 -2.0016 0.9731
2.1490 6.1424 -2.0016 0.9731
1.7032 6.2806 -2.0016 0.9731
1.4769 6.3377 -2.0016 0.9731
1.2487 6.3866 -2.0016 0.9731
1.0188 6.4272 -2.0016 0.9731
0.7877 6.4596 -2.0016 0.9731
0.5556 6.4837 -2.0016 0.9731
0.0894 6.5069 -2.0016 0.9731
-1.3022 6.3759 -2.0016 0.9731
-1.7558 6.2661 -2.0016 0.9731
-1.9794 6.1991 -2.0016 0.9731
-2.2004 6.1242 -2.0016 0.9731
-3.2575 5.6334 -2.0016 0.9731
-3.4574 5.5130 -2.0016 0.9731
-4.0295 5.1098 -2.0016 0.9731
-4.2102 4.9620 -2.0016 0.9731
-4.3854 4.8079 -2.0016 0.9731
-4.5550 4.6475 -2.0016 0.9731
-5.1727 3.9485 -2.0016 0.9731
-5.3110 3.7605 -2.0016 0.9731
-5.6841 3.1683 -2.0016 0.9731
-5.8966 2.7528 -2.0016 0.9731
-5.9915 2.5396 -2.0016 0.9731
-6.1581 2.1036 -2.0016 0.9731
-6.2296 1.8814 -2.0016 0.9731
-6.2930 1.6568 -2.0016 0.9731
-6.3484 1.4301 -2.0016 0.9731
-6.3956 1.2015 -2.0016 0.9731
-6.4653 0.7400 -2.0016 0.9731
-6.5017 0.2747 -2.0016 0.9731
-6.5073 0.0414 -2.0016 0.9731
-6.4936 -0.4251 -2.0016 0.9731
-6.4742 -0.6577 -2.0016 0.9731
-6.4464 -0.8894 -2.0016 0.9731
-6.2530 -1.8020 -2.0016 0.9731
-6.1844 -2.0251 -2.0016 0.9731
-6.0404 -2.2207 -1.9795 0.9734
-5.4101 -2.6798 -1.8570 0.9751
-5.3105 -2.8721 -1.8570 0.9751
-5.0910 -3.2454 -1.8570 0.9751
-4.9713 -3.4258 -1.8570 0.9751
-4.8453 -3.6019 -1.8570 0.9751
-4.7130 -3.7733 -1.8570 0.9751
-4.4304 -4.1014 -1.8570 0.9751
-3.9643 -4.5535 -1.8570 0.9751
-3.7985 -4.6927 -1.8570 0.9751
-3.4524 -4.9529 -1.8570 0.9751
-3.0885 -5.1876 -1.8570 0.9751
-2.9005 -5.2950 -1.8570 0.9751
-2.7088 -5.3957 -1.8570 0.9751
-1.8354 -6.2433 -2.0016 0.9731
-1.3832 -6.3588 -2.0016 0.9731
-0.9239 -6.4416 -2.0016 0.9731
-0.2268 -6.5035 -2.0016 0.9731
0.2399 -6.5031 -2.0016 0.9731
0.4730 -6.4903 -2.0016 0.9731
1.1673 -6.4019 -2.0016 0.9731
1.3961 -6.3560 -2.0016 0.9731
1.8481 -6.2396 -2.0016 0.9731
2.0706 -6.1693 -2.0016 0.9731
2.2905 -6.0910 -2.0016 0.9731
2.5246 -5.4842 -1.8570 0.9751
2.0863 -4.1348 -1.4245 0.9808
2.2469 -4.0823 -1.4332 0.9807
2.4427 -4.0841 -1.4637 0.9803
3.5384 -5.4614 -2.0016 0.9731
3.7320 -5.3310 -2.0016 0.9731
4.1045 -5.0498 -2.0016 0.9731
4.6230 -4.5798 -2.0016 0.9731
4.7843 -4.4111 -2.0016 0.9731
4.9394 -4.2367 -2.0016 0.9731
5.0882 -4.0568 -2.0016 0.9731
5.3658 -3.6817 -2.0016 0.9731
5.6159 -3.2877 -2.0016 0.9731
5.7302 -3.0842 -2.0016 0.9731
5.8371 -2.8767 -2.0016 0.9731
5.9365 -2.6655 -2.0016 0.9731
6.0283 -2.4509 -2.0016 0.9731
6.1123 -2.2332 -2.0016 0.9731
6.1885 -2.0125 -2.0016 0.9731
6.2566 -1.7893 -2.0016 0.9731
6.3688 -1.3363 -2.0016 0.9731
6.4126 -1.1071 -2.0016 0.9731
6.4482 -0.8764 -2.0016 0.9731
6.5050 -0.1788 -2.0016 0.9731
6.5073 0.0546 -2.0016 0.9731
6.5011 0.2879 -2.0016 0.9731
6.4326 0.9844 -2.0016 0.9731
6.3931 1.2144 -2.0016 0.9731
6.3455 1.4429 -2.0016 0.9731
6.1538 2.1160 -2.0016 0.9731
6.0740 2.3354 -2.0016 0.9731
5.9863 2.5517 -2.0016 0.9731
5.8910 2.7647 -2.0016 0.9731
5.6777 3.1798 -2.0016 0.9731
5.4352 3.5786 -2.0016 0.9731
5.3033 3.7712 -2.0016 0.9731
5.1647 3.9589 -2.0016 0.9731
4.5456 4.6567 -2.0016 0.9731
4.3757 4.8167 -2.0016 0.9731
4.0192 5.1179 -2.0016 0.9731
3.4463 5.5200 -2.0016 0.9731
1.9669 6.2031 -2.0016 0.9731
1.7431 6.2697 -2.0016 0.9731
1.2893 6.3785 -2.0016 0.9731
0.5968 6.4801 -2.0016 0.9731
0.3641 6.4973 -2.0016 0.9731
-0.1026 6.5067 -2.0016 0.9731
-0.3358 6.4988 -2.0016 0.9731
-0.8008 6.4580 -2.0016 0.9731
-1.0318 6.4252 -2.0016 0.9731
-1.7159 6.2772 -2.0016 0.9731
-1.9399 6.2116 -2.0016 0.9731
-2.8081 5.8704 -2.0016 0.9731
-3.0168 5.7660 -2.0016 0.9731
-3.2216 5.6541 -2.0016 0.9731
-3.4223 5.5349 -2.0016 0.9731
-3.6186 5.4086 -2.0016 0.9731
-3.9969 5.1354 -2.0016 0.9731
-4.3547 4.8357 -2.0016 0.9731
-4.5253 4.6764 -2.0016 0.9731
-5.0014 4.1634 -2.0016 0.9731
-5.1475 3.9813 -2.0016 0.9731
-5.2869 3.7942 -2.0016 0.9731
-5.4196 3.6022 -2.0016 0.9731
-5.7751 2.9993 -2.0016 0.9731
-5.8789 2.7903 -2.0016 0.9731
-6.0638 2.3617 -2.0016 0.9731
-6.2175 1.9210 -2.0016 0.9731
-6.2823 1.6969 -2.0016 0.9731
-6.3392 1.4705 -2.0016 0.9731
-6.4283 1.0123 -2.0016 0.9731
-6.4604 0.7812 -2.0016 0.9731
-6.4843 0.5490 -2.0016 0.9731
-6.4174 -1.0792 -2.0016 0.9731
-6.3745 -1.3086 -2.0016 0.9731
-6.2644 -1.7621 -2.0016 0.9731
-6.1971 -1.9857 -2.0016 0.9731
-6.1219 -2.2066 -2.0016 0.9731
-5.4270 -2.6453 -1.8570 0.9751
-5.2235 -3.0275 -1.8570 0.9751
-5.1115 -3.2129 -1.8570 0.9751
-4.5996 -3.9107 -1.8570 0.9751
-4.3075 -4.2303 -1.8570 0.9751
-3.9932 -4.5282 -1.8570 0.9751
-3.8283 -4.6685 -1.8570 0.9751
-3.6584 -4.8027 -1.8570 0.9751
-3.3048 -5.0526 -1.8570 0.9751
-3.1215 -5.1679 -1.8570 0.9751
-1.8751 -6.2315 -2.0016 0.9731
-1.6505 -6.2947 -2.0016 0.9731
-0.9649 -6.4355 -2.0016 0.9731
-0.7335 -6.4660 -2.0016 0.9731
0.1985 -6.5045 -2.0016 0.9731
0.6642 -6.4735 -2.0016 0.9731
1.1265 -6.4092 -2.0016 0.9731
1.3556 -6.3647 -2.0016 0.9731
1.5830 -6.3120 -2.0016 0.9731
2.0313 -6.1823 -2.0016 0.9731
2.4897 -5.5002 -1.8570 0.9751
2.0822 -4.1928 -1.4399 0.9806
2.4049 -4.0796 -1.4566 0.9804
3.5036 -5.4838 -2.0016 0.9731
3.8876 -5.2186 -2.0016 0.9731
4.0722 -5.0758 -2.0016 0.9731
4.2516 -4.9265 -2.0016 0.9731
4.7561 -4.4414 -2.0016 0.9731
5.3423 -3.7158 -2.0016 0.9731
5.4721 -3.5218 -2.0016 0.9731
5.5949 -3.3233 -2.0016 0.9731
5.8187 -2.9138 -2.0016 0.9731
6.0980 -2.2720 -2.0016 0.9731
6.1755 -2.0519 -2.0016 0.9731
6.2451 -1.8291 -2.0016 0.9731
6.3067 -1.6040 -2.0016 0.9731
6.3602 -1.3768 -2.0016 0.9731
6.4054 -1.1478 -2.0016 0.9731
6.4425 -0.9174 -2.0016 0.9731
6.4712 -0.6858 -2.0016 0.9731
6.4917 -0.4533 -2.0016 0.9731
6.5075 0.0132 -2.0016 0.9731
6.4898 0.4795 -2.0016 0.9731
6.4008 1.1737 -2.0016 0.9731
6.3545 1.4025 -2.0016 0.9731
-6.0176 -0.2159 -2.0016 0.9749
-5.9866 -0.6467 -2.0016 0.9749
-5.9596 -0.8609 -2.0016 0.9749
-5.8825 -1.2859 -2.0016 0.9749
-5.7104 -1.9102 -2.0016 0.9749
-5.6383 -2.1137 -2.0016 0.9749
-5.3561 -2.2302 -1.9286 0.9758
-4.8969 -2.6888 -1.8570 0.9767
-4.7973 -2.8627 -1.8570 0.9767
-4.3387 -3.5192 -1.8570 0.9767
-4.2097 -3.6725 -1.8570 0.9767
-3.9356 -3.9648 -1.8570 0.9767
-3.6414 -4.2367 -1.8570 0.9767
-3.4871 -4.3645 -1.8570 0.9767
-3.3283 -4.4868 -1.8570 0.9767
-3.1653 -4.6032 -1.8570 0.9767
-2.8272 -4.8183 -1.8570 0.9767
-2.6526 -4.9165 -1.8570 0.9767
-2.2934 -5.0940 -1.8570 0.9767
-2.1093 -5.1730 -1.8570 0.9767
-1.5415 -5.3696 -1.8570 0.9767
-1.3480 -5.4214 -1.8570 0.9767
-0.5590 -5.5585 -1.8570 0.9767
-0.3593 -5.5749 -1.8570 0.9767
0.0412 -5.5863 -1.8570 0.9767
0.2415 -5.5813 -1.8570 0.9767
0.4415 -5.5690 -1.8570 0.9767
0.8395 -5.5230 -1.8570 0.9767
1.2332 -5.4487 -1.8570 0.9767
1.4278 -5.4009 -1.8570 0.9767
1.6206 -5.3463 -1.8570 0.9767
1.9996 -5.2164 -1.8570 0.9767
2.1853 -5.1413 -1.8570 0.9767
2.0587 -4.3982 -1.6142 0.9797
2.0945 -4.0862 -1.5263 0.9808
2.2725 -4.0672 -1.5487 0.9806
3.0674 -4.6690 -1.8570 0.9767
3.9918 -4.5081 -2.0016 0.9749
4.1509 -4.3621 -2.0016 0.9749
4.3046 -4.2104 -2.0016 0.9749
4.4529 -4.0534 -2.0016 0.9749
4.5954 -3.8911 -2.0016 0.9749
4.9867 -3.3751 -2.0016 0.9749
5.1045 -3.1941 -2.0016 0.9749
5.4180 -2.6274 -2.0016 0.9749
5.5087 -2.4314 -2.0016 0.9749
5.7380 -1.8257 -2.0016 0.9749
5.7998 -1.6188 -2.0016 0.9749
5.8541 -1.4098 -2.0016 0.9749
5.9009 -1.1990 -2.0016 0.9749
5.9401 -0.9866 -2.0016 0.9749
5.9716 -0.7729 -2.0016 0.9749
6.0208 0.0888 -2.0016 0.9749
5.9989 0.5201 -2.0016 0.9749
5.9764 0.7349 -2.0016 0.9749
5.9084 1.1614 -2.0016 0.9749
5.8629 1.3725 -2.0016 0.9749
5.7495 1.7892 -2.0016 0.9749
5.5241 2.3963 -2.0016 0.9749
5.4346 2.5929 -2.0016 0.9749
5.3381 2.7861 -2.0016 0.9749
5.2348 2.9757 -2.0016 0.9749
5.1247 3.1615 -2.0016 0.9749
5.0080 3.3432 -2.0016 0.9749
4.8849 3.5207 -2.0016 0.9749
4.7555 3.6936 -2.0016 0.9749
4.6200 3.8618 -2.0016 0.9749
4.4786 4.0249 -2.0016 0.9749
4.1786 4.3356 -2.0016 0.9749
3.5157 4.8885 -2.0016 0.9749
3.3382 5.0114 -2.0016 0.9749
2.7807 5.3409 -2.0016 0.9749
2.5874 5.4372 -2.0016 0.9749
2.1910 5.6087 -2.0016 0.9749
1.7834 5.7513 -2.0016 0.9749
1.1554 5.9096 -2.0016 0.9749
0.9427 5.9472 -2.0016 0.9749
0.7289 5.9772 -2.0016 0.9749
0.0827 6.0209 -2.0016 0.9749
-0.7790 5.9708 -2.0016 0.9749
-0.9926 5.9391 -2.0016 0.9749
-1.2049 5.8997 -2.0016 0.9749
-1.4157 5.8527 -2.0016 0.9749
-1.6247 5.7981 -2.0016 0.9749
-2.0361 5.6668 -2.0016 0.9749
-2.2380 5.5901 -2.0016 0.9749
-2.6329 5.4153 -2.0016 0.9749
-3.0142 5.2127 -2.0016 0.9749
-3.1992 5.1012 -2.0016 0.9749
-3.3801 4.9832 -2.0016 0.9749
-3.5566 4.8588 -2.0016 0.9749
-3.8957 4.5914 -2.0016 0.9749
-4.0579 4.4488 -2.0016 0.9749
-4.6522 3.8229 -2.0016 0.9749
-4.7863 3.6536 -2.0016 0.9749
-5.2596 2.9317 -2.0016 0.9749
-5.3613 2.7412 -2.0016 0.9749
-5.5440 2.3499 -2.0016 0.9749
-5.9540 0.8989 -2.0016 0.9749
-6.0031 0.4698 -2.0016 0.9749
-6.0213 0.0383 -2.0016 0.9749
-6.0188 -0.1776 -2.0016 0.9749
-6.0086 -0.3933 -2.0016 0.9749
-5.9906 -0.6086 -2.0016 0.9749
-5.8420 -1.4588 -2.0016 0.9749
-5.6516 -2.0778 -2.0016 0.9749
-5.4420 -2.2254 -1.9544 0.9755
-5.0917 -2.2986 -1.8570 0.9767
-5.0060 -2.4797 -1.8570 0.9767
-4.9139 -2.6576 -1.8570 0.9767
-4.8154 -2.8321 -1.8570 0.9767
-4.4834 -3.3329 -1.8570 0.9767
-4.2330 -3.6456 -1.8570 0.9767
-4.0995 -3.7951 -1.8570 0.9767
-3.9608 -3.9397 -1.8570 0.9767
-3.6682 -4.2134 -1.8570 0.9767
-3.5148 -4.3422 -1.8570 0.9767
-3.1945 -4.5830 -1.8570 0.9767
-2.8578 -4.8002 -1.8570 0.9767
-2.6839 -4.8996 -1.8570 0.9767
-2.5064 -4.9927 -1.8570 0.9767
-2.1422 -5.1595 -1.8570 0.9767
-1.7669 -5.2997 -1.8570 0.9767
-1.5757 -5.3597 -1.8570 0.9767
-1.3825 -5.4127 -1.8570 0.9767
-0.7932 -5.5299 -1.8570 0.9767
-0.5944 -5.5548 -1.8570 0.9767
-0.3948 -5.5725 -1.8570 0.9767
0.0056 -5.5865 -1.8570 0.9767
0.2060 -5.5827 -1.8570 0.9767
0.4060 -5.5717 -1.8570 0.9767
1.0021 -5.4959 -1.8570 0.9767
1.3934 -5.4099 -1.8570 0.9767
1.5865 -5.3565 -1.8570 0.9767
1.7776 -5.2961 -1.8570 0.9767
1.9663 -5.2290 -1.8570 0.9767
2.0578 -4.4701 -1.6358 0.9795
2.0754 -4.1133 -1.5315 0.9808
2.4309 -4.0643 -1.5742 0.9802
3.0376 -4.6885 -1.8570 0.9767
3.2038 -4.5765 -1.8570 0.9767
3.3658 -4.4587 -1.8570 0.9767
3.7979 -4.6727 -2.0016 0.9749
4.4270 -4.0816 -2.0016 0.9749
4.5705 -3.9202 -2.0016 0.9749
4.8397 -3.5826 -2.0016 0.9749
4.9651 -3.4067 -2.0016 0.9749
5.4011 -2.6618 -2.0016 0.9749
5.7262 -1.8622 -2.0016 0.9749
5.7893 -1.6557 -2.0016 0.9749
6.0094 -0.3812 -2.0016 0.9749
6.0192 -0.1655 -2.0016 0.9749
5.9810 0.6969 -2.0016 0.9749
5.9521 0.9109 -2.0016 0.9749
5.9157 1.1237 -2.0016 0.9749
5.8715 1.3352 -2.0016 0.9749
5.7608 1.7526 -2.0016 0.9749
5.6942 1.9580 -2.0016 0.9749
5.4510 2.5582 -2.0016 0.9749
5.2536 2.9423 -2.0016 0.9749
5.1447 3.1288 -2.0016 0.9749
4.9072 3.4895 -2.0016 0.9749
4.7790 3.6632 -2.0016 0.9749
4.6445 3.8323 -2.0016 0.9749
4.5041 3.9964 -2.0016 0.9749
4.3579 4.1553 -2.0016 0.9749
3.8864 4.5993 -2.0016 0.9749
3.7190 4.7357 -2.0016 0.9749
3.5468 4.8660 -2.0016 0.9749
3.1889 5.1077 -2.0016 0.9749
3.0037 5.2188 -2.0016 0.9749
2.4258 5.5112 -2.0016 0.9749
2.2267 5.5946 -2.0016 0.9749
2.0246 5.6709 -2.0016 0.9749
1.8199 5.7398 -2.0016 0.9749
1.6129 5.8014 -2.0016 0.9749
1.4039 5.8555 -2.0016 0.9749
0.9806 5.9411 -2.0016 0.9749
0.3369 6.0120 -2.0016 0.9749
0.1211 6.0202 -2.0016 0.9749
-0.3107 6.0134 -2.0016 0.9749
-0.5262 5.9984 -2.0016 0.9749
-0.7410 5.9757 -2.0016 0.9749
-0.9548 5.9453 -2.0016 0.9749
-1.1673 5.9072 -2.0016 0.9749
-2.2023 5.6042 -2.0016 0.9749
-2.4019 5.5217 -2.0016 0.9749
-2.9810 5.2318 -2.0016 0.9749
-3.1667 5.1215 -2.0016 0.9749
-3.5256 4.8814 -2.0016 0.9749
-4.1873 4.3271 -2.0016 0.9749
-4.3398 4.1742 -2.0016 0.9749
-4.4867 4.0159 -2.0016 0.9749
-4.6278 3.8524 -2.0016 0.9749
-4.7630 3.6840 -2.0016 0.9749
-5.0148 3.3331 -2.0016 0.9749
-5.3437 2.7753 -2.0016 0.9749
-5.4398 2.5819 -2.0016 0.9749
-5.5289 2.3851 -2.0016 0.9749
-5.6109 2.1853 -2.0016 0.9749
-5.9107 1.1494 -2.0016 0.9749
-6.0000 0.5080 -2.0016 0.9749
-6.0209 0.0767 -2.0016 0.9749
-6.0110 -0.3551 -2.0016 0.9749
-5.9944 -0.5704 -2.0016 0.9749
-5.9701 -0.7850 -2.0016 0.9749
-5.8512 -1.4216 -2.0016 0.9749
-5.7965 -1.6305 -2.0016 0.9749
-5.5302 -2.2205 -1.9809 0.9752
-5.0217 -2.4478 -1.8570 0.9767
-4.7298 -2.9729 -1.8570 0.9767
-4.2561 -3.6186 -1.8570 0.9767
-4.1236 -3.7689 -1.8570 0.9767
-3.9858 -3.9144 -1.8570 0.9767
-3.8429 -4.0548 -1.8570 0.9767
-3.6950 -4.1900 -1.8570 0.9767
-3.5424 -4.3198 -1.8570 0.9767
-3.3852 -4.4440 -1.8570 0.9767
-3.0580 -4.6752 -1.8570 0.9767
-2.7150 -4.8824 -1.8570 0.9767
-1.8005 -5.2884 -1.8570 0.9767
-1.0259 -5.4915 -1.8570 0.9767
-0.2302 -5.5817 -1.8570 0.9767
-0.0299 -5.5864 -1.8570 0.9767
0.9671 -5.5021 -1.8570 0.9767
1.1637 -5.4639 -1.8570 0.9767
1.3589 -5.4187 -1.8570 0.9767
1.5524 -5.3665 -1.8570 0.9767
1.9330 -5.2414 -1.8570 0.9767
2.0377 -4.5016 -1.6425 0.9794
2.0683 -4.1650 -1.5458 0.9806
2.2056 -4.0684 -1.5383 0.9807
2.3963 -4.0649 -1.5685 0.9803
3.0077 -4.7077 -1.8570 0.9767
3.4959 -4.3575 -1.8570 0.9767
4.0950 -4.4146 -2.0016 0.9749
4.2507 -4.2649 -2.0016 0.9749
4.5454 -3.9493 -2.0016 0.9749
4.9433 -3.4383 -2.0016 0.9749
5.1770 -3.0751 -2.0016 0.9749
5.2839 -2.8875 -2.0016 0.9749
5.3841 -2.6961 -2.0016 0.9749
5.5635 -2.3033 -2.0016 0.9749
5.7787 -1.6925 -2.0016 0.9749
5.8357 -1.4842 -2.0016 0.9749
5.9613 -0.8489 -2.0016 0.9749
5.9879 -0.6346 -2.0016 0.9749
6.0214 0.0122 -2.0016 0.9749
6.0171 0.2281 -2.0016 0.9749
6.0051 0.4437 -2.0016 0.9749
5.8799 1.2978 -2.0016 0.9749
-5.5827 -0.4012 -2.0016 0.9765
-5.5647 -0.6011 -2.0016 0.9765
-5.5396 -0.8003 -2.0016 0.9765
-5.5073 -0.9984 -2.0016 0.9765
-5.3080 -1.7756 -2.0016 0.9765
-5.2409 -1.9648 -2.0016 0.9765
-4.8635 -2.2329 -1.9138 0.9775
-4.6385 -2.3345 -1.8570 0.9782
-4.5517 -2.4993 -1.8570 0.9782
-4.2570 -2.9737 -1.8570 0.9782
-4.0329 -3.2712 -1.8570 0.9782
-3.9130 -3.4137 -1.8570 0.9782
-3.6583 -3.6854 -1.8570 0.9782
-3.3847 -3.9381 -1.8570 0.9782
-2.9422 -4.2788 -1.8570 0.9782
-2.6280 -4.4787 -1.8570 0.9782
-2.4657 -4.5701 -1.8570 0.9782
-2.3002 -4.6555 -1.8570 0.9782
-2.1318 -4.7350 -1.8570 0.9782
-1.6110 -4.9366 -1.8570 0.9782
-1.4329 -4.9912 -1.8570 0.9782
-1.0715 -5.0810 -1.8570 0.9782
-0.8886 -5.1162 -1.8570 0.9782
-0.7045 -5.1448 -1.8570 0.9782
-0.5196 -5.1667 -1.8570 0.9782
-0.3340 -5.1820 -1.8570 0.9782
0.2245 -5.1879 -1.8570 0.9782
0.4104 -5.1766 -1.8570 0.9782
0.5957 -5.1585 -1.8570 0.9782
0.7803 -5.1338 -1.8570 0.9782
1.6836 -4.9123 -1.8570 0.9782
1.8587 -4.8488 -1.8570 0.9782
2.4403 -4.0218 -1.6823 0.9802
2.8512 -4.3400 -1.8570 0.9782
3.1550 -4.1245 -1.8570 0.9782
3.3008 -4.0087 -1.8570 0.9782
3.4425 -3.8877 -1.8570 0.9782
3.8584 -4.0547 -2.0016 0.9765
4.1391 -3.7677 -2.0016 0.9765
4.2715 -3.6169 -2.0016 0.9765
4.5198 -3.3014 -2.0016 0.9765
4.7447 -2.9690 -2.0016 0.9765
4.8482 -2.7969 -2.0016 0.9765
4.9453 -2.6213 -2.0016 0.9765
5.0362 -2.4422 -2.0016 0.9765
5.1205 -2.2601 -2.0016 0.9765
5.1983 -2.0750 -2.0016 0.9765
5.3336 -1.6971 -2.0016 0.9765
5.5730 -0.5190 -2.0016 0.9765
5.5880 -0.3188 -2.0016 0.9765
5.5958 -0.1182 -2.0016 0.9765
5.5899 0.2832 -2.0016 0.9765
5.5762 0.4835 -2.0016 0.9765
5.5552 0.6831 -2.0016 0.9765
5.4920 1.0795 -2.0016 0.9765
5.2812 1.8537 -2.0016 0.9765
5.1348 2.2274 -2.0016 0.9765
5.0516 2.4101 -2.0016 0.9765
4.9619 2.5897 -2.0016 0.9765
4.7636 2.9387 -2.0016 0.9765
4.5407 3.2726 -2.0016 0.9765
4.4204 3.4333 -2.0016 0.9765
4.2944 3.5896 -2.0016 0.9765
4.1630 3.7413 -2.0016 0.9765
3.8841 4.0300 -2.0016 0.9765
3.7371 4.1667 -2.0016 0.9765
3.5853 4.2981 -2.0016 0.9765
3.1029 4.6582 -2.0016 0.9765
2.9339 4.7665 -2.0016 0.9765
2.5847 4.9645 -2.0016 0.9765
2.4050 5.0540 -2.0016 0.9765
2.2222 5.1370 -2.0016 0.9765
2.0366 5.2134 -2.0016 0.9765
1.6577 5.3460 -2.0016 0.9765
0.8763 5.5281 -2.0016 0.9765
0.2776 5.5902 -2.0016 0.9765
0.0769 5.5966 -2.0016 0.9765
-0.1238 5.5957 -2.0016 0.9765
-0.3244 5.5877 -2.0016 0.9765
-0.7241 5.5501 -2.0016 0.9765
-0.9226 5.5205 -2.0016 0.9765
-1.3159 5.4402 -2.0016 0.9765
-2.2652 5.1182 -2.0016 0.9765
-2.4473 5.0337 -2.0016 0.9765
-2.6263 4.9427 -2.0016 0.9765
-3.3060 4.5164 -2.0016 0.9765
-3.6212 4.2678 -2.0016 0.9765
-3.7719 4.1352 -2.0016 0.9765
-4.0586 3.8543 -2.0016 0.9765
-4.3244 3.5535 -2.0016 0.9765
-4.4490 3.3961 -2.0016 0.9765
-4.7880 2.8987 -2.0016 0.9765
-5.0716 2.3677 -2.0016 0.9765
-5.1533 2.1843 -2.0016 0.9765
-5.2283 1.9981 -2.0016 0.9765
-5.2966 1.8093 -2.0016 0.9765
