ply
format ascii 1.0
element vertex 1594
property float32 x
property float32 y
property float32 z
property float32 I
end_header
-3.7846 6.7407 -2.0016 0.9686
-4.0239 6.6007 -2.0016 0.9686
-5.3406 5.5891 -2.0016 0.9686
-6.0849 4.7680 -2.0016 0.9686
-6.2520 4.5468 -2.0016 0.9686
-6.5618 4.0870 -2.0016 0.9686
-6.8379 3.6061 -2.0016 0.9686
-6.9628 3.3586 -2.0016 0.9686
-7.0787 3.1067 -2.0016 0.9686
-7.2832 2.5914 -2.0016 0.9686
-7.4502 2.0627 -2.0016 0.9686
-7.5194 1.7942 -2.0016 0.9686
-7.5789 1.5234 -2.0016 0.9686
-7.6286 1.2506 -2.0016 0.9686
-7.7291 0.1470 -2.0016 0.9686
-7.6707 -0.9596 -2.0016 0.9686
-6.7822 -2.3966 -1.8624 0.9707
-6.6723 -2.6305 -1.8570 0.9708
-6.5736 -2.8681 -1.8570 0.9708
-6.3512 -3.3319 -1.8570 0.9708
-6.0960 -3.7785 -1.8570 0.9708
-5.9566 -3.9947 -1.8570 0.9708
-5.6549 -4.4114 -1.8570 0.9708
-4.9661 -5.1746 -1.8570 0.9708
-4.5824 -5.5173 -1.8570 0.9708
-4.2720 -6.4429 -2.0016 0.9686
-4.0382 -6.5919 -2.0016 0.9686
-3.5553 -6.8644 -2.0016 0.9686
-3.3068 -6.9875 -2.0016 0.9686
-2.2738 -7.3885 -2.0016 0.9686
-2.0074 -7.4653 -2.0016 0.9686
-1.1940 -7.6377 -2.0016 0.9686
-0.9193 -7.6756 -2.0016 0.9686
-0.6435 -7.7037 -2.0016 0.9686
-0.3668 -7.7218 -2.0016 0.9686
-0.0897 -7.7300 -2.0016 0.9686
0.1876 -7.7282 -2.0016 0.9686
0.4646 -7.7165 -2.0016 0.9686
0.7410 -7.6949 -2.0016 0.9686
1.2907 -7.6220 -2.0016 0.9686
1.5632 -7.5708 -2.0016 0.9686
1.8337 -7.5099 -2.0016 0.9686
2.6296 -7.2695 -2.0016 0.9686
3.1439 -7.0623 -2.0016 0.9686
2.1962 -4.1118 -1.2070 0.9809
2.3880 -4.1093 -1.2306 0.9806
4.7999 -6.0598 -2.0016 0.9686
5.0142 -5.8838 -2.0016 0.9686
5.4230 -5.5092 -2.0016 0.9686
5.6171 -5.3112 -2.0016 0.9686
5.9833 -4.8949 -2.0016 0.9686
6.1550 -4.6772 -2.0016 0.9686
6.3188 -4.4535 -2.0016 0.9686
7.0118 -3.2549 -2.0016 0.9686
7.2271 -2.7440 -2.0016 0.9686
7.4052 -2.2189 -2.0016 0.9686
7.4800 -1.9519 -2.0016 0.9686
7.6007 -1.4108 -2.0016 0.9686
7.7082 -0.5863 -2.0016 0.9686
7.7243 -0.3095 -2.0016 0.9686
7.7304 -0.0323 -2.0016 0.9686
7.7129 0.5219 -2.0016 0.9686
7.6892 0.7981 -2.0016 0.9686
7.4961 1.8893 -2.0016 0.9686
7.4235 2.1569 -2.0016 0.9686
7.3414 2.4217 -2.0016 0.9686
7.1489 2.9417 -2.0016 0.9686
6.9197 3.4465 -2.0016 0.9686
6.7916 3.6925 -2.0016 0.9686
6.3558 4.4005 -2.0016 0.9686
6.1939 4.6256 -2.0016 0.9686
6.0240 4.8448 -2.0016 0.9686
5.4689 5.4637 -2.0016 0.9686
5.2694 5.6563 -2.0016 0.9686
5.0632 5.8416 -2.0016 0.9686
4.6314 6.1895 -2.0016 0.9686
3.9399 6.6511 -2.0016 0.9686
3.6989 6.7881 -2.0016 0.9686
2.9484 7.1461 -2.0016 0.9686
2.6903 7.2473 -2.0016 0.9686
2.4287 7.3391 -2.0016 0.9686
1.3543 7.6109 -2.0016 0.9686
0.8053 7.6884 -2.0016 0.9686
0.2522 7.7264 -2.0016 0.9686
-0.0250 7.7304 -2.0016 0.9686
-0.5790 7.7088 -2.0016 0.9686
-0.8551 7.6831 -2.0016 0.9686
-1.6753 7.5468 -2.0016 0.9686
-1.9449 7.4818 -2.0016 0.9686
-2.9947 7.1269 -2.0016 0.9686
-3.4978 6.8939 -2.0016 0.9686
-3.7427 6.7640 -2.0016 0.9686
-3.9829 6.6255 -2.0016 0.9686
-5.5041 5.4282 -2.0016 0.9686
-5.6952 5.2273 -2.0016 0.9686
-5.8790 5.0197 -2.0016 0.9686
-6.5364 4.1275 -2.0016 0.9686
-6.6802 3.8905 -2.0016 0.9686
-6.8154 3.6484 -2.0016 0.9686
-6.9418 3.4017 -2.0016 0.9686
-7.0594 3.1505 -2.0016 0.9686
-7.1678 2.8954 -2.0016 0.9686
-7.2670 2.6365 -2.0016 0.9686
-7.4373 2.1088 -2.0016 0.9686
-7.5693 1.5703 -2.0016 0.9686
-7.6624 1.0237 -2.0016 0.9686
-7.6942 0.7483 -2.0016 0.9686
-7.7161 0.4719 -2.0016 0.9686
-7.7043 -0.6362 -2.0016 0.9686
-7.5914 -1.4600 -2.0016 0.9686
-7.2501 -2.2237 -1.9635 0.9692
-6.6884 -2.5891 -1.8570 0.9708
-6.4857 -3.0619 -1.8570 0.9708
-6.3717 -3.2925 -1.8570 0.9708
-6.2495 -3.5189 -1.8570 0.9708
-5.9812 -3.9577 -1.8570 0.9708
-5.5216 -4.5772 -1.8570 0.9708
-5.3539 -4.7723 -1.8570 0.9708
-4.4167 -5.6508 -1.8570 0.9708
-4.5391 -6.2575 -2.0016 0.9686
-4.3118 -6.4163 -2.0016 0.9686
-4.0789 -6.5668 -2.0016 0.9686
-3.8408 -6.7088 -2.0016 0.9686
-3.5977 -6.8423 -2.0016 0.9686
-2.5825 -7.2864 -2.0016 0.9686
-2.0536 -7.4527 -2.0016 0.9686
-1.5141 -7.5808 -2.0016 0.9686
-0.9669 -7.6698 -2.0016 0.9686
-0.6912 -7.6995 -2.0016 0.9686
-0.4146 -7.7194 -2.0016 0.9686
-0.1375 -7.7293 -2.0016 0.9686
0.1397 -7.7292 -2.0016 0.9686
0.4168 -7.7192 -2.0016 0.9686
0.6934 -7.6993 -2.0016 0.9686
0.9690 -7.6695 -2.0016 0.9686
1.2434 -7.6298 -2.0016 0.9686
1.7871 -7.5211 -2.0016 0.9686
2.5845 -7.2856 -2.0016 0.9686
2.8441 -7.1883 -2.0016 0.9686
2.1638 -4.1123 -1.2031 0.9810
4.0808 -6.5656 -2.0016 0.9686
4.3136 -6.4151 -2.0016 0.9686
5.1865 -5.7324 -2.0016 0.9686
5.7722 -5.1422 -2.0016 0.9686
6.2910 -4.4926 -2.0016 0.9686
6.8688 -3.5469 -2.0016 0.9686
6.9915 -3.2983 -2.0016 0.9686
7.1053 -3.0455 -2.0016 0.9686
7.3913 -2.2647 -2.0016 0.9686
6.7006 2.2565 -2.0016 0.9710
6.6154 2.4953 -2.0016 0.9710
5.9299 3.8505 -2.0016 0.9710
5.6386 4.2656 -2.0016 0.9710
5.4820 4.4651 -2.0016 0.9710
5.3184 4.6588 -2.0016 0.9710
5.1479 4.8465 -2.0016 0.9710
4.9708 5.0280 -2.0016 0.9710
4.7873 5.2030 -2.0016 0.9710
4.4020 5.5328 -2.0016 0.9710
3.7824 5.9735 -2.0016 0.9710
2.8894 6.4530 -2.0016 0.9710
2.6561 6.5524 -2.0016 0.9710
1.6919 6.8649 -2.0016 0.9710
1.4447 6.9212 -2.0016 0.9710
1.1955 6.9685 -2.0016 0.9710
0.9449 7.0069 -2.0016 0.9710
0.4402 7.0566 -2.0016 0.9710
0.1869 7.0679 -2.0016 0.9710
-0.0667 7.0700 -2.0016 0.9710
-0.3202 7.0631 -2.0016 0.9710
-1.0769 6.9878 -2.0016 0.9710
-2.0650 6.7621 -2.0016 0.9710
-2.3061 6.6837 -2.0016 0.9710
-2.7793 6.5012 -2.0016 0.9710
-3.0106 6.3973 -2.0016 0.9710
-3.8944 5.9011 -2.0016 0.9710
-4.1035 5.7577 -2.0016 0.9710
-4.3073 5.6068 -2.0016 0.9710
-4.6981 5.2837 -2.0016 0.9710
-5.4053 4.5576 -2.0016 0.9710
-5.7181 4.1585 -2.0016 0.9710
-5.8635 3.9508 -2.0016 0.9710
-6.1316 3.5203 -2.0016 0.9710
-6.2539 3.2982 -2.0016 0.9710
-6.6613 2.3701 -2.0016 0.9710
-6.7420 2.1297 -2.0016 0.9710
-6.8773 1.6410 -2.0016 0.9710
-7.0605 -0.3726 -2.0016 0.9710
-7.0426 -0.6255 -2.0016 0.9710
-6.9797 -1.1287 -2.0016 0.9710
-6.9347 -1.3783 -2.0016 0.9710
-6.8808 -1.6261 -2.0016 0.9710
-6.0123 -2.6232 -1.8570 0.9731
-5.3134 -3.8466 -1.8570 0.9731
-5.1720 -4.0347 -1.8570 0.9731
-4.7088 -4.5668 -1.8570 0.9731
-4.5420 -4.7327 -1.8570 0.9731
-3.8186 -5.3335 -1.8570 0.9731
-2.7933 -6.4951 -2.0016 0.9710
-2.3206 -6.6786 -2.0016 0.9710
-1.8359 -6.8278 -2.0016 0.9710
-0.8408 -7.0202 -2.0016 0.9710
-0.3355 -7.0624 -2.0016 0.9710
-0.0820 -7.0699 -2.0016 0.9710
1.1804 -6.9711 -2.0016 0.9710
2.4050 -6.6487 -2.0016 0.9710
2.6419 -6.5582 -2.0016 0.9710
2.8754 -6.4592 -2.0016 0.9710
2.1886 -4.0976 -1.3151 0.9809
2.3796 -4.0948 -1.3407 0.9805
3.7694 -5.9817 -2.0016 0.9710
4.1885 -5.6962 -2.0016 0.9710
4.7760 -5.2134 -2.0016 0.9710
4.9599 -5.0388 -2.0016 0.9710
5.1374 -4.8577 -2.0016 0.9710
5.7792 -4.0732 -2.0016 0.9710
5.9215 -3.8633 -2.0016 0.9710
6.0562 -3.6485 -2.0016 0.9710
6.1832 -3.4290 -2.0016 0.9710
6.4131 -2.9770 -2.0016 0.9710
6.5157 -2.7451 -2.0016 0.9710
6.7728 -2.0294 -2.0016 0.9710
6.8412 -1.7852 -2.0016 0.9710
6.9516 -1.2903 -2.0016 0.9710
7.0262 -0.7887 -2.0016 0.9710
7.0500 -0.5362 -2.0016 0.9710
7.0647 -0.2831 -2.0016 0.9710
7.0703 -0.0296 -2.0016 0.9710
7.0542 0.4773 -2.0016 0.9710
7.0326 0.7299 -2.0016 0.9710
7.0019 0.9817 -2.0016 0.9710
6.9621 1.2321 -2.0016 0.9710
6.8559 1.7280 -2.0016 0.9710
6.7895 1.9727 -2.0016 0.9710
6.7144 2.2149 -2.0016 0.9710
6.6307 2.4543 -2.0016 0.9710
6.5384 2.6905 -2.0016 0.9710
6.4377 2.9232 -2.0016 0.9710
6.2116 3.3772 -2.0016 0.9710
6.0865 3.5977 -2.0016 0.9710
5.9536 3.8137 -2.0016 0.9710
5.6649 4.2306 -2.0016 0.9710
5.5096 4.4310 -2.0016 0.9710
5.3471 4.6258 -2.0016 0.9710
5.0018 4.9971 -2.0016 0.9710
4.8194 5.1733 -2.0016 0.9710
4.0302 5.8092 -2.0016 0.9710
3.1582 6.3258 -2.0016 0.9710
2.6967 6.5359 -2.0016 0.9710
1.7344 6.8543 -2.0016 0.9710
1.2387 6.9610 -2.0016 0.9710
0.9883 7.0009 -2.0016 0.9710
0.7366 7.0319 -2.0016 0.9710
0.4839 7.0538 -2.0016 0.9710
-0.0229 7.0703 -2.0016 0.9710
-0.2764 7.0649 -2.0016 0.9710
-1.0336 6.9944 -2.0016 0.9710
-1.2837 6.9528 -2.0016 0.9710
-1.5323 6.9023 -2.0016 0.9710
-2.0230 6.7747 -2.0016 0.9710
-2.5034 6.6123 -2.0016 0.9710
-3.1991 6.3052 -2.0016 0.9710
-3.4231 6.1864 -2.0016 0.9710
-3.8577 5.9251 -2.0016 0.9710
-4.0677 5.7830 -2.0016 0.9710
-4.2725 5.6334 -2.0016 0.9710
-4.4718 5.4766 -2.0016 0.9710
-4.6653 5.3127 -2.0016 0.9710
-5.0341 4.9646 -2.0016 0.9710
-5.2089 4.7809 -2.0016 0.9710
-5.3770 4.5910 -2.0016 0.9710
-5.5382 4.3953 -2.0016 0.9710
-5.6922 4.1938 -2.0016 0.9710
-6.1097 3.5582 -2.0016 0.9710
-6.2334 3.3369 -2.0016 0.9710
-6.3490 3.1112 -2.0016 0.9710
-6.4565 2.8815 -2.0016 0.9710
-6.5557 2.6481 -2.0016 0.9710
-6.7286 2.1714 -2.0016 0.9710
-6.8022 1.9287 -2.0016 0.9710
-6.9229 1.4362 -2.0016 0.9710
-6.9700 1.1870 -2.0016 0.9710
-7.0081 0.9363 -2.0016 0.9710
-7.0571 0.4316 -2.0016 0.9710
-7.0681 0.1782 -2.0016 0.9710
-7.0699 -0.0753 -2.0016 0.9710
-7.0209 -0.8342 -2.0016 0.9710
-6.9865 -1.0854 -2.0016 0.9710
-6.8907 -1.5834 -2.0016 0.9710
-6.8295 -1.8295 -2.0016 0.9710
-6.4378 -2.2301 -1.9288 0.9721
-6.1173 -2.3680 -1.8570 0.9731
-6.0284 -2.5859 -1.8570 0.9731
-5.9318 -2.8004 -1.8570 0.9731
-5.8276 -3.0113 -1.8570 0.9731
-5.5967 -3.4213 -1.8570 0.9731
-5.4704 -3.6198 -1.8570 0.9731
-5.3371 -3.8136 -1.8570 0.9731
-4.8967 -4.3648 -1.8570 0.9731
-4.0396 -5.1682 -1.8570 0.9731
-3.8516 -5.3098 -1.8570 0.9731
-3.6587 -5.4445 -1.8570 0.9731
-3.4611 -5.5722 -1.8570 0.9731
-2.8335 -6.4777 -2.0016 0.9710
-2.5994 -6.5752 -2.0016 0.9710
-2.1214 -6.7446 -2.0016 0.9710
-1.3848 -6.9334 -2.0016 0.9710
-1.1353 -6.9786 -2.0016 0.9710
-0.8843 -7.0148 -2.0016 0.9710
-0.6322 -7.0420 -2.0016 0.9710
-0.3792 -7.0601 -2.0016 0.9710
0.3812 -7.0600 -2.0016 0.9710
1.1372 -6.9783 -2.0016 0.9710
1.6345 -6.8788 -2.0016 0.9710
2.3638 -6.6635 -2.0016 0.9710
2.6012 -6.5744 -2.0016 0.9710
2.1563 -4.0981 -1.3109 0.9809
2.3461 -4.0953 -1.3361 0.9806
3.7323 -6.0050 -2.0016 0.9710
3.9452 -5.8673 -2.0016 0.9710
4.3556 -5.5694 -2.0016 0.9710
4.7436 -5.2429 -2.0016 0.9710
5.2792 -4.7031 -2.0016 0.9710
5.8975 -3.8999 -2.0016 0.9710
6.2822 -3.2440 -2.0016 0.9710
6.5943 -2.5505 -2.0016 0.9710
6.6815 -2.3124 -2.0016 0.9710
6.2377 1.8544 -2.0016 0.9731
6.1672 2.0769 -2.0016 0.9731
5.5814 3.3460 -2.0016 0.9731
5.4578 3.5440 -2.0016 0.9731
5.0456 4.1096 -2.0016 0.9731
4.8950 4.2879 -2.0016 0.9731
4.5751 4.6277 -2.0016 0.9731
4.4062 4.7888 -2.0016 0.9731
4.0516 5.0923 -2.0016 0.9731
3.8664 5.2344 -2.0016 0.9731
3.4813 5.4980 -2.0016 0.9731
3.2819 5.6193 -2.0016 0.9731
3.0782 5.7334 -2.0016 0.9731
2.6594 5.9393 -2.0016 0.9731
1.7828 6.2585 -2.0016 0.9731
0.6378 6.4761 -2.0016 0.9731
0.4052 6.4949 -2.0016 0.9731
0.1720 6.5052 -2.0016 0.9731
-0.7599 6.4630 -2.0016 0.9731
-0.9912 6.4316 -2.0016 0.9731
-1.4496 6.3440 -2.0016 0.9731
-1.6762 6.2879 -2.0016 0.9731
-2.9803 5.7849 -2.0016 0.9731
-3.1858 5.6743 -2.0016 0.9731
-3.3873 5.5564 -2.0016 0.9731
-3.5844 5.4314 -2.0016 0.9731
-3.9644 5.1605 -2.0016 0.9731
-4.3241 4.8631 -2.0016 0.9731
-5.1223 4.0137 -2.0016 0.9731
-5.3968 3.6363 -2.0016 0.9731
-5.5237 3.4404 -2.0016 0.9731
-5.6435 3.2401 -2.0016 0.9731
-5.7561 3.0356 -2.0016 0.9731
-5.8612 2.8272 -2.0016 0.9731
-6.0488 2.3999 -2.0016 0.9731
-6.1310 2.1814 -2.0016 0.9731
-6.2052 1.9601 -2.0016 0.9731
-6.2715 1.7364 -2.0016 0.9731
-6.3799 1.2824 -2.0016 0.9731
-6.4218 1.0528 -2.0016 0.9731
-6.4807 0.5898 -2.0016 0.9731
-6.4984 -0.3429 -2.0016 0.9731
-6.4820 -0.5757 -2.0016 0.9731
-6.4240 -1.0389 -2.0016 0.9731
-6.3826 -1.2686 -2.0016 0.9731
-5.6805 -2.2395 -1.8781 0.9748
-5.3464 -2.8048 -1.8570 0.9751
-5.1316 -3.1808 -1.8570 0.9751
-4.7603 -3.7135 -1.8570 0.9751
-4.6241 -3.8818 -1.8570 0.9751
-4.3340 -4.2032 -1.8570 0.9751
-3.8575 -4.6444 -1.8570 0.9751
-3.6884 -4.7797 -1.8570 0.9751
-3.3364 -5.0318 -1.8570 0.9751
-3.1538 -5.1482 -1.8570 0.9751
-2.9671 -5.2580 -1.8570 0.9751
-2.7767 -5.3610 -1.8570 0.9751
-2.3853 -5.5463 -1.8570 0.9751
-0.5417 -6.4849 -2.0016 0.9731
-0.3088 -6.5001 -2.0016 0.9731
0.1579 -6.5056 -2.0016 0.9731
0.6238 -6.4775 -2.0016 0.9731
0.8557 -6.4510 -2.0016 0.9731
1.0865 -6.4161 -2.0016 0.9731
1.5436 -6.3218 -2.0016 0.9731
1.9927 -6.1949 -2.0016 0.9731
2.2136 -6.1194 -2.0016 0.9731
2.3711 -4.0802 -1.4515 0.9804
3.4693 -5.5055 -2.0016 0.9731
3.6645 -5.3776 -2.0016 0.9731
4.2209 -4.9529 -2.0016 0.9731
4.5650 -4.6376 -2.0016 0.9731
4.7284 -4.4710 -2.0016 0.9731
4.8857 -4.2985 -2.0016 0.9731
5.4501 -3.5558 -2.0016 0.9731
5.6910 -3.1560 -2.0016 0.9731
5.8005 -2.9499 -2.0016 0.9731
5.9025 -2.7400 -2.0016 0.9731
6.0837 -2.3099 -2.0016 0.9731
6.2336 -1.8679 -2.0016 0.9731
6.3982 -1.1876 -2.0016 0.9731
6.4669 -0.7259 -2.0016 0.9731
6.4887 -0.4936 -2.0016 0.9731
6.5042 0.2062 -2.0016 0.9731
6.4727 0.6718 -2.0016 0.9731
6.4444 0.9035 -2.0016 0.9731
6.3101 1.5904 -2.0016 0.9731
6.2490 1.8157 -2.0016 0.9731
6.1799 2.0386 -2.0016 0.9731
6.1028 2.2589 -2.0016 0.9731
6.0179 2.4763 -2.0016 0.9731
5.9252 2.6905 -2.0016 0.9731
5.3503 3.7043 -2.0016 0.9731
4.4358 4.7614 -2.0016 0.9731
4.0831 5.0671 -2.0016 0.9731
3.7094 5.3468 -2.0016 0.9731
3.3166 5.5989 -2.0016 0.9731
2.4820 6.0156 -2.0016 0.9731
1.3691 6.3618 -2.0016 0.9731
0.9096 6.4436 -2.0016 0.9731
0.4454 6.4922 -2.0016 0.9731
0.2123 6.5040 -2.0016 0.9731
-0.7198 6.4675 -2.0016 0.9731
-0.9513 6.4376 -2.0016 0.9731
-1.1815 6.3993 -2.0016 0.9731
-1.8620 6.2354 -2.0016 0.9731
-2.0844 6.1646 -2.0016 0.9731
-2.7344 5.9051 -2.0016 0.9731
-2.9444 5.8033 -2.0016 0.9731
-3.5506 5.4535 -2.0016 0.9731
-3.7439 5.3226 -2.0016 0.9731
-4.1158 5.0406 -2.0016 0.9731
-4.4665 4.7326 -2.0016 0.9731
-4.7942 4.4003 -2.0016 0.9731
-4.9489 4.2256 -2.0016 0.9731
-5.0973 4.0454 -2.0016 0.9731
-5.6233 3.2750 -2.0016 0.9731
-5.9425 2.6521 -2.0016 0.9731
-6.0338 2.4373 -2.0016 0.9731
-6.1173 2.2193 -2.0016 0.9731
-6.2607 1.7752 -2.0016 0.9731
-6.3203 1.5495 -2.0016 0.9731
-6.4151 1.0925 -2.0016 0.9731
-6.4502 0.8618 -2.0016 0.9731
-6.4769 0.6299 -2.0016 0.9731
-6.5054 0.1641 -2.0016 0.9731
-6.4620 -0.7678 -2.0016 0.9731
-6.4303 -0.9990 -2.0016 0.9731
-6.3904 -1.2290 -2.0016 0.9731
-6.3422 -1.4574 -2.0016 0.9731
-6.2858 -1.6839 -2.0016 0.9731
-6.1490 -2.1301 -2.0016 0.9731
-5.3637 -2.7716 -1.8570 0.9751
-5.2608 -2.9622 -1.8570 0.9751
-5.0350 -3.3316 -1.8570 0.9751
-4.3599 -4.1763 -1.8570 0.9751
-4.0494 -4.4781 -1.8570 0.9751
-3.5450 -4.8871 -1.8570 0.9751
-3.3675 -5.0111 -1.8570 0.9751
-3.1856 -5.1286 -1.8570 0.9751
-2.6164 -5.4411 -1.8570 0.9751
-2.1739 -6.1336 -2.0016 0.9731
-1.7287 -6.2737 -2.0016 0.9731
-1.5026 -6.3316 -2.0016 0.9731
-1.2746 -6.3814 -2.0016 0.9731
-1.0449 -6.4230 -2.0016 0.9731
-0.5819 -6.4814 -2.0016 0.9731
-0.3490 -6.4981 -2.0016 0.9731
-0.1158 -6.5064 -2.0016 0.9731
0.3509 -6.4980 -2.0016 0.9731
0.5837 -6.4813 -2.0016 0.9731
0.8157 -6.4562 -2.0016 0.9731
1.0467 -6.4227 -2.0016 0.9731
1.2764 -6.3811 -2.0016 0.9731
1.5044 -6.3312 -2.0016 0.9731
1.9543 -6.2071 -2.0016 0.9731
2.0774 -4.3171 -1.4736 0.9801
2.1488 -4.0838 -1.4194 0.9809
3.4352 -5.5269 -2.0016 0.9731
3.8225 -5.2665 -2.0016 0.9731
4.0089 -5.1260 -2.0016 0.9731
4.1901 -4.9790 -2.0016 0.9731
4.3660 -4.8255 -2.0016 0.9731
4.5362 -4.6658 -2.0016 0.9731
5.0111 -4.1517 -2.0016 0.9731
5.2958 -3.7818 -2.0016 0.9731
5.5532 -3.3925 -2.0016 0.9731
6.0693 -2.3475 -2.0016 0.9731
6.1496 -2.1283 -2.0016 0.9731
6.2220 -1.9065 -2.0016 0.9731
5.8296 1.5078 -2.0016 0.9749
5.4672 2.5235 -2.0016 0.9749
5.3731 2.7179 -2.0016 0.9749
4.9293 3.4583 -2.0016 0.9749
4.8021 3.6328 -2.0016 0.9749
4.5294 3.9677 -2.0016 0.9749
4.3842 4.1275 -2.0016 0.9749
4.2334 4.2821 -2.0016 0.9749
4.0771 4.4312 -2.0016 0.9749
3.9156 4.5745 -2.0016 0.9749
3.7490 4.7120 -2.0016 0.9749
2.8483 5.3052 -2.0016 0.9749
2.4607 5.4957 -2.0016 0.9749
2.2621 5.5804 -2.0016 0.9749
2.0605 5.6579 -2.0016 0.9749
1.6497 5.7911 -2.0016 0.9749
1.4409 5.8465 -2.0016 0.9749
1.0182 5.9347 -2.0016 0.9749
0.8047 5.9674 -2.0016 0.9749
0.5902 5.9924 -2.0016 0.9749
0.3749 6.0098 -2.0016 0.9749
-0.2727 6.0153 -2.0016 0.9749
-0.7031 5.9802 -2.0016 0.9749
-1.3413 5.8701 -2.0016 0.9749
-1.7586 5.7589 -2.0016 0.9749
-2.1669 5.6180 -2.0016 0.9749
-2.7577 5.3528 -2.0016 0.9749
-2.9479 5.2505 -2.0016 0.9749
-3.4947 4.9035 -2.0016 0.9749
-3.6683 4.7750 -2.0016 0.9749
-3.8372 4.6404 -2.0016 0.9749
-4.0012 4.4998 -2.0016 0.9749
-4.4613 4.0441 -2.0016 0.9749
-4.8698 3.5416 -2.0016 0.9749
-4.9937 3.3647 -2.0016 0.9749
-5.4235 2.6161 -2.0016 0.9749
-5.5138 2.4199 -2.0016 0.9749
-5.5970 2.2206 -2.0016 0.9749
-5.6730 2.0185 -2.0016 0.9749
-5.7418 1.8137 -2.0016 0.9749
-5.9034 1.1866 -2.0016 0.9749
-5.9967 0.5457 -2.0016 0.9749
-6.0206 -0.1015 -2.0016 0.9749
-5.9749 -0.7475 -2.0016 0.9749
-5.8600 -1.3848 -2.0016 0.9749
-5.7457 -1.8013 -2.0016 0.9749
-5.6774 -2.0062 -2.0016 0.9749
-5.6018 -2.2085 -2.0016 0.9749
-5.0369 -2.4162 -1.8570 0.9767
-4.9471 -2.5953 -1.8570 0.9767
-4.6397 -3.1116 -1.8570 0.9767
-4.5251 -3.2760 -1.8570 0.9767
-4.4048 -3.4361 -1.8570 0.9767
-4.2787 -3.5919 -1.8570 0.9767
-3.4129 -4.4227 -1.8570 0.9767
-3.2521 -4.5423 -1.8570 0.9767
-3.0872 -4.6560 -1.8570 0.9767
-2.9182 -4.7637 -1.8570 0.9767
-2.3897 -5.0496 -1.8570 0.9767
-1.8336 -5.2770 -1.8570 0.9767
-1.6432 -5.3394 -1.8570 0.9767
-1.4506 -5.3949 -1.8570 0.9767
-1.2562 -5.4434 -1.8570 0.9767
-0.8628 -5.5195 -1.8570 0.9767
-0.4650 -5.5671 -1.8570 0.9767
-0.2651 -5.5802 -1.8570 0.9767
0.3358 -5.5764 -1.8570 0.9767
0.5355 -5.5608 -1.8570 0.9767
0.7354 -5.5443 -1.8591 0.9767
0.9327 -5.5081 -1.8570 0.9767
1.3251 -5.4271 -1.8570 0.9767
2.0875 -5.1818 -1.8570 0.9767
2.2719 -5.1036 -1.8570 0.9767
2.9783 -4.7264 -1.8570 0.9767
3.1459 -4.6165 -1.8570 0.9767
3.3094 -4.5007 -1.8570 0.9767
3.4687 -4.3792 -1.8570 0.9767
4.2241 -4.2913 -2.0016 0.9749
4.3752 -4.1370 -2.0016 0.9749
4.5208 -3.9775 -2.0016 0.9749
4.6605 -3.8128 -2.0016 0.9749
4.7942 -3.6432 -2.0016 0.9749
5.1578 -3.1072 -2.0016 0.9749
5.2659 -2.9203 -2.0016 0.9749
5.3672 -2.7296 -2.0016 0.9749
5.4617 -2.5353 -2.0016 0.9749
5.5491 -2.3378 -2.0016 0.9749
5.6294 -2.1373 -2.0016 0.9749
5.7024 -1.9341 -2.0016 0.9749
5.7681 -1.7284 -2.0016 0.9749
5.8263 -1.5204 -2.0016 0.9749
5.8771 -1.3105 -2.0016 0.9749
5.9839 -0.6717 -2.0016 0.9749
6.0166 -0.2411 -2.0016 0.9749
6.0184 0.1908 -2.0016 0.9749
5.9893 0.6217 -2.0016 0.9749
5.9293 1.0493 -2.0016 0.9749
5.8879 1.2613 -2.0016 0.9749
5.7183 1.8863 -2.0016 0.9749
5.6470 2.0902 -2.0016 0.9749
5.2901 2.8761 -2.0016 0.9749
5.1836 3.0640 -2.0016 0.9749
5.0704 3.2479 -2.0016 0.9749
4.9506 3.4277 -2.0016 0.9749
4.6922 3.7737 -2.0016 0.9749
4.1045 4.4058 -2.0016 0.9749
3.9438 4.5502 -2.0016 0.9749
3.7781 4.6887 -2.0016 0.9749
3.2527 5.0673 -2.0016 0.9749
3.0689 5.1807 -2.0016 0.9749
1.6855 5.7807 -2.0016 0.9749
1.2669 5.8867 -2.0016 0.9749
1.0549 5.9283 -2.0016 0.9749
0.8417 5.9623 -2.0016 0.9749
0.4121 6.0073 -2.0016 0.9749
0.1965 6.0182 -2.0016 0.9749
-0.0195 6.0214 -2.0016 0.9749
-0.2354 6.0168 -2.0016 0.9749
-0.4510 6.0045 -2.0016 0.9749
-0.8802 5.9568 -2.0016 0.9749
-1.0933 5.9214 -2.0016 0.9749
-2.1320 5.6314 -2.0016 0.9749
-3.2854 5.0461 -2.0016 0.9749
-3.6387 4.7977 -2.0016 0.9749
-3.8084 4.6641 -2.0016 0.9749
-4.2873 4.2281 -2.0016 0.9749
-4.5793 3.9100 -2.0016 0.9749
-4.8478 3.5717 -2.0016 0.9749
-4.9727 3.3955 -2.0016 0.9749
-5.3086 2.8418 -2.0016 0.9749
-5.5831 2.2553 -2.0016 0.9749
-5.6604 2.0536 -2.0016 0.9749
-5.7304 1.8493 -2.0016 0.9749
-5.9932 0.5829 -2.0016 0.9749
-6.0102 0.3676 -2.0016 0.9749
-6.0195 0.1518 -2.0016 0.9749
-5.8685 -1.3485 -2.0016 0.9749
-5.6897 -1.9710 -2.0016 0.9749
-5.2171 -2.2379 -1.8870 0.9764
-5.0518 -2.3850 -1.8570 0.9767
-4.6589 -3.0828 -1.8570 0.9767
-4.5454 -3.2479 -1.8570 0.9767
-4.1703 -3.7172 -1.8570 0.9767
-3.4403 -4.4015 -1.8570 0.9767
-3.2802 -4.5221 -1.8570 0.9767
-3.1159 -4.6368 -1.8570 0.9767
-2.9477 -4.7455 -1.8570 0.9767
-2.7756 -4.8482 -1.8570 0.9767
-2.4210 -5.0347 -1.8570 0.9767
-1.8662 -5.2656 -1.8570 0.9767
-1.2899 -5.4355 -1.8570 0.9767
-0.8970 -5.5140 -1.8570 0.9767
-0.4995 -5.5641 -1.8570 0.9767
0.5011 -5.5640 -1.8570 0.9767
0.7006 -5.5454 -1.8580 0.9767
1.2915 -5.4352 -1.8570 0.9767
1.4855 -5.3854 -1.8570 0.9767
1.6777 -5.3286 -1.8570 0.9767
1.8677 -5.2650 -1.8570 0.9767
2.0553 -5.1947 -1.8570 0.9767
2.2403 -5.1176 -1.8570 0.9767
2.0633 -4.2878 -1.5817 0.9801
2.3294 -4.0662 -1.5577 0.9804
3.2815 -4.5211 -1.8570 0.9767
3.4415 -4.4006 -1.8570 0.9767
4.1974 -4.3173 -2.0016 0.9749
4.3495 -4.1640 -2.0016 0.9749
4.7716 -3.6728 -2.0016 0.9749
4.9002 -3.4994 -2.0016 0.9749
5.1385 -3.1391 -2.0016 0.9749
5.2477 -2.9528 -2.0016 0.9749
5.5345 -2.3722 -2.0016 0.9749
5.6903 -1.9694 -2.0016 0.9749
5.7572 -1.7641 -2.0016 0.9749
5.3650 1.5949 -2.0016 0.9765
5.3044 1.7863 -2.0016 0.9765
5.2369 1.9754 -2.0016 0.9765
5.1627 2.1619 -2.0016 0.9765
4.9945 2.5264 -2.0016 0.9765
4.8005 2.8779 -2.0016 0.9765
4.5819 3.2146 -2.0016 0.9765
4.4637 3.3768 -2.0016 0.9765
4.2102 3.6880 -2.0016 0.9765
4.0752 3.8367 -2.0016 0.9765
3.9350 3.9803 -2.0016 0.9765
3.6396 4.2521 -2.0016 0.9765
3.4848 4.3799 -2.0016 0.9765
3.1619 4.6184 -2.0016 0.9765
2.9942 4.7288 -2.0016 0.9765
2.6476 4.9313 -2.0016 0.9765
2.2873 5.1084 -2.0016 0.9765
1.9153 5.2592 -2.0016 0.9765
1.7255 5.3245 -2.0016 0.9765
1.1437 5.4790 -2.0016 0.9765
0.9464 5.5165 -2.0016 0.9765
0.5486 5.5701 -2.0016 0.9765
-0.0528 5.5968 -2.0016 0.9765
-0.2535 5.5914 -2.0016 0.9765
-0.6536 5.5588 -2.0016 0.9765
-1.0503 5.4977 -2.0016 0.9765
-1.2468 5.4565 -2.0016 0.9765
-1.6347 5.3531 -2.0016 0.9765
-2.2001 5.1465 -2.0016 0.9765
-2.5634 4.9756 -2.0016 0.9765
-2.7401 4.8805 -2.0016 0.9765
-2.9134 4.7791 -2.0016 0.9765
-3.0829 4.6715 -2.0016 0.9765
-3.2484 4.5580 -2.0016 0.9765
-3.4098 4.4385 -2.0016 0.9765
-3.5668 4.3134 -2.0016 0.9765
-3.7192 4.1827 -2.0016 0.9765
-3.8668 4.0467 -2.0016 0.9765
-4.4056 3.4522 -2.0016 0.9765
-4.5266 3.2920 -2.0016 0.9765
-4.6418 3.1275 -2.0016 0.9765
-4.7509 2.9591 -2.0016 0.9765
-5.1252 2.2494 -2.0016 0.9765
-5.3371 1.6859 -2.0016 0.9765
-5.5234 0.9055 -2.0016 0.9765
-5.5523 0.7068 -2.0016 0.9765
-5.5741 0.5073 -2.0016 0.9765
-5.5963 -0.0943 -2.0016 0.9765
-5.5893 -0.2949 -2.0016 0.9765
-5.5538 -0.6948 -2.0016 0.9765
-5.5253 -0.8935 -2.0016 0.9765
-5.4897 -1.0911 -2.0016 0.9765
-5.3974 -1.4818 -2.0016 0.9765
-5.2773 -1.8648 -2.0016 0.9765
-5.0876 -2.2197 -1.9850 0.9767
-4.5984 -2.4124 -1.8570 0.9782
-4.5090 -2.5757 -1.8570 0.9782
-4.2062 -3.0451 -1.8570 0.9782
-3.7276 -3.6152 -1.8570 0.9782
-3.3178 -3.9947 -1.8570 0.9782
-3.1724 -4.1111 -1.8570 0.9782
-3.0230 -4.2222 -1.8570 0.9782
-2.8696 -4.3279 -1.8570 0.9782
-2.5520 -4.5224 -1.8570 0.9782
-2.3882 -4.6110 -1.8570 0.9782
-2.2213 -4.6937 -1.8570 0.9782
-2.0516 -4.7703 -1.8570 0.9782
-1.5274 -4.9631 -1.8570 0.9782
-1.1677 -5.0598 -1.8570 0.9782
-0.8020 -5.1305 -1.8570 0.9782
-0.6175 -5.1559 -1.8570 0.9782
-0.0602 -5.1924 -1.8570 0.9782
0.4978 -5.1689 -1.8570 0.9782
0.6828 -5.1477 -1.8570 0.9782
1.0500 -5.0855 -1.8570 0.9782
1.2317 -5.0446 -1.8570 0.9782
1.5901 -4.9433 -1.8570 0.9782
1.7664 -4.8831 -1.8570 0.9782
2.1655 -4.0544 -1.6437 0.9807
2.3512 -4.0460 -1.6734 0.9803
2.5339 -4.0211 -1.6997 0.9800
2.9242 -4.2912 -1.8570 0.9782
3.2243 -4.0705 -1.8570 0.9782
3.5077 -3.8290 -1.8570 0.9782
4.0669 -3.8455 -2.0016 0.9765
4.3321 -3.5441 -2.0016 0.9765
4.5750 -3.2245 -2.0016 0.9765
4.7943 -2.8883 -2.0016 0.9765
5.0768 -2.3567 -2.0016 0.9765
5.1580 -2.1731 -2.0016 0.9765
5.2326 -1.9867 -2.0016 0.9765
5.3005 -1.7978 -2.0016 0.9765
5.4157 -1.4133 -2.0016 0.9765
5.5031 -1.0214 -2.0016 0.9765
5.5622 -0.6244 -2.0016 0.9765
5.5970 -0.0234 -2.0016 0.9765
5.5943 0.1773 -2.0016 0.9765
5.5115 0.9754 -2.0016 0.9765
5.4729 1.1724 -2.0016 0.9765
5.4274 1.3679 -2.0016 0.9765
5.3748 1.5617 -2.0016 0.9765
5.3154 1.7534 -2.0016 0.9765
5.1760 2.1299 -2.0016 0.9765
5.0100 2.4954 -2.0016 0.9765
4.9173 2.6735 -2.0016 0.9765
4.7130 3.0190 -2.0016 0.9765
4.3616 3.5077 -2.0016 0.9765
4.0989 3.8113 -2.0016 0.9765
3.9596 3.9559 -2.0016 0.9765
3.8152 4.0953 -2.0016 0.9765
3.5119 4.3582 -2.0016 0.9765
3.3533 4.4814 -2.0016 0.9765
3.1904 4.5988 -2.0016 0.9765
2.6781 4.9148 -2.0016 0.9765
2.3189 5.0941 -2.0016 0.9765
1.9478 5.2472 -2.0016 0.9765
1.7584 5.3137 -2.0016 0.9765
1.5667 5.3733 -2.0016 0.9765
0.5831 5.5666 -2.0016 0.9765
-0.0181 5.5971 -2.0016 0.9765
-0.2188 5.5928 -2.0016 0.9765
-0.6191 5.5627 -2.0016 0.9765
-1.0163 5.5041 -2.0016 0.9765
-1.2130 5.4641 -2.0016 0.9765
-1.6015 5.3631 -2.0016 0.9765
-1.7928 5.3022 -2.0016 0.9765
-2.5325 4.9914 -2.0016 0.9765
-2.8837 4.7970 -2.0016 0.9765
-3.0539 4.6905 -2.0016 0.9765
-3.2201 4.5780 -2.0016 0.9765
-3.6932 4.2057 -2.0016 0.9765
-3.8416 4.0705 -2.0016 0.9765
-4.2566 3.6344 -2.0016 0.9765
-4.5061 3.3200 -2.0016 0.9765
-4.6223 3.1562 -2.0016 0.9765
-4.7325 2.9885 -2.0016 0.9765
-4.8366 2.8168 -2.0016 0.9765
-5.0261 2.4629 -2.0016 0.9765
-5.1112 2.2811 -2.0016 0.9765
-5.2615 1.9089 -2.0016 0.9765
-5.3266 1.7190 -2.0016 0.9765
-5.3848 1.5268 -2.0016 0.9765
-5.4804 1.1370 -2.0016 0.9765
-5.5478 0.7412 -2.0016 0.9765
-5.5708 0.5418 -2.0016 0.9765
-5.5910 -0.2603 -2.0016 0.9765
-5.5580 -0.6604 -2.0016 0.9765
-5.4964 -1.0571 -2.0016 0.9765
-5.4549 -1.2535 -2.0016 0.9765
-5.4065 -1.4483 -2.0016 0.9765
-4.6133 -2.3838 -1.8570 0.9782
-4.5248 -2.5478 -1.8570 0.9782
-4.4305 -2.7084 -1.8570 0.9782
-4.3306 -2.8655 -1.8570 0.9782
-3.8764 -3.4553 -1.8570 0.9782
-3.7500 -3.5921 -1.8570 0.9782
-3.6187 -3.7242 -1.8570 0.9782
-3.4829 -3.8516 -1.8570 0.9782
-3.3425 -3.9740 -1.8570 0.9782
-2.8964 -4.3100 -1.8570 0.9782
-2.7399 -4.4111 -1.8570 0.9782
-2.2503 -4.6799 -1.8570 0.9782
-1.9091 -4.8291 -1.8570 0.9782
-1.7347 -4.8945 -1.8570 0.9782
-1.5581 -4.9535 -1.8570 0.9782
-1.3794 -5.0062 -1.8570 0.9782
-1.1990 -5.0525 -1.8570 0.9782
-0.6495 -5.1520 -1.8570 0.9782
-0.2785 -5.1853 -1.8570 0.9782
-0.0924 -5.1920 -1.8570 0.9782
0.4658 -5.1719 -1.8570 0.9782
0.6509 -5.1518 -1.8570 0.9782
1.9105 -4.8286 -1.8570 0.9782
2.1336 -4.0550 -1.6386 0.9807
2.8976 -4.3092 -1.8570 0.9782
3.1990 -4.0904 -1.8570 0.9782
3.9016 -4.0131 -2.0016 0.9765
4.4353 -3.4140 -2.0016 0.9765
4.7763 -2.9179 -2.0016 0.9765
4.8779 -2.7447 -2.0016 0.9765
5.0621 -2.3881 -2.0016 0.9765
5.1445 -2.2050 -2.0016 0.9765
5.2893 -1.8306 -2.0016 0.9765
4.8177 2.0174 -2.0016 0.9779
4.7422 2.1889 -2.0016 0.9779
4.6607 2.3575 -2.0016 0.9779
4.5732 2.5232 -2.0016 0.9779
4.1654 3.1511 -2.0016 0.9779
4.0497 3.2985 -2.0016 0.9779
3.9288 3.4416 -2.0016 0.9779
3.6720 3.7143 -2.0016 0.9779
3.5365 3.8436 -2.0016 0.9779
3.3964 3.9680 -2.0016 0.9779
2.6341 4.5102 -2.0016 0.9779
2.3040 4.6874 -2.0016 0.9779
1.6102 4.9686 -2.0016 0.9779
1.4309 5.0232 -2.0016 0.9779
1.0672 5.1128 -2.0016 0.9779
0.8832 5.1478 -2.0016 0.9779
0.6980 5.1762 -2.0016 0.9779
-0.2365 5.2177 -2.0016 0.9779
-0.6099 5.1873 -2.0016 0.9779
-1.3453 5.0468 -2.0016 0.9779
-1.5254 4.9953 -2.0016 0.9779
-1.7036 4.9374 -2.0016 0.9779
-2.0531 4.8026 -2.0016 0.9779
-2.2240 4.7259 -2.0016 0.9779
-2.3921 4.6431 -2.0016 0.9779
-2.7187 4.4597 -2.0016 0.9779
-3.0313 4.2533 -2.0016 0.9779
-3.6084 3.7762 -2.0016 0.9779
-3.7415 3.6444 -2.0016 0.9779
-4.1112 3.2215 -2.0016 0.9779
-4.2241 3.0720 -2.0016 0.9779
-4.4334 2.7613 -2.0016 0.9779
-4.5296 2.6006 -2.0016 0.9779
-4.7043 2.2692 -2.0016 0.9779
-4.8549 1.9262 -2.0016 0.9779
-4.9208 1.7508 -2.0016 0.9779
-4.9805 1.5733 -2.0016 0.9779
-5.0804 1.2122 -2.0016 0.9779
-5.1542 0.8450 -2.0016 0.9779
-5.1812 0.6596 -2.0016 0.9779
-5.2223 -0.0880 -2.0016 0.9779
-5.1826 -0.6484 -2.0016 0.9779
-5.1561 -0.8338 -2.0016 0.9779
-4.9839 -1.5625 -2.0016 0.9779
-4.8590 -1.9157 -2.0016 0.9779
-4.7872 -2.0887 -2.0016 0.9779
-4.6334 -2.2226 -1.9693 0.9782
-4.2076 -2.4036 -1.8570 0.9795
-4.1187 -2.5529 -1.8570 0.9795
-3.8207 -2.9805 -1.8570 0.9795
-3.7114 -3.1156 -1.8570 0.9795
-3.5973 -3.2467 -1.8570 0.9795
-3.3553 -3.4962 -1.8570 0.9795
-2.6778 -4.0386 -1.8570 0.9795
-2.5313 -4.1321 -1.8570 0.9795
-2.2286 -4.3029 -1.8570 0.9795
-1.5905 -4.5773 -1.8570 0.9795
-1.4253 -4.6314 -1.8570 0.9795
-0.9196 -4.7577 -1.8570 0.9795
-0.5763 -4.8114 -1.8570 0.9795
-0.4034 -4.8289 -1.8570 0.9795
0.1176 -4.8443 -1.8570 0.9795
0.4645 -4.8234 -1.8570 0.9795
1.3175 -4.6632 -1.8570 0.9795
1.4839 -4.6130 -1.8570 0.9795
1.8107 -4.4947 -1.8570 0.9795
2.0014 -4.0941 -1.7464 0.9807
2.1365 -4.0001 -1.7378 0.9808
2.3249 -4.0006 -1.7732 0.9804
2.5267 -4.0097 -1.8162 0.9799
2.7288 -4.0044 -1.8570 0.9795
3.1431 -3.6882 -1.8570 0.9795
3.3993 -3.4534 -1.8570 0.9795
3.9214 -3.4501 -2.0016 0.9779
4.0426 -3.3072 -2.0016 0.9779
4.6556 -2.3676 -2.0016 0.9779
4.7375 -2.1992 -2.0016 0.9779
4.8133 -2.0279 -2.0016 0.9779
4.8829 -1.8539 -2.0016 0.9779
5.0033 -1.4992 -2.0016 0.9779
5.0538 -1.3188 -2.0016 0.9779
5.1904 -0.5827 -2.0016 0.9779
5.2080 -0.3961 -2.0016 0.9779
5.2230 -0.0218 -2.0016 0.9779
5.2111 0.3526 -2.0016 0.9779
5.1951 0.5392 -2.0016 0.9779
5.1431 0.9102 -2.0016 0.9779
5.1072 1.0941 -2.0016 0.9779
5.0646 1.2765 -2.0016 0.9779
5.0156 1.4573 -2.0016 0.9779
4.9601 1.6362 -2.0016 0.9779
4.6752 2.3286 -2.0016 0.9779
4.5887 2.4948 -2.0016 0.9779
4.3981 2.8173 -2.0016 0.9779
4.2942 2.9732 -2.0016 0.9779
4.1848 3.1253 -2.0016 0.9779
3.8250 3.5566 -2.0016 0.9779
3.5602 3.8216 -2.0016 0.9779
2.8214 4.3954 -2.0016 0.9779
2.4991 4.5863 -2.0016 0.9779
1.8177 4.8965 -2.0016 0.9779
1.6409 4.9586 -2.0016 0.9779
1.0989 5.1061 -2.0016 0.9779
0.7301 5.1718 -2.0016 0.9779
0.3575 5.2108 -2.0016 0.9779
0.1704 5.2203 -2.0016 0.9779
-0.3912 5.2084 -2.0016 0.9779
-0.5777 5.1910 -2.0016 0.9779
-0.9483 5.1362 -2.0016 0.9779
-1.1319 5.0989 -2.0016 0.9779
-1.3140 5.0550 -2.0016 0.9779
-1.4945 5.0047 -2.0016 0.9779
-1.6730 4.9479 -2.0016 0.9779
-2.0233 4.8152 -2.0016 0.9779
-2.1947 4.7396 -2.0016 0.9779
-2.3632 4.6578 -2.0016 0.9779
-2.5287 4.5701 -2.0016 0.9779
-2.6910 4.4764 -2.0016 0.9779
-2.8498 4.3771 -2.0016 0.9779
-3.0049 4.2720 -2.0016 0.9779
-3.3034 4.0457 -2.0016 0.9779
-3.4464 3.9246 -2.0016 0.9779
-3.5849 3.7985 -2.0016 0.9779
-3.7188 3.6675 -2.0016 0.9779
-4.0912 3.2469 -2.0016 0.9779
-4.2050 3.0981 -2.0016 0.9779
-4.6048 2.4650 -2.0016 0.9779
-4.7696 2.1286 -2.0016 0.9779
-4.8429 1.9562 -2.0016 0.9779
-4.9099 1.7813 -2.0016 0.9779
-4.9706 1.6041 -2.0016 0.9779
-5.0249 1.4248 -2.0016 0.9779
-5.0728 1.2437 -2.0016 0.9779
-5.1141 1.0610 -2.0016 0.9779
-5.1985 0.5056 -2.0016 0.9779
-5.2133 0.3188 -2.0016 0.9779
-5.2227 -0.0557 -2.0016 0.9779
-5.2174 -0.2429 -2.0016 0.9779
-5.2053 -0.4299 -2.0016 0.9779
-5.1611 -0.8018 -2.0016 0.9779
-5.1290 -0.9864 -2.0016 0.9779
-5.0904 -1.1697 -2.0016 0.9779
-4.8001 -2.0590 -2.0016 0.9779
-4.3366 -2.2409 -1.8706 0.9793
-4.2224 -2.3775 -1.8570 0.9795
-4.1345 -2.5274 -1.8570 0.9795
-3.7306 -3.0926 -1.8570 0.9795
-3.4994 -3.3520 -1.8570 0.9795
-3.3769 -3.4753 -1.8570 0.9795
-3.1191 -3.7084 -1.8570 0.9795
-2.9841 -3.8179 -1.8570 0.9795
-2.5568 -4.1163 -1.8570 0.9795
-2.4076 -4.2054 -1.8570 0.9795
-2.2552 -4.2890 -1.8570 0.9795
-2.0999 -4.3671 -1.8570 0.9795
-1.7815 -4.5064 -1.8570 0.9795
-1.6188 -4.5674 -1.8570 0.9795
-1.4540 -4.6225 -1.8570 0.9795
-1.2873 -4.6717 -1.8570 0.9795
-1.1189 -4.7148 -1.8570 0.9795
-0.9491 -4.7519 -1.8570 0.9795
-0.7781 -4.7829 -1.8570 0.9795
-0.6061 -4.8077 -1.8570 0.9795
-0.4333 -4.8263 -1.8570 0.9795
-0.0862 -4.8450 -1.8570 0.9795
0.0876 -4.8450 -1.8570 0.9795
0.4346 -4.8262 -1.8570 0.9795
0.6074 -4.8075 -1.8570 0.9795
1.2886 -4.6713 -1.8570 0.9795
1.4552 -4.6221 -1.8570 0.9795
2.2918 -4.0005 -1.7668 0.9804
2.4868 -4.0010 -1.8053 0.9800
2.9852 -3.8171 -1.8570 0.9795
3.2511 -3.5933 -1.8570 0.9795
3.7728 -3.6119 -2.0016 0.9779
4.0220 -3.3322 -2.0016 0.9779
4.1389 -3.1858 -2.0016 0.9779
4.2505 -3.0354 -2.0016 0.9779
4.4571 -2.7229 -2.0016 0.9779
4.5519 -2.5613 -2.0016 0.9779
4.6408 -2.3964 -2.0016 0.9779
4.8006 -2.0576 -2.0016 0.9779
4.5758 1.7260 -2.0016 0.9791
4.4403 2.0495 -2.0016 0.9791
4.3640 2.2075 -2.0016 0.9791
4.2820 2.3625 -2.0016 0.9791
4.1945 2.5146 -2.0016 0.9791
4.1017 2.6634 -2.0016 0.9791
4.0035 2.8087 -2.0016 0.9791
3.6787 3.2225 -2.0016 0.9791
3.5608 3.3523 -2.0016 0.9791
3.4383 3.4778 -2.0016 0.9791
2.9057 3.9337 -2.0016 0.9791
2.6162 4.1319 -2.0016 0.9791
2.1573 4.3889 -2.0016 0.9791
1.9986 4.4635 -2.0016 0.9791
1.6735 4.5953 -2.0016 0.9791
1.1703 4.7484 -2.0016 0.9791
0.8270 4.8201 -2.0016 0.9791
0.6536 4.8466 -2.0016 0.9791
0.4793 4.8670 -2.0016 0.9791
0.3045 4.8810 -2.0016 0.9791
-0.0461 4.8903 -2.0016 0.9791
-0.7449 4.8334 -2.0016 0.9791
-1.5951 4.6230 -2.0016 0.9791
-1.7599 4.5629 -2.0016 0.9791
-1.9224 4.4968 -2.0016 0.9791
-2.3942 4.2644 -2.0016 0.9791
-2.5456 4.1758 -2.0016 0.9791
-2.6937 4.0818 -2.0016 0.9791
-3.1165 3.7689 -2.0016 0.9791
-3.2497 3.6547 -2.0016 0.9791
-3.7388 3.1525 -2.0016 0.9791
-3.8495 3.0164 -2.0016 0.9791
-4.1512 2.5855 -2.0016 0.9791
-4.2412 2.4350 -2.0016 0.9791
-4.3258 2.2813 -2.0016 0.9791
-4.4048 2.1247 -2.0016 0.9791
-4.4782 1.9654 -2.0016 0.9791
-4.5458 1.8035 -2.0016 0.9791
-4.6075 1.6394 -2.0016 0.9791
-4.6634 1.4731 -2.0016 0.9791
-4.7570 1.1351 -2.0016 0.9791
-4.7946 0.9637 -2.0016 0.9791
-2.0694 0.3392 -0.8582 0.9910
-1.9579 0.1782 -0.8046 0.9915
-1.9439 0.1068 -0.7968 0.9916
-1.9147 -0.0323 -0.7838 0.9918
-1.9426 -0.1025 -0.7962 0.9916
-1.9578 -0.1739 -0.8044 0.9915
-1.9528 -0.2443 -0.8055 0.9915
-4.7967 -0.9533 -2.0016 0.9791
-4.7594 -1.1247 -2.0016 0.9791
-4.7160 -1.2947 -2.0016 0.9791
-4.6666 -1.4630 -2.0016 0.9791
-4.6111 -1.6294 -2.0016 0.9791
-4.5497 -1.7937 -2.0016 0.9791
-3.6752 -2.6607 -1.8570 0.9806
-3.5775 -2.7908 -1.8570 0.9806
-3.2571 -3.1588 -1.8570 0.9806
-3.1417 -3.2736 -1.8570 0.9806
-2.8990 -3.4904 -1.8570 0.9806
-2.7719 -3.5921 -1.8570 0.9806
-2.6413 -3.6892 -1.8570 0.9806
-2.3701 -3.8690 -1.8570 0.9806
-1.9409 -4.1012 -1.8570 0.9806
-1.7926 -4.1681 -1.8570 0.9806
-1.6419 -4.2297 -1.8570 0.9806
-1.4892 -4.2859 -1.8570 0.9806
-1.1782 -4.3816 -1.8570 0.9806
-1.0203 -4.4210 -1.8570 0.9806
-0.5396 -4.5050 -1.8570 0.9806
-0.2153 -4.5321 -1.8570 0.9806
-0.0526 -4.5369 -1.8570 0.9806
0.1101 -4.5359 -1.8570 0.9806
0.2727 -4.5290 -1.8570 0.9806
0.4349 -4.5163 -1.8570 0.9806
0.5966 -4.4978 -1.8570 0.9806
0.7575 -4.4736 -1.8570 0.9806
0.9175 -4.4435 -1.8570 0.9806
1.2336 -4.3663 -1.8570 0.9806
1.3894 -4.3193 -1.8570 0.9806
1.6954 -4.2086 -1.8570 0.9806
1.8452 -4.1451 -1.8570 0.9806
1.9927 -4.0762 -1.8570 0.9806
2.1365 -4.0001 -1.8560 0.9806
2.2797 -3.9229 -1.8570 0.9806
2.5550 -3.7494 -1.8570 0.9806
2.6879 -3.6554 -1.8570 0.9806
2.8172 -3.5567 -1.8570 0.9806
2.9430 -3.4533 -1.8570 0.9806
3.8938 -2.9589 -2.0016 0.9791
3.9974 -2.8174 -2.0016 0.9791
4.7320 -1.2348 -2.0016 0.9791
4.7733 -1.0643 -2.0016 0.9791
4.8084 -0.8925 -2.0016 0.9791
4.8600 -0.5456 -2.0016 0.9791
4.8764 -0.3709 -2.0016 0.9791
4.8866 -0.1958 -2.0016 0.9791
4.8905 -0.0204 -2.0016 0.9791
4.8881 0.1549 -2.0016 0.9791
4.8431 0.6790 -2.0016 0.9791
4.7820 1.0244 -2.0016 0.9791
4.7422 1.1952 -2.0016 0.9791
4.6963 1.3645 -2.0016 0.9791
4.6443 1.5321 -2.0016 0.9791
4.2966 2.3360 -2.0016 0.9791
4.0208 2.7839 -2.0016 0.9791
3.9184 2.9263 -2.0016 0.9791
3.6986 3.1996 -2.0016 0.9791
3.4597 3.4565 -2.0016 0.9791
3.0685 3.8081 -2.0016 0.9791
2.9300 3.9156 -2.0016 0.9791
2.7877 4.0182 -2.0016 0.9791
2.6418 4.1156 -2.0016 0.9791
2.1845 4.3755 -2.0016 0.9791
2.0262 4.4510 -2.0016 0.9791
1.7020 4.5848 -2.0016 0.9791
1.5364 4.6429 -2.0016 0.9791
0.6836 4.8425 -2.0016 0.9791
0.3347 4.8790 -2.0016 0.9791
-0.0158 4.8905 -2.0016 0.9791
-0.5410 4.8605 -2.0016 0.9791
-0.7149 4.8380 -2.0016 0.9791
-0.8880 4.8092 -2.0016 0.9791
-1.2304 4.7332 -2.0016 0.9791
-1.3993 4.6860 -2.0016 0.9791
-1.7316 4.5737 -2.0016 0.9791
-2.2128 4.3613 -2.0016 0.9791
-2.3678 4.2791 -2.0016 0.9791
-2.5197 4.1914 -2.0016 0.9791
-2.6684 4.0984 -2.0016 0.9791
-2.9553 3.8966 -2.0016 0.9791
-3.2270 3.6747 -2.0016 0.9791
-3.4820 3.4340 -2.0016 0.9791
-3.7192 3.1756 -2.0016 0.9791
-3.9373 2.9008 -2.0016 0.9791
-4.0388 2.7578 -2.0016 0.9791
-4.1351 2.6112 -2.0016 0.9791
-4.4659 1.9931 -2.0016 0.9791
-4.6542 1.5020 -2.0016 0.9791
-4.7050 1.3341 -2.0016 0.9791
-4.7885 0.9934 -2.0016 0.9791
-1.9222 0.0485 -0.7870 0.9917
-1.9567 -0.1616 -0.8035 0.9916
-4.7663 -1.0952 -2.0016 0.9791
-4.5607 -1.7655 -2.0016 0.9791
-4.4224 -2.0878 -2.0016 0.9791
-4.2975 -2.2207 -1.9798 0.9793
-3.8712 -2.3665 -1.8570 0.9806
-3.6917 -2.6379 -1.8570 0.9806
-3.5947 -2.7685 -1.8570 0.9806
-3.4931 -2.8957 -1.8570 0.9806
-3.3870 -3.0191 -1.8570 0.9806
-3.2766 -3.1386 -1.8570 0.9806
-3.0432 -3.3654 -1.8570 0.9806
-2.9205 -3.4723 -1.8570 0.9806
-2.6641 -3.6727 -1.8570 0.9806
-2.1116 -4.0159 -1.8570 0.9806
-1.6681 -4.2195 -1.8570 0.9806
-1.5157 -4.2766 -1.8570 0.9806
-1.3614 -4.3282 -1.8570 0.9806
-0.7285 -4.4784 -1.8570 0.9806
-0.4057 -4.5191 -1.8570 0.9806
-0.0807 -4.5365 -1.8570 0.9806
0.5687 -4.5015 -1.8570 0.9806
0.7298 -4.4782 -1.8570 0.9806
0.8899 -4.4491 -1.8570 0.9806
1.0489 -4.4143 -1.8570 0.9806
1.2065 -4.3739 -1.8570 0.9806
1.5169 -4.2762 -1.8570 0.9806
1.6693 -4.2190 -1.8570 0.9806
1.8195 -4.1564 -1.8570 0.9806
1.9674 -4.0885 -1.8570 0.9806
2.2554 -3.9370 -1.8570 0.9806
2.6652 -3.6720 -1.8570 0.9806
2.7951 -3.5740 -1.8570 0.9806
2.9215 -3.4715 -1.8570 0.9806
3.2774 -3.1377 -1.8570 0.9806
3.7659 -3.1201 -2.0016 0.9791
4.0792 -2.6976 -2.0016 0.9791
4.1733 -2.5495 -2.0016 0.9791
4.3454 -2.2439 -2.0016 0.9791
4.5612 -1.7642 -2.0016 0.9791
4.6215 -1.5995 -2.0016 0.9791
4.4464 1.1500 -2.0016 0.9802
4.3525 1.4657 -2.0016 0.9802
4.2971 1.6209 -2.0016 0.9802
3.9391 2.3614 -2.0016 0.9802
3.8519 2.5012 -2.0016 0.9802
3.7597 2.6377 -2.0016 0.9802
3.6627 2.7708 -2.0016 0.9802
3.5610 2.9004 -2.0016 0.9802
3.2289 3.2660 -2.0016 0.9802
3.1097 3.3797 -2.0016 0.9802
2.8594 3.5939 -2.0016 0.9802
2.5945 3.7896 -2.0016 0.9802
2.3162 3.9658 -2.0016 0.9802
2.0260 4.1217 -2.0016 0.9802
1.8769 4.1917 -2.0016 0.9802
1.5716 4.3154 -2.0016 0.9802
1.4158 4.3690 -2.0016 0.9802
1.2582 4.4169 -2.0016 0.9802
0.7766 4.5265 -2.0016 0.9802
0.4502 4.5705 -2.0016 0.9802
0.2860 4.5838 -2.0016 0.9802
-0.3724 4.5775 -2.0016 0.9802
-0.6995 4.5391 -2.0016 0.9802
-0.8618 4.5111 -2.0016 0.9802
-1.0231 4.4773 -2.0016 0.9802
-1.1830 4.4377 -2.0016 0.9802
-1.3413 4.3924 -2.0016 0.9802
-1.6527 4.2850 -2.0016 0.9802
-1.9556 4.1555 -2.0016 0.9802
-2.1034 4.0827 -2.0016 0.9802
-2.2484 4.0047 -2.0016 0.9802
-2.3906 3.9214 -2.0016 0.9802
-2.5297 3.8332 -2.0016 0.9802
-2.6655 3.7400 -2.0016 0.9802
-2.7979 3.6420 -2.0016 0.9802
-3.2899 3.2045 -2.0016 0.9802
-3.5111 2.9605 -2.0016 0.9802
-3.6150 2.8327 -2.0016 0.9802
-3.8088 2.5663 -2.0016 0.9802
-1.5616 0.4324 -0.7062 0.9930
-1.5372 0.3668 -0.6888 0.9931
-1.5078 0.3031 -0.6703 0.9933
-1.5075 0.2471 -0.6658 0.9934
-1.5202 0.1935 -0.6679 0.9933
-1.5276 0.1390 -0.6685 0.9933
-1.5296 0.0840 -0.6676 0.9933
-1.5258 -0.0257 -0.6650 0.9934
-1.5279 -0.1357 -0.6685 0.9933
-1.5208 -0.1903 -0.6680 0.9933
-1.5059 -0.2993 -0.6691 0.9933
-1.5603 -0.4283 -0.7052 0.9930
-4.2095 -1.8366 -2.0016 0.9802
-4.0670 -2.1336 -2.0016 0.9802
-3.3596 -2.6208 -1.8570 0.9816
-3.2634 -2.7396 -1.8570 0.9816
-3.1631 -2.8549 -1.8570 0.9816
-3.0587 -2.9665 -1.8570 0.9816
-2.7224 -3.2778 -1.8570 0.9816
-2.4805 -3.4645 -1.8570 0.9816
-2.3546 -3.5512 -1.8570 0.9816
-2.0940 -3.7109 -1.8570 0.9816
-1.9596 -3.7836 -1.8570 0.9816
-1.8227 -3.8514 -1.8570 0.9816
-1.6834 -3.9143 -1.8570 0.9816
-1.5419 -3.9721 -1.8570 0.9816
-1.3985 -4.0249 -1.8570 0.9816
-1.2533 -4.0724 -1.8570 0.9816
-1.1064 -4.1148 -1.8570 0.9816
-0.9582 -4.1518 -1.8570 0.9816
-0.5067 -4.2307 -1.8570 0.9816
-0.0494 -4.2606 -1.8570 0.9816
0.1034 -4.2597 -1.8570 0.9816
0.8616 -4.1729 -1.8570 0.9816
1.1585 -4.1004 -1.8570 0.9816
1.3048 -4.0562 -1.8570 0.9816
1.4494 -4.0068 -1.8570 0.9816
1.5921 -3.9523 -1.8570 0.9816
1.8713 -3.8280 -1.8570 0.9816
2.1409 -3.6840 -1.8570 0.9816
2.2716 -3.6049 -1.8570 0.9816
2.5242 -3.4328 -1.8570 0.9816
2.7637 -3.2430 -1.8570 0.9816
2.8782 -3.1418 -1.8570 0.9816
3.0960 -2.9275 -1.8570 0.9816
3.6567 -2.7787 -2.0016 0.9802
3.8464 -2.5095 -2.0016 0.9802
3.9340 -2.3699 -2.0016 0.9802
4.2324 -1.7831 -2.0016 0.9802
4.2936 -1.6302 -2.0016 0.9802
4.5155 -0.8381 -2.0016 0.9802
4.5427 -0.6757 -2.0016 0.9802
4.5640 -0.5123 -2.0016 0.9802
4.5890 -0.1839 -2.0016 0.9802
4.5904 0.1455 -2.0016 0.9802
4.5822 0.3100 -2.0016 0.9802
4.5224 0.8004 -2.0016 0.9802
4.4908 0.9620 -2.0016 0.9802
4.4103 1.2814 -2.0016 0.9802
4.3615 1.4387 -2.0016 0.9802
4.2472 1.7477 -2.0016 0.9802
4.1817 1.8988 -2.0016 0.9802
4.1110 2.0476 -2.0016 0.9802
4.0349 2.1937 -2.0016 0.9802
3.7760 2.6143 -2.0016 0.9802
3.4733 3.0048 -2.0016 0.9802
3.1305 3.3604 -2.0016 0.9802
3.0080 3.4705 -2.0016 0.9802
2.8816 3.5761 -2.0016 0.9802
2.7515 3.6772 -2.0016 0.9802
2.6179 3.7735 -2.0016 0.9802
2.4809 3.8649 -2.0016 0.9802
2.3407 3.9514 -2.0016 0.9802
2.1975 4.0328 -2.0016 0.9802
2.0515 4.1090 -2.0016 0.9802
1.9028 4.1800 -2.0016 0.9802
1.2856 4.4091 -2.0016 0.9802
1.1266 4.4523 -2.0016 0.9802
0.8046 4.5216 -2.0016 0.9802
0.1498 4.5902 -2.0016 0.9802
-0.0149 4.5926 -2.0016 0.9802
-0.3440 4.5798 -2.0016 0.9802
-0.5080 4.5645 -2.0016 0.9802
-0.8339 4.5163 -2.0016 0.9802
-0.9953 4.4835 -2.0016 0.9802
-1.4711 4.3507 -2.0016 0.9802
-1.7791 4.2341 -2.0016 0.9802
-1.9298 4.1675 -2.0016 0.9802
-2.0780 4.0957 -2.0016 0.9802
-2.5059 3.8488 -2.0016 0.9802
-3.0304 3.4509 -2.0016 0.9802
-3.1522 3.3401 -2.0016 0.9802
-3.2700 3.2249 -2.0016 0.9802
-3.3835 3.1055 -2.0016 0.9802
-3.4927 2.9822 -2.0016 0.9802
-3.5974 2.8550 -2.0016 0.9802
-4.0490 2.1675 -2.0016 0.9802
-4.2584 1.7201 -2.0016 0.9802
-1.5963 0.5791 -0.7400 0.9926
-1.5838 0.5111 -0.7253 0.9928
-1.5654 0.4439 -0.7091 0.9929
-1.5418 0.3780 -0.6918 0.9931
-1.5184 0.2029 -0.6676 0.9933
-1.5296 0.0935 -0.6679 0.9933
-1.5246 -0.0162 -0.6645 0.9934
-1.5285 -0.1262 -0.6684 0.9933
-1.5224 -0.1809 -0.6682 0.9933
-1.5004 -0.2885 -0.6659 0.9934
-1.5308 -0.3518 -0.6845 0.9932
-1.5563 -0.4169 -0.7022 0.9930
-4.2208 -1.8105 -2.0016 0.9802
-4.0801 -2.1083 -2.0016 0.9802
-3.9460 -2.2218 -1.9736 0.9804
-3.3758 -2.5999 -1.8570 0.9816
-3.2804 -2.7193 -1.8570 0.9816
-2.7427 -3.2609 -1.8570 0.9816
-2.6240 -3.3571 -1.8570 0.9816
-2.5019 -3.4491 -1.8570 0.9816
-2.3766 -3.5366 -1.8570 0.9816
-1.9830 -3.7713 -1.8570 0.9816
-1.5665 -3.9625 -1.8570 0.9816
-0.6842 -4.2056 -1.8570 0.9816
-0.5329 -4.2275 -1.8570 0.9816
-0.3810 -4.2439 -1.8570 0.9816
-0.2285 -4.2548 -1.8570 0.9816
-0.0758 -4.2602 -1.8570 0.9816
0.2297 -4.2547 -1.8570 0.9816
0.3822 -4.2437 -1.8570 0.9816
0.5341 -4.2273 -1.8570 0.9816
0.6854 -4.2054 -1.8570 0.9816
0.8357 -4.1782 -1.8570 0.9816
0.9850 -4.1455 -1.8570 0.9816
1.1330 -4.1075 -1.8570 0.9816
1.2796 -4.0642 -1.8570 0.9816
1.4245 -4.0157 -1.8570 0.9816
1.5676 -3.9621 -1.8570 0.9816
1.7087 -3.9033 -1.8570 0.9816
1.9841 -3.7708 -1.8570 0.9816
2.1180 -3.6972 -1.8570 0.9816
2.5029 -3.4484 -1.8570 0.9816
2.6249 -3.3564 -1.8570 0.9816
2.7436 -3.2601 -1.8570 0.9816
2.9702 -3.0551 -1.8570 0.9816
3.0778 -2.9466 -1.8570 0.9816
3.6394 -2.8013 -2.0016 0.9802
3.7375 -2.6690 -2.0016 0.9802
3.9192 -2.3943 -2.0016 0.9802
4.0807 -2.1072 -2.0016 0.9802
4.1537 -1.9595 -2.0016 0.9802
4.2213 -1.8093 -2.0016 0.9802
4.2834 -1.6568 -2.0016 0.9802
4.3401 -1.5021 -2.0016 0.9802
4.3912 -1.3455 -2.0016 0.9802
4.1863 1.0828 -2.0016 0.9811
4.1448 1.2322 -2.0016 0.9811
4.0458 1.5261 -2.0016 0.9811
3.9885 1.6702 -2.0016 0.9811
3.7861 2.0889 -2.0016 0.9811
3.7087 2.2233 -2.0016 0.9811
3.4485 2.6088 -2.0016 0.9811
3.2526 2.8492 -2.0016 0.9811
3.0401 3.0751 -2.0016 0.9811
2.9278 3.1821 -2.0016 0.9811
2.8118 3.2850 -2.0016 0.9811
2.6922 3.3838 -2.0016 0.9811
2.4428 3.5680 -2.0016 0.9811
2.3132 3.6533 -2.0016 0.9811
2.1807 3.7339 -2.0016 0.9811
1.9075 3.8806 -2.0016 0.9811
1.7671 3.9465 -2.0016 0.9811
1.4797 4.0630 -2.0016 0.9811
0.2692 4.3157 -2.0016 0.9811
0.1143 4.3226 -2.0016 0.9811
-0.0408 4.3239 -2.0016 0.9811
-0.3506 4.3099 -2.0016 0.9811
-0.5049 4.2945 -2.0016 0.9811
-0.6586 4.2736 -2.0016 0.9811
-0.9632 4.2155 -2.0016 0.9811
-1.5561 4.0344 -2.0016 0.9811
-1.6997 3.9760 -2.0016 0.9811
-1.8412 3.9125 -2.0016 0.9811
-2.2508 3.6921 -2.0016 0.9811
-2.3817 3.6090 -2.0016 0.9811
-2.8733 3.2314 -2.0016 0.9811
-2.9873 3.1263 -2.0016 0.9811
-3.2037 2.9041 -2.0016 0.9811
-3.4971 2.5433 -2.0016 0.9811
-3.5860 2.4162 -2.0016 0.9811
-3.6704 2.2861 -2.0016 0.9811
-3.7500 2.1530 -2.0016 0.9811
-3.8947 1.8786 -2.0016 0.9811
-1.3295 0.5275 -0.6621 0.9937
-1.3293 0.4199 -0.6453 0.9939
-1.3082 0.2630 -0.6177 0.9941
-1.3374 0.1217 -0.6216 0.9941
-1.3385 0.0735 -0.6205 0.9941
-1.3360 0.0254 -0.6185 0.9941
-1.3317 -0.1666 -0.6212 0.9941
-1.3222 -0.2138 -0.6200 0.9941
-1.3091 -0.2602 -0.6178 0.9941
-1.3040 -0.3082 -0.6202 0.9941
-1.3335 -0.4712 -0.6547 0.9938
-1.3299 -0.5243 -0.6617 0.9937
-1.3210 -0.5764 -0.6672 0.9937
-3.8987 -1.8702 -2.0016 0.9811
-3.5900 -2.2252 -1.9551 0.9816
-3.3442 -2.2427 -1.8639 0.9824
-3.2496 -2.3525 -1.8570 0.9825
-2.9781 -2.6879 -1.8570 0.9825
-2.7778 -2.8945 -1.8570 0.9825
-2.5632 -3.0861 -1.8570 0.9825
-2.3354 -3.2619 -1.8570 0.9825
-1.8450 -3.5623 -1.8570 0.9825
-1.3167 -3.7895 -1.8570 0.9825
-1.0417 -3.8741 -1.8570 0.9825
-0.7614 -3.9388 -1.8570 0.9825
-0.6196 -3.9636 -1.8570 0.9825
-0.4771 -3.9833 -1.8570 0.9825
-0.3339 -3.9978 -1.8570 0.9825
0.0974 -4.0106 -1.8570 0.9825
1.2285 -3.8190 -1.8570 0.9825
1.6315 -3.6650 -1.8570 0.9825
1.7619 -3.6041 -1.8570 0.9825
2.0157 -3.4686 -1.8570 0.9825
2.3766 -3.2320 -1.8570 0.9825
2.7099 -2.9581 -1.8570 0.9825
2.8143 -2.8590 -1.8570 0.9825
2.9150 -2.7563 -1.8570 0.9825
3.4428 -2.6162 -2.0016 0.9811
3.5344 -2.4911 -2.0016 0.9811
3.7039 -2.2314 -2.0016 0.9811
3.7815 -2.0971 -2.0016 0.9811
3.8543 -1.9601 -2.0016 0.9811
3.9221 -1.8207 -2.0016 0.9811
3.9849 -1.6788 -2.0016 0.9811
4.0425 -1.5349 -2.0016 0.9811
4.0950 -1.3889 -2.0016 0.9811
4.2205 -0.9411 -2.0016 0.9811
4.2770 -0.6362 -2.0016 0.9811
4.3241 -0.0181 -2.0016 0.9811
4.2822 0.6004 -2.0016 0.9811
4.2579 0.7536 -2.0016 0.9811
4.2282 0.9058 -2.0016 0.9811
4.1524 1.2065 -2.0016 0.9811
4.1064 1.3546 -2.0016 0.9811
3.9988 1.6455 -2.0016 0.9811
3.9372 1.7878 -2.0016 0.9811
3.8706 1.9278 -2.0016 0.9811
3.7989 2.0654 -2.0016 0.9811
3.7224 2.2003 -2.0016 0.9811
3.4646 2.5874 -2.0016 0.9811
3.3696 2.7099 -2.0016 0.9811
3.1667 2.9445 -2.0016 0.9811
3.0590 3.0562 -2.0016 0.9811
2.8321 3.2676 -2.0016 0.9811
2.7131 3.3670 -2.0016 0.9811
2.2038 3.7204 -2.0016 0.9811
1.7915 3.9355 -2.0016 0.9811
1.3585 4.1052 -2.0016 0.9811
1.2104 4.1512 -2.0016 0.9811
0.9098 4.2273 -2.0016 0.9811
0.7576 4.2572 -2.0016 0.9811
0.6044 4.2817 -2.0016 0.9811
0.4505 4.3006 -2.0016 0.9811
0.2960 4.3140 -2.0016 0.9811
0.1411 4.3218 -2.0016 0.9811
-0.0140 4.3241 -2.0016 0.9811
-0.1691 4.3208 -2.0016 0.9811
-0.3239 4.3120 -2.0016 0.9811
-0.6321 4.2776 -2.0016 0.9811
-1.0879 4.1850 -2.0016 0.9811
-1.3850 4.0963 -2.0016 0.9811
-1.6751 3.9865 -2.0016 0.9811
-2.3593 3.6237 -2.0016 0.9811
-2.4878 3.5368 -2.0016 0.9811
-2.6130 3.4453 -2.0016 0.9811
-2.7349 3.3494 -2.0016 0.9811
-2.9679 3.1447 -2.0016 0.9811
-3.0788 3.0363 -2.0016 0.9811
-3.1857 2.9239 -2.0016 0.9811
-3.2885 2.8078 -2.0016 0.9811
-3.3871 2.6881 -2.0016 0.9811
-3.4813 2.5649 -2.0016 0.9811
-3.5710 2.4384 -2.0016 0.9811
-3.6562 2.3088 -2.0016 0.9811
-3.8830 1.9027 -2.0016 0.9811
-1.3182 0.5883 -0.6682 0.9937
-1.3307 0.4294 -0.6472 0.9939
-1.3212 0.3746 -0.6357 0.9940
-1.3298 0.1777 -0.6210 0.9941
-1.3366 0.1300 -0.6216 0.9941
-1.3367 0.0337 -0.6189 0.9941
-1.3349 -0.0142 -0.6180 0.9941
-1.3382 -0.0623 -0.6201 0.9941
-1.3116 -0.2522 -0.6183 0.9941
-1.3273 -0.4071 -0.6427 0.9939
-1.3336 -0.4620 -0.6533 0.9938
-1.3309 -0.5152 -0.6606 0.9937
-1.3229 -0.5675 -0.6663 0.9937
-3.6351 -2.2221 -1.9721 0.9814
-3.3844 -2.2394 -1.8785 0.9823
-3.2641 -2.3323 -1.8570 0.9825
-3.0885 -2.5603 -1.8570 0.9825
-2.8971 -2.7751 -1.8570 0.9825
-2.6907 -2.9756 -1.8570 0.9825
-2.5823 -3.0702 -1.8570 0.9825
-2.3556 -3.2474 -1.8570 0.9825
-2.1168 -3.4079 -1.8570 0.9825
-1.6078 -3.6755 -1.8570 0.9825
-1.4749 -3.7308 -1.8570 0.9825
-1.3402 -3.7813 -1.8570 0.9825
-1.0657 -3.8676 -1.8570 0.9825
-0.7858 -3.9341 -1.8570 0.9825
-0.5018 -3.9803 -1.8570 0.9825
0.0725 -4.0111 -1.8570 0.9825
0.3598 -3.9956 -1.8570 0.9825
0.5029 -3.9801 -1.8570 0.9825
0.7869 -3.9338 -1.8570 0.9825
0.9274 -3.9031 -1.8570 0.9825
1.0668 -3.8673 -1.8570 0.9825
1.2048 -3.8266 -1.8570 0.9825
1.3412 -3.7809 -1.8570 0.9825
1.4760 -3.7304 -1.8570 0.9825
1.6088 -3.6750 -1.8570 0.9825
1.9942 -3.4810 -1.8570 0.9825
2.1177 -3.4073 -1.8570 0.9825
2.4714 -3.1601 -1.8570 0.9825
2.7965 -2.8764 -1.8570 0.9825
2.8979 -2.7743 -1.8570 0.9825
3.4266 -2.6375 -2.0016 0.9811
3.5189 -2.5129 -2.0016 0.9811
3.6068 -2.3851 -2.0016 0.9811
3.6900 -2.2543 -2.0016 0.9811
3.7685 -2.1205 -2.0016 0.9811
3.8929 1.1573 -1.9922 0.9821
3.8671 1.3023 -2.0016 0.9820
