ply
format ascii 1.0
element vertex 1543
property float32 x
property float32 y
property float32 z
property float32 I
end_header
28.2693 22.9535 6.4209 0.8625
27.0172 25.3581 6.5335 0.8603
27.3918 27.6231 6.8594 0.8538
31.2515 33.8623 8.1250 0.8293
30.9448 36.0419 8.3762 0.8245
2.4160 13.9574 2.4977 0.9441
1.3924 13.9252 2.4676 0.9447
0.8896 13.9266 2.4606 0.9449
-0.1108 13.9293 2.4562 0.9450
-0.6109 13.9307 2.4587 0.9449
-3.1712 13.9729 2.5265 0.9435
-5.3682 13.9790 2.6404 0.9410
-5.9526 13.9807 2.6793 0.9401
-6.5387 13.9472 2.7161 0.9394
-7.1606 13.9489 2.7647 0.9383
-7.8255 13.9858 2.8259 0.9370
-8.4992 13.9876 2.8860 0.9357
-9.2031 13.9896 2.9527 0.9342
-10.7182 13.9938 3.1081 0.9309
-11.5104 13.9610 3.1905 0.9291
-12.4109 13.9985 3.2987 0.9268
-17.6387 16.0357 4.2033 0.9077
-18.9671 16.0394 4.3799 0.9040
-17.8731 -21.9811 4.3401 0.8917
-16.8995 -22.3778 4.2959 0.8927
-14.2985 -22.0604 4.0273 0.8991
-8.4282 -22.4013 3.6666 0.9077
-6.6551 -22.4562 3.5881 0.9096
-5.7742 -22.4037 3.5443 0.9106
-4.9252 -22.4061 3.5144 0.9113
-0.0258 -22.4197 3.4346 0.9133
1.5856 -22.4242 3.4438 0.9130
6.9324 -27.1560 4.2934 0.8928
2.2927 -4.1865 0.7312 0.9809
32.8485 -35.1106 7.3657 0.8232
32.9260 -32.7554 7.1149 0.8287
32.3811 -29.9811 6.7604 0.8365
32.8642 -28.3084 6.6449 0.8390
34.6907 -25.7921 6.6223 0.8395
31.5009 -6.6772 4.9330 0.8778
34.9571 -6.1089 5.4364 0.8662
30.5362 -3.1029 4.7021 0.8832
32.6723 -2.1397 5.0159 0.8759
30.2095 -0.8922 4.6300 0.8849
31.3586 0.1990 4.8041 0.8808
37.9959 12.9796 6.1510 0.8500
35.0361 14.8509 5.8296 0.8573
35.0403 16.3590 5.9242 0.8551
26.7264 14.8981 4.6875 0.8835
25.7207 16.8613 4.7115 0.8830
25.9561 18.3795 4.8723 0.8792
25.5433 19.4992 4.9230 0.8781
28.8443 23.7036 5.7194 0.8598
27.1473 23.9908 5.5501 0.8636
25.9750 24.6693 5.4879 0.8651
32.4167 35.5425 7.3695 0.8231
2.4586 14.7188 2.2861 0.9414
1.3973 14.8572 2.2861 0.9414
-0.2065 14.9213 2.2861 0.9414
-0.7415 14.9043 2.2861 0.9414
-3.3884 14.5330 2.2861 0.9414
-4.4214 14.2527 2.2861 0.9414
-5.4500 13.9460 2.2938 0.9412
-6.0358 13.9476 2.3282 0.9404
-6.6393 13.9475 2.3664 0.9394
-7.2648 13.9492 2.4094 0.9383
-8.0683 13.1039 2.3575 0.9396
-9.3218 13.9899 2.5754 0.9342
-10.0660 13.9920 2.6405 0.9326
-10.8498 13.9942 2.7127 0.9309
-12.5593 13.9989 2.8811 0.9267
-15.5853 14.0021 3.2096 0.9187
-20.6640 16.0441 4.0078 0.8995
-30.2652 -3.9244 4.6753 0.8838
-26.3825 -22.3514 5.2971 0.8694
-24.7387 -22.5316 5.1261 0.8734
-22.8490 -22.3613 4.8977 0.8786
-19.7374 -22.3031 4.5625 0.8865
-17.9420 -21.8023 4.3256 0.8920
-17.1069 -22.3772 4.3150 0.8923
-14.4833 -22.0598 4.0427 0.8987
-13.2211 -21.8036 3.9063 0.9020
-12.5012 -22.3900 3.9285 0.9014
-11.5592 -22.5682 3.8844 0.9025
-9.5358 -22.4532 3.7371 0.9060
-8.5789 -22.4009 3.6747 0.9075
-5.9150 -22.4033 3.5497 0.9105
-4.2588 -22.5835 3.5206 0.9112
-3.3989 -22.4103 3.4724 0.9124
-2.5809 -22.4126 3.4562 0.9127
-1.7738 -22.4698 3.4530 0.9128
0.6517 -22.5971 3.4632 0.9126
2.2616 -4.1880 0.7291 0.9809
32.2040 -30.1712 6.7604 0.8365
33.6998 -25.3649 6.4616 0.8431
36.1873 -25.2564 6.7604 0.8365
32.4636 -8.3113 5.1336 0.8732
30.1391 -3.2420 4.6438 0.8846
29.2251 -2.0868 4.4885 0.8882
31.1890 -1.1050 4.7810 0.8814
34.9814 13.1335 5.7242 0.8597
35.0355 14.6079 5.8151 0.8576
28.4214 14.3218 4.8756 0.8792
25.8182 16.7086 4.7112 0.8830
25.7290 17.9921 4.8097 0.8807
25.7049 19.3841 4.9320 0.8778
28.2800 22.9622 5.5806 0.8629
27.2194 23.7705 5.5361 0.8640
26.0207 24.4228 5.4670 0.8655
26.5611 26.7854 5.7788 0.8584
32.6006 35.3241 7.3639 0.8232
1.4847 14.8487 2.2861 0.9414
0.4166 14.9169 2.2861 0.9414
-0.1187 14.9223 2.2861 0.9414
-1.7207 14.8232 2.2861 0.9414
-2.2512 14.7520 2.2861 0.9414
-3.8226 14.4249 2.2861 0.9414
-4.3374 14.2785 2.2861 0.9414
-5.9384 13.9474 2.3223 0.9405
-6.5387 13.9472 2.3598 0.9396
-7.1606 13.9489 2.4020 0.9385
-7.9558 13.0932 2.3471 0.9399
-9.2031 13.9896 2.5653 0.9345
-11.5104 13.9610 2.7719 0.9294
-13.3018 13.9609 2.9541 0.9249
-16.5612 14.0048 3.3226 0.9160
-20.4138 16.0434 3.9775 0.9003
-30.2661 -3.7434 4.6719 0.8839
-19.7165 -22.5456 3.9002 0.8862
-16.8995 -22.3778 3.6517 0.8930
-14.2985 -22.0604 3.4234 0.8994
-13.1728 -22.0152 3.3408 0.9017
-10.3145 -22.3961 3.2109 0.9053
-9.4122 -22.5301 3.1796 0.9062
-8.4282 -22.4013 3.1168 0.9080
-7.5219 -22.3988 3.0769 0.9091
-6.6551 -22.4562 3.0500 0.9098
-5.7742 -22.4037 3.0128 0.9109
-4.9252 -22.4061 2.9874 0.9116
-4.1213 -22.5839 2.9895 0.9116
-3.2641 -22.4107 2.9491 0.9127
-1.6408 -22.4702 2.9339 0.9131
-0.8303 -22.4175 2.9212 0.9135
-0.0258 -22.4197 2.9195 0.9135
0.7849 -22.5975 2.9444 0.9128
1.5856 -22.4242 2.9274 0.9133
2.2927 -4.1864 0.6216 0.9809
32.5189 -37.3581 6.4497 0.8189
32.9590 -30.5161 5.8491 0.8343
32.9649 -28.3952 5.6657 0.8390
32.5470 -26.0616 5.4296 0.8452
39.8111 -25.3819 6.1482 0.8266
31.5751 -5.5179 4.1740 0.8787
31.1758 -2.0417 4.0684 0.8816
32.3358 -0.9550 4.2126 0.8777
42.8071 12.9285 5.8231 0.8350
29.3101 13.6838 4.2123 0.8777
27.8949 15.5494 4.1587 0.8791
26.7933 16.2214 4.0787 0.8813
26.0335 19.8734 4.2650 0.8762
28.6620 23.5538 4.8310 0.8610
28.0727 24.8086 4.8786 0.8597
27.0112 25.6533 4.8510 0.8605
25.7897 26.3156 4.7981 0.8619
26.0817 28.5966 5.0401 0.8555
1.6438 17.4783 2.2861 0.9316
0.9356 16.1408 2.1054 0.9369
0.3410 15.4764 2.0158 0.9395
-1.3356 15.5678 2.0347 0.9389
-3.0510 15.5957 2.0694 0.9379
-3.6366 15.5973 2.0856 0.9374
-4.8396 15.6006 2.1270 0.9362
-6.0456 15.4702 2.1629 0.9352
-6.6393 13.9475 2.0115 0.9396
-7.2648 13.9492 2.0481 0.9385
-7.4222 13.0835 1.9588 0.9411
-8.6950 13.0492 2.0420 0.9387
-10.1203 13.0532 2.1508 0.9355
-11.7148 13.0576 2.2844 0.9317
-14.4641 13.9641 2.6181 0.9221
-15.5853 14.0021 2.7283 0.9190
-21.0049 14.0171 3.2884 0.9032
-28.1828 -22.1907 4.6711 0.8653
-26.3825 -22.3514 4.5027 0.8698
-24.5465 -22.3566 4.3235 0.8747
-22.8490 -22.3613 4.1632 0.8790
-16.9230 -22.1366 3.6285 0.8937
-12.5012 -22.3900 3.3393 0.9017
-11.5592 -22.5682 3.3019 0.9028
-10.4746 -22.3956 3.2196 0.9051
-8.5789 -22.4009 3.1237 0.9078
-6.7991 -22.4558 3.0553 0.9097
-3.3989 -22.4103 2.9517 0.9126
-2.5809 -22.4126 2.9379 0.9130
2.2616 -4.1880 0.6198 0.9810
32.4669 -32.6814 5.9989 0.8304
32.9640 -28.7342 5.6945 0.8383
33.6998 -25.3649 5.4926 0.8435
39.1549 -25.2891 6.0698 0.8286
30.6270 -6.6807 4.0821 0.8812
30.4743 -5.5106 4.0327 0.8826
30.4063 -4.3787 4.0004 0.8835
29.8812 -3.2142 3.9136 0.8858
30.8622 -2.2037 4.0291 0.8827
28.0135 15.4000 4.1628 0.8790
26.9295 17.4279 4.1771 0.8786
27.6795 19.3561 4.3983 0.8726
29.3210 23.8074 4.9183 0.8587
28.6219 24.9953 4.9484 0.8579
26.6806 25.0422 4.7650 0.8628
25.8177 27.9745 4.9572 0.8577
1.1191 17.5197 2.2861 0.9316
-0.6817 15.5465 2.0264 0.9392
-1.8094 15.5880 2.0435 0.9387
-2.3796 15.5938 2.0541 0.9384
-4.1336 15.5987 2.1014 0.9370
-4.7389 15.6004 2.1232 0.9363
-5.3578 15.6021 2.1482 0.9356
-6.0449 15.7411 2.1958 0.9342
-6.0491 14.2075 2.0108 0.9396
-7.1606 13.9489 2.0418 0.9387
-7.4217 13.2640 1.9793 0.9405
-7.9277 13.0471 1.9881 0.9403
-8.5843 13.0489 2.0340 0.9389
-9.2728 13.0508 2.0848 0.9375
-9.9975 13.0528 2.1410 0.9358
-10.7634 13.0550 2.2033 0.9340
-11.5764 13.0572 2.2724 0.9320
-12.4990 13.1183 2.3595 0.9295
-17.8244 14.0083 2.9521 0.9126
-19.2092 14.0121 3.0962 0.9085
-20.7383 14.0164 3.2595 0.9040
-22.3837 13.9861 3.4370 0.8990
-13.0244 -21.7673 2.7239 0.9030
-12.3813 -22.4854 2.7564 0.9019
-11.3037 -22.3933 2.6936 0.9040
-10.3145 -22.3961 2.6477 0.9056
-8.4282 -22.4013 2.5701 0.9082
-7.5219 -22.3988 2.5372 0.9093
-6.6551 -22.4562 2.5151 0.9101
-3.2641 -22.4107 2.4319 0.9129
-2.4473 -22.4130 2.4210 0.9133
-0.0258 -22.4197 2.4075 0.9138
0.7849 -22.5975 2.4280 0.9131
6.9316 -27.1530 3.0090 0.8934
32.9480 -35.2169 5.1787 0.8236
32.9574 -30.5146 4.8230 0.8347
32.6277 -26.1262 4.4884 0.8452
34.6733 -25.7792 4.6396 0.8404
39.6470 -25.2773 5.0490 0.8277
31.6696 -6.7130 3.4763 0.8779
31.2481 -5.4607 3.4063 0.8802
32.2683 -4.4531 3.4979 0.8772
42.9056 12.9582 4.8128 0.8350
39.0070 13.3250 4.4263 0.8472
35.2295 14.9329 4.1088 0.8573
27.6220 14.1236 3.3314 0.8827
27.6949 15.4380 3.4048 0.8802
27.5622 16.6868 3.4598 0.8784
27.8740 18.2729 3.5790 0.8745
28.0522 19.8637 3.6910 0.8709
29.7757 22.7302 4.0225 0.8601
32.2092 35.3150 5.1326 0.8251
0.3212 14.5773 1.5657 0.9430
-1.2574 14.6568 1.5797 0.9425
-2.3361 14.7263 1.6011 0.9418
-2.8738 14.6898 1.6073 0.9416
-4.0284 14.8480 1.6520 0.9400
-5.2191 14.9117 1.6965 0.9384
-6.0456 15.4702 1.7836 0.9354
-6.0498 13.9800 1.6357 0.9406
-7.2648 13.9492 1.6889 0.9387
-8.0335 13.0474 1.6453 0.9402
-8.6950 13.0492 1.6838 0.9389
-10.1203 13.0532 1.7736 0.9357
-11.7148 13.0576 1.8837 0.9319
-16.7064 13.9598 2.3378 0.9161
-17.9978 13.9739 2.4468 0.9124
-22.7380 14.0219 2.8686 0.8981
-34.3070 -23.2327 4.4492 0.8465
-26.3825 -22.3514 3.7130 0.8701
-19.8765 -22.4603 3.2206 0.8863
-16.9230 -22.1366 2.9921 0.8940
-15.9953 -22.5559 2.9693 0.8947
-14.6961 -22.3839 2.8754 0.8979
-13.1988 -21.7668 2.7335 0.9027
-12.5012 -22.3900 2.7537 0.9020
-11.5592 -22.5682 2.7228 0.9030
-8.5789 -22.4009 2.5758 0.9080
-7.6688 -22.3984 2.5423 0.9092
-5.9150 -22.4033 2.4881 0.9110
-4.2505 -22.5394 2.4630 0.9119
-3.3989 -22.4103 2.4340 0.9128
-2.5809 -22.4126 2.4226 0.9132
-1.7820 -22.5737 2.4315 0.9129
-0.9625 -22.4171 2.4094 0.9137
-0.1578 -22.4193 2.4075 0.9138
1.4529 -22.4238 2.4130 0.9136
2.2615 -4.1879 0.5111 0.9810
32.4138 -37.6833 5.3375 0.8188
33.0486 -28.8080 4.7078 0.8383
31.3005 -5.6600 3.4156 0.8799
38.5975 -4.1518 4.1686 0.8554
39.2543 13.1519 4.4455 0.8466
35.2288 14.6885 4.0986 0.8577
27.6215 13.9187 3.3213 0.8830
27.8150 15.2909 3.4084 0.8801
28.5248 18.4603 3.6485 0.8722
27.6299 19.3214 3.6204 0.8732
29.8473 22.5079 4.0142 0.8604
28.0353 22.7635 3.8779 0.8648
27.1990 23.7527 3.8776 0.8648
27.2320 27.4619 4.1530 0.8559
32.2541 34.9487 5.1068 0.8259
1.3571 21.2460 2.2861 0.9179
0.4067 14.5639 1.5645 0.9431
-0.1163 14.6313 1.5712 0.9428
-0.6413 14.6251 1.5720 0.9428
-1.1701 14.6518 1.5783 0.9426
-1.7047 14.6854 1.5875 0.9423
-2.7834 14.6861 1.6051 0.9416
-3.9323 14.8390 1.6484 0.9401
-5.1336 14.9492 1.6973 0.9384
-6.5387 13.9472 1.6541 0.9399
-7.4217 13.2640 1.6321 0.9407
-7.9277 13.0471 1.6394 0.9404
-8.5843 13.0489 1.6772 0.9391
-9.9975 13.0528 1.7655 0.9360
-14.2942 13.9636 2.1458 0.9228
-16.5073 13.9592 2.3214 0.9167
-19.2092 14.0121 2.5532 0.9088
-22.3838 13.9861 2.8342 0.8993
-19.7165 -22.5456 2.5354 0.8867
-17.7774 -21.8634 2.3854 0.8930
-15.6377 -22.3291 2.3077 0.8963
-13.1274 -21.9394 2.1643 0.9025
-11.3037 -22.3933 2.1235 0.9042
-10.3145 -22.3961 2.0873 0.9058
-9.3573 -22.3988 2.0549 0.9072
-7.5219 -22.3988 2.0002 0.9095
-5.7742 -22.4037 1.9585 0.9113
-3.2641 -22.4107 1.9171 0.9131
-1.6368 -22.4152 1.9026 0.9137
-0.0258 -22.4197 1.8979 0.9139
0.7788 -22.4219 1.8992 0.9139
1.5856 -22.4242 1.9030 0.9137
32.5995 -37.4507 4.2031 0.8193
32.6134 -32.4444 3.8943 0.8314
33.0163 -30.5692 3.8090 0.8347
32.6277 -26.1262 3.5384 0.8455
40.6186 -25.8968 4.0779 0.8242
32.9807 7.4294 2.8619 0.8731
42.9056 12.9582 3.7941 0.8353
34.9820 13.3693 3.1702 0.8604
27.6882 16.7631 2.7400 0.8782
26.9664 17.6779 2.7296 0.8786
25.7836 18.2573 2.6744 0.8809
35.1739 26.8510 3.7460 0.8372
28.2727 24.9853 3.1940 0.8594
3.1446 24.1203 2.0591 0.9070
2.1469 22.8282 1.9410 0.9121
-0.1878 13.5697 1.1488 0.9470
-1.1644 13.5724 1.1532 0.9468
-2.1612 13.6242 1.1677 0.9461
-2.6763 13.6801 1.1800 0.9456
-3.1950 13.7034 1.1911 0.9451
-3.7211 13.7153 1.2030 0.9445
-4.2656 13.7505 1.2187 0.9438
-4.8315 13.8045 1.2381 0.9430
-6.0498 13.9800 1.2895 0.9407
-6.6393 13.9475 1.3076 0.9399
-7.2648 13.9492 1.3314 0.9388
-10.9345 14.1034 1.5107 0.9309
-11.4333 13.7022 1.5107 0.9309
-12.6453 13.1164 1.5423 0.9295
-14.4641 13.9641 1.7019 0.9225
-18.8337 15.7373 2.0777 0.9062
-20.2740 15.7413 2.1728 0.9021
-22.9862 14.1750 2.2861 0.8973
-34.2183 -23.1726 3.4984 0.8471
-26.3825 -22.3514 2.9271 0.8704
-21.2709 -22.3657 2.6128 0.8835
-16.9230 -22.1366 2.3588 0.8942
-14.6961 -22.3839 2.2668 0.8981
-13.2377 -21.8309 2.1613 0.9026
-8.5789 -22.4009 2.0306 0.9082
-6.7825 -22.4009 1.9813 0.9103
-3.3989 -22.4103 1.9188 0.9130
-2.5809 -22.4126 1.9098 0.9134
2.2615 -4.1879 0.4029 0.9811
33.1724 -35.8778 4.1364 0.8219
32.8966 -30.8201 3.8161 0.8345
39.4221 -25.4617 3.9727 0.8283
44.4429 13.1375 3.9231 0.8302
35.2588 14.7010 3.2338 0.8578
31.1401 14.3154 2.9013 0.8715
29.5810 14.9061 2.8041 0.8755
26.9405 16.0945 2.6566 0.8816
27.2726 17.6499 2.7500 0.8777
35.1730 26.5240 3.7292 0.8379
29.9354 24.3064 3.2643 0.8566
30.0231 28.1795 3.4857 0.8476
1.4583 22.8301 1.9366 0.9123
0.3789 13.5681 1.1490 0.9470
-0.5951 13.5709 1.1499 0.9469
-1.0839 13.5722 1.1526 0.9468
-3.1097 13.7020 1.1894 0.9452
-6.0491 14.2075 1.3072 0.9399
-6.5387 13.9472 1.3040 0.9400
-7.1606 13.9490 1.3273 0.9390
-8.7140 15.5736 1.5107 0.9309
-9.2669 15.2510 1.5107 0.9309
-9.8079 14.9089 1.5107 0.9309
-10.8513 14.1675 1.5107 0.9309
-12.5042 13.1238 1.5345 0.9298
-14.2942 13.9636 1.6916 0.9229
-17.0937 15.5402 1.9556 0.9114
-18.6091 15.7366 2.0631 0.9068
-21.8177 15.9149 2.2861 0.8973
-22.3744 15.1222 2.2861 0.8973
-22.9023 14.3101 2.2861 0.8973
-34.6936 -23.1977 3.5330 0.8457
-19.5633 -22.3704 1.8428 0.8877
-14.8606 -19.6779 1.5291 0.9059
-15.2047 -21.7109 1.6436 0.8992
-7.5219 -22.3988 1.4652 0.9097
-6.6388 -22.4013 1.4488 0.9106
-4.9170 -22.3688 1.4202 0.9123
-4.0825 -22.3711 1.4101 0.9129
-3.2526 -22.3315 1.3994 0.9135
-2.4473 -22.4130 1.3981 0.9136
-1.6368 -22.4152 1.3937 0.9139
-0.8303 -22.4175 1.3911 0.9140
1.5856 -22.4242 1.3940 0.9138
6.9308 -27.1500 1.7376 0.8938
2.2926 -4.1863 0.2959 0.9811
32.5995 -37.4507 3.0789 0.8196
34.4863 -25.6401 2.6648 0.8418
37.1200 -25.5836 2.7956 0.8347
37.0745 12.6649 2.4294 0.8547
34.6709 13.2504 2.3016 0.8618
34.5770 16.1427 2.3663 0.8582
29.1695 14.9148 2.0315 0.8770
35.0492 19.5374 2.4883 0.8514
35.0539 21.2225 2.5410 0.8486
34.7777 24.6260 2.6425 0.8430
33.8272 25.8230 2.6390 0.8432
30.3270 26.8008 2.5097 0.8503
3.1495 24.1575 1.5107 0.9070
1.3234 22.8305 1.4181 0.9124
0.2990 13.5684 0.8416 0.9471
-0.6752 13.5711 0.8426 0.9470
-1.1644 13.5724 0.8447 0.9469
-1.6567 13.5738 0.8480 0.9467
-2.1535 13.5752 0.8523 0.9464
-2.6560 13.5766 0.8578 0.9461
-3.1658 13.5780 0.8646 0.9457
-4.2130 13.5809 0.8817 0.9446
-5.3085 13.5839 0.9044 0.9432
-6.0498 13.9800 0.9446 0.9408
-7.2648 13.9492 0.9753 0.9389
-12.7612 17.7385 1.3550 0.9161
-13.2079 17.0356 1.3367 0.9172
-13.2112 15.8329 1.2787 0.9207
-13.2143 14.7289 1.2270 0.9238
-14.4641 13.9641 1.2467 0.9226
-15.7643 14.1629 1.3141 0.9186
-17.1830 14.3579 1.3885 0.9142
-20.5591 14.8121 1.5713 0.9034
-24.5465 -22.3566 2.0588 0.8754
-19.7964 -22.3697 1.8523 0.8872
-15.5713 -18.9216 1.5196 0.9065
-14.8094 -19.3719 1.5121 0.9069
-15.1441 -21.3556 1.6234 0.9004
-14.6961 -22.3839 1.6605 0.8982
-10.4746 -22.3956 1.5332 0.9057
-9.5124 -22.3983 1.5090 0.9071
-5.0551 -22.3684 1.4221 0.9122
-4.2187 -22.3707 1.4117 0.9128
-3.3989 -22.4103 1.4056 0.9132
-1.7695 -22.4149 1.3943 0.9138
-0.9625 -22.4171 1.3914 0.9140
-0.1578 -22.4193 1.3903 0.9141
1.4529 -22.4238 1.3934 0.9139
33.1779 -33.3971 2.9192 0.8281
32.7619 -30.6939 2.7839 0.8353
33.8076 -25.4460 2.6239 0.8440
37.0667 -25.8702 2.8030 0.8343
49.7078 -3.5494 3.0902 0.8190
43.7289 12.9264 2.8276 0.8330
34.6776 13.0194 2.2969 0.8620
34.6343 14.4406 2.3269 0.8604
34.5855 15.8993 2.3604 0.8585
35.0531 20.9409 2.5320 0.8490
35.0579 22.6883 2.5895 0.8459
34.7930 24.3305 2.6327 0.8435
34.8552 26.2844 2.7071 0.8395
31.1512 25.2935 2.4883 0.8514
0.3789 13.5681 0.8417 0.9471
-0.5951 13.5709 0.8423 0.9470
-1.0839 13.5722 0.8443 0.9469
-1.5756 13.5736 0.8474 0.9467
-2.5730 13.5763 0.8569 0.9461
-3.0815 13.5777 0.8634 0.9457
-4.6641 13.5822 0.8905 0.9441
-5.2164 13.5837 0.9023 0.9434
-6.0491 14.2075 0.9575 0.9400
-6.5387 13.9472 0.9552 0.9401
-7.1606 13.9490 0.9723 0.9391
-10.7750 17.7330 1.2867 0.9202
-11.6673 17.7355 1.3164 0.9184
-13.2073 17.2436 1.3469 0.9166
-15.5506 14.1374 1.3032 0.9192
-16.9346 14.3206 1.3753 0.9150
-20.2480 14.7699 1.5541 0.9044
-16.5448 -18.9188 0.9910 0.9043
-15.3858 -18.9221 0.9616 0.9070
-14.2921 -18.9251 0.9351 0.9094
-13.9642 -21.5446 1.0124 0.9023
-13.1728 -22.0152 1.0116 0.9024
-9.3803 -22.4536 0.9595 0.9072
-8.4282 -22.4013 0.9438 0.9086
-6.6551 -22.4562 0.9235 0.9105
-4.9027 -22.3038 0.9005 0.9126
-4.1083 -22.5127 0.9024 0.9125
-1.6496 -22.5908 0.8931 0.9133
1.5856 -22.4242 0.8864 0.9139
2.2926 -4.1863 0.1882 0.9811
32.6134 -32.4444 1.8139 0.8318
32.6277 -26.1262 1.6482 0.8459
37.3277 -25.7267 1.7876 0.8340
43.5669 13.1580 1.7945 0.8334
35.0321 13.3884 1.4788 0.8606
35.0447 17.9188 1.5520 0.8542
35.1851 21.3019 1.6218 0.8482
35.0588 22.9829 1.6530 0.8455
35.0693 26.7712 1.7397 0.8381
2.1469 22.8282 0.9041 0.9123
1.3234 22.8305 0.9017 0.9125
-1.3613 15.8681 0.6280 0.9382
-1.9369 15.8697 0.6304 0.9380
-4.3074 15.8763 0.6487 0.9363
-4.9256 15.8780 0.6555 0.9356
-5.5579 15.8798 0.6634 0.9349
-6.0456 15.4703 0.6549 0.9357
-6.0498 13.9800 0.6006 0.9408
-6.6393 13.9475 0.6091 0.9400
-11.8178 17.7359 0.8404 0.9182
-12.7613 17.7385 0.8616 0.9162
-13.2079 17.0356 0.8500 0.9173
-13.2143 14.7289 0.7803 0.9238
-17.6882 15.8914 0.9376 0.9092
-20.3293 13.5663 0.9637 0.9068
-26.3825 -22.3514 1.3634 0.8707
-14.4675 -18.9246 0.9393 0.9090
-13.2650 -21.8759 1.0088 0.9027
-12.5012 -22.3900 1.0112 0.9024
-10.4746 -22.3956 0.9749 0.9058
-9.5358 -22.4532 0.9619 0.9070
-8.5789 -22.4009 0.9458 0.9084
-6.7991 -22.4558 0.9252 0.9104
-5.9150 -22.4033 0.9137 0.9114
-5.0551 -22.3684 0.9042 0.9123
-4.2454 -22.5123 0.9033 0.9124
-2.5809 -22.4126 0.8896 0.9136
-1.7834 -22.5904 0.8935 0.9133
-0.9625 -22.4171 0.8847 0.9141
-0.1578 -22.4193 0.8840 0.9142
2.2615 -4.1879 0.1877 0.9811
32.8990 -30.8224 1.7776 0.8349
39.4221 -25.4617 1.8505 0.8287
35.1092 13.1815 1.4787 0.8606
35.0355 14.6079 1.4968 0.8590
35.0397 16.1081 1.5207 0.8569
35.0440 17.6589 1.5473 0.8546
35.1843 21.0193 1.6161 0.8487
35.0630 24.5193 1.6871 0.8426
35.0684 26.4451 1.7319 0.8388
2.2826 22.8279 0.9046 0.9123
0.4430 15.8631 0.6257 0.9384
-0.6957 15.8663 0.6262 0.9384
-1.8421 15.8695 0.6300 0.9380
-3.0083 15.8727 0.6370 0.9374
-3.6027 15.8744 0.6419 0.9369
-5.4530 15.8795 0.6620 0.9350
-6.0449 15.7411 0.6649 0.9347
-6.5387 13.9472 0.6074 0.9402
-9.9209 17.7307 0.8011 0.9219
-10.7750 17.7330 0.8182 0.9203
-11.6673 17.7355 0.8371 0.9185
-12.6031 17.7381 0.8580 0.9166
-13.2073 17.2436 0.8565 0.9167
-13.2138 14.9040 0.7854 0.9234
-13.3018 13.9609 0.7604 0.9257
-14.2942 13.9636 0.7879 0.9231
-17.2511 13.5578 0.8652 0.9159
-18.5914 13.5615 0.9074 0.9120
-13.1728 -22.0152 0.4334 0.9025
-11.3037 -22.3933 0.4237 0.9045
-10.3145 -22.3961 0.4165 0.9061
-9.3803 -22.4536 0.4110 0.9072
-8.4282 -22.4013 0.4043 0.9087
-7.5219 -22.3988 0.3991 0.9098
-4.9027 -22.3038 0.3857 0.9127
-4.1083 -22.5127 0.3866 0.9125
-1.6496 -22.5908 0.3826 0.9134
2.2926 -4.1863 0.0806 0.9811
32.5995 -37.4507 0.8387 0.8198
33.7120 -36.0335 0.8335 0.8209
32.6277 -26.1262 0.7061 0.8460
34.5916 -25.7184 0.7281 0.8416
40.3718 -25.7394 0.8088 0.8257
44.3871 13.4057 0.7832 0.8307
39.2735 13.4160 0.7010 0.8470
35.1322 13.4267 0.6353 0.8603
35.1851 21.3019 0.6948 0.8483
35.4010 27.0244 0.7523 0.8368
2.7782 13.6084 0.2346 0.9460
-0.2196 15.8650 0.2680 0.9385
-0.7894 15.8666 0.2683 0.9384
-1.3613 15.8681 0.2690 0.9383
-1.4999 12.2890 0.2091 0.9517
-1.9164 12.0810 0.2066 0.9522
-3.1053 15.8730 0.2732 0.9373
-4.3074 15.8763 0.2779 0.9363
-4.3260 12.3601 0.2212 0.9490
-6.0456 15.4703 0.2806 0.9357
-6.4129 12.3134 0.2345 0.9460
-10.9187 17.7334 0.3518 0.9201
-11.8178 17.7359 0.3600 0.9183
-12.7613 17.7385 0.3691 0.9163
-13.2079 17.0356 0.3641 0.9174
-10.2415 12.2738 0.2700 0.9381
-13.2143 14.7289 0.3343 0.9239
-13.4599 13.9613 0.3276 0.9254
-14.9020 12.4520 0.3280 0.9253
-33.2599 23.9626 0.6924 0.8487
-30.3593 -3.9366 0.5171 0.8847
-24.7387 -22.5316 0.5652 0.8747
-22.8490 -22.3613 0.5400 0.8799
-19.8765 -22.4603 0.5066 0.8869
-17.9918 -21.8628 0.4783 0.8929
-16.9230 -22.1366 0.4707 0.8945
-14.5456 -22.1546 0.4477 0.8994
-13.2650 -21.8759 0.4322 0.9027
-12.5012 -22.3900 0.4332 0.9025
-11.5592 -22.5682 0.4283 0.9035
-9.5358 -22.4532 0.4121 0.9070
-8.5789 -22.4009 0.4052 0.9085
-5.9150 -22.4033 0.3914 0.9115
-4.2454 -22.5123 0.3870 0.9124
-2.5809 -22.4126 0.3811 0.9137
-1.7834 -22.5904 0.3828 0.9133
0.6517 -22.5971 0.3819 0.9135
2.2615 -4.1878 0.0804 0.9811
32.5982 -37.8977 0.8444 0.8187
33.3168 -36.0341 0.8290 0.8217
32.8959 -30.8194 0.7614 0.8350
44.8206 13.2491 0.7895 0.8295
39.8320 13.3454 0.7096 0.8453
36.0464 15.0294 0.6597 0.8554
35.2981 17.7870 0.6677 0.8537
35.3946 24.7512 0.7296 0.8413
35.4000 26.6952 0.7489 0.8375
2.8674 13.6353 0.2354 0.9458
2.2826 22.8279 0.3875 0.9123
0.8109 12.6945 0.2149 0.9504
0.3476 12.4467 0.2103 0.9514
-1.2672 15.8679 0.2689 0.9383
-2.3424 12.3595 0.2125 0.9509
-6.0491 14.2075 0.2608 0.9401
-9.9209 17.7307 0.3432 0.9219
-8.1191 12.3417 0.2495 0.9426
-13.2073 17.2436 0.3669 0.9168
-10.3486 12.5518 0.2748 0.9370
-13.2138 14.9040 0.3365 0.9234
-13.3018 13.9609 0.3257 0.9258
-17.4794 15.8908 0.3990 0.9098
-33.2591 24.2608 0.6954 0.8482
-33.2640 22.4822 0.6782 0.8516
-19.7165 -22.5456 -0.1686 0.8871
-15.7969 -22.5565 -0.1550 0.8957
-12.3813 -22.4854 -0.1445 0.9024
-11.3037 -22.3933 -0.1412 0.9045
-9.4122 -22.5301 -0.1375 0.9069
-8.4282 -22.4013 -0.1348 0.9087
-5.7742 -22.4037 -0.1303 0.9116
-4.9027 -22.3038 -0.1286 0.9127
-2.4473 -22.4130 -0.1269 0.9138
-1.6496 -22.5908 -0.1275 0.9134
32.5995 -37.4507 -0.2796 0.8199
33.7137 -36.0353 -0.2778 0.8209
32.6134 -32.4444 -0.2590 0.8319
32.8865 -30.4490 -0.2523 0.8359
32.6277 -26.1262 -0.2353 0.8460
34.5877 -25.7155 -0.2427 0.8416
40.3668 -25.7362 -0.2695 0.8257
39.1280 13.3664 -0.2328 0.8476
36.0118 15.2645 -0.2202 0.8552
35.1669 17.9813 -0.2224 0.8539
35.1900 23.0689 -0.2369 0.8451
35.2005 26.8714 -0.2493 0.8377
3.2754 13.5456 -0.0785 0.9458
2.7635 13.5366 -0.0778 0.9462
1.1924 12.6789 -0.0717 0.9503
0.2641 11.9853 -0.0675 0.9532
-0.1658 11.9770 -0.0674 0.9532
-0.6044 12.1480 -0.0685 0.9525
-1.0493 12.2313 -0.0691 0.9521
-1.4936 12.2371 -0.0694 0.9519
-1.8831 11.8707 -0.0677 0.9531
-3.7726 12.1614 -0.0717 0.9503
-4.1464 11.8469 -0.0707 0.9510
-4.6787 11.9723 -0.0724 0.9499
-5.2960 12.2381 -0.0751 0.9481
-6.9062 12.1739 -0.0788 0.9456
-7.5261 12.2234 -0.0808 0.9442
-8.1774 12.2724 -0.0830 0.9427
-9.4400 12.1757 -0.0867 0.9402
-10.1757 12.1951 -0.0894 0.9384
-10.6627 11.8849 -0.0899 0.9381
-11.6775 12.1125 -0.0947 0.9349
-12.3265 11.9004 -0.0965 0.9338
-15.2720 11.8575 -0.1089 0.9256
-18.1675 12.1236 -0.1230 0.9163
-22.8646 11.9282 -0.1452 0.9020
-30.4005 -3.9419 -0.1726 0.8846
-24.7387 -22.5316 -0.1884 0.8747
-22.8490 -22.3613 -0.1800 0.8800
-19.8765 -22.4603 -0.1689 0.8869
-17.9918 -21.8628 -0.1594 0.8929
-15.9953 -22.5559 -0.1557 0.8953
-13.2650 -21.8759 -0.1440 0.9027
-11.5592 -22.5682 -0.1428 0.9035
-10.4746 -22.3956 -0.1392 0.9058
-8.5789 -22.4009 -0.1351 0.9085
-6.8356 -22.5764 -0.1328 0.9100
-5.0551 -22.3684 -0.1291 0.9124
-0.1578 -22.4193 -0.1262 0.9142
0.6517 -22.5971 -0.1273 0.9135
2.2615 -4.1878 -0.0268 0.9811
32.5982 -37.8977 -0.2814 0.8188
33.3186 -36.0360 -0.2763 0.8218
33.8076 -25.4460 -0.2382 0.8443
37.1924 -25.9579 -0.2554 0.8341
34.5120 -3.7123 -0.1954 0.8704
39.8320 13.3454 -0.2365 0.8453
36.0006 16.5498 -0.2231 0.8534
35.2981 17.7870 -0.2225 0.8538
34.1322 18.7637 -0.2193 0.8557
35.1843 21.0193 -0.2308 0.8488
35.1891 22.7732 -0.2360 0.8456
35.1996 26.5441 -0.2482 0.8383
3.3070 13.3321 -0.0773 0.9465
2.8601 13.6006 -0.0782 0.9459
1.2670 12.6716 -0.0717 0.9503
0.3445 12.3351 -0.0695 0.9518
-0.0992 12.4787 -0.0703 0.9513
-3.7100 12.2131 -0.0719 0.9502
-4.5890 11.9498 -0.0721 0.9501
-5.1147 12.0129 -0.0735 0.9491
-7.3048 12.0220 -0.0792 0.9453
-10.0173 12.1499 -0.0887 0.9390
-11.5770 12.1506 -0.0945 0.9351
-15.2544 11.9885 -0.1092 0.9253
-17.8725 12.0795 -0.1215 0.9173
-24.6704 11.9435 -0.1543 0.8962
-19.4430 -22.2329 -0.8316 0.8885
-17.7774 -21.8634 -0.7934 0.8934
-15.7969 -22.5565 -0.7754 0.8957
-14.2985 -22.0604 -0.7402 0.9001
-12.2367 -22.2228 -0.7143 0.9035
-10.2499 -22.2556 -0.6899 0.9066
-8.3903 -22.3007 -0.6709 0.9091
-6.6183 -22.3321 -0.6559 0.9110
-4.9151 -22.3604 -0.6446 0.9125
-4.1083 -22.5127 -0.6444 0.9125
-3.2598 -22.3813 -0.6369 0.9135
-2.4447 -22.3892 -0.6342 0.9138
-1.6353 -22.3954 -0.6323 0.9141
0.7782 -22.4043 -0.6312 0.9142
1.5841 -22.4041 -0.6324 0.9140
2.2926 -4.1862 -0.1344 0.9811
32.5995 -37.4507 -1.3981 0.8198
32.8257 -30.3927 -1.2596 0.8361
41.1088 -2.6922 -1.1600 0.8480
38.5475 13.1681 -1.1470 0.8496
35.8630 16.7431 -1.1144 0.8535
35.0485 17.9208 -1.1084 0.8543
34.9791 26.7023 -1.2391 0.8385
4.1448 14.7963 -0.4327 0.9404
3.2797 13.5632 -0.3929 0.9457
1.6735 12.8361 -0.3645 0.9495
1.1689 12.4294 -0.3515 0.9513
0.2651 12.0337 -0.3389 0.9530
-0.1671 12.0736 -0.3400 0.9528
-0.6051 12.1632 -0.3429 0.9524
-1.4611 11.9715 -0.3396 0.9529
-2.3239 11.8789 -0.3408 0.9527
-3.2436 11.9555 -0.3488 0.9516
-3.7065 11.9483 -0.3523 0.9512
-4.1395 11.8274 -0.3528 0.9511
-4.6334 11.8565 -0.3584 0.9503
-5.6294 11.8260 -0.3688 0.9489
-6.1945 11.8940 -0.3776 0.9478
-6.7298 11.8631 -0.3840 0.9469
-9.8364 11.7884 -0.4323 0.9404
-16.6689 12.0093 -0.5785 0.9211
-19.2875 11.8941 -0.6381 0.9133
-24.9951 11.9196 -0.7797 0.8951
-24.4694 -22.2863 -0.9319 0.8760
-22.7529 -22.2672 -0.8964 0.8804
-21.1611 -22.2503 -0.8646 0.8844
-19.6773 -22.2352 -0.8361 0.8880
-17.9918 -21.8628 -0.7973 0.8929
-16.9230 -22.1366 -0.7846 0.8945
-12.4076 -22.2223 -0.7167 0.9032
-11.3835 -22.2251 -0.7031 0.9049
-10.4072 -22.2515 -0.6917 0.9064
-9.4603 -22.2756 -0.6815 0.9077
-8.5393 -22.2973 -0.6723 0.9089
-5.8995 -22.3449 -0.6507 0.9117
-5.0529 -22.3583 -0.6454 0.9124
-3.3943 -22.3799 -0.6374 0.9134
-2.5781 -22.3880 -0.6346 0.9138
-0.9617 -22.3994 -0.6313 0.9142
0.6461 -22.4042 -0.6311 0.9142
1.4516 -22.4042 -0.6322 0.9141
32.8256 -33.0424 -1.3115 0.8300
32.8306 -30.7582 -1.2668 0.8353
39.4221 -25.4617 -1.3214 0.8288
34.5150 -3.7127 -0.9775 0.8703
44.5035 13.1554 -1.3067 0.8305
39.2964 13.1660 -1.1669 0.8472
35.2414 13.2311 -1.0600 0.8602
36.0464 15.0294 -1.0997 0.8553
36.0006 16.5498 -1.1157 0.8534
35.0478 17.6609 -1.1051 0.8547
33.6570 20.1069 -1.1039 0.8548
33.6616 21.7847 -1.1290 0.8518
34.3991 34.6895 -1.3756 0.8224
4.3400 15.1491 -0.4437 0.9389
2.2551 13.0276 -0.3723 0.9485
1.2728 12.7294 -0.3602 0.9501
0.7878 12.3336 -0.3480 0.9517
-0.0966 12.1548 -0.3423 0.9525
-0.5223 11.9111 -0.3357 0.9534
-0.9600 12.0208 -0.3396 0.9529
-1.3704 11.8056 -0.3347 0.9536
-1.8699 12.2538 -0.3490 0.9516
-2.2399 11.8184 -0.3387 0.9530
-2.7441 12.0910 -0.3491 0.9516
-3.1873 12.0277 -0.3504 0.9514
-3.5783 11.7794 -0.3466 0.9519
-4.1011 11.9426 -0.3556 0.9507
-5.1040 11.9876 -0.3669 0.9492
-6.0356 11.7575 -0.3721 0.9485
-7.1815 11.8191 -0.3894 0.9462
-9.0406 11.8035 -0.4186 0.9422
-10.5419 11.8904 -0.4474 0.9384
-11.3402 11.9021 -0.4629 0.9363
-15.2330 11.9717 -0.5455 0.9254
-16.2021 11.8186 -0.5647 0.9229
-20.5937 11.8626 -0.6692 0.9093
-22.4817 11.8974 -0.7162 0.9032
-24.5698 11.8948 -0.7686 0.8965
-16.7264 -22.1486 -1.4076 0.8948
-15.7969 -22.5565 -1.3966 0.8956
-13.1728 -22.0152 -1.3011 0.9024
-11.3037 -22.3933 -1.2721 0.9044
-10.3145 -22.3961 -1.2505 0.9060
-9.3573 -22.3988 -1.2311 0.9074
-8.4282 -22.4013 -1.2138 0.9086
-7.5219 -22.3988 -1.1983 0.9097
-4.9252 -22.4061 -1.1634 0.9122
-4.1083 -22.5127 -1.1606 0.9124
-3.2641 -22.4107 -1.1485 0.9133
-0.0258 -22.4197 -1.1370 0.9141
1.5856 -22.4242 -1.1401 0.9139
6.4640 -35.8888 -1.8494 0.8641
7.7469 -35.6339 -1.8494 0.8641
11.1273 -37.8663 -2.0016 0.8538
15.1299 -36.4522 -2.0016 0.8538
16.4274 -35.8862 -2.0016 0.8538
20.1867 -33.9142 -2.0016 0.8538
22.5657 -32.3800 -2.0016 0.8538
23.7124 -31.5499 -2.0016 0.8538
24.8286 -30.6792 -2.0016 0.8538
26.9691 -26.8294 -1.9292 0.8587
26.9912 -24.9906 -1.8655 0.8630
29.2643 -21.7576 -1.8494 0.8641
30.0257 -20.6941 -1.8494 0.8641
30.7485 -19.6040 -1.8494 0.8641
31.4318 -18.4887 -1.8494 0.8641
32.0746 -17.3495 -1.8494 0.8641
35.8064 -16.1665 -1.9924 0.8544
36.5303 -14.9403 -2.0016 0.8538
37.0426 -13.6207 -2.0016 0.8538
37.5072 -12.2835 -2.0016 0.8538
38.2912 -9.5634 -2.0016 0.8538
38.6096 -8.1840 -2.0016 0.8538
38.8782 -6.7941 -2.0016 0.8538
34.0741 -3.4624 -1.7369 0.8718
36.6171 -2.3980 -1.8610 0.8633
39.4322 1.6656 -2.0016 0.8538
39.0253 5.8911 -2.0016 0.8538
38.7889 7.2869 -2.0016 0.8538
36.6222 8.2497 -1.9038 0.8604
33.2196 8.7460 -1.7421 0.8715
34.9089 10.5432 -1.8494 0.8641
34.0634 13.0182 -1.8494 0.8641
33.5746 14.2314 -1.8494 0.8641
33.0426 15.4264 -1.8494 0.8641
32.4682 16.6014 -1.8494 0.8641
30.3208 16.9017 -1.7605 0.8702
29.5931 17.9163 -1.7544 0.8706
29.7607 21.0735 -1.8494 0.8641
26.5959 29.1604 -2.0016 0.8538
25.5330 30.0955 -2.0016 0.8538
22.1530 32.6637 -2.0016 0.8538
19.7547 34.1676 -2.0016 0.8538
17.2548 35.4958 -2.0016 0.8538
15.9707 36.0917 -2.0016 0.8538
3.2095 13.2730 -0.6925 0.9468
2.1584 12.9217 -0.6644 0.9489
1.6431 12.6028 -0.6446 0.9504
1.1695 12.4351 -0.6334 0.9512
0.2640 11.9811 -0.6078 0.9531
-0.1667 12.0463 -0.6110 0.9529
-0.6056 12.1718 -0.6180 0.9524
-1.0252 11.9504 -0.6083 0.9531
-1.8882 11.9031 -0.6112 0.9529
-2.3217 11.8679 -0.6133 0.9527
-2.7823 11.9333 -0.6214 0.9521
-3.2323 11.9135 -0.6260 0.9518
-3.6843 11.8766 -0.6306 0.9514
-5.6799 11.9320 -0.6702 0.9484
-7.9259 11.8951 -0.7249 0.9444
-9.9034 11.8686 -0.7839 0.9400
-10.6258 11.8438 -0.8070 0.9383
-11.4257 11.8513 -0.8349 0.9362
-12.3452 11.9184 -0.8702 0.9336
-13.2549 11.9085 -0.9037 0.9311
-17.8512 11.9126 -1.0884 0.9176
-21.1254 12.0037 -1.2322 0.9073
-24.2580 11.5681 -1.3630 0.8980
-33.4569 14.5060 -1.8494 0.8641
-37.2426 13.0639 -2.0016 0.8538
-38.4303 8.9883 -2.0016 0.8538
-38.7279 7.6044 -2.0016 0.8538
-39.1733 4.8088 -2.0016 0.8538
-30.0834 -3.9008 -1.5384 0.8856
-38.3682 -9.2495 -2.0016 0.8538
-37.6066 -11.9759 -2.0016 0.8538
-37.1529 -13.3168 -2.0016 0.8538
-36.6514 -14.6407 -2.0016 0.8538
-36.1028 -15.9457 -2.0016 0.8538
-35.5077 -17.2301 -2.0016 0.8538
-34.8670 -18.4925 -2.0016 0.8538
-22.7368 -16.6171 -1.4282 0.8933
-28.6509 -22.5592 -1.8494 0.8641
-22.8490 -22.3613 -1.6214 0.8798
-19.7964 -22.3697 -1.5149 0.8872
-15.9953 -22.5559 -1.4023 0.8952
-14.5456 -22.1546 -1.3441 0.8993
-12.5012 -22.3900 -1.3005 0.9024
-5.0636 -22.4057 -1.1649 0.9121
-4.2454 -22.5123 -1.1618 0.9123
-1.7695 -22.4149 -1.1403 0.9139
1.4529 -22.4238 -1.1396 0.9139
4.9601 -36.1274 -1.8494 0.8641
6.2525 -35.9262 -1.8494 0.8641
6.7947 -27.2860 -1.4260 0.8935
10.9041 -37.9312 -2.0016 0.8538
13.5949 -37.0520 -2.0016 0.8538
16.2158 -35.9823 -2.0016 0.8538
17.4958 -35.3776 -2.0016 0.8538
2.2615 -4.1878 -0.2414 0.9811
19.9866 -34.0325 -2.0016 0.8538
23.5262 -31.6890 -2.0016 0.8538
24.6475 -30.8249 -2.0016 0.8538
25.7371 -29.9212 -2.0016 0.8538
27.4888 -23.9615 -1.8494 0.8641
29.9033 -20.8706 -1.8494 0.8641
30.6325 -19.7847 -1.8494 0.8641
32.8516 -16.5166 -1.8648 0.8631
35.2616 -16.1712 -1.9674 0.8561
36.4417 -15.1552 -2.0016 0.8538
36.9617 -13.8386 -2.0016 0.8538
38.2342 -9.7887 -2.0016 0.8538
38.5607 -8.4113 -2.0016 0.8538
36.5235 -2.6080 -1.8570 0.8636
39.4427 -1.3974 -2.0016 0.8538
39.4674 0.0180 -2.0016 0.8538
39.4414 1.4334 -2.0016 0.8538
39.3646 2.8470 -2.0016 0.8538
39.2372 4.2568 -2.0016 0.8538
39.0593 5.6612 -2.0016 0.8538
38.8311 7.0584 -2.0016 0.8538
35.3186 9.0766 -1.8494 0.8641
34.9704 10.3374 -1.8494 0.8641
34.5772 11.5848 -1.8494 0.8641
34.1395 12.8174 -1.8494 0.8641
33.6578 14.0335 -1.8494 0.8641
32.5654 16.4099 -1.8494 0.8641
30.7390 16.8983 -1.7789 0.8689
29.8843 20.8978 -1.8494 0.8641
29.1156 21.9561 -1.8494 0.8641
27.8572 22.6189 -1.8198 0.8661
27.4669 23.9866 -1.8494 0.8641
27.2666 27.4968 -1.9639 0.8563
23.4973 31.7105 -2.0016 0.8538
21.1639 33.3131 -2.0016 0.8538
18.7216 34.7445 -2.0016 0.8538
17.4635 35.3935 -2.0016 0.8538
16.1830 35.9970 -2.0016 0.8538
14.8816 36.5543 -2.0016 0.8538
13.5611 37.0644 -2.0016 0.8538
4.2672 14.8952 -0.7858 0.9398
3.2928 13.2747 -0.6936 0.9467
1.7537 12.8600 -0.6582 0.9493
-1.3859 11.9393 -0.6096 0.9530
-2.2713 11.9844 -0.6186 0.9523
-2.7399 12.0724 -0.6278 0.9516
-3.1181 11.7667 -0.6173 0.9524
-4.1316 12.0314 -0.6451 0.9503
-5.1018 11.9824 -0.6605 0.9492
-6.1305 11.9423 -0.6808 0.9477
-6.6818 11.9417 -0.6940 0.9467
-8.4909 11.9504 -0.7435 0.9430
-10.5295 11.8764 -0.8049 0.9384
-12.2408 11.9577 -0.8678 0.9338
-15.2009 11.9465 -0.9805 0.9255
-16.3286 11.9109 -1.0250 0.9222
-18.8877 11.8016 -1.1295 0.9147
-33.3709 14.7027 -1.8494 0.8641
-38.3767 9.2145 -2.0016 0.8538
-38.9385 6.4400 -2.0016 0.8538
-39.1444 5.0394 -2.0016 0.8538
-39.4049 2.2206 -2.0016 0.8538
-39.4627 -0.6096 -2.0016 0.8538
-39.4155 -2.0245 -2.0016 0.8538
-39.3175 -3.4367 -2.0016 0.8538
-39.1689 -4.8445 -2.0016 0.8538
-38.9700 -6.2461 -2.0016 0.8538
-38.4221 -9.0234 -2.0016 0.8538
-37.2307 -13.0978 -2.0016 0.8538
-36.1961 -15.7328 -2.0016 0.8538
-35.6086 -17.0207 -2.0016 0.8538
-34.9753 -18.2868 -2.0016 0.8538
-34.2970 -19.5294 -2.0016 0.8538
-31.0214 -19.1692 -1.8494 0.8641
-30.3140 -20.2694 -1.8494 0.8641
-16.6039 -18.9863 -1.8494 0.9038
-15.9123 -19.5696 -1.8494 0.9038
-12.1660 -22.0943 -1.8494 0.9038
-11.3037 -22.3933 -1.8393 0.9043
-9.3573 -22.3988 -1.7799 0.9072
-7.5219 -22.3989 -1.7325 0.9096
-6.6388 -22.4013 -1.7131 0.9105
-5.7742 -22.4037 -1.6964 0.9114
-4.8515 -22.0711 -1.6569 0.9134
-1.6368 -22.4152 -1.6479 0.9138
-0.8303 -22.4175 -1.6448 0.9140
0.7481 -21.5370 -1.5801 0.9172
1.5856 -22.4242 -1.6483 0.9138
3.5779 -24.9673 -1.8494 0.9038
4.4710 -24.8230 -1.8494 0.9038
7.1111 -24.1992 -1.8494 0.9038
12.2451 -24.3977 -2.0016 0.8963
2.2925 -4.1862 -0.3499 0.9810
13.9624 -23.4572 -2.0016 0.8963
14.7947 -22.9414 -2.0016 0.8963
15.6079 -22.3961 -2.0016 0.8963
17.1730 -21.2197 -2.0016 0.8963
17.9230 -20.5902 -2.0016 0.8963
18.6499 -19.9342 -2.0016 0.8963
19.3528 -19.2525 -2.0016 0.8963
21.3086 -17.0626 -2.0016 0.8963
23.5294 -13.8404 -2.0016 0.8963
24.8798 -11.2332 -2.0016 0.8963
25.2667 -10.3337 -2.0016 0.8963
25.9424 -8.4960 -2.0016 0.8963
26.4846 -6.6147 -2.0016 0.8963
26.7048 -5.6606 -2.0016 0.8963
27.1583 -2.7597 -2.0016 0.8963
27.2863 -0.8059 -2.0016 0.8963
27.2976 0.1732 -2.0016 0.8963
27.2738 1.1521 -2.0016 0.8963
27.1211 3.1041 -2.0016 0.8963
26.9924 4.0747 -2.0016 0.8963
26.8289 5.0401 -2.0016 0.8963
24.7353 11.5480 -2.0016 0.8963
24.3052 12.4276 -2.0016 0.8963
23.8439 13.2913 -2.0016 0.8963
22.8299 14.9662 -2.0016 0.8963
21.6984 16.5641 -2.0016 0.8963
21.0904 17.3316 -2.0016 0.8963
20.4553 18.0768 -2.0016 0.8963
19.1069 19.4966 -2.0016 0.8963
18.3954 20.1692 -2.0016 0.8963
17.6603 20.8160 -2.0016 0.8963
16.9024 21.4359 -2.0016 0.8963
15.3224 22.5923 -2.0016 0.8963
14.5024 23.1273 -2.0016 0.8963
13.6636 23.6325 -2.0016 0.8963
7.6701 24.0279 -1.8494 0.9038
3.2651 13.5030 -1.0186 0.9458
1.6557 12.6994 -0.9390 0.9499
1.1532 12.2618 -0.9030 0.9518
0.7041 12.1468 -0.8921 0.9524
0.2684 12.1817 -0.8934 0.9523
-0.6030 12.1193 -0.8897 0.9525
-1.0179 11.8653 -0.8732 0.9534
-2.3718 12.1238 -0.9058 0.9517
-3.6906 11.8968 -0.9133 0.9513
-4.1565 11.8758 -0.9226 0.9508
-5.1484 11.8970 -0.9505 0.9493
-6.7099 11.8279 -0.9971 0.9469
-7.8797 11.8256 -1.0419 0.9446
-8.5089 11.8277 -1.0683 0.9432
-9.2964 11.9905 -1.1125 0.9410
-9.8486 11.8030 -1.1271 0.9402
-14.8195 11.5062 -1.3757 0.9275
-15.9811 11.5138 -1.4442 0.9240
-17.2663 11.5223 -1.5220 0.9201
-18.6998 11.5317 -1.6109 0.9157
-20.3132 11.5422 -1.7131 0.9106
-22.1477 11.5542 -1.8316 0.9047
-23.4859 9.1969 -1.8494 0.9038
-23.8006 8.3487 -1.8494 0.9038
-26.0003 8.0855 -1.9965 0.8965
-26.9581 4.2956 -2.0016 0.8963
-27.1966 2.3522 -2.0016 0.8963
-27.2953 0.3968 -2.0016 0.8963
-27.2535 -1.5608 -2.0016 0.8963
-25.5519 -2.3852 -1.8817 0.9022
-24.9831 -4.1553 -1.8570 0.9034
-26.5379 -6.3975 -2.0016 0.8963
-24.9710 -11.0290 -2.0016 0.8963
-22.6030 -15.3067 -2.0016 0.8963
-21.9753 -16.0606 -1.9957 0.8966
-16.7154 -18.8882 -1.8494 0.9038
-16.0272 -19.4756 -1.8494 0.9038
-15.3185 -20.0378 -1.8494 0.9038
-13.8428 -21.0843 -1.8494 0.9038
-13.0778 -21.5671 -1.8494 0.9038
-12.2959 -22.0223 -1.8494 0.9038
-11.4694 -22.3929 -1.8447 0.9040
-10.4746 -22.3956 -1.8128 0.9056
-9.5124 -22.3983 -1.7843 0.9070
-8.5789 -22.4009 -1.7588 0.9083
-1.7695 -22.4149 -1.6486 0.9138
-0.1578 -22.4193 -1.6439 0.9140
3.4308 -24.9880 -1.8494 0.9038
5.2130 -24.6778 -1.8494 0.9038
10.3161 -25.2739 -2.0016 0.8963
14.6593 -23.0281 -2.0016 0.8963
15.4757 -22.4876 -2.0016 0.8963
19.2391 -19.3662 -2.0016 0.8963
19.9212 -18.6637 -2.0016 0.8963
20.5778 -17.9373 -2.0016 0.8963
21.2078 -17.1878 -2.0016 0.8963
21.8105 -16.4162 -2.0016 0.8963
23.9338 -13.1288 -2.0016 0.8963
24.3892 -12.2620 -2.0016 0.8963
24.8132 -11.3795 -2.0016 0.8963
25.2054 -10.4823 -2.0016 0.8963
26.1854 -7.7145 -2.0016 0.8963
26.4452 -6.7705 -2.0016 0.8963
26.6710 -5.8178 -2.0016 0.8963
27.0194 -3.8910 -2.0016 0.8963
27.2288 -1.9443 -2.0016 0.8963
27.0159 3.9157 -2.0016 0.8963
26.6657 5.8421 -2.0016 0.8963
26.1784 7.7384 -2.0016 0.8963
25.8840 8.6723 -2.0016 0.8963
25.5564 9.5949 -2.0016 0.8963
25.1958 10.5053 -2.0016 0.8963
23.9218 13.1506 -2.0016 0.8963
22.9176 14.8315 -2.0016 0.8963
21.7955 16.4361 -2.0016 0.8963
21.1921 17.2071 -2.0016 0.8963
20.5614 17.9561 -2.0016 0.8963
19.2214 19.3837 -2.0016 0.8963
17.7826 20.7116 -2.0016 0.8963
17.0284 21.3360 -2.0016 0.8963
16.2522 21.9330 -2.0016 0.8963
15.4552 22.5017 -2.0016 0.8963
14.6383 23.0415 -2.0016 0.8963
12.9491 24.0315 -2.0016 0.8963
7.8115 23.9823 -1.8494 0.9038
3.3339 13.4405 -1.0153 0.9460
1.7546 12.8667 -0.9521 0.9493
1.2538 12.5394 -0.9240 0.9507
-0.0967 12.1579 -0.8915 0.9524
-0.9528 11.9308 -0.8776 0.9531
-3.1700 11.9624 -0.9074 0.9516
-3.6085 11.8791 -0.9103 0.9514
-4.0870 11.9014 -0.9227 0.9508
-5.0940 11.9641 -0.9534 0.9492
-6.0956 11.8744 -0.9787 0.9479
-6.6522 11.8887 -0.9989 0.9468
-7.2462 11.9256 -1.0232 0.9456
-7.7616 11.7983 -1.0355 0.9449
-9.0868 11.8638 -1.0957 0.9418
-10.4847 11.8259 -1.1588 0.9386
-11.3109 11.8714 -1.2023 0.9364
-12.0636 11.7846 -1.2365 0.9346
-14.6392 11.5050 -1.3652 0.9280
-15.7825 11.5125 -1.4324 0.9246
-18.4530 11.5300 -1.5954 0.9164
-21.8293 11.5522 -1.8109 0.9057
-22.7019 10.9906 -1.8494 0.9038
-23.4313 9.3350 -1.8494 0.9038
-23.7510 8.4887 -1.8494 0.9038
-25.9206 8.2284 -1.9940 0.8967
-26.2981 7.3212 -2.0016 0.8963
-26.5438 6.3733 -2.0016 0.8963
-26.7553 5.4173 -2.0016 0.8963
-26.9323 4.4543 -2.0016 0.8963
-27.1823 2.5123 -2.0016 0.8963
-27.2925 0.5575 -2.0016 0.8963
-25.9922 -2.2720 -1.9131 0.9006
-25.0072 -4.0081 -1.8570 0.9034
-26.3342 -7.1902 -2.0016 0.8963
-26.0594 -8.1300 -2.0016 0.8963
-25.7511 -9.0593 -2.0016 0.8963
-25.0355 -10.8818 -2.0016 0.8963
-23.7219 -13.5077 -2.0016 0.8963
-23.2223 -14.3498 -2.0016 0.8963
-22.6927 -15.1734 -2.0016 0.8963
-11.3342 -16.1842 -1.8969 0.9237
-10.4972 -16.1957 -1.8529 0.9254
-4.1356 -18.8140 -1.8494 0.9255
-0.7130 -19.2500 -1.8494 0.9255
1.3586 -19.2152 -1.8494 0.9255
2.7325 -19.0684 -1.8494 0.9255
3.4146 -18.9581 -1.8494 0.9255
4.0923 -18.8235 -1.8494 0.9255
4.7647 -18.6646 -1.8494 0.9255
5.7440 -19.5468 -1.9559 0.9214
9.3520 -18.6333 -2.0016 0.9196
2.2925 -4.1861 -0.4582 0.9810
10.6635 -17.9150 -2.0016 0.9196
12.5260 -16.6661 -2.0016 0.9196
13.6884 -15.7254 -2.0016 0.9196
15.2981 -14.1643 -2.0016 0.9196
15.7963 -13.6065 -2.0016 0.9196
16.7310 -12.4392 -2.0016 0.9196
17.1663 -11.8313 -2.0016 0.9196
17.5795 -11.2080 -2.0016 0.9196
17.9702 -10.5703 -2.0016 0.9196
18.3377 -9.9191 -2.0016 0.9196
20.5373 -3.5890 -2.0016 0.9196
20.7417 -2.1076 -2.0016 0.9196
20.8481 0.1323 -2.0016 0.9196
20.8299 0.8799 -2.0016 0.9196
20.7850 1.6263 -2.0016 0.9196
20.7133 2.3707 -2.0016 0.9196
20.6149 3.1120 -2.0016 0.9196
19.9581 6.0277 -2.0016 0.9196
19.1953 8.1364 -2.0016 0.9196
17.8346 10.7975 -2.0016 0.9196
17.4359 11.4302 -2.0016 0.9196
17.0148 12.0481 -2.0016 0.9196
16.5718 12.6505 -2.0016 0.9196
16.1074 13.2367 -2.0016 0.9196
15.1172 14.3572 -2.0016 0.9196
14.0492 15.4039 -2.0016 0.9196
12.3135 16.8237 -2.0016 0.9196
10.4354 18.0489 -2.0016 0.9196
9.1148 18.7505 -2.0016 0.9196
7.4515 16.8394 -1.7679 0.9287
6.5122 18.1290 -1.8494 0.9255
3.7616 13.4286 -1.3388 0.9455
3.2192 13.3131 -1.3150 0.9464
2.1274 12.7361 -1.2397 0.9494
1.6523 12.6733 -1.2270 0.9499
1.1856 12.6062 -1.2156 0.9504
0.2644 11.9985 -1.1522 0.9529
-0.1661 11.9983 -1.1520 0.9529
-1.0087 11.7578 -1.1330 0.9537
-1.4436 11.8275 -1.1439 0.9532
-1.8938 11.9386 -1.1605 0.9526
-2.3071 11.7931 -1.1537 0.9529
-3.7085 11.9547 -1.2017 0.9509
-4.6112 11.7996 -1.2162 0.9504
-5.6263 11.8193 -1.2567 0.9488
-6.2795 12.0573 -1.3051 0.9468
-6.8001 11.9870 -1.3231 0.9461
-7.1813 11.6633 -1.3150 0.9464
-7.6355 11.4591 -1.3220 0.9462
-8.8908 11.4674 -1.3931 0.9434
-10.2964 11.4766 -1.4802 0.9399
-12.7924 11.4929 -1.6510 0.9332
-14.8195 11.5062 -1.8012 0.9274
-16.7483 9.5166 -1.8494 0.9255
-17.3873 8.2916 -1.8494 0.9255
-19.4131 7.6020 -2.0016 0.9196
-20.1173 5.4730 -2.0016 0.9196
-20.5887 3.2807 -2.0016 0.9196
-20.7710 1.7965 -2.0016 0.9196
-20.7583 -1.9377 -2.0016 0.9196
-20.5660 -3.4207 -2.0016 0.9196
-20.2679 -4.8860 -2.0016 0.9196
-19.0712 -8.4232 -2.0016 0.9196
-17.6708 -11.0637 -2.0016 0.9196
-17.2626 -11.6903 -2.0016 0.9196
-16.8323 -12.3018 -2.0016 0.9196
-15.9072 -13.4767 -2.0016 0.9196
-15.4137 -14.0385 -2.0016 0.9196
-14.9003 -14.5822 -2.0016 0.9196
-13.2102 -16.0525 -1.9959 0.9199
-12.3643 -16.1735 -1.9545 0.9214
-10.6302 -16.1911 -1.8595 0.9251
-9.3908 -16.8191 -1.8494 0.9255
-8.7815 -17.1451 -1.8494 0.9255
-8.1610 -17.4490 -1.8494 0.9255
-7.5300 -17.7304 -1.8494 0.9255
-6.8893 -17.9891 -1.8494 0.9255
-6.2398 -18.2246 -1.8494 0.9255
-4.9174 -18.6249 -1.8494 0.9255
-4.2463 -18.7893 -1.8494 0.9255
-2.8886 -19.0454 -1.8494 0.9255
-1.5160 -19.2034 -1.8494 0.9255
-0.8263 -19.2454 -1.8494 0.9255
0.4959 -17.1949 -1.6515 0.9332
1.2455 -19.2229 -1.8494 0.9255
1.9341 -19.1658 -1.8494 0.9255
6.4726 -19.8104 -2.0008 0.9197
7.1815 -19.5726 -2.0016 0.9196
7.8788 -19.3025 -2.0016 0.9196
9.2421 -18.6881 -2.0016 0.9196
2.2614 -4.1877 -0.4569 0.9811
11.1958 -17.5873 -2.0016 0.9196
14.1536 -15.3080 -2.0016 0.9196
14.6935 -14.7906 -2.0016 0.9196
15.2145 -14.2541 -2.0016 0.9196
15.7159 -13.6993 -2.0016 0.9196
16.6574 -12.5376 -2.0016 0.9196
17.0963 -11.9321 -2.0016 0.9196
17.5132 -11.3113 -2.0016 0.9196
18.2790 -10.0269 -2.0016 0.9196
18.6268 -9.3649 -2.0016 0.9196
19.2502 -8.0057 -2.0016 0.9196
19.5249 -7.3102 -2.0016 0.9196
20.1971 -5.1708 -2.0016 0.9196
20.3695 -4.4432 -2.0016 0.9196
20.7289 -2.2297 -2.0016 0.9196
20.8354 -0.7382 -2.0016 0.9196
20.8348 0.7572 -2.0016 0.9196
20.6329 2.9905 -2.0016 0.9196
20.5124 3.7286 -2.0016 0.9196
20.3655 4.4618 -2.0016 0.9196
19.7684 6.6233 -2.0016 0.9196
19.5182 7.3280 -2.0016 0.9196
19.2429 8.0232 -2.0016 0.9196
18.9427 8.7082 -2.0016 0.9196
18.6183 9.3819 -2.0016 0.9196
18.2698 10.0436 -2.0016 0.9196
16.1851 13.1416 -2.0016 0.9196
15.7034 13.7136 -2.0016 0.9196
15.2015 14.2680 -2.0016 0.9196
14.6800 14.8040 -2.0016 0.9196
14.1397 15.3209 -2.0016 0.9196
13.0051 16.2950 -2.0016 0.9196
11.8037 17.1853 -2.0016 0.9196
11.1797 17.5975 -2.0016 0.9196
10.5415 17.9871 -2.0016 0.9196
9.8896 18.3536 -2.0016 0.9196
9.2250 18.6965 -2.0016 0.9196
6.6189 18.0903 -1.8494 0.9255
5.9659 18.3161 -1.8494 0.9255
3.9437 13.7658 -1.3747 0.9441
2.7830 13.2339 -1.2983 0.9471
2.2297 12.8811 -1.2550 0.9488
1.2482 12.4830 -1.2044 0.9508
-0.9556 11.9651 -1.1524 0.9529
-2.2768 12.0134 -1.1739 0.9521
-2.7087 11.9351 -1.1750 0.9520
-4.1540 12.0968 -1.2279 0.9499
-5.0917 11.9587 -1.2478 0.9491
-5.5602 11.8600 -1.2575 0.9487
-7.1125 11.7054 -1.3150 0.9464
-7.5380 11.4585 -1.3168 0.9464
-8.7826 11.4667 -1.3867 0.9436
-10.9388 11.4808 -1.5224 0.9383
-11.7581 11.4862 -1.5781 0.9361
-14.6392 11.5050 -1.7875 0.9279
-15.5627 11.3522 -1.8494 0.9255
-15.9598 10.7868 -1.8494 0.9255
-16.3364 10.2075 -1.8494 0.9255
-16.6919 9.6150 -1.8494 0.9255
-17.0260 9.0102 -1.8494 0.9255
-19.6323 7.0167 -2.0016 0.9196
-19.8713 6.3081 -2.0016 0.9196
-20.0847 5.5914 -2.0016 0.9196
-20.2723 4.8675 -2.0016 0.9196
-20.5691 3.4019 -2.0016 0.9196
-20.6779 2.6620 -2.0016 0.9196
-20.7600 1.9188 -2.0016 0.9196
-20.8155 1.1730 -2.0016 0.9196
-20.8211 -1.0694 -2.0016 0.9196
-20.6909 -2.5591 -2.0016 0.9196
-20.5858 -3.2995 -2.0016 0.9196
-20.2963 -4.7666 -2.0016 0.9196
-19.9024 -6.2091 -2.0016 0.9196
-19.6670 -6.9189 -2.0016 0.9196
-18.8101 -8.9911 -2.0016 0.9196
-18.4755 -9.6599 -2.0016 0.9196
-18.1173 -10.3162 -2.0016 0.9196
-17.7356 -10.9594 -2.0016 0.9196
-11.0924 -12.6841 -2.0016 0.9344
-10.1547 -13.4465 -2.0016 0.9344
-9.6660 -13.8021 -2.0016 0.9344
-8.1276 -14.7604 -2.0016 0.9344
-7.5931 -15.0424 -2.0016 0.9344
-6.4953 -15.5479 -2.0016 0.9344
-5.9312 -15.7645 -2.0007 0.9344
-4.7722 -16.1028 -1.9950 0.9346
-3.5547 -16.1713 -1.9668 0.9355
-2.9515 -16.1738 -1.9529 0.9359
-1.7665 -16.1775 -1.9331 0.9366
1.1695 -16.5396 -1.9696 0.9354
1.7843 -16.6965 -1.9946 0.9346
2.3871 -16.6583 -1.9990 0.9345
2.9868 -16.5833 -2.0016 0.9344
4.1678 -16.3266 -2.0016 0.9344
4.7507 -16.1666 -2.0016 0.9344
7.0135 -15.3212 -2.0016 0.9344
7.5584 -15.0598 -2.0016 0.9344
2.2925 -4.1861 -0.5669 0.9810
9.1322 -14.1609 -2.0016 0.9344
10.6003 -13.0982 -2.0016 0.9344
11.0632 -12.7096 -2.0016 0.9344
12.7669 -10.9970 -2.0016 0.9344
13.1530 -10.5321 -2.0016 0.9344
13.5223 -10.0536 -2.0016 0.9344
14.2081 -9.0585 -2.0016 0.9344
14.5239 -8.5431 -2.0016 0.9344
15.0989 -7.4801 -2.0016 0.9344
15.5962 -6.3786 -2.0016 0.9344
16.0133 -5.2443 -2.0016 0.9344
16.6920 -2.3035 -2.0016 0.9344
16.7638 -1.7034 -2.0016 0.9344
16.8498 0.1069 -2.0016 0.9344
16.8351 0.7111 -2.0016 0.9344
16.7988 1.3144 -2.0016 0.9344
16.4382 3.7030 -2.0016 0.9344
16.2949 4.2901 -2.0016 0.9344
16.1305 4.8717 -2.0016 0.9344
15.7398 6.0154 -2.0016 0.9344
14.7180 8.2042 -2.0016 0.9344
13.7517 9.7375 -2.0016 0.9344
13.3936 10.2244 -2.0016 0.9344
11.7940 12.0345 -2.0016 0.9344
10.4332 13.2316 -2.0016 0.9344
9.4580 13.9454 -2.0016 0.9344
8.9518 14.2756 -2.0016 0.9344
8.4280 14.5770 -2.0001 0.9344
7.3043 13.7490 -1.8494 0.9392
6.8065 14.0021 -1.8494 0.9392
6.3000 14.2372 -1.8494 0.9392
5.7854 14.4540 -1.8494 0.9392
2.6379 12.9218 -1.5666 0.9483
1.6250 12.4649 -1.4932 0.9506
1.1522 12.2516 -1.4617 0.9516
-1.3936 11.4182 -1.3664 0.9547
-2.2348 11.4237 -1.3827 0.9542
-3.5465 11.4323 -1.4218 0.9529
-4.4700 11.4384 -1.4588 0.9517
-4.9513 11.4415 -1.4809 0.9510
-5.4480 11.4448 -1.5057 0.9502
-5.9623 11.4482 -1.5333 0.9493
-6.4965 11.4517 -1.5639 0.9483
-7.0532 11.4553 -1.5980 0.9473
-8.8908 11.4674 -1.7236 0.9432
-10.2964 11.4766 -1.8315 0.9398
-11.2008 10.8135 -1.8494 0.9392
-11.5813 10.4049 -1.8494 0.9392
-12.2974 9.5480 -1.8494 0.9392
-12.6319 9.1008 -1.8494 0.9392
-12.9501 8.6420 -1.8494 0.9392
-13.3884 8.2563 -1.8684 0.9386
-14.9382 7.7931 -2.0014 0.9344
-15.2093 7.2529 -2.0016 0.9344
-15.9003 5.5775 -2.0016 0.9344
-16.2592 4.4234 -2.0016 0.9344
-16.4074 3.8375 -2.0016 0.9344
-16.5344 3.2466 -2.0016 0.9344
-16.7246 2.0531 -2.0016 0.9344
-16.7875 1.4520 -2.0016 0.9344
-16.8287 0.8490 -2.0016 0.9344
-16.8484 0.2449 -2.0016 0.9344
-16.8463 -0.3595 -2.0016 0.9344
-16.8226 -0.9634 -2.0016 0.9344
-16.7772 -1.5661 -2.0016 0.9344
-16.7103 -2.1668 -2.0016 0.9344
-16.5120 -3.3590 -2.0016 0.9344
-16.2287 -4.5339 -2.0016 0.9344
-16.0557 -5.1130 -2.0016 0.9344
-15.8620 -5.6855 -2.0016 0.9344
-15.6479 -6.2507 -2.0016 0.9344
-15.1596 -7.3562 -2.0016 0.9344
-14.8860 -7.8951 -2.0016 0.9344
-14.5933 -8.4239 -2.0016 0.9344
-13.9520 -9.4483 -2.0016 0.9344
-13.2388 -10.4240 -2.0016 0.9344
-12.8565 -10.8921 -2.0016 0.9344
-12.0427 -11.7856 -2.0016 0.9344
-10.2337 -13.3865 -2.0016 0.9344
-9.7471 -13.7449 -2.0016 0.9344
-8.7368 -14.4082 -2.0016 0.9344
-8.2144 -14.7123 -2.0016 0.9344
-7.1387 -15.2632 -2.0016 0.9344
-6.5868 -15.5094 -2.0016 0.9344
-4.2686 -16.1676 -1.9863 0.9349
-3.6545 -16.1708 -1.9693 0.9354
-2.4533 -16.1756 -1.9434 0.9362
1.0699 -16.5125 -1.9656 0.9355
2.8891 -16.6006 -2.0016 0.9344
3.4826 -16.4863 -2.0016 0.9344
4.0716 -16.3508 -2.0016 0.9344
5.2332 -16.0169 -2.0016 0.9344
5.8042 -15.8189 -2.0016 0.9344
9.5526 -13.8808 -2.0016 0.9344
11.8756 -11.9540 -2.0016 0.9344
12.7019 -11.0720 -2.0016 0.9344
13.4628 -10.1331 -2.0016 0.9344
14.7734 -8.1039 -2.0016 0.9344
15.3163 -7.0241 -2.0016 0.9344
15.5584 -6.4703 -2.0016 0.9344
15.7804 -5.9082 -2.0016 0.9344
15.9821 -5.3385 -2.0016 0.9344
16.1633 -4.7619 -2.0016 0.9344
16.3237 -4.1792 -2.0016 0.9344
16.4630 -3.5911 -2.0016 0.9344
16.5812 -2.9984 -2.0016 0.9344
16.6781 -2.4018 -2.0016 0.9344
16.8074 -1.2001 -2.0016 0.9344
16.8396 -0.5966 -2.0016 0.9344
16.8063 1.2155 -2.0016 0.9344
