ply
format ascii 1.0
element vertex 1536
property float32 x
property float32 y
property float32 z
property float32 I
end_header
-19.5294 -22.5461 5.2595 0.8859
-16.8665 -22.5535 4.9658 0.8919
-13.0002 -21.9575 4.4994 0.9015
-11.1748 -22.3937 4.4129 0.9033
-9.2376 -22.3991 4.2723 0.9063
-6.5291 -22.4016 4.1144 0.9096
-5.6670 -22.4040 4.0749 0.9104
-4.8202 -22.4064 4.0412 0.9111
-1.5414 -22.4705 3.9715 0.9126
0.0721 -22.4200 3.9533 0.9130
0.8816 -22.5537 3.9799 0.9124
32.8560 -32.4278 8.1399 0.8290
40.6667 -25.7077 8.4833 0.8225
31.2308 -3.0595 5.5332 0.8803
31.5103 -1.9499 5.5667 0.8797
32.2554 0.3194 5.6878 0.8772
42.3875 12.9597 7.8156 0.8352
35.0324 13.5242 6.6215 0.8585
35.0184 14.9822 6.7161 0.8567
28.5565 13.4482 5.5657 0.8797
27.3342 15.3553 5.5282 0.8804
26.3801 17.4169 5.5739 0.8795
28.2846 23.3961 6.4724 0.8615
27.4397 24.4055 6.4752 0.8614
26.4348 25.2658 6.4478 0.8620
30.5688 36.2595 8.3624 0.8248
-15.1117 14.0008 3.1559 0.9200
-21.1853 8.6771 3.5072 0.9115
-30.2674 -3.4406 4.6667 0.8840
-25.3507 -22.3543 5.1778 0.8722
-23.5946 -22.3592 4.9797 0.8767
-21.7691 -22.1635 4.7592 0.8819
-16.1828 -22.0551 4.1907 0.8952
-12.0255 -22.5669 3.9173 0.9017
-10.9216 -22.3944 3.8169 0.9041
-9.9457 -22.3971 3.7542 0.9056
-9.0221 -22.4546 3.7072 0.9067
-5.3393 -16.6483 2.6784 0.9317
-4.6434 -22.5824 3.5319 0.9109
-3.7762 -22.4093 3.4814 0.9121
2.1968 -4.2362 0.7310 0.9809
32.8293 -34.1824 7.2605 0.8255
32.1351 -31.1439 6.8555 0.8344
32.9670 -27.6570 6.5922 0.8402
32.5490 -25.3753 6.3226 0.8462
37.2655 -24.9770 6.8726 0.8340
31.0228 -6.1629 4.8454 0.8799
30.9130 -0.5208 4.7364 0.8824
33.9292 0.6450 5.1987 0.8717
47.0053 13.0076 7.4716 0.8209
37.0510 13.1761 6.0242 0.8529
35.0376 15.3693 5.8613 0.8566
26.9829 14.2223 4.6727 0.8839
26.3380 15.1128 4.6519 0.8844
26.7622 26.0490 5.7213 0.8597
9.8211 36.7522 5.8278 0.8573
2.2826 14.7471 2.2861 0.9414
1.7526 14.8195 2.2861 0.9414
0.6864 14.9070 2.2861 0.9414
0.1516 14.9220 2.2861 0.9414
-0.3834 14.9178 2.2861 0.9414
-3.5589 14.4922 2.2861 0.9414
-4.5879 14.2000 2.2861 0.9414
-5.6386 13.9465 2.3045 0.9409
-6.8397 13.9480 2.3798 0.9391
-7.4723 13.9498 2.4243 0.9380
-8.2927 13.1256 2.3785 0.9391
-9.5576 13.9906 2.5957 0.9337
-12.8533 13.9997 2.9115 0.9260
-13.7732 13.9622 3.0045 0.9237
-14.8376 14.0000 3.1251 0.9208
-15.9095 13.9681 3.2433 0.9179
-17.1136 13.9715 3.3845 0.9145
-24.2158 -22.5331 5.0673 0.8747
-22.3761 -22.3704 4.8471 0.8798
-17.8688 -22.1887 4.3644 0.8911
-16.7354 -22.3783 4.2808 0.8931
-12.2903 -22.5662 3.9365 0.9012
-11.1748 -22.3937 3.8340 0.9037
-9.2602 -22.4540 3.7209 0.9064
-8.3122 -22.4017 3.6604 0.9078
-6.5451 -22.4565 3.5834 0.9097
-4.8485 -22.5377 3.5316 0.9109
-4.0174 -22.5842 3.5141 0.9114
-2.3529 -22.4682 3.4608 0.9126
-1.5414 -22.4705 3.4504 0.9129
-0.7319 -22.4177 3.4361 0.9132
0.0721 -22.4200 3.4346 0.9133
1.6831 -22.4244 3.4450 0.9130
32.8493 -34.8325 7.3348 0.8239
32.8685 -28.0881 6.6234 0.8395
32.4952 -25.8124 6.3575 0.8454
34.8374 -25.6915 6.6312 0.8393
40.7621 -25.7680 7.3876 0.8227
31.1466 -6.4828 4.8738 0.8792
30.7084 -1.9003 4.7134 0.8829
30.2283 -0.7846 4.6324 0.8848
33.9480 0.3362 5.2009 0.8716
31.3008 14.7406 5.3002 0.8694
26.5586 14.9196 4.6667 0.8840
25.8854 17.0903 4.7518 0.8820
25.8525 18.4323 4.8640 0.8794
26.6332 20.4676 5.1457 0.8729
27.3251 22.6025 5.4325 0.8663
27.0640 24.0713 5.5487 0.8637
25.9291 24.7825 5.4947 0.8649
24.7925 25.4581 5.4439 0.8661
10.1804 36.7520 5.8422 0.8570
-11.3591 13.0566 2.2536 0.9326
-14.0270 13.9629 2.5773 0.9233
-15.1117 14.0008 2.6826 0.9203
-16.2463 14.0039 2.7931 0.9171
-18.8301 14.0111 3.0564 0.9097
-20.3177 14.0152 3.2142 0.9052
-21.1842 8.6766 2.9810 0.9118
-27.1737 -22.2824 4.5761 0.8678
-17.3800 -21.9885 3.6498 0.8931
-16.4205 -22.3791 3.6146 0.8941
-13.7542 -21.8745 3.3648 0.9010
-12.9817 -22.3887 3.3701 0.9009
-12.0256 -22.5669 3.3299 0.9020
-10.9216 -22.3944 3.2445 0.9044
-9.9457 -22.3971 3.1912 0.9059
-8.0793 -22.3973 3.1006 0.9084
-5.4506 -22.4046 3.0026 0.9112
-4.6434 -22.5824 3.0022 0.9112
-2.9548 -22.4116 2.9437 0.9128
-1.3327 -22.4161 2.9242 0.9134
-0.5277 -22.4183 2.9201 0.9135
0.2784 -22.5961 2.9427 0.9129
1.0810 -22.4228 2.9233 0.9134
2.1968 -4.2362 0.6214 0.9809
32.5318 -31.5284 5.8994 0.8330
32.9612 -29.7289 5.7802 0.8361
35.6525 -25.7947 5.7304 0.8374
38.0930 -25.5317 5.9717 0.8311
36.4688 -8.6143 4.8797 0.8597
33.8338 -6.7214 4.4920 0.8701
25.9484 -4.1943 3.4229 0.8994
31.3662 -3.9223 4.1163 0.8803
31.1443 -1.6427 4.0613 0.8818
32.0364 -0.5397 4.1724 0.8788
32.5923 6.5480 4.3290 0.8745
46.6823 12.9182 6.3075 0.8225
41.6917 13.1632 5.6933 0.8383
36.9090 13.1256 5.1012 0.8538
35.0335 13.8924 4.9077 0.8590
30.0052 13.1618 4.2667 0.8762
27.1075 15.5543 4.0698 0.8816
26.6921 16.6153 4.0943 0.8809
26.8466 18.0780 4.2147 0.8776
27.2380 19.7967 4.3848 0.8730
27.5237 24.9327 4.8361 0.8609
27.0546 26.3337 4.9164 0.8587
25.9005 27.0849 4.8801 0.8597
2.6853 17.3488 2.2861 0.9316
1.4355 17.4966 2.2861 0.9316
0.7304 15.8623 2.0678 0.9380
-0.3993 15.5396 2.0242 0.9392
-0.9585 15.5546 2.0294 0.9391
-1.5218 15.5753 2.0379 0.9388
-5.0407 15.6012 2.1350 0.9360
-5.7673 15.8803 2.2001 0.9341
-6.8397 13.9480 2.0230 0.9393
-7.4200 13.8522 2.0463 0.9386
-8.2437 13.0480 2.0098 0.9396
-8.9149 13.0498 2.0580 0.9382
-10.3638 13.0539 2.1705 0.9350
-11.1514 13.0560 2.2359 0.9331
-11.9974 13.0675 2.3101 0.9309
-17.1136 13.9715 2.8769 0.9147
-18.4290 13.9751 3.0118 0.9109
-21.5328 14.0186 3.3459 0.9015
-35.1551 17.8376 5.1335 0.8530
-33.4410 -23.1745 5.2982 0.8486
-22.3683 -22.3626 4.1188 0.8802
-20.8234 -22.3669 3.9795 0.8840
-16.7354 -22.3783 3.6389 0.8934
-14.1532 -22.0608 3.4132 0.8997
-13.1734 -22.2500 3.3672 0.9010
-12.2903 -22.5662 3.3462 0.9015
-9.3099 -22.5745 3.1798 0.9062
-8.3122 -22.4017 3.1115 0.9081
-7.4092 -22.3991 3.0723 0.9092
-5.6670 -22.4040 3.0094 0.9110
-4.8485 -22.5377 3.0020 0.9112
-2.3529 -22.4682 2.9418 0.9129
-1.5414 -22.4705 2.9330 0.9132
-0.7319 -22.4177 2.9208 0.9135
0.0721 -22.4200 2.9196 0.9135
1.6831 -22.4244 2.9283 0.9133
2.3179 -4.1915 0.6237 0.9809
32.5197 -37.0588 6.4204 0.8196
32.9500 -34.9393 6.2539 0.8239
32.5335 -32.1095 5.9525 0.8316
32.9597 -30.2763 5.8280 0.8348
32.9656 -28.1711 5.6468 0.8395
37.7465 -25.8006 5.9539 0.8316
30.7133 -6.3926 4.0852 0.8811
31.2884 -4.2022 4.1110 0.8804
29.2548 -2.8660 3.8278 0.8882
38.1388 13.1731 5.2544 0.8498
29.1839 13.7437 4.2007 0.8780
28.2136 14.5443 4.1334 0.8798
27.6584 15.5375 4.1311 0.8799
26.8449 17.7238 4.1890 0.8783
28.6034 23.6598 4.8339 0.8609
27.8440 24.7651 4.8525 0.8604
25.8928 24.7478 4.6642 0.8655
25.7706 26.4625 4.8101 0.8616
-11.3591 13.0566 1.8584 0.9327
-12.2105 13.0590 1.9198 0.9306
-16.1934 13.9583 2.2957 0.9176
-17.4232 13.9618 2.3975 0.9141
-18.8301 14.0111 2.5203 0.9099
-21.1831 8.6762 2.4581 0.9120
-27.3763 -22.4486 3.8017 0.8673
-23.5945 -22.3592 3.4905 0.8774
-22.0196 -22.4185 3.3743 0.8812
-19.1737 -22.5471 3.1782 0.8877
-17.3800 -21.9885 3.0097 0.8934
-13.6856 -21.7655 2.7608 0.9017
-12.9817 -22.3887 2.7790 0.9011
-12.0255 -22.5669 2.7459 0.9022
-10.9216 -22.3944 2.6755 0.9046
-9.9457 -22.3971 2.6315 0.9061
-5.3387 -16.6465 1.8772 0.9321
-4.6343 -22.5383 2.4708 0.9116
-2.9548 -22.4116 2.4274 0.9131
-0.5277 -22.4183 2.4080 0.9137
0.2784 -22.5961 2.4266 0.9131
1.0810 -22.4228 2.4106 0.9136
32.9155 -36.8281 5.3040 0.8198
32.5906 -31.5854 4.8735 0.8331
32.9630 -29.7306 4.7667 0.8365
35.7556 -25.8693 4.7390 0.8373
38.1077 -25.5415 4.9262 0.8315
41.6651 -25.8109 5.2630 0.8210
31.4665 -6.2511 3.4450 0.8789
33.2290 -4.1552 3.5960 0.8740
32.3134 -2.8688 3.4835 0.8776
32.5737 -1.7181 3.5027 0.8770
37.0510 13.1761 4.2227 0.8537
35.0376 15.3693 4.1085 0.8573
28.3382 14.9367 3.4398 0.8791
28.6133 22.4066 3.9025 0.8640
27.4645 23.1421 3.8566 0.8655
26.7631 24.2437 3.8777 0.8648
26.6131 25.9039 3.9880 0.8612
2.4882 21.0398 2.2750 0.9183
1.7408 21.2180 2.2861 0.9179
0.7304 15.8623 1.7051 0.9381
-0.3759 14.6272 1.5712 0.9428
-0.9020 14.6374 1.5748 0.9427
-2.5115 14.7101 1.6025 0.9417
-3.0613 14.7268 1.6152 0.9413
-4.2211 14.8665 1.6595 0.9397
-5.3886 14.8378 1.6951 0.9385
-6.2291 13.9464 1.6402 0.9404
-6.8397 13.9481 1.6682 0.9394
-7.6023 13.0462 1.6214 0.9411
-8.2437 13.0480 1.6573 0.9398
-9.6201 13.0518 1.7411 0.9369
-10.3638 13.0539 1.7898 0.9351
-11.1514 13.0560 1.8438 0.9333
-11.9890 13.0584 1.9036 0.9312
-12.8840 13.0608 1.9700 0.9289
-15.9983 14.0460 2.2861 0.9179
-17.1006 13.9609 2.3705 0.9150
-18.4290 13.9751 2.4836 0.9112
-19.9255 14.0141 2.6158 0.9066
-25.8193 -22.3530 3.6672 0.8716
-22.3761 -22.3704 3.3976 0.8805
-20.8234 -22.3669 3.2815 0.8843
-19.5294 -22.5461 3.2030 0.8869
-17.6072 -21.8638 3.0144 0.8932
-15.6404 -22.5569 2.9475 0.8955
-13.9632 -21.7647 2.7768 0.9012
-11.1748 -22.3937 2.6874 0.9042
-7.4092 -22.3991 2.5334 0.9095
-6.5451 -22.4565 2.5118 0.9102
-4.8485 -22.5377 2.4755 0.9114
-3.1559 -22.3632 2.4252 0.9131
-1.5496 -22.5908 2.4315 0.9129
1.6831 -22.4244 2.4148 0.9135
32.4159 -36.9405 5.2775 0.8206
32.9487 -34.9379 5.1569 0.8243
32.6283 -25.9181 4.4746 0.8457
37.7445 -25.7992 4.9094 0.8320
32.8388 -3.2171 3.5432 0.8757
35.1622 -2.1759 3.7830 0.8679
42.3876 12.9597 4.7596 0.8367
35.0324 13.5242 4.0324 0.8598
35.0425 14.9925 4.0928 0.8578
27.5409 15.4714 3.3921 0.8807
28.0200 19.9777 3.6953 0.8707
28.4104 23.5001 3.9592 0.8621
28.0883 24.9824 4.0366 0.8597
26.9554 25.7633 4.0040 0.8607
-16.7216 15.4923 1.9297 0.9126
-18.1955 15.6841 2.0336 0.9081
-22.2297 15.3341 2.2861 0.8973
-22.7650 14.5275 2.2861 0.8973
-32.9535 17.8443 3.1723 0.8603
-21.1819 8.6757 1.9377 0.9122
-32.8262 -23.1937 3.4025 0.8510
-27.3763 -22.4486 2.9970 0.8675
-25.3507 -22.3543 2.8612 0.8731
-23.5946 -22.3592 2.7517 0.8777
-22.1378 -22.5388 2.6744 0.8809
-19.1737 -22.5471 2.5055 0.8880
-13.7259 -21.8295 2.1829 0.9017
-12.9817 -22.3887 2.1908 0.9013
-12.0255 -22.5669 2.1647 0.9024
-9.9457 -22.3971 2.0745 0.9063
-9.0001 -22.3997 2.0435 0.9076
-5.4506 -22.4046 1.9519 0.9116
-4.6073 -22.4070 1.9365 0.9123
-2.9548 -22.4116 1.9136 0.9133
-2.1411 -22.4138 1.9060 0.9136
-0.5277 -22.4183 1.8983 0.9139
0.2762 -22.4205 1.8981 0.9139
33.4777 -34.8575 4.0913 0.8236
32.6124 -31.6065 3.8445 0.8333
43.8440 -3.8925 3.7261 0.8380
41.6350 13.1453 3.6960 0.8392
35.0376 15.3693 3.2388 0.8576
27.7152 14.6083 2.6521 0.8818
27.1664 15.5881 2.6514 0.8819
27.2941 18.3794 2.7855 0.8763
27.8076 25.1898 3.1762 0.8602
2.6995 22.8267 1.9458 0.9119
0.7304 15.8623 1.3442 0.9382
-0.3487 13.5702 1.1491 0.9470
-1.3262 13.5729 1.1545 0.9467
-1.1834 8.8287 0.7541 0.9649
-2.3291 13.6418 1.1715 0.9460
-5.0204 13.8237 1.2450 0.9427
-6.2291 13.9464 1.2930 0.9405
-7.4724 13.9498 1.3396 0.9384
-8.9849 15.4188 1.5107 0.9309
-10.5882 14.3652 1.5107 0.9309
-16.3718 15.4476 1.9055 0.9136
-17.8054 15.6326 2.0058 0.9093
-22.0891 15.5359 2.2861 0.8973
-22.6318 14.7341 2.2861 0.8973
-23.2527 13.9779 2.2967 0.8968
-33.4375 -23.1721 3.4438 0.8493
-27.7649 -22.3476 3.0171 0.8667
-24.2158 -22.5331 2.8001 0.8757
-22.3761 -22.3704 2.6785 0.8807
-16.3079 -21.8066 2.3051 0.8965
-15.1439 -21.8408 2.2499 0.8988
-14.1532 -22.0608 2.2188 0.9001
-13.1281 -22.1734 2.1814 0.9017
-10.1905 -22.3964 2.0830 0.9059
-7.4092 -22.3991 1.9972 0.9096
-5.6670 -22.4040 1.9563 0.9114
-3.9862 -22.4087 1.9267 0.9127
-3.1559 -22.3632 1.9119 0.9133
0.8764 -22.4222 1.8996 0.9139
1.6831 -22.4244 1.9036 0.9137
32.6003 -37.1507 4.1841 0.8200
33.4478 -35.4671 4.1269 0.8223
32.6141 -32.1890 3.8791 0.8320
33.0756 -30.3827 3.8019 0.8350
32.6283 -25.9181 3.5274 0.8460
37.8031 -25.8393 3.8763 0.8321
33.1223 -5.6638 2.8446 0.8738
31.4655 -4.2260 2.6876 0.8803
33.0069 7.5549 2.8664 0.8729
38.1388 13.1731 3.4157 0.8505
30.5695 14.3962 2.8604 0.8732
28.3425 14.6108 2.6993 0.8799
27.0278 16.4848 2.6800 0.8807
27.3371 18.0487 2.7730 0.8768
31.0933 23.8952 3.3196 0.8543
29.6721 24.5438 3.2598 0.8568
28.0268 24.9276 3.1752 0.8602
28.2971 27.0458 3.3136 0.8546
-13.0580 13.9653 1.1856 0.9262
-15.2161 14.0976 1.2863 0.9202
-16.5462 14.2624 1.3546 0.9162
-18.1108 14.5128 1.4391 0.9112
-19.7615 14.7041 1.5274 0.9060
-21.1804 8.6751 1.4193 0.9124
-27.3763 -22.4486 2.1954 0.8677
-20.4473 -22.3679 1.8792 0.8856
-14.9861 -20.4242 1.5709 0.9035
-13.7542 -21.8745 1.6023 0.9016
-10.9216 -22.3944 1.5450 0.9050
-9.0001 -22.3997 1.4969 0.9078
-8.0793 -22.3973 1.4765 0.9090
-5.3377 -16.6434 1.0838 0.9323
-6.3086 -22.4022 1.4432 0.9109
-5.4506 -22.4046 1.4298 0.9117
-4.5996 -22.3696 1.4162 0.9125
0.2762 -22.4205 1.3904 0.9141
2.1967 -4.2361 0.2959 0.9811
33.4123 -34.7894 2.9911 0.8242
32.6124 -31.6065 2.8162 0.8336
43.8395 -3.8921 2.7292 0.8383
35.8061 12.7334 2.3566 0.8587
34.6561 13.7427 2.3118 0.8612
28.2501 16.2099 2.0197 0.8776
35.0555 21.8213 2.5606 0.8475
35.0605 23.6091 2.6211 0.8442
34.8642 25.3394 2.6726 0.8414
1.8730 22.8290 1.4204 0.9123
0.7304 15.8623 0.9847 0.9383
-0.8363 13.5715 0.8432 0.9470
-2.8223 13.5770 0.8599 0.9459
-3.3345 13.5785 0.8670 0.9455
-4.3881 13.5814 0.8851 0.9444
-6.2291 13.9464 0.9472 0.9406
-6.8397 13.9481 0.9633 0.9396
-7.4724 13.9498 0.9813 0.9385
-10.2364 17.5665 1.2608 0.9217
-12.1167 17.7367 1.3320 0.9175
-12.9167 17.5244 1.3500 0.9164
-13.2090 16.6375 1.3173 0.9184
-13.7731 13.9622 1.2162 0.9244
-16.1897 14.2141 1.3360 0.9173
-17.6874 14.4399 1.4159 0.9126
-21.0126 14.7787 1.5930 0.9022
-27.7649 -22.3476 2.2101 0.8669
-24.0277 -22.3580 2.0352 0.8767
-22.3683 -22.3626 1.9614 0.8809
-19.3776 -22.3709 1.8353 0.8882
-15.2385 -18.9225 1.5066 0.9072
-14.9024 -19.9272 1.5430 0.9051
-15.2141 -21.9420 1.6557 0.8985
-14.1532 -22.0608 1.6253 0.9003
-13.1734 -22.2500 1.6034 0.9016
-12.1948 -22.3909 1.5810 0.9029
-6.5291 -22.4016 1.4469 0.9107
-4.8122 -22.3691 1.4188 0.9124
0.0721 -22.4200 1.3903 0.9141
2.3179 -4.1914 0.2970 0.9810
34.7610 -25.6352 2.6783 0.8411
42.0846 12.8671 2.7289 0.8383
34.6669 13.3831 2.3043 0.8616
33.7182 25.9124 2.6370 0.8433
-13.2130 15.1876 0.7938 0.9226
-13.0580 13.9653 0.7539 0.9263
-14.0270 13.9629 0.7804 0.9238
-16.9178 13.5568 0.8548 0.9169
-19.6642 13.5645 0.9420 0.9088
-21.1780 8.6741 0.9024 0.9125
-25.3507 -22.3543 1.3327 0.8735
-16.0894 -18.9201 0.9793 0.9054
-14.9571 -18.9233 0.9511 0.9080
-13.9572 -19.0219 0.9303 0.9099
-13.9614 -20.5320 0.9790 0.9054
-12.0255 -22.5669 1.0083 0.9027
-9.9457 -22.3971 0.9663 0.9066
-9.0221 -22.4546 0.9542 0.9077
-5.3371 -16.6415 0.6891 0.9324
-6.3086 -22.4022 0.9177 0.9110
-5.4506 -22.4046 0.9092 0.9118
-4.6287 -22.5112 0.9062 0.9121
-3.7699 -22.3720 0.8946 0.9132
-2.1579 -22.5894 0.8948 0.9132
-0.5277 -22.4183 0.8842 0.9141
0.2784 -22.5961 0.8911 0.9135
1.0810 -22.4228 0.8852 0.9141
2.1967 -4.2361 0.1882 0.9811
33.2763 -30.0131 1.7670 0.8358
32.8930 -27.5948 1.6930 0.8421
32.6355 -25.4428 1.6317 0.8473
38.1821 -25.5914 1.8125 0.8319
43.8357 -3.8918 1.7353 0.8385
47.2466 13.0744 1.9330 0.8218
41.6917 13.1632 1.7239 0.8394
35.0335 13.8924 1.4861 0.8600
35.0605 23.6091 1.6667 0.8443
2.6995 22.8267 0.9064 0.9121
1.8730 22.8290 0.9032 0.9124
0.1612 15.8639 0.6256 0.9385
-0.4077 15.8655 0.6258 0.9384
-0.9778 15.8671 0.6268 0.9383
-1.1831 8.8266 0.3512 0.9650
-2.7098 15.8719 0.6349 0.9376
-3.2997 15.8735 0.6393 0.9372
-6.0471 14.9567 0.6361 0.9375
-6.2291 13.9464 0.6023 0.9407
-6.8397 13.9481 0.6126 0.9397
-10.2364 17.5665 0.8017 0.9218
-11.2044 17.7342 0.8272 0.9195
-13.2090 16.6375 0.8376 0.9185
-13.2122 15.4689 0.8022 0.9218
-12.9263 14.0792 0.7536 0.9263
-13.7731 13.9622 0.7733 0.9245
-15.4364 13.5527 0.8100 0.9211
-16.6047 13.5560 0.8452 0.9178
-19.2847 13.5634 0.9297 0.9099
-20.8402 13.5677 0.9806 0.9052
-22.3761 -22.3704 1.2476 0.8810
-20.8234 -22.3669 1.2050 0.8849
-16.3878 -18.9193 0.9870 0.9047
-13.9603 -20.1337 0.9661 0.9066
-12.2902 -22.5662 1.0132 0.9022
-11.1748 -22.3937 0.9868 0.9047
-4.8426 -22.5106 0.9079 0.9119
-4.0047 -22.5129 0.9016 0.9125
-3.1514 -22.3318 0.8893 0.9137
-2.3609 -22.5447 0.8938 0.9133
-1.5497 -22.5911 0.8929 0.9133
0.0721 -22.4200 0.8840 0.9142
33.9687 -36.0195 1.9522 0.8202
32.8885 -30.2109 1.7609 0.8363
32.6283 -25.9181 1.6431 0.8464
40.7128 -25.7369 1.8992 0.8246
43.0409 13.1594 1.7747 0.8351
38.1388 13.1731 1.5910 0.8508
35.0325 13.5242 1.4807 0.8604
35.0366 14.9900 1.5027 0.8585
35.0408 16.5018 1.5272 0.8564
35.1808 19.7632 1.5911 0.8508
35.1855 21.4603 1.6251 0.8479
35.0644 25.0002 1.6981 0.8417
35.0698 26.9511 1.7440 0.8377
30.2481 26.9033 1.5962 0.8504
-12.3143 12.2580 0.2935 0.9328
-33.2627 22.9448 0.6826 0.8507
-21.1757 8.6732 0.3866 0.9125
-25.3507 -22.3543 0.5709 0.8735
-23.5945 -22.3592 0.5491 0.8781
-13.7542 -21.8745 0.4365 0.9018
-12.9817 -22.3887 0.4372 0.9016
-12.0255 -22.5669 0.4319 0.9028
-10.9216 -22.3944 0.4209 0.9051
-9.9457 -22.3971 0.4140 0.9066
-9.0221 -22.4546 0.4088 0.9077
-8.0793 -22.3973 0.4022 0.9091
-5.3365 -16.6396 0.2952 0.9325
-4.6287 -22.5112 0.3882 0.9122
-2.9548 -22.4116 0.3818 0.9135
-2.1579 -22.5894 0.3833 0.9132
-1.3327 -22.4161 0.3793 0.9141
-0.5277 -22.4183 0.3788 0.9142
0.2784 -22.5961 0.3817 0.9136
2.1967 -4.2361 0.0806 0.9811
32.6124 -31.6065 0.7671 0.8339
32.8901 -27.5924 0.7252 0.8422
37.1801 -26.9000 0.7752 0.8323
34.4390 -4.3065 0.5863 0.8704
42.4766 13.4110 0.7524 0.8368
37.6321 13.3827 0.6747 0.8523
35.1969 25.5812 0.7350 0.8402
4.5984 17.2079 0.3009 0.9312
1.0435 12.7184 0.2156 0.9502
0.5726 12.4362 0.2103 0.9514
-2.1203 12.4190 0.2128 0.9508
-3.8985 15.8752 0.2761 0.9367
-4.4662 12.2977 0.2210 0.9490
-10.2364 17.5665 0.3434 0.9219
-11.2044 17.7342 0.3543 0.9195
-8.3539 12.2287 0.2502 0.9425
-12.9167 17.5244 0.3677 0.9166
-12.9263 14.0792 0.3229 0.9264
-13.7731 13.9622 0.3313 0.9245
-16.8396 15.8890 0.3911 0.9115
-18.1014 15.8925 0.4069 0.9081
-34.5622 22.5012 0.6966 0.8479
-25.8193 -22.3530 0.5769 0.8723
-24.2158 -22.5331 0.5587 0.8761
-19.5294 -22.5461 0.5038 0.8875
-16.5880 -22.1812 0.4679 0.8951
-15.6404 -22.5569 0.4637 0.8960
-11.1748 -22.3937 0.4228 0.9047
-10.1905 -22.3964 0.4156 0.9063
-9.2602 -22.4540 0.4103 0.9074
-6.5802 -22.5771 0.3972 0.9102
-5.6670 -22.4040 0.3904 0.9117
-2.3609 -22.5447 0.3829 0.9133
-1.5497 -22.5911 0.3825 0.9134
-0.7319 -22.4177 0.3789 0.9142
0.0721 -22.4200 0.3787 0.9142
1.6831 -22.4244 0.3799 0.9140
2.3178 -4.1914 0.0809 0.9810
33.9705 -36.0214 0.8364 0.8203
32.6141 -32.1890 0.7740 0.8325
38.8457 13.4172 0.6942 0.8484
35.8225 16.8700 0.6688 0.8535
35.3858 21.5825 0.7001 0.8472
35.4015 27.2060 0.7542 0.8364
30.1744 26.8377 0.6821 0.8508
4.8244 17.4166 0.3053 0.9303
-12.2069 12.1511 -0.0970 0.9334
-14.8214 11.8769 -0.1069 0.9268
-16.4948 12.2734 -0.1158 0.9210
-18.6187 11.8815 -0.1244 0.9154
-22.0129 11.9200 -0.1409 0.9047
-24.2274 12.0168 -0.1523 0.8975
-21.1734 8.6722 -0.1289 0.9125
-25.3507 -22.3543 -0.1903 0.8735
-16.5491 -22.5544 -0.1575 0.8941
-15.3388 -22.5577 -0.1536 0.8966
-12.9817 -22.3887 -0.1457 0.9017
-9.0705 -22.5752 -0.1370 0.9073
-8.0793 -22.3973 -0.1341 0.9092
-6.3086 -22.4022 -0.1310 0.9111
-5.4506 -22.4046 -0.1298 0.9119
-4.6287 -22.5112 -0.1294 0.9122
-2.9548 -22.4116 -0.1273 0.9135
-2.1579 -22.5894 -0.1278 0.9132
-1.3327 -22.4161 -0.1264 0.9141
-0.5277 -22.4183 -0.1263 0.9142
2.1967 -4.2361 -0.0269 0.9811
32.8785 -36.7866 -0.2778 0.8209
32.6124 -31.6065 -0.2557 0.8339
33.2803 -30.0167 -0.2523 0.8359
32.6355 -25.4428 -0.2330 0.8474
38.1821 -25.5914 -0.2588 0.8320
43.8284 -3.8911 -0.2477 0.8386
32.9139 9.1081 -0.1923 0.8723
42.4766 13.4110 -0.2508 0.8368
37.6321 13.3827 -0.2248 0.8523
35.2876 13.9932 -0.2137 0.8591
35.5848 17.1556 -0.2224 0.8538
34.1368 17.9930 -0.2173 0.8570
34.4722 21.4582 -0.2286 0.8501
35.1917 23.6974 -0.2389 0.8439
35.1969 25.5812 -0.2450 0.8403
3.6952 13.8283 -0.0806 0.9444
2.4966 13.0222 -0.0747 0.9483
2.0012 12.9286 -0.0737 0.9490
1.5071 12.7439 -0.0723 0.9500
1.0254 12.4982 -0.0706 0.9511
0.5719 12.4211 -0.0700 0.9515
-1.1828 8.8244 -0.0501 0.9650
-3.4417 12.1213 -0.0709 0.9508
-4.8700 12.0453 -0.0732 0.9494
-5.3825 12.0508 -0.0743 0.9486
-6.4930 12.1216 -0.0774 0.9465
-7.6181 12.0578 -0.0803 0.9445
-8.3008 12.1508 -0.0829 0.9428
-10.3145 12.0762 -0.0894 0.9384
-11.0564 12.0425 -0.0920 0.9367
-12.6514 11.9373 -0.0979 0.9328
-14.5600 11.8867 -0.1058 0.9276
-15.9651 12.1067 -0.1128 0.9230
-19.8673 11.9428 -0.1305 0.9114
-21.9614 12.1520 -0.1413 0.9045
-23.7776 12.0647 -0.1501 0.8988
-26.7886 12.4058 -0.1662 0.8886
-33.4269 -23.1648 -0.2290 0.8499
-27.7649 -22.3476 -0.2007 0.8671
-25.8193 -22.3530 -0.1923 0.8723
-20.8234 -22.3669 -0.1721 0.8849
-19.5294 -22.5461 -0.1679 0.8875
-17.6072 -21.8638 -0.1580 0.8938
-15.6405 -22.5569 -0.1545 0.8960
-13.1734 -22.2500 -0.1456 0.9017
-11.1748 -22.3937 -0.1409 0.9047
-9.3099 -22.5745 -0.1375 0.9069
-8.3122 -22.4017 -0.1345 0.9088
-5.6670 -22.4040 -0.1301 0.9117
-4.8426 -22.5106 -0.1296 0.9120
-4.0047 -22.5129 -0.1287 0.9126
-3.1514 -22.3318 -0.1270 0.9137
-0.7319 -22.4177 -0.1263 0.9142
0.0721 -22.4200 -0.1262 0.9142
1.6831 -22.4244 -0.1266 0.9140
2.3178 -4.1914 -0.0270 0.9810
32.6003 -37.1507 -0.2783 0.8206
33.9723 -36.0233 -0.2788 0.8203
32.6141 -32.1890 -0.2580 0.8325
32.8823 -30.2052 -0.2514 0.8364
34.8636 -25.7108 -0.2439 0.8409
40.7027 -25.7304 -0.2711 0.8248
43.8512 13.4072 -0.2582 0.8324
35.1326 13.5628 -0.2120 0.8602
36.0122 15.4074 -0.2205 0.8550
35.8224 16.8700 -0.2229 0.8535
34.1296 19.1727 -0.2204 0.8551
35.2010 27.0519 -0.2500 0.8373
30.1420 26.8090 -0.2271 0.8510
3.2190 13.4818 -0.0780 0.9461
-10.2553 11.7879 -0.4400 0.9394
-11.1699 11.9460 -0.4605 0.9367
-13.8898 11.9727 -0.5163 0.9292
-14.8101 11.8678 -0.5344 0.9269
-20.1367 11.8566 -0.6580 0.9107
-23.9411 11.8748 -0.7525 0.8986
-21.1711 8.6713 -0.6441 0.9125
-27.2176 -22.3185 -0.9911 0.8686
-25.2842 -22.2957 -0.9492 0.8738
-23.5062 -22.2755 -0.9119 0.8785
-20.3320 -22.2417 -0.8485 0.8864
-18.9020 -22.2276 -0.8216 0.8898
-17.3800 -21.9885 -0.7892 0.8939
-16.5491 -22.5544 -0.7877 0.8941
-15.3388 -22.5577 -0.7681 0.8966
-13.7542 -21.8745 -0.7276 0.9018
-12.8844 -22.2210 -0.7233 0.9023
-10.8462 -22.2398 -0.6967 0.9057
-9.8870 -22.2650 -0.6860 0.9071
-8.9551 -22.2877 -0.6763 0.9084
-3.7705 -22.3756 -0.6389 0.9132
1.0801 -22.4044 -0.6316 0.9142
32.6125 -31.6065 -1.2788 0.8338
32.6355 -25.4428 -1.1652 0.8474
38.1821 -25.5914 -1.2943 0.8320
34.8448 -4.3572 -0.9888 0.8689
45.4822 12.5861 -1.3288 0.8279
41.6917 13.1632 -1.2311 0.8395
35.2148 12.5231 -1.0524 0.8611
35.5384 17.1332 -1.1109 0.8540
33.5597 17.6889 -1.0682 0.8592
33.6593 20.9522 -1.1164 0.8533
34.2511 24.8938 -1.1923 0.8441
2.5196 13.1421 -0.3768 0.9479
2.0285 13.1050 -0.3734 0.9483
1.4891 12.5913 -0.3570 0.9505
1.0159 12.3818 -0.3498 0.9515
-0.3076 11.9694 -0.3371 0.9532
-3.8307 11.8561 -0.3508 0.9514
-4.3418 11.9552 -0.3581 0.9504
-5.2775 11.8159 -0.3644 0.9495
-5.8476 11.9249 -0.3740 0.9482
-6.3929 11.9346 -0.3812 0.9473
-8.7991 11.9379 -0.4176 0.9424
-10.1452 11.8780 -0.4398 0.9394
-10.9412 11.9171 -0.4555 0.9373
-11.8029 11.9649 -0.4732 0.9350
-12.5981 11.8869 -0.4877 0.9330
-14.5957 11.9158 -0.5305 0.9274
-16.9198 11.9001 -0.5825 0.9206
-21.3385 11.8073 -0.6867 0.9070
-26.5002 12.2722 -0.8223 0.8897
-33.3845 -23.1354 -1.1437 0.8500
-27.7365 -22.3247 -1.0026 0.8672
-25.7595 -22.3012 -0.9594 0.8725
-22.2676 -22.2620 -0.8866 0.8816
-20.7104 -22.2456 -0.8558 0.8855
-15.6404 -22.5569 -0.7729 0.8960
-14.1532 -22.0608 -0.7380 0.9004
-11.0946 -22.2329 -0.6996 0.9054
-8.2756 -22.3032 -0.6698 0.9092
-7.3821 -22.3173 -0.6619 0.9102
-6.5094 -22.3342 -0.6550 0.9111
-4.0047 -22.5129 -0.6439 0.9126
-2.3447 -22.3901 -0.6339 0.9139
-1.5363 -22.3961 -0.6321 0.9141
-0.7313 -22.4004 -0.6311 0.9142
0.8757 -22.4044 -0.6313 0.9142
1.6816 -22.4039 -0.6326 0.9140
6.9497 -47.0580 -1.3394 0.8267
2.3178 -4.1913 -0.1348 0.9810
32.6003 -37.1507 -1.3917 0.8205
32.6283 -25.9181 -1.1733 0.8464
34.7860 -25.6536 -1.2170 0.8412
37.5493 -25.6658 -1.2807 0.8336
39.0006 -24.6545 -1.2992 0.8314
42.7921 -2.6480 -1.2072 0.8423
38.1277 13.1692 -1.1358 0.8509
36.0475 15.4225 -1.1040 0.8548
34.3095 17.6868 -1.0869 0.8569
33.4614 18.7974 -1.0807 0.8576
33.6581 20.5287 -1.1101 0.8541
34.1978 24.3823 -1.1826 0.8453
34.9796 26.8818 -1.2422 0.8382
30.1735 26.8370 -1.1371 0.8508
3.2400 13.5698 -0.3928 0.9457
-10.3102 11.8510 -0.7966 0.9390
-14.7831 11.8462 -0.9607 0.9269
-16.0406 11.9355 -1.0140 0.9230
-17.1340 11.8191 -1.0556 0.9200
-20.1499 11.8643 -1.1859 0.9106
-37.0354 13.6402 -2.0016 0.8538
-37.9174 10.9519 -2.0016 0.8538
-38.8740 6.8183 -2.0016 0.8538
-39.2626 4.0157 -2.0016 0.8538
-39.4494 1.1925 -2.0016 0.8538
-39.4334 -1.6368 -2.0016 0.8538
-39.3495 -3.0492 -2.0016 0.8538
-39.2149 -4.4577 -2.0016 0.8538
-38.7947 -7.2557 -2.0016 0.8538
-38.1752 -10.0164 -2.0016 0.8538
-37.7917 -11.3783 -2.0016 0.8538
-36.8794 -14.0566 -2.0016 0.8538
-35.7776 -16.6626 -2.0016 0.8538
-35.1573 -17.9343 -2.0016 0.8538
-29.7823 -21.0430 -1.8494 0.8641
-29.0089 -22.0969 -1.8494 0.8641
-23.5946 -22.3592 -1.6485 0.8779
-20.4473 -22.3679 -1.5369 0.8857
-17.3768 -21.9845 -1.4212 0.8938
-15.3388 -22.5577 -1.3834 0.8965
-12.9817 -22.3887 -1.3125 0.9015
-9.9457 -22.3971 -1.2428 0.9065
-5.4506 -22.4046 -1.1694 0.9118
-4.6287 -22.5112 -1.1655 0.9121
-3.7762 -22.4093 -1.1525 0.9130
-2.9548 -22.4116 -1.1464 0.9134
-2.1411 -22.4138 -1.1419 0.9138
-1.3327 -22.4161 -1.1388 0.9140
-0.5277 -22.4183 -1.1372 0.9141
4.3610 -36.2046 -1.8494 0.8641
8.8989 -38.4511 -2.0016 0.8538
10.2715 -38.1074 -2.0016 0.8538
16.9014 -35.6654 -2.0016 0.8538
2.1967 -4.2360 -0.2420 0.9811
19.4131 -34.3629 -2.0016 0.8538
24.1249 -31.2357 -2.0016 0.8538
25.2290 -30.3508 -2.0016 0.8538
26.9540 -28.0650 -1.9734 0.8557
26.9774 -26.1453 -1.9052 0.8603
27.0791 -24.4236 -1.8494 0.8641
28.7593 -22.4208 -1.8494 0.8641
30.2917 -20.3029 -1.8494 0.8641
30.0198 -18.5969 -1.7909 0.8681
31.6684 -18.0805 -1.8494 0.8641
32.2961 -16.9338 -1.8494 0.8641
33.9376 -16.2712 -1.9087 0.8601
36.7194 -14.4692 -2.0016 0.8538
37.2145 -13.1437 -2.0016 0.8538
38.7109 -7.6902 -2.0016 0.8538
38.9617 -6.2977 -2.0016 0.8538
32.4597 -4.0590 -1.6590 0.8772
39.4618 -0.6648 -2.0016 0.8538
39.4603 0.7501 -2.0016 0.8538
39.4080 2.1640 -2.0016 0.8538
39.1517 4.9818 -2.0016 0.8538
35.4715 8.4596 -1.8494 0.8641
34.7742 10.9792 -1.8494 0.8641
33.8983 13.4422 -1.8494 0.8641
33.3947 14.6486 -1.8494 0.8641
32.8482 15.8362 -1.8494 0.8641
32.2594 17.0035 -1.8494 0.8641
30.9584 19.2709 -1.8494 0.8641
29.4982 21.4394 -1.8494 0.8641
28.7108 22.4829 -1.8494 0.8641
27.8864 23.4976 -1.8494 0.8641
27.2690 24.7020 -1.8660 0.8630
27.1944 28.4379 -1.9955 0.8542
26.2371 29.4838 -2.0016 0.8538
24.0574 31.2877 -2.0016 0.8538
20.5597 33.6894 -2.0016 0.8538
19.3389 34.4047 -2.0016 0.8538
16.8243 35.7018 -2.0016 0.8538
15.5338 36.2819 -2.0016 0.8538
5.2087 17.0204 -0.9027 0.9312
3.6089 13.5052 -0.7089 0.9456
3.0517 13.3167 -0.6929 0.9468
2.4780 12.9254 -0.6674 0.9487
2.0128 13.0036 -0.6673 0.9487
1.0079 12.2849 -0.6251 0.9518
0.1208 11.8872 -0.6029 0.9535
-0.3070 11.9442 -0.6059 0.9533
-0.7426 12.0512 -0.6123 0.9528
-1.1694 11.9688 -0.6099 0.9530
-2.4410 11.7428 -0.6083 0.9531
-4.8878 12.0894 -0.6613 0.9491
-5.2526 11.7601 -0.6532 0.9497
-6.3477 11.8501 -0.6818 0.9476
-6.8891 11.8223 -0.6939 0.9467
-7.4010 11.7142 -0.7027 0.9460
-10.9564 11.9336 -0.8216 0.9372
-12.6424 11.9288 -0.8815 0.9328
-13.5045 11.8566 -0.9114 0.9306
-19.6228 11.7959 -1.1611 0.9124
-21.3714 11.8255 -1.2387 0.9068
-23.1228 11.7324 -1.3150 0.9014
-36.9097 13.9769 -2.0016 0.8538
-37.3869 12.6449 -2.0016 0.8538
-37.8162 11.2966 -2.0016 0.8538
-38.1968 9.9339 -2.0016 0.8538
-38.8103 7.1719 -2.0016 0.8538
-39.4369 1.5516 -2.0016 0.8538
-39.2538 -4.1005 -2.0016 0.8538
-37.8937 -11.0338 -2.0016 0.8538
-37.0058 -13.7202 -2.0016 0.8538
-35.9278 -16.3362 -2.0016 0.8538
-35.3191 -17.6135 -2.0016 0.8538
-29.9726 -20.7709 -1.8494 0.8641
-25.8193 -22.3530 -1.7319 0.8722
-24.0277 -22.3580 -1.6645 0.8768
-22.3683 -22.3626 -1.6041 0.8810
-19.3776 -22.3709 -1.5010 0.8882
-16.5880 -22.1812 -1.4047 0.8950
-15.6404 -22.5569 -1.3920 0.8959
-13.1734 -22.2500 -1.3113 0.9016
-12.1948 -22.3909 -1.2930 0.9029
-11.1748 -22.3937 -1.2692 0.9046
-8.3122 -22.4017 -1.2118 0.9087
-7.4092 -22.3992 -1.1965 0.9098
-6.5291 -22.4016 -1.1834 0.9108
-5.6670 -22.4040 -1.1720 0.9116
-4.8426 -22.5106 -1.1677 0.9119
-4.0047 -22.5129 -1.1597 0.9125
-3.1559 -22.3632 -1.1454 0.9135
-1.5376 -22.4155 -1.1395 0.9139
-0.7319 -22.4177 -1.1375 0.9141
0.8425 -21.5536 -1.0939 0.9172
5.3277 -36.0750 -1.8494 0.8641
6.6173 -35.8608 -1.8494 0.8641
7.8984 -35.6006 -1.8494 0.8641
12.6353 -37.3902 -2.0016 0.8538
15.2815 -36.3889 -2.0016 0.8538
16.5760 -35.8177 -2.0016 0.8538
2.3178 -4.1913 -0.2429 0.9810
20.3252 -33.8314 -2.0016 0.8538
21.5248 -33.0811 -2.0016 0.8538
22.6968 -32.2883 -2.0016 0.8538
23.8395 -31.4540 -2.0016 0.8538
26.9717 -26.6201 -1.9219 0.8592
26.9935 -24.7958 -1.8589 0.8635
27.7226 -23.6907 -1.8494 0.8641
28.5540 -22.6817 -1.8494 0.8641
29.3486 -21.6437 -1.8494 0.8641
30.8238 -19.4854 -1.8494 0.8641
32.1406 -17.2271 -1.8494 0.8641
36.5862 -14.8029 -2.0016 0.8538
37.5527 -12.1438 -2.0016 0.8538
37.9638 -10.7899 -2.0016 0.8538
38.9028 -6.6522 -2.0016 0.8538
32.4739 -4.3614 -1.6617 0.8770
39.4541 -1.0241 -2.0016 0.8538
38.7634 7.4213 -2.0016 0.8538
34.4682 11.9053 -1.8494 0.8641
33.5267 14.3440 -1.8494 0.8641
27.2665 27.9985 -1.9820 0.8551
26.5044 29.2437 -2.0016 0.8538
24.3412 31.0674 -2.0016 0.8538
23.2120 31.9199 -2.0016 0.8538
20.8655 33.5008 -2.0016 0.8538
18.4118 34.9096 -2.0016 0.8538
17.1487 35.5471 -2.0016 0.8538
15.8635 36.1390 -2.0016 0.8538
13.2337 37.1826 -2.0016 0.8538
11.8924 37.6331 -2.0016 0.8538
3.1839 13.3349 -0.6953 0.9466
-11.9743 11.9197 -1.2388 0.9345
-12.8831 11.9361 -1.2877 0.9320
-15.4694 11.5105 -1.4138 0.9256
-18.0640 11.5275 -1.5712 0.9176
-19.5949 11.5375 -1.6673 0.9128
-22.5957 11.2074 -1.8494 0.9038
-22.9828 10.3903 -1.8494 0.9038
-21.0350 8.6155 -1.6667 0.9129
-23.6682 8.7171 -1.8494 0.9038
-25.1248 8.2435 -1.9388 0.8994
-26.2261 7.5750 -2.0016 0.8963
-26.7014 5.6767 -2.0016 0.8963
-26.8877 4.7159 -2.0016 0.8963
-27.0395 3.7491 -2.0016 0.8963
-27.1565 2.7775 -2.0016 0.8963
-27.2386 1.8023 -2.0016 0.8963
-27.2857 0.8248 -2.0016 0.8963
-27.2978 -0.1538 -2.0016 0.8963
-27.2747 -1.1321 -2.0016 0.8963
-25.0456 -3.7607 -1.8570 0.9034
-24.8947 -4.6560 -1.8570 0.9034
-26.4044 -6.9280 -2.0016 0.8963
-26.1391 -7.8700 -2.0016 0.8963
-25.8402 -8.8019 -2.0016 0.8963
-25.1433 -10.6305 -2.0016 0.8963
-23.8568 -13.2682 -2.0016 0.8963
-23.3659 -14.1148 -2.0016 0.8963
-22.2886 -15.7483 -2.0010 0.8963
-21.2320 -16.1731 -1.9570 0.8985
-18.9179 -16.6818 -1.8494 0.9038
-18.3078 -17.3492 -1.8494 0.9038
-17.0178 -18.6163 -1.8494 0.9038
-16.3396 -19.2143 -1.8494 0.9038
-15.6403 -19.7876 -1.8494 0.9038
-13.4258 -21.3522 -1.8494 0.9038
-12.6518 -21.8197 -1.8494 0.9038
-10.9216 -22.3944 -1.8269 0.9049
-9.9457 -22.3971 -1.7968 0.9064
-8.0793 -22.3973 -1.7458 0.9089
-5.3098 -16.5562 -1.2748 0.9326
-6.3086 -22.4022 -1.7065 0.9109
-3.7762 -22.4093 -1.6663 0.9129
-1.3327 -22.4161 -1.6465 0.9139
1.0810 -22.4228 -1.6460 0.9139
2.1168 -25.1334 -1.8494 0.9038
3.0163 -25.0414 -1.8494 0.9038
3.9121 -24.9172 -1.8494 0.9038
4.8029 -24.7609 -1.8494 0.9038
5.6873 -24.5729 -1.8494 0.9038
6.5642 -24.3533 -1.8494 0.9038
7.4329 -24.1023 -1.8494 0.9038
9.8928 -25.4426 -2.0016 0.8963
11.6901 -24.6684 -2.0016 0.8963
2.1967 -4.2360 -0.3499 0.9810
14.2707 -23.2710 -2.0016 0.8963
15.0956 -22.7445 -2.0016 0.8963
15.9012 -22.1888 -2.0016 0.8963
17.4500 -20.9926 -2.0016 0.8963
22.1166 -16.0015 -2.0016 0.8963
23.2061 -14.3759 -2.0016 0.8963
23.7065 -13.5348 -2.0016 0.8963
24.1764 -12.6764 -2.0016 0.8963
25.0225 -10.9117 -2.0016 0.8963
25.3975 -10.0078 -2.0016 0.8963
26.3251 -7.2236 -2.0016 0.8963
26.5671 -6.2754 -2.0016 0.8963
26.9484 -4.3559 -2.0016 0.8963
27.1912 -2.4141 -2.0016 0.8963
27.2603 -1.4379 -2.0016 0.8963
27.2943 -0.4598 -2.0016 0.8963
26.7634 5.3769 -2.0016 0.8963
26.0315 8.2188 -2.0016 0.8963
25.7202 9.1466 -2.0016 0.8963
25.3758 10.0627 -2.0016 0.8963
24.9988 10.9658 -2.0016 0.8963
24.1490 12.7286 -2.0016 0.8963
23.6772 13.5860 -2.0016 0.8963
22.6430 15.2474 -2.0016 0.8963
22.0819 16.0492 -2.0016 0.8963
21.4925 16.8304 -2.0016 0.8963
20.8754 17.5900 -2.0016 0.8963
20.2315 18.3270 -2.0016 0.8963
19.5616 19.0403 -2.0016 0.8963
18.8665 19.7293 -2.0016 0.8963
18.1472 20.3928 -2.0016 0.8963
17.4046 21.0302 -2.0016 0.8963
15.0464 22.7771 -2.0016 0.8963
14.2204 23.3017 -2.0016 0.8963
13.3760 23.7965 -2.0016 0.8963
10.7442 25.0949 -2.0016 0.8963
8.2405 23.8383 -1.8494 0.9038
3.6272 13.5738 -1.0302 0.9452
2.4949 13.0136 -0.9716 0.9482
1.4874 12.5774 -0.9286 0.9505
0.5629 12.2255 -0.8973 0.9521
0.1224 12.0506 -0.8836 0.9528
-1.1685 11.9590 -0.8810 0.9529
-3.3653 11.8522 -0.9034 0.9518
-4.3261 11.9120 -0.9292 0.9504
-5.8125 11.8532 -0.9680 0.9484
-6.4467 12.0351 -1.0011 0.9467
-7.4617 11.8103 -1.0243 0.9455
-8.1312 11.9027 -1.0569 0.9438
-8.7802 11.9123 -1.0851 0.9424
-12.5422 11.8342 -1.2644 0.9332
-15.1764 11.5086 -1.3965 0.9265
-20.8660 11.5458 -1.7485 0.9088
-22.8873 10.5991 -1.8494 0.9038
-26.1512 7.8120 -2.0012 0.8963
-26.4193 6.8709 -2.0016 0.8963
-26.6486 5.9195 -2.0016 0.8963
-27.0042 3.9952 -2.0016 0.8963
-27.2211 2.0502 -2.0016 0.8963
-27.2771 1.0732 -2.0016 0.8963
-27.2980 0.0948 -2.0016 0.8963
-27.2839 -0.8838 -2.0016 0.8963
-27.2347 -1.8612 -2.0016 0.8963
-25.1893 -2.6313 -1.8570 0.9034
-24.9360 -4.4292 -1.8570 0.9034
-25.2883 -5.4334 -1.8965 0.9015
-26.4664 -6.6873 -2.0016 0.8963
-26.2097 -7.6317 -2.0016 0.8963
-25.9193 -8.5662 -2.0016 0.8963
-25.5956 -9.4898 -2.0016 0.8963
-24.8499 -11.2991 -2.0016 0.8963
-24.4290 -12.1826 -2.0016 0.8963
-23.9766 -13.0504 -2.0016 0.8963
-23.4934 -13.9015 -2.0016 0.8963
-22.9800 -14.7346 -2.0016 0.8963
-22.4371 -15.5488 -2.0016 0.8963
-21.6321 -16.1688 -1.9802 0.8973
-20.1084 -16.1850 -1.8926 0.9017
-17.1866 -18.4605 -1.8494 0.9038
-15.8198 -19.6444 -1.8494 0.9038
-14.3718 -20.7273 -1.8494 0.9038
-13.6196 -21.2291 -1.8494 0.9038
-12.8499 -21.7037 -1.8494 0.9038
-11.1748 -22.3937 -1.8350 0.9045
-9.2375 -22.3991 -1.7765 0.9074
-8.3122 -22.4017 -1.7520 0.9086
-5.4737 -16.5478 -1.2780 0.9325
-3.9662 -22.2965 -1.6605 0.9132
-1.5376 -22.4155 -1.6474 0.9138
0.0721 -22.4200 -1.6439 0.9140
1.6831 -22.4244 -1.6488 0.9138
3.6850 -24.9518 -1.8494 0.9038
4.5771 -24.8036 -1.8494 0.9038
6.3422 -24.4120 -1.8494 0.9038
8.7393 -25.8614 -2.0016 0.8963
9.6607 -25.5316 -2.0016 0.8963
10.5697 -25.1689 -2.0016 0.8963
11.4650 -24.7738 -2.0016 0.8963
12.3457 -24.3470 -2.0016 0.8963
2.3178 -4.1913 -0.3512 0.9810
14.0582 -23.3999 -2.0016 0.8963
14.8879 -22.8810 -2.0016 0.8963
15.6985 -22.3326 -2.0016 0.8963
17.2581 -21.1506 -2.0016 0.8963
18.0052 -20.5184 -2.0016 0.8963
19.4289 -19.1757 -2.0016 0.8963
20.1038 -18.4670 -2.0016 0.8963
20.7528 -17.7345 -2.0016 0.8963
21.9700 -16.2022 -2.0016 0.8963
23.0743 -14.5866 -2.0016 0.8963
24.0600 -12.8960 -2.0016 0.8963
24.9221 -11.1391 -2.0016 0.8963
25.9738 -8.3994 -2.0016 0.8963
26.2582 -7.4630 -2.0016 0.8963
26.5088 -6.5170 -2.0016 0.8963
26.9076 -4.6011 -2.0016 0.8963
27.1681 -2.6615 -2.0016 0.8963
27.1101 3.1990 -2.0016 0.8963
26.8112 5.1330 -2.0016 0.8963
26.3746 7.0407 -2.0016 0.8963
25.8024 8.9121 -2.0016 0.8963
25.4664 9.8312 -2.0016 0.8963
24.2639 12.5082 -2.0016 0.8963
23.7999 13.3699 -2.0016 0.8963
22.7809 15.0406 -2.0016 0.8963
20.3975 18.1420 -2.0016 0.8963
19.7341 18.8615 -2.0016 0.8963
19.0454 19.5567 -2.0016 0.8963
18.3321 20.2268 -2.0016 0.8963
17.5953 20.8709 -2.0016 0.8963
16.0549 22.0778 -2.0016 0.8963
15.2532 22.6391 -2.0016 0.8963
13.5921 23.6737 -2.0016 0.8963
12.7348 24.1457 -2.0016 0.8963
11.8611 24.5867 -2.0016 0.8963
7.6001 24.0501 -1.8494 0.9038
3.7701 13.6104 -1.0355 0.9449
-9.9827 11.4745 -1.4602 0.9407
-10.7336 11.4794 -1.5088 0.9388
-11.5374 11.4847 -1.5629 0.9367
-12.4021 11.4904 -1.6231 0.9343
-16.5995 9.7738 -1.8494 0.9255
-17.2570 8.5595 -1.8494 0.9255
-18.2405 8.2464 -1.9218 0.9227
-19.5638 7.2054 -2.0016 0.9196
-20.0298 5.7853 -2.0016 0.9196
-20.2242 5.0636 -2.0016 0.9196
-20.3927 4.3355 -2.0016 0.9196
-20.5350 3.6017 -2.0016 0.9196
-20.8482 -0.1174 -2.0016 0.9196
-20.7151 -2.3548 -2.0016 0.9196
-20.6174 -3.0958 -2.0016 0.9196
-20.3426 -4.5649 -2.0016 0.9196
-19.4814 -7.4253 -2.0016 0.9196
-18.2202 -10.1333 -2.0016 0.9196
-17.4474 -11.4126 -2.0016 0.9196
-17.0271 -12.0307 -2.0016 0.9196
-16.5850 -12.6333 -2.0016 0.9196
-16.1215 -13.2196 -2.0016 0.9196
-15.6373 -13.7890 -2.0016 0.9196
-15.1329 -14.3406 -2.0016 0.9196
-14.6092 -14.8739 -2.0016 0.9196
-14.0667 -15.3879 -2.0016 0.9196
-13.4894 -15.8626 -1.9991 0.9197
-12.7802 -16.1691 -1.9787 0.9205
-9.6626 -16.6645 -1.8494 0.9255
-9.0591 -17.0001 -1.8494 0.9255
-7.8179 -17.6054 -1.8494 0.9255
-7.1818 -17.8743 -1.8494 0.9255
-6.5365 -18.1203 -1.8494 0.9255
-5.2215 -18.5420 -1.8494 0.9255
-1.1433 -19.2292 -1.8494 0.9255
0.9276 -19.2408 -1.8494 0.9255
3.6679 -18.9107 -1.8494 0.9255
6.1255 -19.8629 -1.9956 0.9199
7.5554 -19.4313 -2.0016 0.9196
2.1966 -4.2359 -0.4581 0.9810
10.8990 -17.7728 -2.0016 0.9196
12.1443 -16.9463 -2.0016 0.9196
13.3271 -16.0327 -2.0016 0.9196
13.8932 -15.5447 -2.0016 0.9196
15.9722 -13.3996 -2.0016 0.9196
16.4423 -12.8184 -2.0016 0.9196
17.3183 -11.6075 -2.0016 0.9196
17.7233 -10.9793 -2.0016 0.9196
18.1054 -10.3370 -2.0016 0.9196
18.4643 -9.6814 -2.0016 0.9196
18.7995 -9.0133 -2.0016 0.9196
19.1105 -8.3337 -2.0016 0.9196
19.3969 -7.6433 -2.0016 0.9196
19.6584 -6.9431 -2.0016 0.9196
19.8946 -6.2340 -2.0016 0.9196
20.2902 -4.7927 -2.0016 0.9196
20.6874 -2.5869 -2.0016 0.9196
20.8196 -1.0982 -2.0016 0.9196
20.8455 -0.3512 -2.0016 0.9196
20.7628 1.8886 -2.0016 0.9196
20.2797 4.8365 -2.0016 0.9196
20.0933 5.5604 -2.0016 0.9196
19.8811 6.2770 -2.0016 0.9196
19.3804 7.6852 -2.0016 0.9196
19.0924 8.3749 -2.0016 0.9196
18.7800 9.0539 -2.0016 0.9196
18.0831 10.3761 -2.0016 0.9196
17.2932 11.6449 -2.0016 0.9196
16.4145 12.8539 -2.0016 0.9196
15.4514 13.9969 -2.0016 0.9196
13.8596 15.5747 -2.0016 0.9196
13.2925 16.0615 -2.0016 0.9196
12.7082 16.5276 -2.0016 0.9196
12.1076 16.9725 -2.0016 0.9196
7.5817 17.7084 -1.8494 0.9255
3.0296 13.2203 -1.3021 0.9470
2.5311 13.2022 -1.2906 0.9474
1.4784 12.5009 -1.2085 0.9507
1.0056 12.2568 -1.1807 0.9518
0.5580 12.1190 -1.1647 0.9524
-0.7469 12.1209 -1.1659 0.9524
-1.1776 12.0528 -1.1626 0.9525
-1.1823 8.8201 -0.8543 0.9649
-2.0373 11.9329 -1.1622 0.9525
-2.4793 11.9272 -1.1696 0.9522
-3.7964 11.7501 -1.1855 0.9516
-4.3001 11.8404 -1.2094 0.9506
-5.3069 11.8815 -1.2493 0.9491
-5.8343 11.8977 -1.2722 0.9481
-6.3797 11.9100 -1.2971 0.9472
-9.1054 11.4688 -1.4059 0.9429
-9.7996 11.4733 -1.4486 0.9412
-12.1762 11.4889 -1.6072 0.9349
-13.0926 11.4949 -1.6727 0.9324
-15.1764 11.5086 -1.8286 0.9263
-15.7563 11.0818 -1.8494 0.9255
-16.1434 10.5099 -1.8494 0.9255
-16.5098 9.9245 -1.8494 0.9255
-17.8214 8.2531 -1.8855 0.9241
-20.5014 3.7885 -2.0016 0.9196
-20.8324 0.8196 -2.0016 0.9196
-20.8000 -1.4214 -2.0016 0.9196
-20.7357 -2.1661 -2.0016 0.9196
-20.5272 -3.6461 -2.0016 0.9196
-20.2132 -5.1073 -2.0016 0.9196
-20.0172 -5.8286 -2.0016 0.9196
-19.7954 -6.5423 -2.0016 0.9196
-19.2758 -7.9437 -2.0016 0.9196
-18.9787 -8.6295 -2.0016 0.9196
-18.3117 -9.9670 -2.0016 0.9196
-17.5506 -11.2533 -2.0016 0.9196
-15.2629 -14.2023 -2.0016 0.9196
-13.0190 -16.1664 -1.9928 0.9200
-12.0973 -16.1763 -1.9393 0.9220
-8.6011 -17.2363 -1.8494 0.9255
-7.9778 -17.5335 -1.8494 0.9255
-5.3901 -18.4937 -1.8494 0.9255
-1.3183 -19.2180 -1.8494 0.9255
-0.6286 -19.2529 -1.8494 0.9255
0.7524 -19.2485 -1.8494 0.9255
2.1294 -19.1451 -1.8494 0.9255
2.8143 -19.0564 -1.8494 0.9255
4.1723 -18.8059 -1.8494 0.9255
4.8437 -18.6442 -1.8494 0.9255
5.8780 -19.6954 -1.9733 0.9207
6.6745 -19.7512 -2.0016 0.9196
7.3782 -19.4993 -2.0016 0.9196
8.0724 -19.2223 -2.0016 0.9196
8.7562 -18.9206 -2.0016 0.9196
9.4288 -18.5946 -2.0016 0.9196
10.7367 -17.8713 -2.0016 0.9196
11.3704 -17.4749 -2.0016 0.9196
11.9895 -17.0561 -2.0016 0.9196
13.7512 -15.6705 -2.0016 0.9196
14.3040 -15.1676 -2.0016 0.9196
14.8385 -14.6451 -2.0016 0.9196
15.3539 -14.1038 -2.0016 0.9196
16.3248 -12.9676 -2.0016 0.9196
16.7792 -12.3741 -2.0016 0.9196
17.6226 -11.1402 -2.0016 0.9196
18.0106 -10.5014 -2.0016 0.9196
18.7166 -9.1841 -2.0016 0.9196
19.0338 -8.5073 -2.0016 0.9196
19.3265 -7.8196 -2.0016 0.9196
20.0542 -5.6997 -2.0016 0.9196
20.2457 -4.9773 -2.0016 0.9196
20.7492 -2.0327 -2.0016 0.9196
20.8087 -1.2877 -2.0016 0.9196
20.8475 0.2064 -2.0016 0.9196
20.8267 0.9536 -2.0016 0.9196
20.7791 1.6995 -2.0016 0.9196
20.6040 3.1838 -2.0016 0.9196
19.7061 6.8065 -2.0016 0.9196
19.1679 8.2008 -2.0016 0.9196
18.8616 8.8825 -2.0016 0.9196
18.5311 9.5529 -2.0016 0.9196
18.1768 10.2110 -2.0016 0.9196
17.7991 10.8560 -2.0016 0.9196
15.5782 13.8556 -2.0016 0.9196
15.0716 14.4051 -2.0016 0.9196
14.5456 14.9361 -2.0016 0.9196
11.6494 17.2902 -2.0016 0.9196
9.7260 18.4409 -2.0016 0.9196
9.0587 18.7776 -2.0016 0.9196
6.4591 18.1480 -1.8494 0.9255
-9.9827 11.4745 -1.8066 0.9406
-11.0340 10.9836 -1.8494 0.9392
-11.4206 10.5811 -1.8494 0.9392
-12.4905 9.2939 -1.8494 0.9392
-12.8156 8.8402 -1.8494 0.9392
-13.1242 8.3752 -1.8494 0.9392
-14.0026 8.2448 -1.9302 0.9366
-15.0953 7.4873 -2.0016 0.9344
-15.5929 6.3866 -2.0016 0.9344
-15.8118 5.8235 -2.0016 0.9344
-16.3456 4.0925 -2.0016 0.9344
-16.5968 2.9110 -2.0016 0.9344
-16.6905 2.3142 -2.0016 0.9344
-16.7627 1.7145 -2.0016 0.9344
-16.8134 1.1125 -2.0016 0.9344
-16.8357 -0.6988 -2.0016 0.9344
-16.7998 -1.3018 -2.0016 0.9344
-16.4413 -3.6894 -2.0016 0.9344
-16.2985 -4.2764 -2.0016 0.9344
-15.9502 -5.4331 -2.0016 0.9344
-15.5200 -6.5618 -2.0016 0.9344
-15.2748 -7.1139 -2.0016 0.9344
-14.1013 -9.2239 -2.0016 0.9344
-13.7616 -9.7234 -2.0016 0.9344
-13.4043 -10.2104 -2.0016 0.9344
-12.2307 -11.5904 -2.0016 0.9344
-10.4487 -13.2194 -2.0016 0.9344
-9.4748 -13.9340 -2.0016 0.9344
-5.7120 -15.8346 -1.9996 0.9344
-4.5503 -16.1586 -1.9941 0.9346
-3.9337 -16.1694 -1.9767 0.9352
-2.7256 -16.1747 -1.9484 0.9361
-2.1328 -16.1765 -1.9382 0.9364
-0.9626 -16.1914 -1.9267 0.9368
0.2011 -16.3210 -1.9389 0.9364
0.7927 -16.4438 -1.9556 0.9358
1.3989 -16.6098 -1.9800 0.9351
2.0096 -16.6840 -1.9962 0.9345
2.6125 -16.6401 -2.0008 0.9344
5.5396 -15.9135 -2.0016 0.9344
6.1064 -15.7047 -2.0016 0.9344
8.8088 -14.3643 -2.0016 0.9344
9.3180 -14.0393 -2.0016 0.9344
9.8152 -13.6963 -2.0016 0.9344
10.2998 -13.3357 -2.0016 0.9344
10.7712 -12.9579 -2.0016 0.9344
11.2288 -12.5635 -2.0016 0.9344
12.5126 -11.2855 -2.0016 0.9344
12.9091 -10.8298 -2.0016 0.9344
13.2889 -10.3601 -2.0016 0.9344
13.6517 -9.8771 -2.0016 0.9344
13.9970 -9.3814 -2.0016 0.9344
14.3243 -8.8737 -2.0016 0.9344
14.9232 -7.8247 -2.0016 0.9344
15.4454 -6.7354 -2.0016 0.9344
16.6342 -2.6887 -2.0016 0.9344
16.8248 0.9239 -2.0016 0.9344
16.7809 1.5264 -2.0016 0.9344
16.7154 2.1269 -2.0016 0.9344
16.5201 3.3190 -2.0016 0.9344
16.2398 4.4940 -2.0016 0.9344
16.0683 5.0732 -2.0016 0.9344
15.8761 5.6459 -2.0016 0.9344
15.6636 6.2113 -2.0016 0.9344
15.4309 6.7688 -2.0016 0.9344
15.1783 7.3175 -2.0016 0.9344
14.9063 7.8569 -2.0016 0.9344
14.6151 8.3861 -2.0016 0.9344
14.3051 8.9046 -2.0016 0.9344
13.6304 9.9066 -2.0016 0.9344
12.8856 10.8576 -2.0016 0.9344
12.4881 11.3126 -2.0016 0.9344
11.2016 12.5878 -2.0016 0.9344
10.7432 12.9812 -2.0016 0.9344
10.2710 13.3579 -2.0016 0.9344
9.7856 13.7175 -2.0016 0.9344
8.7777 14.3833 -2.0016 0.9344
6.6367 14.0834 -1.8494 0.9392
6.1277 14.3123 -1.8494 0.9392
5.0866 14.7145 -1.8494 0.9392
4.5559 14.8873 -1.8494 0.9392
1.9522 12.6125 -1.5160 0.9499
0.9995 12.1827 -1.4520 0.9520
0.1197 11.7859 -1.4001 0.9536
-0.2981 11.5974 -1.3781 0.9543
-0.7033 11.4137 -1.3584 0.9550
-1.9501 11.4219 -1.3764 0.9544
-2.3749 11.4247 -1.3861 0.9541
-4.6250 11.4394 -1.4657 0.9515
-5.6127 11.4459 -1.5143 0.9499
-6.6738 11.4528 -1.5746 0.9480
-7.2382 11.4565 -1.6097 0.9469
-7.8291 11.4604 -1.6487 0.9456
-8.4501 11.4645 -1.6918 0.9442
-10.9335 11.0836 -1.8494 0.9392
-11.6995 10.2718 -1.8494 0.9392
-12.0602 9.8459 -1.8494 0.9392
-12.4054 9.4072 -1.8494 0.9392
-14.6998 8.1339 -1.9956 0.9346
-15.2902 7.0809 -2.0016 0.9344
-16.3077 4.2412 -2.0016 0.9344
-16.5696 3.0620 -2.0016 0.9344
-16.8371 0.6624 -2.0016 0.9344
-16.8501 0.0585 -2.0016 0.9344
-16.8413 -0.5455 -2.0016 0.9344
-16.6854 -2.3502 -2.0016 0.9344
-16.3367 -4.1278 -2.0016 0.9344
-15.5791 -6.4202 -2.0016 0.9344
-14.5016 -8.5809 -2.0016 0.9344
-13.4967 -10.0880 -2.0016 0.9344
-13.1264 -10.5653 -2.0016 0.9344
-12.3358 -11.4785 -2.0016 0.9344
-11.9164 -11.9133 -2.0016 0.9344
-11.4817 -12.3328 -2.0016 0.9344
-11.0323 -12.7364 -2.0016 0.9344
-10.5687 -13.1237 -2.0016 0.9344
-9.6013 -13.8471 -2.0016 0.9344
-9.0988 -14.1824 -2.0016 0.9344
-4.0898 -16.1686 -1.9811 0.9350
-3.4789 -16.1716 -1.9649 0.9355
-2.2827 -16.1761 -1.9405 0.9363
-1.6941 -16.1777 -1.9322 0.9366
-0.5297 -16.2241 -1.9282 0.9367
0.0524 -16.2962 -1.9358 0.9365
1.8567 -16.6928 -1.9951 0.9346
2.4593 -16.6528 -1.9996 0.9344
3.0577 -16.5704 -2.0016 0.9344
4.2370 -16.3088 -2.0016 0.9344
2.3177 -4.1912 -0.5689 0.9809
9.1898 -14.1236 -2.0016 0.9344
9.6901 -13.7851 -2.0016 0.9344
10.6528 -13.0555 -2.0016 0.9344
11.5608 -12.2587 -2.0016 0.9344
11.9928 -11.8364 -2.0016 0.9344
12.4093 -11.3990 -2.0016 0.9344
13.1941 -10.4806 -2.0016 0.9344
14.2429 -9.0037 -2.0016 0.9344
14.5565 -8.4874 -2.0016 0.9344
15.3835 -6.8758 -2.0016 0.9344
15.6201 -6.3199 -2.0016 0.9344
16.0327 -5.1846 -2.0016 0.9344
16.2082 -4.6066 -2.0016 0.9344
16.3629 -4.0227 -2.0016 0.9344
16.6091 -2.8401 -2.0016 0.9344
16.7002 -2.2429 -2.0016 0.9344
16.7699 -1.6429 -2.0016 0.9344
16.8180 -1.0407 -2.0016 0.9344
16.8445 -0.4372 -2.0016 0.9344
16.8325 0.7707 -2.0016 0.9344
16.7341 1.9746 -2.0016 0.9344
16.6525 2.5732 -2.0016 0.9344
16.5496 3.1684 -2.0016 0.9344
16.4254 3.7596 -2.0016 0.9344
15.7195 6.0685 -2.0016 0.9344
15.4918 6.6280 -2.0016 0.9344
15.2443 7.1790 -2.0016 0.9344
14.9772 7.7208 -2.0016 0.9344
14.6908 8.2527 -2.0016 0.9344
14.0618 9.2840 -2.0016 0.9344
13.7200 9.7821 -2.0016 0.9344
13.3606 10.2676 -2.0016 0.9344
12.5906 11.1984 -2.0016 0.9344
11.7560 12.0716 -2.0016 0.9344
8.9083 14.3028 -2.0016 0.9344
8.3803 14.5962 -1.9993 0.9345
7.2630 13.7709 -1.8494 0.9392
5.7427 14.4710 -1.8494 0.9392
5.2203 14.6676 -1.8494 0.9392
4.6912 14.8453 -1.8494 0.9392
3.7138 13.4070 -1.6525 0.9455
-8.5669 9.8472 -1.8494 0.9486
-8.9144 9.5338 -1.8494 0.9486
-9.2504 9.2082 -1.8494 0.9486
-9.8863 8.5218 -1.8494 0.9486
-10.3026 8.2558 -1.8706 0.9481
-11.6063 8.0061 -1.9978 0.9446
-11.9083 7.5992 -2.0016 0.9445
-12.1730 7.1675 -2.0016 0.9445
-12.4221 6.7266 -2.0016 0.9445
-12.6552 6.2770 -2.0016 0.9445
-13.0724 5.3542 -2.0016 0.9445
-13.4224 4.4039 -2.0016 0.9445
-13.5716 3.9200 -2.0016 0.9445
-13.7034 3.4310 -2.0016 0.9445
-13.8176 2.9376 -2.0016 0.9445
-13.9925 1.9401 -2.0016 0.9445
-14.0531 1.4373 -2.0016 0.9445
-14.1199 0.4268 -2.0016 0.9445
-14.1262 -0.0796 -2.0016 0.9445
-14.1142 -0.5859 -2.0016 0.9445
-14.0360 -1.5955 -2.0016 0.9445
-13.9698 -2.0976 -2.0016 0.9445
-13.8856 -2.5970 -2.0016 0.9445
-12.6769 -3.3262 -1.8570 0.9484
-12.4060 -4.2258 -1.8570 0.9484
-12.2466 -4.6678 -1.8570 0.9484
-12.0714 -5.1038 -1.8570 0.9484
-11.8807 -5.5332 -1.8570 0.9484
-12.3455 -6.8661 -2.0016 0.9445
-12.0915 -7.3042 -2.0016 0.9445
-11.2375 -8.5600 -2.0016 0.9445
-10.9235 -8.9573 -2.0016 0.9445
-10.5954 -9.3431 -2.0016 0.9445
-9.5312 -10.4265 -2.0016 0.9445
-7.5194 -11.9588 -2.0016 0.9445
-6.1922 -12.6969 -2.0016 0.9445
-5.7331 -12.9107 -2.0016 0.9445
-5.2667 -13.1079 -2.0016 0.9445
-4.7934 -13.2883 -2.0016 0.9445
-3.8291 -13.5975 -2.0016 0.9445
-1.8465 -14.0052 -2.0016 0.9445
-1.3433 -14.0624 -2.0016 0.9445
-0.3324 -14.1225 -2.0016 0.9445
0.6802 -14.1100 -2.0016 0.9445
1.1855 -14.0766 -2.0016 0.9445
2.1910 -13.9555 -2.0016 0.9445
2.6898 -13.8680 -2.0016 0.9445
3.6764 -13.6396 -2.0016 0.9445
4.1630 -13.4991 -2.0016 0.9445
5.5880 -12.9742 -2.0016 0.9445
6.0494 -12.7656 -2.0016 0.9445
7.3849 -12.0424 -2.0016 0.9445
8.6349 -11.1800 -2.0016 0.9445
9.0301 -10.8633 -2.0016 0.9445
10.1441 -9.8312 -2.0016 0.9445
10.4900 -9.4613 -2.0016 0.9445
11.1408 -8.6854 -2.0016 0.9445
11.4450 -8.2805 -2.0016 0.9445
12.2678 -7.0041 -2.0016 0.9445
13.1428 -5.1789 -2.0016 0.9445
13.3200 -4.7045 -2.0016 0.9445
13.4801 -4.2240 -2.0016 0.9445
13.6228 -3.7381 -2.0016 0.9445
13.7481 -3.2474 -2.0016 0.9445
13.8556 -2.7525 -2.0016 0.9445
13.9454 -2.2541 -2.0016 0.9445
14.0711 -1.2492 -2.0016 0.9445
14.1244 -0.2380 -2.0016 0.9445
14.1052 0.7746 -2.0016 0.9445
13.8497 2.7825 -2.0016 0.9445
13.4709 4.2531 -2.0016 0.9445
13.1316 5.2073 -2.0016 0.9445
12.9365 5.6746 -2.0016 0.9445
12.2526 7.0306 -2.0016 0.9445
11.9927 7.4652 -2.0016 0.9445
