ply
format ascii 1.0
element vertex 1590
property float32 x
property float32 y
property float32 z
property float32 I
end_header
-2.9732 -10.2253 -2.0016 0.9576
-2.6040 -10.3255 -2.0016 0.9576
-2.2315 -10.4124 -2.0016 0.9576
-1.4782 -10.5457 -2.0016 0.9576
-0.7174 -10.6246 -2.0016 0.9576
-0.3353 -10.6435 -2.0016 0.9576
0.0472 -10.6487 -2.0016 0.9576
0.4296 -10.6401 -2.0016 0.9576
0.8115 -10.6178 -2.0016 0.9576
3.4280 -10.0820 -2.0016 0.9576
3.7879 -9.9523 -2.0016 0.9576
4.1429 -9.8099 -2.0016 0.9576
4.4926 -9.6548 -2.0016 0.9576
5.5050 -9.1155 -2.0016 0.9576
5.8289 -8.9119 -2.0016 0.9576
6.4536 -8.4704 -2.0016 0.9576
6.7536 -8.2332 -2.0016 0.9576
7.0450 -7.9853 -2.0016 0.9576
7.3273 -7.7271 -2.0016 0.9576
7.8631 -7.1812 -2.0016 0.9576
8.1159 -6.8941 -2.0016 0.9576
8.3583 -6.5982 -2.0016 0.9576
8.8104 -5.9812 -2.0016 0.9576
9.4026 -4.9988 -2.0016 0.9576
9.5761 -4.6578 -2.0016 0.9576
9.7372 -4.3109 -2.0016 0.9576
10.0216 -3.6008 -2.0016 0.9576
10.1444 -3.2385 -2.0016 0.9576
10.3507 -2.5019 -2.0016 0.9576
10.5036 -1.7524 -2.0016 0.9576
10.6023 -0.9939 -2.0016 0.9576
10.6312 -0.6124 -2.0016 0.9576
10.6477 0.1523 -2.0016 0.9576
10.6093 0.9163 -2.0016 0.9576
10.5696 1.2968 -2.0016 0.9576
10.5162 1.6756 -2.0016 0.9576
1.7255 8.5772 -1.8494 0.9649
1.4163 8.6336 -1.8494 0.9649
1.1053 8.6789 -1.8494 0.9649
0.7929 8.7130 -1.8494 0.9649
0.4794 8.7358 -1.8494 0.9649
-0.1489 8.7477 -1.8494 0.9649
-0.7765 8.7145 -1.8494 0.9649
-1.4001 8.6362 -1.8494 0.9649
-2.0165 8.5134 -1.8494 0.9649
-2.9260 8.2625 -1.8528 0.9648
-3.2614 8.2548 -1.8762 0.9644
-3.6071 8.2498 -1.9032 0.9639
-3.9633 8.2442 -1.9336 0.9633
-4.3311 8.2379 -1.9673 0.9627
-4.6885 8.1893 -1.9947 0.9622
-5.2793 7.8539 -2.0004 0.9620
-5.8330 7.4591 -2.0016 0.9620
-6.0971 7.2448 -2.0016 0.9620
-6.6015 6.7884 -2.0016 0.9620
-6.8410 6.5470 -2.0016 0.9620
-8.8341 3.4089 -2.0016 0.9620
-8.9509 3.0894 -2.0016 0.9620
-9.0561 2.7659 -2.0016 0.9620
-9.1496 2.4388 -2.0016 0.9620
-9.2313 2.1086 -2.0016 0.9620
-9.3010 1.7757 -2.0016 0.9620
-9.3588 1.4405 -2.0016 0.9620
-9.4229 -0.9335 -2.0016 0.9620
-9.3833 -1.2714 -2.0016 0.9620
-9.3316 -1.6076 -2.0016 0.9620
-9.2678 -1.9417 -2.0016 0.9620
-8.9951 -2.2246 -1.9587 0.9628
-8.4469 -2.4140 -1.8570 0.9647
-8.2518 -3.0142 -1.8570 0.9647
-7.5805 -4.4399 -1.8570 0.9647
-7.4161 -4.7093 -1.8570 0.9647
-7.0589 -5.2296 -1.8570 0.9647
-6.8666 -5.4797 -1.8570 0.9647
-7.1843 -6.1684 -2.0016 0.9620
-6.9581 -6.4224 -2.0016 0.9620
-6.2269 -7.1336 -2.0016 0.9620
-5.9666 -7.3527 -2.0016 0.9620
-5.6987 -7.5622 -2.0016 0.9620
-4.8522 -8.1313 -2.0016 0.9620
-3.9494 -8.6061 -2.0016 0.9620
-3.6378 -8.7424 -2.0016 0.9620
-3.0008 -8.9810 -2.0016 0.9620
-1.6838 -9.3181 -2.0016 0.9620
-1.3480 -9.3726 -2.0016 0.9620
-0.6717 -9.4452 -2.0016 0.9620
0.0081 -9.4690 -2.0016 0.9620
0.6878 -9.4440 -2.0016 0.9620
1.0266 -9.4132 -2.0016 0.9620
1.3640 -9.3703 -2.0016 0.9620
1.6996 -9.3152 -2.0016 0.9620
2.0331 -9.2482 -2.0016 0.9620
2.3640 -9.1692 -2.0016 0.9620
3.0161 -8.9758 -2.0016 0.9620
3.3365 -8.8617 -2.0016 0.9620
3.6527 -8.7362 -2.0016 0.9620
3.9641 -8.5993 -2.0016 0.9620
4.2704 -8.4514 -2.0016 0.9620
2.3094 -4.1894 -1.0112 0.9806
4.8661 -8.1230 -2.0016 0.9620
5.4366 -7.7528 -2.0016 0.9620
5.7116 -7.5525 -2.0016 0.9620
6.7343 -6.6567 -2.0016 0.9620
7.4112 -5.8937 -2.0016 0.9620
7.8152 -5.3465 -2.0016 0.9620
8.0022 -5.0624 -2.0016 0.9620
8.1788 -4.7717 -2.0016 0.9620
8.3449 -4.4749 -2.0016 0.9620
8.5003 -4.1722 -2.0016 0.9620
8.6446 -3.8642 -2.0016 0.9620
8.7779 -3.5513 -2.0016 0.9620
9.0102 -2.9120 -2.0016 0.9620
9.1959 -2.2576 -2.0016 0.9620
9.2711 -1.9259 -2.0016 0.9620
9.3343 -1.5917 -2.0016 0.9620
9.4245 -0.9175 -2.0016 0.9620
9.4513 -0.5784 -2.0016 0.9620
9.4660 -0.2386 -2.0016 0.9620
9.4685 0.1016 -2.0016 0.9620
9.4587 0.4416 -2.0016 0.9620
9.3563 1.4565 -2.0016 0.9620
9.2980 1.7916 -2.0016 0.9620
9.2276 2.1244 -2.0016 0.9620
9.1454 2.4544 -2.0016 0.9620
9.0513 2.7813 -2.0016 0.9620
8.9456 3.1046 -2.0016 0.9620
8.8283 3.4239 -2.0016 0.9620
8.6997 3.7388 -2.0016 0.9620
8.4088 4.3536 -2.0016 0.9620
8.2470 4.6528 -2.0016 0.9620
7.8917 5.2329 -2.0016 0.9620
7.6987 5.5129 -2.0016 0.9620
7.2831 6.0514 -2.0016 0.9620
7.0610 6.3091 -2.0016 0.9620
6.8299 6.5586 -2.0016 0.9620
6.5899 6.7997 -2.0016 0.9620
6.3414 7.0320 -2.0016 0.9620
6.0848 7.2552 -2.0016 0.9620
5.8203 7.4691 -2.0016 0.9620
5.2691 7.8676 -2.0016 0.9620
4.9831 8.0518 -2.0016 0.9620
4.3922 8.3887 -2.0016 0.9620
4.0881 8.5411 -2.0016 0.9620
3.7745 8.6727 -1.9993 0.9621
3.0738 8.7272 -1.9558 0.9629
2.6855 8.5988 -1.9042 0.9638
1.6948 8.5833 -1.8494 0.9649
-0.1803 8.7471 -1.8494 0.9649
-0.8077 8.7116 -1.8494 0.9649
-1.1195 8.6722 -1.8483 0.9649
-1.7401 8.5742 -1.8494 0.9649
-2.0469 8.5062 -1.8494 0.9649
-2.6523 8.3373 -1.8494 0.9649
-3.2954 8.2544 -1.8787 0.9643
-3.6421 8.2493 -1.9061 0.9638
-4.3685 8.2373 -1.9709 0.9626
-4.7184 8.1736 -1.9949 0.9621
-5.3082 7.8362 -2.0007 0.9620
-5.5887 7.6439 -2.0016 0.9620
-5.8596 7.4382 -2.0016 0.9620
-6.3785 6.9984 -2.0016 0.9620
-6.6257 6.7648 -2.0016 0.9620
-6.8644 6.5224 -2.0016 0.9620
-7.9193 5.1911 -2.0016 0.9620
-8.1006 4.9033 -2.0016 0.9620
-8.2715 4.6092 -2.0016 0.9620
-8.5810 4.0035 -2.0016 0.9620
-9.1582 2.4061 -2.0016 0.9620
-9.2387 2.0756 -2.0016 0.9620
-9.3073 1.7424 -2.0016 0.9620
-9.4084 1.0698 -2.0016 0.9620
-9.4609 0.3916 -2.0016 0.9620
-9.4646 -0.2886 -2.0016 0.9620
-9.3787 -1.3049 -2.0016 0.9620
-9.3257 -1.6410 -2.0016 0.9620
-8.8766 -2.2290 -1.9346 0.9633
-8.2409 -3.0437 -1.8570 0.9647
-8.1263 -3.3377 -1.8570 0.9647
-8.0012 -3.6274 -1.8570 0.9647
-7.8657 -3.9125 -1.8570 0.9647
-7.7201 -4.1925 -1.8570 0.9647
-7.5646 -4.4670 -1.8570 0.9647
-7.3992 -4.7358 -1.8570 0.9647
-7.2244 -4.9985 -1.8570 0.9647
-7.1621 -6.1941 -2.0016 0.9620
-6.6990 -6.6922 -2.0016 0.9620
-5.6716 -7.5826 -2.0016 0.9620
-4.2257 -8.4738 -2.0016 0.9620
-2.6438 -9.0925 -2.0016 0.9620
-1.3145 -9.3773 -2.0016 0.9620
0.0420 -9.4689 -2.0016 0.9620
0.3820 -9.4613 -2.0016 0.9620
1.3975 -9.3653 -2.0016 0.9620
1.7330 -9.3091 -2.0016 0.9620
2.0662 -9.2408 -2.0016 0.9620
2.7243 -9.0687 -2.0016 0.9620
3.6839 -8.7230 -2.0016 0.9620
3.9948 -8.5851 -2.0016 0.9620
5.1831 -7.9245 -2.0016 0.9620
6.0054 -7.3210 -2.0016 0.9620
6.2645 -7.1006 -2.0016 0.9620
6.5155 -6.8710 -2.0016 0.9620
6.7581 -6.6326 -2.0016 0.9620
7.2167 -6.1303 -2.0016 0.9620
7.4323 -5.8672 -2.0016 0.9620
7.6382 -5.5965 -2.0016 0.9620
8.3609 -4.4450 -2.0016 0.9620
8.6584 -3.8333 -2.0016 0.9620
8.9113 -3.2018 -2.0016 0.9620
9.0205 -2.8797 -2.0016 0.9620
9.1181 -2.5538 -2.0016 0.9620
9.2040 -2.2247 -2.0016 0.9620
9.3899 -1.2218 -2.0016 0.9620
9.4277 -0.8837 -2.0016 0.9620
9.4533 -0.5446 -2.0016 0.9620
9.4681 0.1355 -2.0016 0.9620
9.4339 0.8148 -2.0016 0.9620
9.3986 1.1531 -2.0016 0.9620
9.3511 1.4899 -2.0016 0.9620
9.2915 1.8248 -2.0016 0.9620
9.2200 2.1574 -2.0016 0.9620
9.1365 2.4871 -2.0016 0.9620
1.3617 8.3005 -1.9769 0.9660
1.0532 8.2697 -1.9593 0.9663
0.7514 8.2568 -1.9486 0.9665
0.4524 8.2436 -1.9403 0.9666
0.1558 8.2434 -1.9377 0.9667
-0.1404 8.2434 -1.9377 0.9667
-1.0338 8.2408 -1.9520 0.9664
-1.3357 8.2390 -1.9616 0.9663
-2.5458 8.1029 -1.9961 0.9657
-3.1260 7.9120 -1.9994 0.9656
-3.6899 7.6756 -2.0016 0.9656
-4.2314 7.3909 -2.0016 0.9656
-4.4941 7.2341 -2.0016 0.9656
-4.7510 7.0681 -2.0016 0.9656
-5.9374 6.1055 -2.0016 0.9656
-6.1528 5.8883 -2.0016 0.9656
-6.3603 5.6636 -2.0016 0.9656
-6.7505 5.1923 -2.0016 0.9656
-6.9326 4.9465 -2.0016 0.9656
-7.1058 4.6944 -2.0016 0.9656
-7.2698 4.4361 -2.0016 0.9656
-7.4245 4.1721 -2.0016 0.9656
-7.5696 3.9028 -2.0016 0.9656
-7.7048 3.6284 -2.0016 0.9656
-7.8302 3.3493 -2.0016 0.9656
-7.9454 3.0659 -2.0016 0.9656
-8.0504 2.7786 -2.0016 0.9656
-8.2291 2.1935 -2.0016 0.9656
-8.3026 1.8965 -2.0016 0.9656
-8.4173 1.2956 -2.0016 0.9656
-8.5079 0.3827 -2.0016 0.9656
-8.4996 -0.5347 -2.0016 0.9656
-8.4750 -0.8396 -2.0016 0.9656
-8.4393 -1.1435 -2.0016 0.9656
-8.3928 -1.4459 -2.0016 0.9656
-7.8153 -2.2335 -1.9103 0.9672
-7.2079 -3.2367 -1.8570 0.9681
-6.9569 -3.7458 -1.8570 0.9681
-6.8179 -3.9933 -1.8570 0.9681
-6.6701 -4.2356 -1.8570 0.9681
-6.5136 -4.4724 -1.8570 0.9681
-6.3488 -4.7035 -1.8570 0.9681
-5.8060 -5.3591 -1.8570 0.9681
-5.6098 -5.5642 -1.8570 0.9681
-4.8778 -6.9812 -2.0016 0.9656
-4.3641 -7.3133 -2.0016 0.9656
-3.8278 -7.6077 -2.0016 0.9656
-3.5521 -7.7403 -2.0016 0.9656
-2.9873 -7.9753 -2.0016 0.9656
-2.1121 -8.2504 -2.0016 0.9656
-1.8144 -8.3209 -2.0016 0.9656
-1.5144 -8.3807 -2.0016 0.9656
-1.2124 -8.4297 -2.0016 0.9656
-0.9089 -8.4678 -2.0016 0.9656
-0.6041 -8.4950 -2.0016 0.9656
0.0073 -8.5164 -2.0016 0.9656
0.3131 -8.5107 -2.0016 0.9656
1.5287 -8.3781 -2.0016 0.9656
1.8286 -8.3178 -2.0016 0.9656
2.1262 -8.2468 -2.0016 0.9656
2.7127 -8.0729 -2.0016 0.9656
3.0009 -7.9702 -2.0016 0.9656
3.2852 -7.8573 -2.0016 0.9656
3.5653 -7.7342 -2.0016 0.9656
2.1505 -4.2561 -1.1207 0.9806
2.2872 -4.1492 -1.1135 0.9807
4.3766 -7.3059 -2.0016 0.9656
4.6361 -7.1440 -2.0016 0.9656
5.1370 -6.7927 -2.0016 0.9656
5.6114 -6.4064 -2.0016 0.9656
6.0568 -5.9871 -2.0016 0.9656
6.4710 -5.5368 -2.0016 0.9656
6.6657 -5.3008 -2.0016 0.9656
6.8518 -5.0580 -2.0016 0.9656
7.0290 -4.8087 -2.0016 0.9656
7.1972 -4.5531 -2.0016 0.9656
7.3560 -4.2917 -2.0016 0.9656
7.5055 -4.0247 -2.0016 0.9656
7.6452 -3.7525 -2.0016 0.9656
7.7750 -3.4755 -2.0016 0.9656
8.0044 -2.9084 -2.0016 0.9656
8.1037 -2.6190 -2.0016 0.9656
8.1926 -2.3263 -2.0016 0.9656
8.3953 -1.4316 -2.0016 0.9656
8.4413 -1.1291 -2.0016 0.9656
8.5005 -0.5202 -2.0016 0.9656
8.5160 0.0914 -2.0016 0.9656
8.5072 0.3972 -2.0016 0.9656
8.4874 0.7025 -2.0016 0.9656
8.4567 1.0068 -2.0016 0.9656
8.4151 1.3099 -2.0016 0.9656
8.3626 1.6113 -2.0016 0.9656
8.2994 1.9106 -2.0016 0.9656
8.0457 2.7923 -2.0016 0.9656
7.9402 3.0794 -2.0016 0.9656
7.8245 3.3626 -2.0016 0.9656
7.6987 3.6415 -2.0016 0.9656
7.4174 4.1848 -2.0016 0.9656
7.2623 4.4485 -2.0016 0.9656
7.0978 4.7064 -2.0016 0.9656
6.1428 5.8988 -2.0016 0.9656
5.9270 6.1156 -2.0016 0.9656
5.7035 6.3246 -2.0016 0.9656
5.4727 6.5253 -2.0016 0.9656
4.7390 7.0761 -2.0016 0.9656
4.4818 7.2418 -2.0016 0.9656
3.9504 7.5448 -2.0016 0.9656
3.6768 7.6818 -2.0016 0.9656
2.8292 8.0328 -2.0016 0.9656
2.5378 8.1257 -2.0007 0.9656
1.9433 8.2672 -1.9959 0.9657
1.6437 8.3244 -1.9942 0.9657
1.3305 8.2963 -1.9747 0.9661
1.0230 8.2684 -1.9581 0.9663
-0.1699 8.2434 -1.9378 0.9667
-0.4664 8.2429 -1.9404 0.9666
-1.6716 8.2365 -1.9752 0.9661
-2.8663 8.0028 -1.9978 0.9657
-3.1546 7.9015 -1.9996 0.9656
-3.4395 7.7904 -2.0014 0.9656
-3.7174 7.6623 -2.0016 0.9656
-4.2578 7.3757 -2.0016 0.9656
-4.5200 7.2180 -2.0016 0.9656
-4.7763 7.0510 -2.0016 0.9656
-5.7368 6.2943 -2.0016 0.9656
-5.9592 6.0842 -2.0016 0.9656
-6.5791 5.4079 -2.0016 0.9656
-6.7691 5.1682 -2.0016 0.9656
-6.9503 4.9217 -2.0016 0.9656
-7.1226 4.6689 -2.0016 0.9656
-7.5835 3.8757 -2.0016 0.9656
-8.1539 2.4585 -2.0016 0.9656
-8.2369 2.1640 -2.0016 0.9656
-8.3710 1.5671 -2.0016 0.9656
-8.4219 1.2655 -2.0016 0.9656
-8.5092 0.3522 -2.0016 0.9656
-8.5163 0.0464 -2.0016 0.9656
-8.4719 -0.8700 -2.0016 0.9656
-8.3292 -1.7762 -2.0016 0.9656
-8.2600 -2.0742 -2.0016 0.9656
-7.7238 -2.2373 -1.8899 0.9675
-7.5054 -2.4695 -1.8570 0.9681
-7.3088 -3.0019 -1.8570 0.9681
-7.0744 -3.5189 -1.8570 0.9681
-6.6549 -4.2594 -1.8570 0.9681
-6.3319 -4.7262 -1.8570 0.9681
-5.9763 -5.1685 -1.8570 0.9681
-5.5899 -5.5842 -1.8570 0.9681
-5.8050 -6.2315 -2.0016 0.9656
-5.5775 -6.4360 -2.0016 0.9656
-5.3427 -6.6321 -2.0016 0.9656
-4.5983 -7.1683 -2.0016 0.9656
-4.3379 -7.3289 -2.0016 0.9656
-3.8006 -7.6214 -2.0016 0.9656
-3.2437 -7.8745 -2.0016 0.9656
-2.0826 -8.2579 -2.0016 0.9656
-1.7846 -8.3274 -2.0016 0.9656
-1.4844 -8.3861 -2.0016 0.9656
0.0377 -8.5164 -2.0016 0.9656
0.3436 -8.5095 -2.0016 0.9656
0.9536 -8.4629 -2.0016 0.9656
1.8584 -8.3112 -2.0016 0.9656
2.1557 -8.2391 -2.0016 0.9656
2.4502 -8.1564 -2.0016 0.9656
3.3133 -7.8455 -2.0016 0.9656
3.5929 -7.7214 -2.0016 0.9656
4.4027 -7.2902 -2.0016 0.9656
4.6617 -7.1273 -2.0016 0.9656
5.4013 -6.5845 -2.0016 0.9656
5.6343 -6.3863 -2.0016 0.9656
5.8600 -6.1798 -2.0016 0.9656
6.6846 -5.2769 -2.0016 0.9656
6.8698 -5.0335 -2.0016 0.9656
7.0462 -4.7835 -2.0016 0.9656
7.3714 -4.2653 -2.0016 0.9656
7.5198 -3.9978 -2.0016 0.9656
7.6585 -3.7251 -2.0016 0.9656
7.7874 -3.4476 -2.0016 0.9656
8.0148 -2.8797 -2.0016 0.9656
8.2009 -2.2969 -2.0016 0.9656
8.3446 -1.7023 -2.0016 0.9656
8.4003 -1.4015 -2.0016 0.9656
8.4453 -1.0989 -2.0016 0.9656
8.5145 -0.1841 -2.0016 0.9656
8.4104 1.3400 -2.0016 0.9656
0.7006 7.6987 -2.0016 0.9686
0.4236 7.7189 -2.0016 0.9686
-0.4091 7.7197 -2.0016 0.9686
-0.9622 7.6704 -2.0016 0.9686
-1.2371 7.6309 -2.0016 0.9686
-1.5104 7.5815 -2.0016 0.9686
-2.0507 7.4535 -2.0016 0.9686
-2.3171 7.3750 -2.0016 0.9686
-3.8409 6.7088 -2.0016 0.9686
-4.3126 6.4158 -2.0016 0.9686
-4.7620 6.0896 -2.0016 0.9686
-4.9777 5.9147 -2.0016 0.9686
-5.3894 5.5421 -2.0016 0.9686
-5.5850 5.3449 -2.0016 0.9686
-5.7734 5.1409 -2.0016 0.9686
-5.9543 4.9302 -2.0016 0.9686
-6.1275 4.7132 -2.0016 0.9686
-6.4500 4.2611 -2.0016 0.9686
-6.5989 4.0267 -2.0016 0.9686
-6.7393 3.7871 -2.0016 0.9686
-7.1076 3.0402 -2.0016 0.9686
-7.2122 2.7830 -2.0016 0.9686
-7.3933 2.2581 -2.0016 0.9686
-7.4697 1.9911 -2.0016 0.9686
-7.5364 1.7215 -2.0016 0.9686
-7.5933 1.4497 -2.0016 0.9686
-7.6405 1.1760 -2.0016 0.9686
-7.6778 0.9009 -2.0016 0.9686
-7.7227 0.3474 -2.0016 0.9686
-7.7302 0.0698 -2.0016 0.9686
-7.7277 -0.2079 -2.0016 0.9686
-7.6928 -0.7621 -2.0016 0.9686
-7.6183 -1.3124 -2.0016 0.9686
-7.5044 -1.8559 -2.0016 0.9686
-6.5427 -2.9380 -1.8570 0.9708
-6.3149 -3.4001 -1.8570 0.9708
-6.0545 -3.8447 -1.8570 0.9708
-5.4415 -4.6721 -1.8570 0.9708
-5.2702 -4.8645 -1.8570 0.9708
-4.7164 -5.4032 -1.8570 0.9708
-4.5193 -5.5691 -1.8570 0.9708
-4.6524 -6.1738 -2.0016 0.9686
-4.1972 -6.4918 -2.0016 0.9686
-3.9613 -6.6384 -2.0016 0.9686
-3.4746 -6.9056 -2.0016 0.9686
-3.2243 -7.0260 -2.0016 0.9686
-2.9699 -7.1372 -2.0016 0.9686
-2.7116 -7.2393 -2.0016 0.9686
-1.9172 -7.4890 -2.0016 0.9686
-1.6470 -7.5530 -2.0016 0.9686
-1.1005 -7.6518 -2.0016 0.9686
-0.8250 -7.6863 -2.0016 0.9686
0.0066 -7.7305 -2.0016 0.9686
0.5615 -7.7101 -2.0016 0.9686
1.6598 -7.5502 -2.0016 0.9686
1.9299 -7.4857 -2.0016 0.9686
2.1976 -7.4116 -2.0016 0.9686
2.9820 -7.1322 -2.0016 0.9686
3.2363 -7.0205 -2.0016 0.9686
4.8814 -5.9944 -2.0016 0.9686
5.2991 -5.6285 -2.0016 0.9686
5.4978 -5.4345 -2.0016 0.9686
6.0505 -4.8116 -2.0016 0.9686
6.6772 -3.8956 -2.0016 0.9686
6.8128 -3.6533 -2.0016 0.9686
7.3559 -2.3773 -2.0016 0.9686
7.5689 -1.5723 -2.0016 0.9686
7.6941 -0.7490 -2.0016 0.9686
7.7221 0.3605 -2.0016 0.9686
7.5909 1.4626 -2.0016 0.9686
7.4663 2.0038 -2.0016 0.9686
7.3032 2.5346 -2.0016 0.9686
7.2074 2.7952 -2.0016 0.9686
6.9882 3.3054 -2.0016 0.9686
6.7328 3.7986 -2.0016 0.9686
6.4428 4.2721 -2.0016 0.9686
6.2852 4.5007 -2.0016 0.9686
5.9459 4.9403 -2.0016 0.9686
5.7646 5.1507 -2.0016 0.9686
5.5759 5.3544 -2.0016 0.9686
4.0682 6.5735 -2.0016 0.9686
3.8295 6.7153 -2.0016 0.9686
3.5858 6.8485 -2.0016 0.9686
3.3375 6.9729 -2.0016 0.9686
3.0849 7.0883 -2.0016 0.9686
2.5681 7.2915 -2.0016 0.9686
2.3046 7.3790 -2.0016 0.9686
2.0381 7.4570 -2.0016 0.9686
1.7689 7.5254 -2.0016 0.9686
0.6730 7.7011 -2.0016 0.9686
0.3960 7.7203 -2.0016 0.9686
-0.4368 7.7181 -2.0016 0.9686
-0.7137 7.6975 -2.0016 0.9686
-1.2644 7.6264 -2.0016 0.9686
-1.5375 7.5760 -2.0016 0.9686
-2.0774 7.4461 -2.0016 0.9686
-2.6066 7.2778 -2.0016 0.9686
-2.8663 7.1795 -2.0016 0.9686
-3.1223 7.0719 -2.0016 0.9686
-3.6219 6.8295 -2.0016 0.9686
-4.1028 6.5519 -2.0016 0.9686
-5.2074 5.7135 -2.0016 0.9686
-5.6041 5.3249 -2.0016 0.9686
-5.7917 5.1202 -2.0016 0.9686
-5.9719 4.9089 -2.0016 0.9686
-6.1444 4.6912 -2.0016 0.9686
-6.3089 4.4675 -2.0016 0.9686
-6.6133 4.0031 -2.0016 0.9686
-7.0055 3.2685 -2.0016 0.9686
-7.4014 2.2316 -2.0016 0.9686
-7.4768 1.9643 -2.0016 0.9686
-7.6447 1.1487 -2.0016 0.9686
-7.7074 0.5969 -2.0016 0.9686
-7.7239 0.3197 -2.0016 0.9686
-7.7304 0.0421 -2.0016 0.9686
-7.7269 -0.2356 -2.0016 0.9686
-7.7135 -0.5130 -2.0016 0.9686
-7.6567 -1.0654 -2.0016 0.9686
-7.5605 -1.6123 -2.0016 0.9686
-7.4977 -1.8828 -2.0016 0.9686
-7.4253 -2.1508 -2.0016 0.9686
-6.7279 -2.4849 -1.8570 0.9708
-6.6343 -2.7249 -1.8570 0.9708
-6.5321 -2.9614 -1.8570 0.9708
-6.3027 -3.4227 -1.8570 0.9708
-5.8979 -4.0808 -1.8570 0.9708
-5.5898 -4.4937 -1.8570 0.9708
-5.4248 -4.6915 -1.8570 0.9708
-5.0740 -5.0689 -1.8570 0.9708
-4.6303 -6.1904 -2.0016 0.9686
-4.4050 -6.3527 -2.0016 0.9686
-4.1740 -6.5068 -2.0016 0.9686
-3.9376 -6.6525 -2.0016 0.9686
-3.6961 -6.7897 -2.0016 0.9686
-3.1991 -7.0375 -2.0016 0.9686
-2.9443 -7.1478 -2.0016 0.9686
-2.6857 -7.2490 -2.0016 0.9686
-2.4236 -7.3407 -2.0016 0.9686
-2.1584 -7.4231 -2.0016 0.9686
-1.3474 -7.6122 -2.0016 0.9686
-1.0731 -7.6556 -2.0016 0.9686
-0.5208 -7.7129 -2.0016 0.9686
0.0343 -7.7304 -2.0016 0.9686
0.5891 -7.7080 -2.0016 0.9686
1.1409 -7.6458 -2.0016 0.9686
1.9567 -7.4787 -2.0016 0.9686
2.2241 -7.4036 -2.0016 0.9686
2.4885 -7.3190 -2.0016 0.9686
3.0075 -7.1215 -2.0016 0.9686
3.2614 -7.0088 -2.0016 0.9686
2.2852 -4.1107 -1.2177 0.9808
3.9964 -6.6174 -2.0016 0.9686
4.2315 -6.4696 -2.0016 0.9686
4.9028 -5.9769 -2.0016 0.9686
5.1143 -5.7969 -2.0016 0.9686
5.3192 -5.6095 -2.0016 0.9686
5.7082 -5.2132 -2.0016 0.9686
5.8917 -5.0048 -2.0016 0.9686
6.0677 -4.7899 -2.0016 0.9686
6.8258 -3.6288 -2.0016 0.9686
6.9518 -3.3813 -2.0016 0.9686
7.2751 -2.6140 -2.0016 0.9686
7.3643 -2.3510 -2.0016 0.9686
7.5141 -1.8163 -2.0016 0.9686
7.5745 -1.5452 -2.0016 0.9686
7.6967 -0.7215 -2.0016 0.9686
7.7177 -0.4446 -2.0016 0.9686
7.7287 -0.1671 -2.0016 0.9686
7.7297 0.1106 -2.0016 0.9686
7.7207 0.3882 -2.0016 0.9686
7.6730 0.9414 -2.0016 0.9686
7.6342 1.2164 -2.0016 0.9686
7.5856 1.4898 -2.0016 0.9686
7.5272 1.7613 -2.0016 0.9686
7.4591 2.0305 -2.0016 0.9686
1.1446 6.9771 -2.0016 0.9710
-0.3742 7.0604 -2.0016 0.9710
-1.1315 6.9792 -2.0016 0.9710
-1.6296 6.8800 -2.0016 0.9710
-2.1193 6.7452 -2.0016 0.9710
-2.3602 6.6648 -2.0016 0.9710
-2.5980 6.5757 -2.0016 0.9710
-3.0633 6.3722 -2.0016 0.9710
-3.9443 5.8679 -2.0016 0.9710
-4.1525 5.7224 -2.0016 0.9710
-4.5526 5.4096 -2.0016 0.9710
-4.7439 5.2426 -2.0016 0.9710
-4.9292 5.0688 -2.0016 0.9710
-5.2803 4.7019 -2.0016 0.9710
-5.7555 4.1066 -2.0016 0.9710
-5.8992 3.8972 -2.0016 0.9710
-6.0354 3.6828 -2.0016 0.9710
-6.1638 3.4637 -2.0016 0.9710
-6.3965 3.0123 -2.0016 0.9710
-6.5963 2.5453 -2.0016 0.9710
-6.7620 2.0652 -2.0016 0.9710
-6.8318 1.8210 -2.0016 0.9710
-6.8928 1.5745 -2.0016 0.9710
-6.9449 1.3259 -2.0016 0.9710
-6.9880 1.0756 -2.0016 0.9710
-7.0632 0.3177 -2.0016 0.9710
-7.0678 -0.1902 -2.0016 0.9710
-6.7240 -2.1858 -2.0016 0.9710
-6.1614 -2.2506 -1.8570 0.9731
-6.0766 -2.4705 -1.8570 0.9731
-5.9840 -2.6871 -1.8570 0.9731
-5.8836 -2.9003 -1.8570 0.9731
-5.7756 -3.1098 -1.8570 0.9731
-5.4076 -3.7130 -1.8570 0.9731
-4.8202 -4.4491 -1.8570 0.9731
-4.3136 -4.9418 -1.8570 0.9731
-4.1334 -5.0935 -1.8570 0.9731
-3.9478 -5.2387 -1.8570 0.9731
-3.5615 -5.5086 -1.8570 0.9731
-3.3614 -5.6329 -1.8570 0.9731
-2.7163 -6.5278 -2.0016 0.9710
-2.4801 -6.6211 -2.0016 0.9710
-2.2406 -6.7059 -2.0016 0.9710
-1.7535 -6.8495 -2.0016 0.9710
-1.5063 -6.9080 -2.0016 0.9710
-1.0065 -6.9983 -2.0016 0.9710
-0.2479 -7.0660 -2.0016 0.9710
0.0060 -7.0703 -2.0016 0.9710
2.0099 -6.7786 -2.0016 0.9710
2.2521 -6.7021 -2.0016 0.9710
2.7274 -6.5231 -2.0016 0.9710
2.9599 -6.4209 -2.0016 0.9710
2.0984 -4.1529 -1.3172 0.9808
3.6334 -6.0653 -2.0016 0.9710
3.8489 -5.9309 -2.0016 0.9710
4.2647 -5.6393 -2.0016 0.9710
4.6586 -5.3186 -2.0016 0.9710
4.8466 -5.1478 -2.0016 0.9710
5.0283 -4.9705 -2.0016 0.9710
5.5338 -4.4007 -2.0016 0.9710
6.1070 -3.5629 -2.0016 0.9710
6.2310 -3.3413 -2.0016 0.9710
6.6453 -2.4145 -2.0016 0.9710
6.7277 -2.1743 -2.0016 0.9710
6.8015 -1.9313 -2.0016 0.9710
7.0571 -0.4319 -2.0016 0.9710
7.0699 0.0758 -2.0016 0.9710
7.0462 0.5832 -2.0016 0.9710
6.8901 1.5862 -2.0016 0.9710
6.8287 1.8327 -2.0016 0.9710
6.7584 2.0767 -2.0016 0.9710
6.6795 2.3181 -2.0016 0.9710
6.5919 2.5565 -2.0016 0.9710
6.4959 2.7917 -2.0016 0.9710
6.3914 3.0232 -2.0016 0.9710
6.0291 3.6931 -2.0016 0.9710
5.5969 4.3202 -2.0016 0.9710
5.4381 4.5184 -2.0016 0.9710
5.0997 4.8972 -2.0016 0.9710
4.9206 5.0772 -2.0016 0.9710
4.7350 5.2506 -2.0016 0.9710
4.5434 5.4173 -2.0016 0.9710
3.9343 5.8746 -2.0016 0.9710
3.5024 6.1419 -2.0016 0.9710
3.0525 6.3775 -2.0016 0.9710
2.8215 6.4830 -2.0016 0.9710
2.1078 6.7488 -2.0016 0.9710
1.8640 6.8202 -2.0016 0.9710
1.6178 6.8827 -2.0016 0.9710
0.8681 7.0168 -2.0016 0.9710
0.6155 7.0435 -2.0016 0.9710
0.1083 7.0695 -2.0016 0.9710
-0.1457 7.0688 -2.0016 0.9710
-0.6527 7.0401 -2.0016 0.9710
-1.1564 6.9751 -2.0016 0.9710
-1.6542 6.8741 -2.0016 0.9710
-2.1434 6.7376 -2.0016 0.9710
-2.3840 6.6563 -2.0016 0.9710
-2.6215 6.5664 -2.0016 0.9710
-2.8557 6.4680 -2.0016 0.9710
-3.0861 6.3612 -2.0016 0.9710
-3.3126 6.2463 -2.0016 0.9710
-3.7525 5.9924 -2.0016 0.9710
-4.1730 5.7075 -2.0016 0.9710
-4.9473 5.0511 -2.0016 0.9710
-5.2971 4.6829 -2.0016 0.9710
-5.4619 4.4897 -2.0016 0.9710
-5.6196 4.2906 -2.0016 0.9710
-5.7701 4.0860 -2.0016 0.9710
-6.1762 3.4416 -2.0016 0.9710
-6.6054 2.5217 -2.0016 0.9710
-6.9496 1.3010 -2.0016 0.9710
-6.9918 1.0506 -2.0016 0.9710
-7.0251 0.7988 -2.0016 0.9710
-7.0643 0.2924 -2.0016 0.9710
-7.0670 -0.2155 -2.0016 0.9710
-7.0548 -0.4692 -2.0016 0.9710
-7.0029 -0.9744 -2.0016 0.9710
-6.9633 -1.2253 -2.0016 0.9710
-6.8574 -1.7220 -2.0016 0.9710
-6.7912 -1.9672 -2.0016 0.9710
-6.1533 -2.2727 -1.8570 0.9731
-6.0677 -2.4922 -1.8570 0.9731
-5.8732 -2.9214 -1.8570 0.9731
-5.7645 -3.1304 -1.8570 0.9731
-5.5249 -3.5362 -1.8570 0.9731
-5.3943 -3.7323 -1.8570 0.9731
-4.8042 -4.4663 -1.8570 0.9731
-4.6407 -4.6360 -1.8570 0.9731
-4.4712 -4.7997 -1.8570 0.9731
-4.1151 -5.1083 -1.8570 0.9731
-3.5418 -5.5213 -1.8570 0.9731
-2.9259 -6.4365 -2.0016 0.9710
-2.6929 -6.5374 -2.0016 0.9710
-1.7289 -6.8557 -2.0016 0.9710
-1.2323 -6.9621 -2.0016 0.9710
-0.9815 -7.0019 -2.0016 0.9710
-0.4763 -7.0543 -2.0016 0.9710
-0.2226 -7.0668 -2.0016 0.9710
0.5388 -7.0498 -2.0016 0.9710
1.0435 -6.9929 -2.0016 0.9710
1.2940 -6.9509 -2.0016 0.9710
1.5428 -6.9000 -2.0016 0.9710
2.2760 -6.6940 -2.0016 0.9710
2.7507 -6.5133 -2.0016 0.9710
2.2772 -4.0963 -1.3268 0.9807
3.8701 -5.9171 -2.0016 0.9710
4.0801 -5.7743 -2.0016 0.9710
4.4841 -5.4665 -2.0016 0.9710
5.0461 -4.9524 -2.0016 0.9710
5.2207 -4.7680 -2.0016 0.9710
5.3886 -4.5774 -2.0016 0.9710
5.5495 -4.3809 -2.0016 0.9710
5.7033 -4.1788 -2.0016 0.9710
5.8497 -3.9712 -2.0016 0.9710
6.2429 -3.3190 -2.0016 0.9710
6.4651 -2.8622 -2.0016 0.9710
6.5637 -2.6282 -2.0016 0.9710
6.6539 -2.3907 -2.0016 0.9710
6.8083 -1.9069 -2.0016 0.9710
6.8724 -1.6612 -2.0016 0.9710
6.9739 -1.1635 -2.0016 0.9710
7.0395 -0.6599 -2.0016 0.9710
7.0586 -0.4066 -2.0016 0.9710
7.0687 -0.1528 -2.0016 0.9710
7.0614 0.3550 -2.0016 0.9710
7.0177 0.8610 -2.0016 0.9710
6.9378 1.3626 -2.0016 0.9710
1.2834 6.3797 -2.0016 0.9731
1.0534 6.4216 -2.0016 0.9731
0.8221 6.4553 -2.0016 0.9731
0.5897 6.4807 -2.0016 0.9731
0.3566 6.4977 -2.0016 0.9731
0.1230 6.5063 -2.0016 0.9731
-0.1108 6.5065 -2.0016 0.9731
-0.8100 6.4569 -2.0016 0.9731
-1.0414 6.4236 -2.0016 0.9731
-1.2714 6.3821 -2.0016 0.9731
-1.4998 6.3323 -2.0016 0.9731
-1.7263 6.2743 -2.0016 0.9731
-1.9505 6.2083 -2.0016 0.9731
-2.3912 6.0522 -2.0016 0.9731
-2.6070 5.9624 -2.0016 0.9731
-2.8195 5.8650 -2.0016 0.9731
-3.0283 5.7599 -2.0016 0.9731
-3.2332 5.6474 -2.0016 0.9731
-3.4340 5.5277 -2.0016 0.9731
-4.1902 4.9789 -2.0016 0.9731
-4.3663 4.8252 -2.0016 0.9731
-4.5368 4.6653 -2.0016 0.9731
-4.7014 4.4993 -2.0016 0.9731
-4.8600 4.3276 -2.0016 0.9731
-5.0123 4.1502 -2.0016 0.9731
-5.1581 3.9675 -2.0016 0.9731
-5.2973 3.7797 -2.0016 0.9731
-5.4296 3.5870 -2.0016 0.9731
-5.5549 3.3897 -2.0016 0.9731
-5.7839 2.9821 -2.0016 0.9731
-5.8873 2.7725 -2.0016 0.9731
-6.0712 2.3427 -2.0016 0.9731
-6.3441 1.4491 -2.0016 0.9731
-6.3920 1.2203 -2.0016 0.9731
-6.4317 0.9900 -2.0016 0.9731
-6.5009 0.2924 -2.0016 0.9731
-6.5072 0.0587 -2.0016 0.9731
-6.4946 -0.4086 -2.0016 0.9731
-6.4758 -0.6416 -2.0016 0.9731
-6.4486 -0.8737 -2.0016 0.9731
-6.4130 -1.1048 -2.0016 0.9731
-6.3692 -1.3344 -2.0016 0.9731
-6.3172 -1.5623 -2.0016 0.9731
-6.1887 -2.0118 -2.0016 0.9731
-5.5929 -2.2738 -1.8570 0.9751
-5.3158 -2.8622 -1.8570 0.9751
-5.2096 -3.0513 -1.8570 0.9751
-4.9771 -3.4174 -1.8570 0.9751
-4.8512 -3.5940 -1.8570 0.9751
-4.5807 -3.9329 -1.8570 0.9751
-4.4364 -4.0949 -1.8570 0.9751
-3.9702 -4.5484 -1.8570 0.9751
-3.6335 -4.8216 -1.8570 0.9751
-3.2780 -5.0700 -1.8570 0.9751
-3.0938 -5.1845 -1.8570 0.9751
-2.5181 -5.4872 -1.8570 0.9751
-2.1177 -5.6538 -1.8570 0.9751
-2.0623 -6.1721 -2.0016 0.9731
-1.8393 -6.2421 -2.0016 0.9731
-1.6139 -6.3042 -2.0016 0.9731
-1.1572 -6.4038 -2.0016 0.9731
-0.6945 -6.4703 -2.0016 0.9731
-0.2282 -6.5035 -2.0016 0.9731
0.0055 -6.5075 -2.0016 0.9731
0.2393 -6.5031 -2.0016 0.9731
0.9374 -6.4396 -2.0016 0.9731
1.8499 -6.2390 -2.0016 0.9731
2.3289 -5.5701 -1.8570 0.9751
2.5275 -5.4829 -1.8570 0.9751
2.0874 -4.1311 -1.4236 0.9808
3.5425 -5.4588 -2.0016 0.9731
3.7363 -5.3280 -2.0016 0.9731
4.2877 -4.8952 -2.0016 0.9731
4.4608 -4.7380 -2.0016 0.9731
4.6280 -4.5748 -2.0016 0.9731
4.7894 -4.4056 -2.0016 0.9731
5.3709 -3.6743 -2.0016 0.9731
5.4994 -3.4791 -2.0016 0.9731
5.8417 -2.8673 -2.0016 0.9731
6.1163 -2.2223 -2.0016 0.9731
6.3715 -1.3236 -2.0016 0.9731
6.4500 -0.8628 -2.0016 0.9731
6.4953 -0.3975 -2.0016 0.9731
6.5054 -0.1639 -2.0016 0.9731
6.4300 1.0009 -2.0016 0.9731
6.3416 1.4599 -2.0016 0.9731
6.2851 1.6868 -2.0016 0.9731
5.9787 2.5694 -2.0016 0.9731
5.8826 2.7825 -2.0016 0.9731
5.6677 3.1976 -2.0016 0.9731
5.2908 3.7887 -2.0016 0.9731
5.1513 3.9763 -2.0016 0.9731
4.8526 4.3358 -2.0016 0.9731
4.3581 4.8327 -2.0016 0.9731
4.1817 4.9861 -2.0016 0.9731
3.6211 5.4069 -2.0016 0.9731
3.4246 5.5335 -2.0016 0.9731
3.2236 5.6529 -2.0016 0.9731
2.1618 6.1379 -2.0016 0.9731
1.9400 6.2116 -2.0016 0.9731
1.4890 6.3348 -2.0016 0.9731
1.0304 6.4254 -2.0016 0.9731
0.5665 6.4828 -2.0016 0.9731
0.3333 6.4989 -2.0016 0.9731
-0.1341 6.5061 -2.0016 0.9731
-0.3677 6.4971 -2.0016 0.9731
-0.8331 6.4539 -2.0016 0.9731
-1.0644 6.4198 -2.0016 0.9731
-1.2943 6.3775 -2.0016 0.9731
-1.9727 6.2013 -2.0016 0.9731
-2.4128 6.0436 -2.0016 0.9731
-2.6283 5.9531 -2.0016 0.9731
-3.0489 5.7490 -2.0016 0.9731
-3.2534 5.6358 -2.0016 0.9731
-3.6496 5.3877 -2.0016 0.9731
-3.8408 5.2532 -2.0016 0.9731
-4.0270 5.1118 -2.0016 0.9731
-4.3835 4.8096 -2.0016 0.9731
-4.5535 4.6490 -2.0016 0.9731
-5.0271 4.1322 -2.0016 0.9731
-5.1723 3.9490 -2.0016 0.9731
-5.3108 3.7607 -2.0016 0.9731
-5.7946 2.9614 -2.0016 0.9731
-5.8972 2.7514 -2.0016 0.9731
-5.9922 2.5378 -2.0016 0.9731
-6.1589 2.1011 -2.0016 0.9731
-6.2304 1.8785 -2.0016 0.9731
-6.2939 1.6536 -2.0016 0.9731
-6.5019 0.2691 -2.0016 0.9731
-6.5074 0.0354 -2.0016 0.9731
-6.5045 -0.1983 -2.0016 0.9731
-6.4931 -0.4318 -2.0016 0.9731
-6.4734 -0.6647 -2.0016 0.9731
-6.4454 -0.8968 -2.0016 0.9731
-6.4090 -1.1277 -2.0016 0.9731
-6.3644 -1.3572 -2.0016 0.9731
-6.3115 -1.5849 -2.0016 0.9731
-6.2505 -1.8106 -2.0016 0.9731
-6.1815 -2.0339 -2.0016 0.9731
-6.0162 -2.2220 -1.9726 0.9735
-5.4987 -2.4929 -1.8570 0.9751
-5.4056 -2.6888 -1.8570 0.9751
-5.3056 -2.8812 -1.8570 0.9751
-4.9649 -3.4352 -1.8570 0.9751
-4.7055 -3.7827 -1.8570 0.9751
-4.5666 -3.9493 -1.8570 0.9751
-4.1153 -4.4176 -1.8570 0.9751
-3.9539 -4.5625 -1.8570 0.9751
-3.7875 -4.7016 -1.8570 0.9751
-3.6162 -4.8346 -1.8570 0.9751
-3.4402 -4.9614 -1.8570 0.9751
-3.2598 -5.0817 -1.8570 0.9751
-3.0752 -5.1955 -1.8570 0.9751
-2.8866 -5.3026 -1.8570 0.9751
-2.6943 -5.4029 -1.8570 0.9751
-2.2995 -5.5824 -1.8570 0.9751
-1.3636 -6.3630 -2.0016 0.9731
0.0288 -6.5074 -2.0016 0.9731
0.4959 -6.4886 -2.0016 0.9731
0.9604 -6.4362 -2.0016 0.9731
1.1910 -6.3976 -2.0016 0.9731
1.8722 -6.2323 -2.0016 0.9731
2.3148 -6.0819 -2.0016 0.9731
2.5471 -5.4738 -1.8570 0.9751
2.2692 -4.0819 -1.4365 0.9806
3.5620 -5.4460 -2.0016 0.9731
3.7553 -5.3146 -2.0016 0.9731
3.9438 -5.1763 -2.0016 0.9731
4.4777 -4.7220 -2.0016 0.9731
4.6444 -4.5582 -2.0016 0.9731
4.8051 -4.3884 -2.0016 0.9731
5.3840 -3.6551 -2.0016 0.9731
5.5118 -3.4593 -2.0016 0.9731
5.6325 -3.2591 -2.0016 0.9731
5.7459 -3.0547 -2.0016 0.9731
5.9504 -2.6344 -2.0016 0.9731
6.1242 -2.2004 -2.0016 0.9731
6.1992 -1.9790 -2.0016 0.9731
6.2663 -1.7551 -2.0016 0.9731
6.3253 -1.5289 -2.0016 0.9731
6.4188 -1.0709 -2.0016 0.9731
6.4967 -0.3742 -2.0016 0.9731
6.5060 -0.1407 -2.0016 0.9731
6.4993 0.3267 -2.0016 0.9731
6.4833 0.5600 -2.0016 0.9731
6.3855 1.2541 -2.0016 0.9731
6.2790 1.7093 -2.0016 0.9731
0.9748 5.9420 -2.0016 0.9749
-0.5344 5.9977 -2.0016 0.9749
-1.1765 5.9054 -2.0016 0.9749
-1.3878 5.8593 -2.0016 0.9749
-1.5974 5.8057 -2.0016 0.9749
-1.8049 5.7446 -2.0016 0.9749
-2.0100 5.6760 -2.0016 0.9749
-2.4123 5.5171 -2.0016 0.9749
-2.8021 5.3297 -2.0016 0.9749
-2.9917 5.2256 -2.0016 0.9749
-3.1775 5.1148 -2.0016 0.9749
-3.5365 4.8735 -2.0016 0.9749
-3.7092 4.7433 -2.0016 0.9749
-4.1979 4.3168 -2.0016 0.9749
-4.3503 4.1633 -2.0016 0.9749
-4.9016 3.4974 -2.0016 0.9749
-5.0241 3.3191 -2.0016 0.9749
-5.1400 3.1365 -2.0016 0.9749
-5.2494 2.9499 -2.0016 0.9749
-5.4476 2.5654 -2.0016 0.9749
-5.5362 2.3681 -2.0016 0.9749
-5.6177 2.1677 -2.0016 0.9749
-5.7588 1.7589 -2.0016 0.9749
-5.8702 1.3409 -2.0016 0.9749
-5.9146 1.1292 -2.0016 0.9749
-6.0154 0.2706 -2.0016 0.9749
-6.0193 -0.1620 -2.0016 0.9749
-6.0096 -0.3780 -2.0016 0.9749
-5.9921 -0.5936 -2.0016 0.9749
-5.9669 -0.8085 -2.0016 0.9749
-5.9340 -1.0223 -2.0016 0.9749
-5.0962 -2.2885 -1.8570 0.9767
-4.8205 -2.8234 -1.8570 0.9767
-4.6054 -3.1622 -1.8570 0.9767
-4.4888 -3.3255 -1.8570 0.9767
-4.3665 -3.4846 -1.8570 0.9767
-4.1051 -3.7891 -1.8570 0.9767
-3.6737 -4.2087 -1.8570 0.9767
-3.3621 -4.4615 -1.8570 0.9767
-2.8627 -4.7973 -1.8570 0.9767
-2.5109 -4.9904 -1.8570 0.9767
-2.3301 -5.0774 -1.8570 0.9767
-2.1462 -5.1578 -1.8570 0.9767
-1.9596 -5.2315 -1.8570 0.9767
-1.7704 -5.2985 -1.8570 0.9767
-1.5790 -5.3587 -1.8570 0.9767
-1.3855 -5.4120 -1.8570 0.9767
-0.9934 -5.4975 -1.8570 0.9767
-0.7953 -5.5296 -1.8570 0.9767
-0.5962 -5.5546 -1.8570 0.9767
0.0048 -5.5865 -1.8570 0.9767
0.4058 -5.5717 -1.8570 0.9767
0.6056 -5.5536 -1.8570 0.9767
0.8047 -5.5282 -1.8570 0.9767
1.1995 -5.4562 -1.8570 0.9767
1.3947 -5.4096 -1.8570 0.9767
1.7794 -5.2955 -1.8570 0.9767
1.9685 -5.2282 -1.8570 0.9767
2.0766 -4.1096 -1.5306 0.9808
2.2423 -4.0677 -1.5440 0.9806
4.5752 -3.9147 -2.0016 0.9749
4.8444 -3.5762 -2.0016 0.9749
5.0887 -3.2192 -2.0016 0.9749
5.2010 -3.0344 -2.0016 0.9749
5.4054 -2.6532 -2.0016 0.9749
5.5819 -2.2583 -2.0016 0.9749
5.6594 -2.0563 -2.0016 0.9749
5.8478 -1.4357 -2.0016 0.9749
5.9931 -0.5834 -2.0016 0.9749
6.0195 -0.1517 -2.0016 0.9749
6.0211 0.0646 -2.0016 0.9749
5.9792 0.7119 -2.0016 0.9749
5.9498 0.9262 -2.0016 0.9749
5.8679 1.3509 -2.0016 0.9749
5.8156 1.5608 -2.0016 0.9749
5.6886 1.9742 -2.0016 0.9749
5.5322 2.3775 -2.0016 0.9749
5.1347 3.1452 -2.0016 0.9749
5.0184 3.3276 -2.0016 0.9749
4.8957 3.5057 -2.0016 0.9749
4.7666 3.6793 -2.0016 0.9749
4.6314 3.8481 -2.0016 0.9749
4.4902 4.0120 -2.0016 0.9749
4.3432 4.1707 -2.0016 0.9749
4.1906 4.3240 -2.0016 0.9749
2.9829 5.2307 -2.0016 0.9749
2.7931 5.3345 -2.0016 0.9749
2.5997 5.4313 -2.0016 0.9749
2.4029 5.5212 -2.0016 0.9749
2.2030 5.6040 -2.0016 0.9749
2.0004 5.6795 -2.0016 0.9749
1.7951 5.7476 -2.0016 0.9749
1.5875 5.8084 -2.0016 0.9749
1.3778 5.8617 -2.0016 0.9749
0.9535 5.9455 -2.0016 0.9749
0.7393 5.9759 -2.0016 0.9749
0.5242 5.9986 -2.0016 0.9749
0.3084 6.0135 -2.0016 0.9749
0.0922 6.0207 -2.0016 0.9749
-1.1976 5.9011 -2.0016 0.9749
-1.4088 5.8543 -2.0016 0.9749
-1.6181 5.7999 -2.0016 0.9749
-2.0303 5.6688 -2.0016 0.9749
-2.2326 5.5922 -2.0016 0.9749
-2.6283 5.4175 -2.0016 0.9749
-2.8212 5.3196 -2.0016 0.9749
-3.0104 5.2149 -2.0016 0.9749
-3.1958 5.1034 -2.0016 0.9749
-3.8937 4.5931 -2.0016 0.9749
-4.3651 4.1477 -2.0016 0.9749
-4.7860 3.6541 -2.0016 0.9749
-4.9141 3.4798 -2.0016 0.9749
-5.1512 3.1181 -2.0016 0.9749
-5.2599 2.9310 -2.0016 0.9749
-5.5447 2.3483 -2.0016 0.9749
-5.6254 2.1476 -2.0016 0.9749
-5.6990 1.9442 -2.0016 0.9749
-5.7651 1.7382 -2.0016 0.9749
-5.8238 1.5300 -2.0016 0.9749
-5.8750 1.3199 -2.0016 0.9749
-5.9829 0.6803 -2.0016 0.9749
-6.0163 0.2490 -2.0016 0.9749
-6.0186 -0.1835 -2.0016 0.9749
-5.9640 -0.8298 -2.0016 0.9749
-5.9303 -1.0435 -2.0016 0.9749
-5.8890 -1.2558 -2.0016 0.9749
-5.7837 -1.6753 -2.0016 0.9749
-5.6485 -2.0862 -2.0016 0.9749
-5.0019 -2.4880 -1.8570 0.9767
-4.9093 -2.6660 -1.8570 0.9767
-4.5940 -3.1786 -1.8570 0.9767
-3.8079 -4.0876 -1.8570 0.9767
-3.0163 -4.7022 -1.8570 0.9767
-2.6710 -4.9066 -1.8570 0.9767
-2.4930 -4.9994 -1.8570 0.9767
-2.1277 -5.1654 -1.8570 0.9767
-1.9408 -5.2385 -1.8570 0.9767
-1.7514 -5.3048 -1.8570 0.9767
-1.5598 -5.3643 -1.8570 0.9767
-0.7770 -5.5429 -1.8605 0.9767
-0.5763 -5.5567 -1.8570 0.9767
-0.3763 -5.5738 -1.8570 0.9767
-0.1759 -5.5837 -1.8570 0.9767
0.2254 -5.5819 -1.8570 0.9767
0.4257 -5.5702 -1.8570 0.9767
0.6255 -5.5514 -1.8570 0.9767
0.8245 -5.5253 -1.8570 0.9767
1.0224 -5.4921 -1.8570 0.9767
1.2190 -5.4519 -1.8570 0.9767
1.4140 -5.4046 -1.8570 0.9767
1.6073 -5.3503 -1.8570 0.9767
2.0577 -4.4221 -1.6213 0.9797
3.2238 -4.5624 -1.8570 0.9767
3.8189 -4.6555 -2.0016 0.9749
4.1432 -4.3694 -2.0016 0.9749
4.2975 -4.2177 -2.0016 0.9749
4.4462 -4.0607 -2.0016 0.9749
4.5892 -3.8983 -2.0016 0.9749
4.8572 -3.5588 -2.0016 0.9749
5.5060 -2.4376 -2.0016 0.9749
5.6668 -2.0361 -2.0016 0.9749
5.7983 -1.6240 -2.0016 0.9749
5.9711 -0.7770 -2.0016 0.9749
6.0115 -0.3463 -2.0016 0.9749
6.0200 -0.1301 -2.0016 0.9749
5.9991 0.5181 -2.0016 0.9749
5.9766 0.7333 -2.0016 0.9749
5.9086 1.1604 -2.0016 0.9749
5.8631 1.3719 -2.0016 0.9749
5.8100 1.5816 -2.0016 0.9749
0.3067 5.5887 -2.0016 0.9765
0.1058 5.5961 -2.0016 0.9765
-0.2962 5.5892 -2.0016 0.9765
-0.4968 5.5750 -2.0016 0.9765
-0.6967 5.5536 -2.0016 0.9765
-0.8957 5.5250 -2.0016 0.9765
-1.0936 5.4892 -2.0016 0.9765
-1.2900 5.4464 -2.0016 0.9765
-1.4848 5.3966 -2.0016 0.9765
-1.6777 5.3397 -2.0016 0.9765
-1.8684 5.2760 -2.0016 0.9765
-2.0567 5.2055 -2.0016 0.9765
-2.2423 5.1283 -2.0016 0.9765
-2.6047 4.9541 -2.0016 0.9765
-3.4478 4.4091 -2.0016 0.9765
-3.6040 4.2824 -2.0016 0.9765
-4.4365 3.4125 -2.0016 0.9765
-4.7778 2.9155 -2.0016 0.9765
-4.8794 2.7420 -2.0016 0.9765
-5.2218 2.0150 -2.0016 0.9765
-5.2908 1.8261 -2.0016 0.9765
-5.3530 1.6349 -2.0016 0.9765
-5.4083 1.4416 -2.0016 0.9765
-5.4978 1.0496 -2.0016 0.9765
-5.5590 0.6522 -2.0016 0.9765
-5.5914 0.2515 -2.0016 0.9765
-5.5969 0.0505 -2.0016 0.9765
-5.5951 -0.1505 -2.0016 0.9765
-5.5464 -0.7515 -2.0016 0.9765
-5.5158 -0.9502 -2.0016 0.9765
-5.4334 -1.3437 -2.0016 0.9765
-5.3816 -1.5380 -2.0016 0.9765
-5.2573 -1.9204 -2.0016 0.9765
-5.1850 -2.1080 -2.0016 0.9765
-4.9598 -2.2272 -1.9443 0.9772
-4.4808 -2.6244 -1.8570 0.9782
-4.3836 -2.7837 -1.8570 0.9782
-4.1725 -3.0912 -1.8570 0.9782
-4.0588 -3.2390 -1.8570 0.9782
-3.9398 -3.3827 -1.8570 0.9782
-3.8158 -3.5220 -1.8570 0.9782
-3.6868 -3.6568 -1.8570 0.9782
-3.4148 -3.9121 -1.8570 0.9782
-3.1252 -4.1471 -1.8570 0.9782
-2.9742 -4.2567 -1.8570 0.9782
-2.6610 -4.4592 -1.8570 0.9782
-2.4991 -4.5519 -1.8570 0.9782
-2.1659 -4.7195 -1.8570 0.9782
-1.9949 -4.7943 -1.8570 0.9782
-1.8215 -4.8629 -1.8570 0.9782
-1.4677 -4.9811 -1.8570 0.9782
-1.1063 -5.0736 -1.8570 0.9782
-0.9234 -5.1100 -1.8570 0.9782
-0.7392 -5.1399 -1.8570 0.9782
-0.3684 -5.1797 -1.8570 0.9782
-0.1821 -5.1896 -1.8570 0.9782
0.0044 -5.1928 -1.8570 0.9782
0.3772 -5.1791 -1.8570 0.9782
0.7480 -5.1386 -1.8570 0.9782
1.4762 -4.9786 -1.8570 0.9782
2.0031 -4.7909 -1.8570 0.9782
2.0519 -4.0609 -1.6271 0.9809
2.8268 -4.3559 -1.8570 0.9782
2.9814 -4.2516 -1.8570 0.9782
3.8367 -4.0752 -2.0016 0.9765
3.9806 -3.9348 -2.0016 0.9765
4.3807 -3.4838 -2.0016 0.9765
4.5030 -3.3242 -2.0016 0.9765
4.6195 -3.1603 -2.0016 0.9765
4.7300 -2.9923 -2.0016 0.9765
4.8345 -2.8205 -2.0016 0.9765
4.9327 -2.6451 -2.0016 0.9765
5.1098 -2.2841 -2.0016 0.9765
5.1885 -2.0991 -2.0016 0.9765
5.2606 -1.9114 -2.0016 0.9765
5.3259 -1.7212 -2.0016 0.9765
5.3842 -1.5289 -2.0016 0.9765
5.4357 -1.3345 -2.0016 0.9765
5.5175 -0.9408 -2.0016 0.9765
5.5477 -0.7421 -2.0016 0.9765
5.5708 -0.5423 -2.0016 0.9765
5.5866 -0.3419 -2.0016 0.9765
5.5953 -0.1410 -2.0016 0.9765
5.5968 0.0600 -2.0016 0.9765
5.5910 0.2610 -2.0016 0.9765
5.5780 0.4617 -2.0016 0.9765
5.5305 0.8609 -2.0016 0.9765
5.4544 1.2557 -2.0016 0.9765
5.3502 1.6440 -2.0016 0.9765
5.2877 1.8351 -2.0016 0.9765
5.2184 2.0238 -2.0016 0.9765
5.0596 2.3932 -2.0016 0.9765
4.8748 2.7503 -2.0016 0.9765
4.6648 3.0931 -2.0016 0.9765
4.5507 3.2587 -2.0016 0.9765
4.4307 3.4200 -2.0016 0.9765
4.3050 3.5769 -2.0016 0.9765
4.1737 3.7293 -2.0016 0.9765
3.8953 4.0193 -2.0016 0.9765
3.7484 4.1566 -2.0016 0.9765
3.4403 4.4149 -2.0016 0.9765
3.2795 4.5356 -2.0016 0.9765
3.1145 4.6505 -2.0016 0.9765
2.9455 4.7594 -2.0016 0.9765
2.7726 4.8621 -2.0016 0.9765
2.5962 4.9585 -2.0016 0.9765
2.0478 5.2090 -2.0016 0.9765
1.4756 5.3991 -2.0016 0.9765
0.8863 5.5265 -2.0016 0.9765
-0.1153 5.5959 -2.0016 0.9765
-0.7166 5.5510 -2.0016 0.9765
-0.9155 5.5217 -2.0016 0.9765
-1.8872 5.2693 -2.0016 0.9765
-2.2606 5.1202 -2.0016 0.9765
-2.9706 4.7437 -2.0016 0.9765
-3.3034 4.5183 -2.0016 0.9765
-3.7703 4.1367 -2.0016 0.9765
-3.9164 3.9986 -2.0016 0.9765
-4.4487 3.3966 -2.0016 0.9765
-4.6810 3.0684 -2.0016 0.9765
-4.7882 2.8983 -2.0016 0.9765
-5.0722 2.3665 -2.0016 0.9765
-5.1539 2.1828 -2.0016 0.9765
-5.2290 1.9963 -2.0016 0.9765
-5.5015 1.0299 -2.0016 0.9765
-5.5350 0.8317 -2.0016 0.9765
-5.5613 0.6323 -2.0016 0.9765
-5.5804 0.4322 -2.0016 0.9765
-5.5923 0.2315 -2.0016 0.9765
-5.5945 -0.1706 -2.0016 0.9765
-5.5847 -0.3714 -2.0016 0.9765
-5.5437 -0.7713 -2.0016 0.9765
-5.4740 -1.1673 -2.0016 0.9765
-5.3167 -1.7494 -2.0016 0.9765
-4.9181 -2.2297 -1.9311 0.9773
-4.4714 -2.6404 -1.8570 0.9782
-4.2703 -2.9546 -1.8570 0.9782
-4.0472 -3.2535 -1.8570 0.9782
-3.9277 -3.3968 -1.8570 0.9782
-3.8032 -3.5357 -1.8570 0.9782
-3.6737 -3.6700 -1.8570 0.9782
-3.4008 -3.9243 -1.8570 0.9782
-3.2576 -4.0439 -1.8570 0.9782
-3.1103 -4.1583 -1.8570 0.9782
-2.9589 -4.2673 -1.8570 0.9782
-2.8038 -4.3708 -1.8570 0.9782
-2.4828 -4.5608 -1.8570 0.9782
-1.9778 -4.8014 -1.8570 0.9782
-1.4498 -4.9863 -1.8570 0.9782
-1.2698 -5.0351 -1.8570 0.9782
-1.0881 -5.0775 -1.8570 0.9782
-0.7208 -5.1425 -1.8570 0.9782
-0.5357 -5.1651 -1.8570 0.9782
-0.1635 -5.1902 -1.8570 0.9782
0.0230 -5.1927 -1.8570 0.9782
0.2095 -5.1886 -1.8570 0.9782
0.3957 -5.1777 -1.8570 0.9782
0.7664 -5.1359 -1.8570 0.9782
1.4940 -4.9732 -1.8570 0.9782
1.6716 -4.9164 -1.8570 0.9782
2.0202 -4.7837 -1.8570 0.9782
2.2530 -4.0527 -1.6582 0.9805
2.8424 -4.3458 -1.8570 0.9782
2.9966 -4.2409 -1.8570 0.9782
3.1470 -4.1305 -1.8570 0.9782
3.8513 -4.0614 -2.0016 0.9765
4.2658 -3.6236 -2.0016 0.9765
4.3932 -3.4681 -2.0016 0.9765
4.8445 -2.8032 -2.0016 0.9765
4.9421 -2.6274 -2.0016 0.9765
5.0333 -2.4482 -2.0016 0.9765
5.1960 -2.0806 -2.0016 0.9765
5.2674 -1.8926 -2.0016 0.9765
5.3320 -1.7022 -2.0016 0.9765
5.4404 -1.3150 -2.0016 0.9765
5.4841 -1.1188 -2.0016 0.9765
5.5958 -0.1210 -2.0016 0.9765
5.5965 0.0801 -2.0016 0.9765
5.5763 0.4816 -2.0016 0.9765
5.4922 1.0786 -2.0016 0.9765
5.4499 1.2752 -2.0016 0.9765
5.4006 1.4701 -2.0016 0.9765
1.0301 5.1204 -2.0016 0.9779
0.6599 5.1812 -2.0016 0.9779
0.4733 5.2015 -2.0016 0.9779
0.2862 5.2152 -2.0016 0.9779
-0.0889 5.2223 -2.0016 0.9779
-0.2764 5.2157 -2.0016 0.9779
-0.4636 5.2024 -2.0016 0.9779
-0.8358 5.1557 -2.0016 0.9779
-1.2038 5.0824 -2.0016 0.9779
-1.5655 4.9829 -2.0016 0.9779
-1.9192 4.8576 -2.0016 0.9779
-2.4306 4.6230 -2.0016 0.9779
-2.9138 4.3348 -2.0016 0.9779
-3.0676 4.2273 -2.0016 0.9779
-3.3631 3.9962 -2.0016 0.9779
-3.5045 3.8728 -2.0016 0.9779
-3.6413 3.7444 -2.0016 0.9779
-3.9007 3.4734 -2.0016 0.9779
-4.0230 3.3310 -2.0016 0.9779
-4.5533 2.5587 -2.0016 0.9779
-4.6423 2.3935 -2.0016 0.9779
-4.8022 2.0541 -2.0016 0.9779
-4.9952 1.5256 -2.0016 0.9779
-5.1304 0.9795 -2.0016 0.9779
-5.1622 0.7946 -2.0016 0.9779
-5.1875 0.6087 -2.0016 0.9779
-5.2060 0.4219 -2.0016 0.9779
-5.2228 0.0471 -2.0016 0.9779
-5.2211 -0.1405 -2.0016 0.9779
-5.2127 -0.3279 -2.0016 0.9779
-5.1472 -0.8867 -2.0016 0.9779
-5.0220 -1.4352 -2.0016 0.9779
-4.9672 -1.6147 -2.0016 0.9779
-4.9060 -1.7920 -2.0016 0.9779
-4.8385 -1.9671 -2.0016 0.9779
-4.5227 -2.2295 -1.9323 0.9786
-4.1813 -2.4490 -1.8570 0.9795
-4.0907 -2.5976 -1.8570 0.9795
-3.9947 -2.7429 -1.8570 0.9795
-3.8937 -2.8846 -1.8570 0.9795
-3.6765 -3.1567 -1.8570 0.9795
-3.5608 -3.2867 -1.8570 0.9795
-3.4404 -3.4124 -1.8570 0.9795
-3.3157 -3.5338 -1.8570 0.9795
-2.4831 -4.1612 -1.8570 0.9795
-2.1780 -4.3287 -1.8570 0.9795
-1.6997 -4.5379 -1.8570 0.9795
-1.5357 -4.5960 -1.8570 0.9795
-1.0324 -4.7345 -1.8570 0.9795
-0.6898 -4.7964 -1.8570 0.9795
-0.5171 -4.8181 -1.8570 0.9795
0.0041 -4.8458 -1.8570 0.9795
0.3520 -4.8330 -1.8570 0.9795
0.5253 -4.8172 -1.8570 0.9795
1.0404 -4.7327 -1.8570 0.9795
1.7075 -4.5350 -1.8570 0.9795
1.8692 -4.4707 -1.8570 0.9795
2.0007 -4.3402 -1.8314 0.9797
2.2051 -4.0002 -1.7504 0.9806
2.3967 -4.0008 -1.7872 0.9802
2.6379 -4.0648 -1.8570 0.9795
2.7822 -3.9675 -1.8570 0.9795
3.0598 -3.7575 -1.8570 0.9795
3.1928 -3.6452 -1.8570 0.9795
3.3217 -3.5281 -1.8570 0.9795
3.4462 -3.4066 -1.8570 0.9795
4.0880 -3.2509 -2.0016 0.9779
4.5114 -2.6320 -2.0016 0.9779
4.6887 -2.3014 -2.0016 0.9779
5.1487 -0.8780 -2.0016 0.9779
5.1769 -0.6925 -2.0016 0.9779
5.2133 -0.3190 -2.0016 0.9779
5.2174 0.2436 -2.0016 0.9779
5.2052 0.4308 -2.0016 0.9779
5.1287 0.9882 -2.0016 0.9779
5.0899 1.1718 -2.0016 0.9779
5.0445 1.3538 -2.0016 0.9779
4.9343 1.7125 -2.0016 0.9779
4.8696 1.8886 -2.0016 0.9779
4.3530 2.8864 -2.0016 0.9779
4.2465 3.0409 -2.0016 0.9779
4.0173 3.3379 -2.0016 0.9779
3.4979 3.8788 -2.0016 0.9779
3.2104 4.1199 -2.0016 0.9779
3.0604 4.2325 -2.0016 0.9779
2.4227 4.6272 -2.0016 0.9779
2.0843 4.7891 -2.0016 0.9779
1.9109 4.8609 -2.0016 0.9779
1.5571 4.9855 -2.0016 0.9779
1.1951 5.0845 -2.0016 0.9779
0.6413 5.1835 -2.0016 0.9779
0.4547 5.2032 -2.0016 0.9779
0.2675 5.2162 -2.0016 0.9779
0.0800 5.2224 -2.0016 0.9779
-0.1076 5.2219 -2.0016 0.9779
-0.4822 5.2007 -2.0016 0.9779
-0.6687 5.1801 -2.0016 0.9779
-1.9366 4.8507 -2.0016 0.9779
-2.1096 4.7781 -2.0016 0.9779
-2.6113 4.5234 -2.0016 0.9779
-2.7721 4.4267 -2.0016 0.9779
-3.3774 3.9841 -2.0016 0.9779
-3.6547 3.7314 -2.0016 0.9779
-4.0349 3.3166 -2.0016 0.9779
-4.3682 2.8634 -2.0016 0.9779
-5.1338 0.9611 -2.0016 0.9779
-5.1651 0.7761 -2.0016 0.9779
-5.1896 0.5901 -2.0016 0.9779
-5.2074 0.4033 -2.0016 0.9779
-5.2186 0.2160 -2.0016 0.9779
-5.1732 -0.7198 -2.0016 0.9779
-5.1440 -0.9051 -2.0016 0.9779
-5.1082 -1.0893 -2.0016 0.9779
-4.9614 -1.6324 -2.0016 0.9779
-4.8995 -1.8096 -2.0016 0.9779
-4.4866 -2.2317 -1.9203 0.9788
-4.2584 -2.3125 -1.8570 0.9795
-4.1726 -2.4640 -1.8570 0.9795
-3.9849 -2.7572 -1.8570 0.9795
-3.6652 -3.1698 -1.8570 0.9795
-3.4282 -3.4247 -1.8570 0.9795
-3.3030 -3.5456 -1.8570 0.9795
-3.1735 -3.6620 -1.8570 0.9795
-3.0399 -3.7736 -1.8570 0.9795
-2.9024 -3.8804 -1.8570 0.9795
-2.6164 -4.0787 -1.8570 0.9795
-2.3168 -4.2560 -1.8570 0.9795
-2.1625 -4.3365 -1.8570 0.9795
-2.0053 -4.4113 -1.8570 0.9795
-1.5192 -4.6015 -1.8570 0.9795
-0.1526 -4.8434 -1.8570 0.9795
0.3693 -4.8317 -1.8570 0.9795
0.8868 -4.7639 -1.8570 0.9795
1.2265 -4.6880 -1.8570 0.9795
1.5599 -4.5878 -1.8570 0.9795
1.7237 -4.5288 -1.8570 0.9795
2.0426 -4.0067 -1.7235 0.9809
2.2238 -4.0003 -1.7539 0.9806
2.6524 -4.0554 -1.8570 0.9795
3.2058 -3.6337 -1.8570 0.9795
3.8567 -3.5222 -2.0016 0.9779
4.0996 -3.2363 -2.0016 0.9779
4.2132 -3.0870 -2.0016 0.9779
4.3213 -2.9336 -2.0016 0.9779
4.4239 -2.7765 -2.0016 0.9779
4.5208 -2.6159 -2.0016 0.9779
4.6118 -2.4518 -2.0016 0.9779
4.9756 -1.5884 -2.0016 0.9779
5.1518 -0.8595 -2.0016 0.9779
5.2002 -0.4875 -2.0016 0.9779
5.2144 -0.3004 -2.0016 0.9779
5.2218 -0.1129 -2.0016 0.9779
5.2164 0.2623 -2.0016 0.9779
5.1842 0.6360 -2.0016 0.9779
5.1251 1.0066 -2.0016 0.9779
0.9645 4.7945 -2.0016 0.9791
0.7917 4.8260 -2.0016 0.9791
0.6178 4.8513 -2.0016 0.9791
0.0924 4.8896 -2.0016 0.9791
-0.2588 4.8837 -2.0016 0.9791
-0.4341 4.8712 -2.0016 0.9791
-1.1272 4.7588 -2.0016 0.9791
-1.6325 4.6100 -2.0016 0.9791
-1.9592 4.4809 -2.0016 0.9791
-2.1189 4.4076 -2.0016 0.9791
-2.2758 4.3287 -2.0016 0.9791
-2.4298 4.2442 -2.0016 0.9791
-2.7283 4.0588 -2.0016 0.9791
-2.8723 3.9582 -2.0016 0.9791
-3.1490 3.7418 -2.0016 0.9791
-3.5332 3.3813 -2.0016 0.9791
-3.6524 3.2523 -2.0016 0.9791
-3.7668 3.1190 -2.0016 0.9791
-3.9810 2.8405 -2.0016 0.9791
-4.0805 2.6957 -2.0016 0.9791
-4.3468 2.2411 -2.0016 0.9791
-4.4244 2.0836 -2.0016 0.9791
-4.6772 1.4285 -2.0016 0.9791
-4.7255 1.2596 -2.0016 0.9791
-2.2128 0.4225 -0.9220 0.9903
-1.9892 0.3062 -0.8237 0.9913
-1.9071 0.0172 -0.7806 0.9918
-1.9237 -0.0518 -0.7876 0.9917
-1.9483 -0.1226 -0.7990 0.9916
-2.1377 -0.3683 -0.8878 0.9907
-4.7866 -1.0028 -2.0016 0.9791
-4.7475 -1.1741 -2.0016 0.9791
-4.6509 -1.5119 -2.0016 0.9791
-4.5936 -1.6779 -2.0016 0.9791
-4.3865 -2.1623 -2.0016 0.9791
-4.1429 -2.2307 -1.9258 0.9799
-3.8302 -2.4322 -1.8570 0.9806
-3.6458 -2.7009 -1.8570 0.9806
-3.4425 -2.9557 -1.8570 0.9806
-3.3341 -3.0774 -1.8570 0.9806
-3.2214 -3.1952 -1.8570 0.9806
-3.1046 -3.3088 -1.8570 0.9806
-2.8590 -3.5231 -1.8570 0.9806
-2.7306 -3.6236 -1.8570 0.9806
-2.5987 -3.7193 -1.8570 0.9806
-1.7431 -4.1891 -1.8570 0.9806
-1.2824 -4.3522 -1.8570 0.9806
-0.9667 -4.4331 -1.8570 0.9806
-0.8068 -4.4649 -1.8570 0.9806
-0.3219 -4.5258 -1.8570 0.9806
0.0039 -4.5372 -1.8570 0.9806
0.4919 -4.5105 -1.8570 0.9806
0.6536 -4.4899 -1.8570 0.9806
0.9742 -4.4314 -1.8570 0.9806
1.1327 -4.3936 -1.8570 0.9806
1.2898 -4.3501 -1.8570 0.9806
1.5988 -4.2462 -1.8570 0.9806
1.8995 -4.1205 -1.8570 0.9806
2.1904 -3.9735 -1.8570 0.9806
2.4699 -3.8060 -1.8570 0.9806
2.6051 -3.7149 -1.8570 0.9806
2.7368 -3.6189 -1.8570 0.9806
2.9895 -3.4131 -1.8570 0.9806
3.1102 -3.3035 -1.8570 0.9806
3.3393 -3.0717 -1.8570 0.9806
4.1329 -2.6146 -2.0016 0.9791
4.2242 -2.4645 -2.0016 0.9791
4.3902 -2.1549 -2.0016 0.9791
4.5335 -1.8341 -2.0016 0.9791
4.5965 -1.6701 -2.0016 0.9791
4.6535 -1.5040 -2.0016 0.9791
4.7045 -1.3358 -2.0016 0.9791
4.8209 -0.8221 -2.0016 0.9791
4.8675 -0.4739 -2.0016 0.9791
4.8889 -0.1232 -2.0016 0.9791
4.8902 0.0525 -2.0016 0.9791
4.8738 0.4034 -2.0016 0.9791
4.8562 0.5782 -2.0016 0.9791
4.8022 0.9253 -2.0016 0.9791
4.6748 1.4365 -2.0016 0.9791
4.5596 1.7683 -2.0016 0.9791
4.4932 1.9310 -2.0016 0.9791
4.2594 2.4031 -2.0016 0.9791
4.0759 2.7026 -2.0016 0.9791
3.9762 2.8473 -2.0016 0.9791
3.7615 3.1254 -2.0016 0.9791
3.6468 3.2585 -2.0016 0.9791
3.2752 3.6318 -2.0016 0.9791
2.8655 3.9631 -2.0016 0.9791
2.4226 4.2483 -2.0016 0.9791
2.2685 4.3326 -2.0016 0.9791
2.1114 4.4112 -2.0016 0.9791
1.9516 4.4842 -2.0016 0.9791
1.6246 4.6128 -2.0016 0.9791
1.2893 4.7175 -2.0016 0.9791
1.1191 4.7608 -2.0016 0.9791
0.9473 4.7979 -2.0016 0.9791
0.6005 4.8535 -2.0016 0.9791
0.4258 4.8719 -2.0016 0.9791
0.2505 4.8841 -2.0016 0.9791
0.0749 4.8899 -2.0016 0.9791
-0.2763 4.8827 -2.0016 0.9791
-0.4515 4.8696 -2.0016 0.9791
-0.6261 4.8503 -2.0016 0.9791
-0.7999 4.8246 -2.0016 0.9791
-0.9727 4.7928 -2.0016 0.9791
-1.1442 4.7548 -2.0016 0.9791
-1.3142 4.7106 -2.0016 0.9791
-1.4826 4.6604 -2.0016 0.9791
-1.6490 4.6041 -2.0016 0.9791
-1.9752 4.4739 -2.0016 0.9791
-2.1347 4.4000 -2.0016 0.9791
-2.2913 4.3205 -2.0016 0.9791
-2.7428 4.0490 -2.0016 0.9791
-3.2943 3.6145 -2.0016 0.9791
-3.5453 3.3687 -2.0016 0.9791
-3.6640 3.2392 -2.0016 0.9791
-3.8871 2.9678 -2.0016 0.9791
-3.9912 2.8262 -2.0016 0.9791
-4.4319 2.0677 -2.0016 0.9791
-4.5033 1.9072 -2.0016 0.9791
-4.5689 1.7442 -2.0016 0.9791
-4.6286 1.5790 -2.0016 0.9791
-4.7300 1.2427 -2.0016 0.9791
-4.7716 1.0720 -2.0016 0.9791
-2.1977 0.4114 -0.9151 0.9904
-1.9610 0.2947 -0.8116 0.9915
-1.9350 0.0801 -0.7926 0.9917
-1.9035 0.0104 -0.7791 0.9918
-1.9267 -0.0587 -0.7889 0.9917
-1.9501 -0.1297 -0.7999 0.9916
-1.9472 -0.2709 -0.8046 0.9915
-2.1524 -0.3787 -0.8945 0.9906
-4.7830 -1.0200 -2.0016 0.9791
-4.7432 -1.1911 -2.0016 0.9791
-4.6974 -1.3607 -2.0016 0.9791
-4.5238 -1.8581 -2.0016 0.9791
-4.3787 -2.1780 -2.0016 0.9791
-3.9069 -2.3071 -1.8570 0.9806
-3.7312 -2.5816 -1.8570 0.9806
-3.6361 -2.7140 -1.8570 0.9806
-3.4319 -2.9680 -1.8570 0.9806
-3.0927 -3.3199 -1.8570 0.9806
-2.9715 -3.4288 -1.8570 0.9806
-2.8464 -3.5334 -1.8570 0.9806
-2.5854 -3.7286 -1.8570 0.9806
