ply
format ascii 1.0
element vertex 1537
property float32 x
property float32 y
property float32 z
property float32 I
end_header
-5.2384 15.8789 0.6593 0.9353
-6.0478 14.6906 0.6264 0.9384
-6.3368 13.9467 0.6040 0.9405
-10.3944 17.5670 0.8049 0.9215
-11.3733 17.7347 0.8307 0.9191
-13.0083 13.9652 0.7525 0.9264
-13.9761 13.9627 0.7790 0.9240
-15.6718 13.5534 0.8170 0.9204
-18.1690 13.5603 0.8940 0.9132
-19.6066 13.5643 0.9401 0.9090
-21.1689 8.6911 0.9023 0.9125
-27.1545 -22.3493 1.3867 0.8687
-25.2538 -22.3546 1.3299 0.8737
-23.5008 -22.3595 1.2791 0.8782
-16.0161 -18.9203 0.9775 0.9055
-14.8852 -18.9235 0.9494 0.9081
-13.9575 -19.1198 0.9334 0.9096
-13.9617 -20.6444 0.9827 0.9050
-13.7290 -21.9615 1.0212 0.9015
-12.9012 -22.3889 1.0189 0.9017
-11.9216 -22.5231 1.0048 0.9030
-10.8421 -22.3946 0.9811 0.9052
-9.8814 -22.4315 0.9665 0.9065
-7.9999 -22.3975 0.9378 0.9092
-7.1216 -22.4549 0.9289 0.9100
-6.2284 -22.4025 0.9169 0.9111
-5.3698 -22.4049 0.9085 0.9119
-4.5468 -22.5114 0.9056 0.9122
-2.8711 -22.4118 0.8909 0.9135
-1.2461 -22.4163 0.8853 0.9140
-0.4393 -22.4186 0.8842 0.9141
0.2833 -17.3278 0.6833 0.9330
2.2124 -4.2128 0.1876 0.9811
32.6135 -31.2319 1.7806 0.8346
33.6891 -30.0171 1.7792 0.8347
33.0604 -25.4440 1.6450 0.8462
38.5169 -25.4592 1.8206 0.8312
43.0886 13.4093 0.7623 0.8348
38.2212 13.4190 0.6843 0.8504
36.0481 15.6472 0.6638 0.8545
35.1815 20.0197 0.6838 0.8505
35.3866 21.8560 0.7026 0.8467
35.1912 23.5230 0.7150 0.8442
35.1964 25.4025 0.7332 0.8406
35.2641 27.4311 0.7547 0.8363
2.1104 13.5110 0.2310 0.9468
2.7294 22.8266 0.3883 0.9121
1.0556 12.6796 0.2149 0.9504
-0.3929 15.8655 0.2681 0.9385
-1.5383 15.8686 0.2693 0.9382
-1.1777 8.8306 0.1505 0.9650
-2.1186 12.4529 0.2134 0.9507
-3.2915 15.8735 0.2738 0.9372
-3.8917 15.8752 0.2761 0.9367
-3.4619 12.2070 0.2143 0.9505
-4.0009 12.3926 0.2200 0.9492
-6.0471 14.9589 0.2725 0.9375
-7.4762 13.9498 0.2673 0.9386
-10.2436 17.5665 0.3435 0.9219
-7.8924 12.4811 0.2494 0.9426
-13.2090 16.6152 0.3585 0.9186
-10.5700 12.3567 0.2747 0.9370
-13.7986 13.9622 0.3316 0.9245
-18.1417 15.8926 0.4074 0.9080
-19.5188 15.8965 0.4252 0.9042
-25.5794 -22.3537 0.5738 0.8729
-23.8019 -22.3586 0.5516 0.8775
-22.2089 -22.4180 0.5330 0.8814
-20.6201 -22.3675 0.5139 0.8854
-19.3337 -22.5466 0.5017 0.8880
-14.1920 -19.1832 0.4030 0.9090
-15.4659 -22.5574 0.4620 0.8964
-12.1294 -22.5667 0.4328 0.9026
-10.0370 -22.3969 0.4146 0.9065
-8.1611 -22.3971 0.4027 0.9090
-5.3923 -16.6336 0.2954 0.9324
-6.3824 -22.4020 0.3935 0.9110
-4.6962 -22.5110 0.3884 0.9121
-3.0164 -22.4114 0.3820 0.9135
-2.2174 -22.5892 0.3834 0.9132
-1.3895 -22.4159 0.3794 0.9141
0.2254 -22.5960 0.3817 0.9136
2.1931 -4.2415 0.0807 0.9811
32.8826 -36.8340 0.8341 0.8208
32.6124 -31.6317 0.7674 0.8338
33.2562 -30.0137 0.7567 0.8359
32.6296 -25.4452 0.6990 0.8474
37.1799 -26.9025 0.7752 0.8323
38.1821 -25.5890 0.7764 0.8320
34.3886 -4.2585 0.5853 0.8706
43.8290 -3.8346 0.7432 0.8386
48.0031 13.3956 0.8418 0.8192
42.1485 13.4119 0.7471 0.8378
37.4617 13.4211 0.6722 0.8528
36.0489 15.9213 0.6657 0.8541
35.3928 17.1769 0.6645 0.8544
35.1777 18.6630 0.6727 0.8527
29.8810 17.2565 0.5829 0.8711
35.3875 22.1693 0.7054 0.8462
35.1974 25.7459 0.7366 0.8399
35.2030 27.7454 0.7571 0.8358
4.0104 15.2973 0.2671 0.9387
2.4831 13.3044 0.2286 0.9473
2.5819 22.8270 0.3880 0.9122
-0.4941 15.8657 0.2681 0.9385
-3.9992 15.8755 0.2765 0.9366
-3.5749 12.3061 0.2165 0.9500
-4.0461 12.2648 0.2182 0.9496
-5.5465 12.2072 0.2265 0.9478
-7.5912 13.9502 0.2683 0.9384
-8.3711 12.0753 0.2482 0.9429
-12.9556 17.3241 0.3654 0.9171
-13.2128 15.2485 0.3408 0.9225
-13.0083 13.9652 0.3224 0.9265
-12.2938 12.2820 0.2935 0.9328
-19.7758 15.8972 0.4286 0.9035
-33.2625 23.0118 0.6832 0.8506
-34.5633 22.1188 0.6932 0.8486
-21.1666 8.6901 0.3865 0.9125
-27.3408 -22.5027 0.5981 0.8679
-23.5008 -22.3595 0.5479 0.8783
-21.9284 -22.4188 0.5297 0.8821
-20.3586 -22.3682 0.5109 0.8860
-18.9380 -22.3721 0.4951 0.8894
-13.7290 -21.9615 0.4375 0.9016
-12.9012 -22.3889 0.4365 0.9018
-9.8814 -22.4315 0.4140 0.9066
-6.2284 -22.4025 0.3928 0.9112
-5.3698 -22.4049 0.3892 0.9119
-3.6772 -22.3100 0.3819 0.9135
-2.8711 -22.4118 0.3817 0.9136
-2.0721 -22.5896 0.3832 0.9132
-0.4393 -22.4186 0.3788 0.9142
1.1735 -22.4230 0.3793 0.9141
2.2124 -4.2128 0.0804 0.9811
28.1658 -38.8474 0.8105 0.8253
32.6135 -31.2320 0.7628 0.8347
33.0604 -25.4440 0.7047 0.8463
37.1981 -26.5561 0.7720 0.8329
34.2909 -4.0247 0.5832 0.8710
43.0886 13.4093 -0.2541 0.8348
35.6830 17.0376 -0.2226 0.8537
35.1815 20.0197 -0.2279 0.8505
35.1964 25.4025 -0.2444 0.8406
3.0662 13.2853 -0.0768 0.9469
2.5212 13.0473 -0.0748 0.9482
-0.7527 12.3863 -0.0699 0.9516
-1.1839 12.2124 -0.0691 0.9521
-1.1775 8.8292 -0.0502 0.9650
-2.0562 12.0858 -0.0690 0.9521
-2.9880 12.1891 -0.0707 0.9510
-3.4354 12.1136 -0.0709 0.9509
-4.4121 12.1542 -0.0728 0.9496
-4.8697 12.0464 -0.0732 0.9494
-6.0088 12.2497 -0.0768 0.9469
-6.9589 11.9338 -0.0778 0.9462
-7.6242 12.0570 -0.0803 0.9445
-9.5908 12.0639 -0.0868 0.9402
-12.0522 12.1951 -0.0965 0.9337
-13.8562 12.1384 -0.1037 0.9290
-14.5824 11.8762 -0.1059 0.9275
-15.9780 12.0844 -0.1128 0.9230
-16.9322 11.8743 -0.1164 0.9206
-21.6367 11.9263 -0.1391 0.9059
-27.5087 -22.3483 -0.1995 0.8678
-25.5794 -22.3537 -0.1913 0.8729
-23.8019 -22.3586 -0.1839 0.8775
-20.6201 -22.3675 -0.1713 0.8854
-19.3337 -22.5466 -0.1672 0.8880
-15.4659 -22.5574 -0.1540 0.8964
-12.1294 -22.5667 -0.1442 0.9026
-10.0370 -22.3969 -0.1382 0.9065
-6.3824 -22.4020 -0.1311 0.9110
-2.2174 -22.5892 -0.1278 0.9132
-0.5823 -22.4182 -0.1263 0.9142
1.0332 -22.4880 -0.1267 0.9139
32.8792 -36.8302 -0.2780 0.8208
32.6124 -31.6317 -0.2558 0.8338
34.4735 -4.2691 -0.1956 0.8703
43.8254 -3.8343 -0.2477 0.8386
42.1485 13.4119 -0.2490 0.8378
37.3280 13.3732 -0.2232 0.8533
35.2879 14.0926 -0.2139 0.8590
36.0136 15.9057 -0.2217 0.8543
35.3928 17.1769 -0.2215 0.8544
34.4724 21.5960 -0.2290 0.8498
35.2030 27.7454 -0.2524 0.8359
5.2538 17.4570 -0.1026 0.9297
2.4904 13.3436 -0.0764 0.9472
1.4532 12.8475 -0.0728 0.9496
-0.3759 12.0716 -0.0680 0.9528
-0.8311 12.3724 -0.0698 0.9516
-1.2324 8.8119 -0.0501 0.9650
-5.4737 12.0471 -0.0745 0.9484
-6.0708 12.1791 -0.0766 0.9470
-7.7073 12.0182 -0.0804 0.9445
-8.3727 12.0776 -0.0827 0.9429
-9.6652 11.9997 -0.0868 0.9402
-10.3030 11.8904 -0.0886 0.9390
-12.2253 12.2136 -0.0973 0.9332
-12.8494 11.9460 -0.0988 0.9322
-13.9169 12.0357 -0.1036 0.9290
-14.8271 11.9190 -0.1071 0.9267
-16.1493 12.0529 -0.1135 0.9226
-17.3233 11.9847 -0.1186 0.9192
-20.2808 11.9740 -0.1326 0.9101
-22.0373 11.9646 -0.1412 0.9046
-24.2688 12.0680 -0.1526 0.8973
-21.1643 8.6892 -0.1288 0.9125
-27.3408 -22.5027 -0.1994 0.8679
-25.2539 -22.3546 -0.1899 0.8738
-22.0461 -22.5391 -0.1775 0.8815
-16.4649 -22.5546 -0.1572 0.8943
-15.2559 -22.5580 -0.1533 0.8968
-12.9012 -22.3889 -0.1455 0.9018
-11.9216 -22.5231 -0.1435 0.9031
-10.8421 -22.3946 -0.1401 0.9053
-9.8814 -22.4315 -0.1380 0.9066
-8.9208 -22.4000 -0.1358 0.9081
-8.0000 -22.3975 -0.1339 0.9093
-3.6772 -22.3100 -0.1273 0.9135
-2.8711 -22.4118 -0.1272 0.9136
-2.0722 -22.5896 -0.1277 0.9133
-1.2461 -22.4163 -0.1264 0.9141
0.2833 -17.3276 -0.0976 0.9330
1.1735 -22.4230 -0.1264 0.9141
2.2124 -4.2127 -0.0268 0.9811
32.6135 -31.2319 -0.2542 0.8347
33.6927 -30.0203 -0.2541 0.8348
33.0604 -25.4440 -0.2348 0.8463
37.1998 -26.5573 -0.2573 0.8329
34.3343 -4.0298 -0.1946 0.8709
35.6597 12.5196 -1.0642 0.8596
35.0369 13.7341 -1.0596 0.8602
35.9980 15.6254 -1.1050 0.8547
35.6364 17.0154 -1.1120 0.8538
33.4621 19.0413 -1.0841 0.8572
34.9805 27.2105 -1.2479 0.8375
5.3083 17.2393 -0.5079 0.9304
3.6727 13.6538 -0.3981 0.9450
2.5377 13.1328 -0.3766 0.9479
2.0482 13.1133 -0.3737 0.9483
1.0386 12.4749 -0.3525 0.9511
0.5791 12.2789 -0.3461 0.9520
0.1344 12.0168 -0.3384 0.9530
-0.7302 12.0157 -0.3390 0.9530
-1.1773 8.8278 -0.2508 0.9650
-2.0287 11.9241 -0.3406 0.9528
-2.4530 11.8299 -0.3402 0.9528
-2.9319 11.9601 -0.3467 0.9519
-3.8284 11.8583 -0.3509 0.9514
-4.3393 11.9535 -0.3581 0.9504
-5.8491 11.9241 -0.3740 0.9482
-7.4801 11.8291 -0.3941 0.9455
-8.8071 11.9346 -0.4176 0.9424
-9.4411 11.8756 -0.4272 0.9411
-10.1542 11.8706 -0.4399 0.9394
-10.9507 11.9075 -0.4555 0.9373
-12.6133 11.8772 -0.4878 0.9330
-14.6016 11.8918 -0.5302 0.9274
-15.7667 11.9246 -0.5566 0.9239
-16.9406 11.8803 -0.5826 0.9205
-27.4758 -22.3216 -0.9968 0.8679
-22.0520 -22.2597 -0.8823 0.8822
-20.5059 -22.2435 -0.8519 0.8860
-14.1920 -19.1832 -0.6719 0.9089
-13.8691 -21.8742 -0.7293 0.9015
-10.9413 -22.2372 -0.6978 0.9056
-8.1263 -22.3018 -0.6684 0.9094
-5.3907 -16.6289 -0.4922 0.9324
-6.3638 -22.3368 -0.6540 0.9112
-5.5079 -22.3513 -0.6482 0.9120
-1.3883 -22.3970 -0.6319 0.9141
0.2235 -22.4036 -0.6309 0.9142
1.0294 -22.4044 -0.6315 0.9142
1.8380 -22.4037 -0.6330 0.9140
32.8165 -36.7600 -1.3875 0.8210
33.1929 -29.9566 -1.2590 0.8362
32.8293 -27.5539 -1.2068 0.8424
32.6296 -25.4452 -1.1651 0.8474
34.6546 -4.2915 -0.9832 0.8696
41.3697 13.1641 -1.2224 0.8405
35.0376 13.9927 -1.0623 0.8599
36.0489 15.9213 -1.1096 0.8541
33.4585 17.7509 -1.0665 0.8594
29.9678 17.3067 -0.9744 0.8707
33.6597 21.0869 -1.1184 0.8530
34.3188 25.1033 -1.1973 0.8435
4.9719 16.5204 -0.4858 0.9333
3.6052 13.7516 -0.4003 0.9447
0.9548 12.4251 -0.3509 0.9514
0.0586 12.1842 -0.3431 0.9524
-0.3715 11.9306 -0.3361 0.9534
-1.2622 12.2096 -0.3456 0.9521
-2.1129 11.9580 -0.3419 0.9526
-3.0264 12.0139 -0.3489 0.9516
-3.4692 11.9423 -0.3502 0.9515
-4.9556 12.0376 -0.3666 0.9492
-5.9165 11.8696 -0.3734 0.9483
-6.4755 11.8999 -0.3815 0.9472
-8.2037 11.8338 -0.4055 0.9440
-9.6804 12.0186 -0.4345 0.9401
-11.8649 11.8535 -0.4722 0.9351
-12.9201 12.0118 -0.4967 0.9318
-13.8359 11.9656 -0.5151 0.9294
-17.0651 11.8060 -0.5843 0.9203
-20.1275 11.8835 -0.6582 0.9107
-23.8099 11.8398 -0.7487 0.8991
-21.1619 8.6882 -0.6441 0.9125
-27.1155 -22.3173 -0.9889 0.8689
-23.4115 -22.2745 -0.9099 0.8787
-21.7698 -22.2566 -0.8766 0.8829
-20.2427 -22.2408 -0.8468 0.8866
-17.3454 -22.0510 -0.7900 0.8938
-10.7681 -22.2419 -0.6958 0.9058
-9.8089 -22.2670 -0.6851 0.9072
-8.8768 -22.2896 -0.6756 0.9085
-7.0799 -22.3234 -0.6594 0.9105
-6.2109 -22.3395 -0.6529 0.9114
-5.3576 -22.3537 -0.6473 0.9121
-1.2451 -22.3978 -0.6316 0.9141
-0.4390 -22.4016 -0.6309 0.9142
0.2833 -17.3275 -0.4880 0.9330
1.1725 -22.4044 -0.6317 0.9141
2.2123 -4.2127 -0.1340 0.9811
28.0783 -38.7267 -1.3470 0.8258
32.6135 -31.2319 -1.2715 0.8347
33.6323 -29.9665 -1.2684 0.8351
32.8360 -27.2048 -1.2007 0.8431
33.0604 -25.4440 -1.1747 0.8463
37.1454 -26.5185 -1.2851 0.8331
38.5169 -25.4592 -1.3000 0.8313
34.4320 -4.0413 -0.9762 0.8705
34.4073 12.0800 -1.8494 0.8641
33.9510 13.3085 -1.8494 0.8641
32.9076 15.7124 -1.8494 0.8641
32.3217 16.8847 -1.8494 0.8641
29.7962 16.9553 -1.7386 0.8717
31.0256 19.1625 -1.8494 0.8641
30.3170 20.2649 -1.8494 0.8641
29.5693 21.3412 -1.8494 0.8641
27.9602 23.4097 -1.8494 0.8641
26.3193 29.4104 -2.0016 0.8538
25.2455 30.3371 -2.0016 0.8538
24.1391 31.2247 -2.0016 0.8538
23.0015 32.0719 -2.0016 0.8538
21.8343 32.8777 -2.0016 0.8538
20.6388 33.6410 -2.0016 0.8538
19.4166 34.3609 -2.0016 0.8538
18.1694 35.0364 -2.0016 0.8538
16.8987 35.6666 -2.0016 0.8538
14.2936 36.7882 -2.0016 0.8538
5.2409 17.0204 -0.9032 0.9312
3.6281 13.4882 -0.7084 0.9456
3.1154 13.4983 -0.7026 0.9460
2.0011 12.8117 -0.6576 0.9494
1.5168 12.6851 -0.6479 0.9501
-0.2960 11.9524 -0.6063 0.9532
-1.1456 11.8175 -0.6021 0.9536
-2.9646 12.0936 -0.6315 0.9514
-3.3845 11.9341 -0.6291 0.9515
-3.7890 11.7363 -0.6254 0.9518
-4.2805 11.7916 -0.6362 0.9510
-5.2524 11.7583 -0.6531 0.9497
-5.8109 11.8462 -0.6692 0.9485
-6.3489 11.8464 -0.6816 0.9476
-6.8922 11.8193 -0.6939 0.9467
-7.4028 11.7069 -0.7024 0.9460
-8.0794 11.8146 -0.7259 0.9443
-9.3763 11.7942 -0.7641 0.9414
-10.0869 11.7920 -0.7870 0.9397
-12.6386 11.9011 -0.8804 0.9328
-13.5690 11.8868 -0.9148 0.9303
-15.7093 11.8812 -0.9989 0.9241
-16.9619 11.8952 -1.0507 0.9204
-18.2829 11.8651 -1.1053 0.9164
-19.9954 11.9779 -1.1821 0.9109
-21.5597 11.8839 -1.2485 0.9061
-23.1429 11.6927 -1.3150 0.9014
-25.1106 11.5737 -1.4022 0.8952
-33.6449 14.0644 -1.8494 0.8641
-36.9373 13.9036 -2.0016 0.8538
-37.4130 12.5674 -2.0016 0.8538
-38.5482 8.4683 -2.0016 0.8538
-39.0568 5.6780 -2.0016 0.8538
-39.2356 4.2709 -2.0016 0.8538
-39.3638 2.8583 -2.0016 0.8538
-39.4411 1.4420 -2.0016 0.8538
-39.4428 -1.3943 -2.0016 0.8538
-39.0637 -5.6308 -2.0016 0.8538
-38.8361 -7.0308 -2.0016 0.8538
-37.8540 -11.1692 -2.0016 0.8538
-37.4282 -12.5222 -2.0016 0.8538
-36.4322 -15.1779 -2.0016 0.8538
-35.8633 -16.4772 -2.0016 0.8538
-35.2481 -17.7552 -2.0016 0.8538
-33.8819 -20.2408 -2.0016 0.8538
-30.6133 -19.8145 -1.8494 0.8641
-29.8815 -20.9018 -1.8494 0.8641
-29.1112 -21.9619 -1.8494 0.8641
-25.5794 -22.3537 -1.7228 0.8728
-23.8019 -22.3586 -1.6561 0.8774
-22.1546 -22.3632 -1.5964 0.8815
-20.6201 -22.3675 -1.5428 0.8853
-19.1835 -22.3715 -1.4946 0.8887
-17.4253 -21.8643 -1.4179 0.8941
-14.1920 -19.1832 -1.2102 0.9089
-13.8691 -21.8742 -1.3135 0.9015
-13.0916 -22.3884 -1.3153 0.9013
-11.0185 -22.3941 -1.2657 0.9049
-10.0370 -22.3969 -1.2447 0.9064
-8.1611 -22.3971 -1.2089 0.9089
-5.5210 -22.4044 -1.1702 0.9117
-2.2001 -22.4137 -1.1422 0.9137
1.0302 -22.4226 -1.1383 0.9140
2.9816 -36.3442 -1.8494 0.8641
8.8291 -38.4672 -2.0016 0.8538
10.2057 -38.1251 -2.0016 0.8538
11.5690 -37.7337 -2.0016 0.8538
15.5624 -36.2696 -2.0016 0.8538
19.3751 -34.3843 -2.0016 0.8538
20.5981 -33.6659 -2.0016 0.8538
25.2088 -30.3676 -2.0016 0.8538
26.2837 -29.4422 -2.0016 0.8538
26.9537 -28.0921 -1.9744 0.8556
26.9771 -26.1659 -1.9060 0.8603
27.0715 -24.4320 -1.8494 0.8641
27.9319 -23.4435 -1.8494 0.8641
28.7563 -22.4247 -1.8494 0.8641
30.2925 -20.3016 -1.8494 0.8641
30.0238 -18.5939 -1.7910 0.8681
31.6723 -18.0736 -1.8494 0.8641
32.3013 -16.9238 -1.8494 0.8641
33.9649 -16.2677 -1.9099 0.8600
37.2232 -13.1191 -2.0016 0.8538
38.0693 -10.4119 -2.0016 0.8538
38.7187 -7.6510 -2.0016 0.8538
39.4154 -2.0249 -2.0016 0.8538
39.4591 0.8111 -2.0016 0.8538
39.4044 2.2285 -2.0016 0.8538
39.2989 3.6429 -2.0016 0.8538
39.1426 5.0526 -2.0016 0.8538
38.9358 6.4559 -2.0016 0.8538
38.6580 7.8466 -2.0005 0.8539
32.7540 9.1403 -1.7246 0.8727
34.3296 12.2990 -1.8494 0.8641
29.6402 17.1175 -1.7358 0.8719
29.4327 21.5292 -1.8494 0.8641
27.2689 24.8670 -1.8716 0.8626
25.0517 30.4974 -2.0016 0.8538
22.7967 32.2178 -2.0016 0.8538
21.6243 33.0161 -2.0016 0.8538
20.4240 33.7718 -2.0016 0.8538
19.1973 34.4839 -2.0016 0.8538
15.3749 36.3495 -2.0016 0.8538
12.7246 37.3599 -2.0016 0.8538
3.5419 13.5103 -0.7083 0.9456
2.9538 13.1809 -0.6850 0.9473
2.4350 13.0468 -0.6731 0.9482
1.9269 12.8742 -0.6602 0.9492
0.9464 12.3163 -0.6265 0.9517
0.0572 11.8876 -0.6029 0.9535
-0.3727 11.9695 -0.6073 0.9532
-2.5260 11.8029 -0.6121 0.9528
-3.0179 11.9801 -0.6265 0.9517
-3.4348 11.8241 -0.6244 0.9519
-5.8645 11.7654 -0.6667 0.9487
-6.5074 11.9585 -0.6904 0.9469
-7.1220 12.0365 -0.7093 0.9455
-8.1310 11.7289 -0.7238 0.9444
-8.9414 11.9563 -0.7572 0.9420
-9.5049 11.8006 -0.7684 0.9411
-12.8463 11.9431 -0.8895 0.9322
-13.7722 11.9106 -0.9234 0.9297
-17.1211 11.8448 -1.0558 0.9200
-20.1407 11.8912 -1.1862 0.9106
-23.2502 11.5615 -1.3169 0.9012
-27.3045 12.3745 -1.5203 0.8869
-21.1191 8.6706 -1.1578 0.9126
-37.9112 10.9736 -2.0016 0.8538
-38.2810 9.6043 -2.0016 0.8538
-38.6014 8.2225 -2.0016 0.8538
-38.8719 6.8301 -2.0016 0.8538
-39.0922 5.4289 -2.0016 0.8538
-39.4331 -1.6457 -2.0016 0.8538
-39.3485 -3.0615 -2.0016 0.8538
-39.2131 -4.4734 -2.0016 0.8538
-39.0270 -5.8796 -2.0016 0.8538
-38.7905 -7.2781 -2.0016 0.8538
-38.5039 -8.6673 -2.0016 0.8538
-37.7820 -11.4102 -2.0016 0.8538
-37.3477 -12.7605 -2.0016 0.8538
-36.8650 -14.0942 -2.0016 0.8538
-35.7576 -16.7054 -2.0016 0.8538
-34.4655 -19.2303 -2.0016 0.8538
-31.1857 -18.9008 -1.8494 0.8641
-29.7477 -21.0918 -1.8494 0.8641
-28.9706 -22.1470 -1.8494 0.8641
-27.1545 -22.3493 -1.7836 0.8686
-23.5008 -22.3595 -1.6451 0.8782
-18.9381 -22.3721 -1.4865 0.8892
-15.2559 -22.5580 -1.3811 0.8967
-13.7290 -21.9615 -1.3135 0.9015
-12.9012 -22.3889 -1.3105 0.9017
-10.8421 -22.3946 -1.2618 0.9052
-9.8663 -22.3973 -1.2412 0.9066
-7.9999 -22.3975 -1.2062 0.9091
-7.1042 -22.4000 -1.1918 0.9102
-6.2284 -22.4025 -1.1792 0.9111
-5.3698 -22.4049 -1.1684 0.9119
-4.5468 -22.5114 -1.1647 0.9121
-3.6936 -22.4095 -1.1518 0.9131
-2.8711 -22.4118 -1.1459 0.9135
-2.0560 -22.4141 -1.1415 0.9138
-0.4393 -22.4186 -1.1372 0.9141
0.2833 -17.3274 -0.8789 0.9329
1.1735 -22.4230 -1.1387 0.9140
5.8136 -35.9999 -1.8494 0.8641
7.1034 -35.7677 -1.8494 0.8641
10.4484 -38.0592 -2.0016 0.8538
15.7932 -36.1697 -2.0016 0.8538
17.0827 -35.5789 -2.0016 0.8538
2.2123 -4.2127 -0.2413 0.9811
19.5938 -34.2601 -2.0016 0.8538
25.4018 -30.2063 -2.0016 0.8538
26.9580 -27.7405 -1.9617 0.8565
26.9811 -25.8381 -1.8946 0.8610
28.8986 -22.2410 -1.8494 0.8641
30.1780 -18.4244 -1.7931 0.8680
31.7869 -17.8714 -1.8494 0.8641
32.4085 -16.7176 -1.8494 0.8641
36.2846 -15.5276 -2.0016 0.8538
36.8191 -14.2138 -2.0016 0.8538
37.7448 -11.5328 -2.0016 0.8538
38.4756 -8.7922 -2.0016 0.8538
38.7667 -7.4040 -2.0016 0.8538
34.4985 -5.3119 -1.7702 0.8695
34.5477 -2.8009 -1.7578 0.8704
39.4275 -1.7737 -2.0016 0.8538
39.4658 -0.3558 -2.0016 0.8538
39.4531 1.0626 -2.0016 0.8538
26.0652 8.1115 -2.0016 0.8963
25.7569 9.0429 -2.0016 0.8963
25.4153 9.9626 -2.0016 0.8963
25.0409 10.8694 -2.0016 0.8963
24.1956 12.6397 -2.0016 0.8963
23.2254 14.3448 -2.0016 0.8963
22.6949 15.1701 -2.0016 0.8963
21.5468 16.7608 -2.0016 0.8963
20.9307 17.5242 -2.0016 0.8963
19.6181 18.9822 -2.0016 0.8963
18.9233 19.6748 -2.0016 0.8963
18.2041 20.3421 -2.0016 0.8963
16.6961 21.5970 -2.0016 0.8963
15.1020 22.7403 -2.0016 0.8963
13.4298 23.7662 -2.0016 0.8963
12.5671 24.2334 -2.0016 0.8963
11.6883 24.6693 -2.0016 0.8963
10.7943 25.0734 -2.0016 0.8963
9.8863 25.4450 -2.0016 0.8963
8.2839 23.8232 -1.8494 0.9038
5.2417 17.0229 -1.3060 0.9311
3.6465 13.5563 -1.0293 0.9453
3.0575 13.2474 -0.9969 0.9469
2.5180 13.0305 -0.9731 0.9482
1.9940 12.7663 -0.9474 0.9495
1.5085 12.6161 -0.9316 0.9503
0.5762 12.2181 -0.8969 0.9521
-1.1625 11.9916 -0.8834 0.9528
-1.1769 8.8252 -0.6528 0.9649
-2.0277 11.9182 -0.8864 0.9527
-2.5151 12.1295 -0.9083 0.9515
-2.9416 11.9995 -0.9059 0.9517
-3.3647 11.8645 -0.9042 0.9517
-3.8402 11.8950 -0.9165 0.9511
-4.8117 11.9030 -0.9414 0.9498
-5.8124 11.8494 -0.9677 0.9484
-6.4508 12.0366 -1.0013 0.9467
-6.9821 11.9734 -1.0163 0.9459
-8.1313 11.8905 -1.0562 0.9439
-9.4094 11.8357 -1.1086 0.9412
-10.1779 11.8984 -1.1481 0.9391
-10.9419 11.8980 -1.1852 0.9372
-11.7487 11.8880 -1.2255 0.9352
-13.4900 11.8176 -1.3150 0.9306
-14.1226 11.5016 -1.3355 0.9296
-15.2170 11.5088 -1.3989 0.9263
-22.9064 10.5577 -1.8494 0.9038
-21.0363 8.7937 -1.6718 0.9126
-26.1729 7.7570 -2.0016 0.8963
-26.6624 5.8573 -2.0016 0.8963
-26.8556 4.8954 -2.0016 0.8963
-27.0142 3.9272 -2.0016 0.8963
-27.1379 2.9540 -2.0016 0.8963
-27.2800 0.9974 -2.0016 0.8963
-27.2982 0.0165 -2.0016 0.8963
-27.2811 -0.9644 -2.0016 0.8963
-27.2289 -1.9441 -2.0016 0.8963
-25.0673 -3.6133 -1.8570 0.9034
-26.6694 -5.8250 -2.0016 0.8963
-25.8877 -8.6611 -2.0016 0.8963
-25.5598 -9.5858 -2.0016 0.8963
-25.1988 -10.4980 -2.0016 0.8963
-24.8054 -11.3967 -2.0016 0.8963
-23.9228 -13.1487 -2.0016 0.8963
-22.3689 -15.6468 -2.0016 0.8963
-21.4350 -16.1709 -1.9687 0.8979
-16.4185 -19.1469 -1.8494 0.9038
-14.1920 -19.1832 -1.7496 0.9087
-14.2627 -20.8025 -1.8494 0.9038
-13.5060 -21.3016 -1.8494 0.9038
-12.7318 -21.7731 -1.8494 0.9038
-11.9413 -22.2166 -1.8494 0.9038
-9.0864 -22.3995 -1.7724 0.9076
-8.1611 -22.3971 -1.7478 0.9088
-5.3690 -16.5618 -1.2766 0.9326
-6.3824 -22.4020 -1.7079 0.9108
-1.3895 -22.4159 -1.6467 0.9139
-0.5823 -22.4182 -1.6443 0.9140
1.0302 -22.4226 -1.6458 0.9139
5.6426 -24.5832 -1.8494 0.9038
6.5221 -24.3646 -1.8494 0.9038
9.8556 -25.4570 -2.0016 0.8963
11.6584 -24.6834 -2.0016 0.8963
14.2470 -23.2855 -2.0016 0.8963
15.0745 -22.7585 -2.0016 0.8963
19.5951 -19.0059 -2.0016 0.8963
20.2654 -18.2895 -2.0016 0.8963
21.5266 -16.7868 -2.0016 0.8963
22.1158 -16.0025 -2.0016 0.8963
24.1803 -12.6689 -2.0016 0.8963
25.0278 -10.8996 -2.0016 0.8963
25.4032 -9.9933 -2.0016 0.8963
26.3311 -7.2015 -2.0016 0.8963
26.7803 -5.2919 -2.0016 0.8963
26.9532 -4.3262 -2.0016 0.8963
27.2622 -1.4006 -2.0016 0.8963
27.2924 0.5610 -2.0016 0.8963
27.2546 1.5413 -2.0016 0.8963
27.0735 3.4947 -2.0016 0.8963
26.5402 6.3879 -2.0016 0.8963
26.0130 8.2775 -2.0016 0.8963
25.6987 9.2069 -2.0016 0.8963
25.3513 10.1243 -2.0016 0.8963
24.9711 11.0287 -2.0016 0.8963
24.1146 12.7936 -2.0016 0.8963
23.6393 13.6519 -2.0016 0.8963
22.5978 15.3144 -2.0016 0.8963
22.0329 16.1165 -2.0016 0.8963
19.4967 19.1068 -2.0016 0.8963
18.7975 19.7950 -2.0016 0.8963
18.0741 20.4577 -2.0016 0.8963
16.5582 21.7029 -2.0016 0.8963
14.1265 23.3588 -2.0016 0.8963
10.6343 25.1416 -2.0016 0.8963
9.7240 25.5075 -2.0016 0.8963
3.5430 13.5147 -1.0244 0.9455
2.9812 13.3034 -0.9996 0.9468
2.4139 12.9339 -0.9647 0.9486
1.9376 12.9456 -0.9598 0.9489
0.4968 12.1842 -0.8941 0.9523
-0.3707 11.9049 -0.8733 0.9534
-0.8020 11.9402 -0.8775 0.9531
-1.2319 8.8089 -0.6522 0.9650
-2.5546 11.9365 -0.8950 0.9522
-3.4465 11.8643 -0.9059 0.9517
-3.9966 12.1148 -0.9354 0.9501
-4.3989 11.8811 -0.9289 0.9505
-5.3757 11.8313 -0.9528 0.9492
-6.4842 11.9159 -0.9947 0.9470
-10.3223 11.9126 -1.1557 0.9387
-12.9479 12.0376 -1.2963 0.9315
-13.5650 11.7313 -1.3150 0.9306
-14.3094 11.5029 -1.3462 0.9290
-19.5410 11.5372 -1.6639 0.9130
-21.2709 11.5485 -1.7747 0.9075
-22.5843 11.2303 -1.8494 0.9038
-25.0710 8.2442 -1.9351 0.8996
-26.8863 4.7242 -2.0016 0.8963
-27.1562 2.7810 -2.0016 0.8963
-27.2977 -0.1575 -2.0016 0.8963
-27.2159 -2.1176 -2.0016 0.8963
-25.0437 -3.7730 -1.8570 0.9034
-24.8920 -4.6704 -1.8570 0.9034
-26.3992 -6.9479 -2.0016 0.8963
-26.1325 -7.8920 -2.0016 0.8963
-25.1314 -10.6584 -2.0016 0.8963
-24.7322 -11.5545 -2.0016 0.8963
-23.8385 -13.3009 -2.0016 0.8963
-21.1571 -16.1739 -1.9527 0.8987
-19.6704 -16.1896 -1.8680 0.9029
-18.8861 -16.7178 -1.8494 0.9038
-18.2731 -17.3857 -1.8494 0.9038
-16.9773 -18.6531 -1.8494 0.9038
-16.2961 -19.2511 -1.8494 0.9038
-15.5938 -19.8243 -1.8494 0.9038
-13.3700 -21.3872 -1.8494 0.9038
-12.5928 -21.8538 -1.8494 0.9038
-9.8663 -22.3973 -1.7945 0.9065
-8.9208 -22.4000 -1.7679 0.9078
-5.2501 -16.5541 -1.2733 0.9327
-5.3698 -22.4049 -1.6893 0.9117
-4.4581 -22.0722 -1.6511 0.9136
-2.8711 -22.4118 -1.6567 0.9134
-2.0560 -22.4141 -1.6503 0.9137
0.2817 -17.2327 -1.2637 0.9332
2.2224 -25.1243 -1.8494 0.9038
5.7991 -24.5467 -1.8494 0.9038
9.0987 -25.7372 -2.0016 0.8963
11.8155 -24.6086 -2.0016 0.8963
2.2123 -4.2127 -0.3489 0.9811
13.5523 -23.6965 -2.0016 0.8963
14.3951 -23.1942 -2.0016 0.8963
15.2192 -22.6620 -2.0016 0.8963
16.0237 -22.1005 -2.0016 0.8963
16.8075 -21.5105 -2.0016 0.8963
17.5695 -20.8926 -2.0016 0.8963
18.3089 -20.2478 -2.0016 0.8963
19.0246 -19.5769 -2.0016 0.8963
19.7158 -18.8806 -2.0016 0.8963
21.6331 -16.6493 -2.0016 0.8963
22.2174 -15.8612 -2.0016 0.8963
22.7730 -15.0526 -2.0016 0.8963
23.2991 -14.2246 -2.0016 0.8963
25.0967 -10.7399 -2.0016 0.8963
26.1067 -7.9768 -2.0016 0.8963
26.8135 -5.1211 -2.0016 0.8963
27.2089 -2.2059 -2.0016 0.8963
27.2442 1.7150 -2.0016 0.8963
19.6714 6.9063 -2.0016 0.9196
19.4105 7.6087 -2.0016 0.9196
19.1246 8.3013 -2.0016 0.9196
18.8139 8.9831 -2.0016 0.9196
18.4790 9.6534 -2.0016 0.9196
18.1202 10.3111 -2.0016 0.9196
17.7380 10.9556 -2.0016 0.9196
17.3328 11.5859 -2.0016 0.9196
16.4560 12.8008 -2.0016 0.9196
15.9854 13.3838 -2.0016 0.9196
15.4942 13.9496 -2.0016 0.9196
14.9829 14.4973 -2.0016 0.9196
14.4523 15.0263 -2.0016 0.9196
13.9031 15.5359 -2.0016 0.9196
12.1505 16.9418 -2.0016 0.9196
11.5339 17.3675 -2.0016 0.9196
10.9024 17.7707 -2.0016 0.9196
10.2568 18.1510 -2.0016 0.9196
9.5979 18.5078 -2.0016 0.9196
8.2479 17.4081 -1.8494 0.9255
6.3267 18.1946 -1.8494 0.9255
5.4509 17.7024 -1.7783 0.9283
3.5914 13.3519 -1.3274 0.9460
3.0427 13.1836 -1.2990 0.9471
1.5283 12.7814 -1.2358 0.9496
1.0200 12.2514 -1.1803 0.9518
0.5702 12.0908 -1.1621 0.9525
-0.7372 12.1305 -1.1667 0.9523
-2.4744 11.9328 -1.1700 0.9522
-2.9009 11.8338 -1.1697 0.9522
-3.7950 11.7548 -1.1859 0.9516
-4.2992 11.8432 -1.2096 0.9506
-4.7924 11.8552 -1.2276 0.9499
-5.3066 11.8797 -1.2491 0.9491
-5.8349 11.8951 -1.2720 0.9482
-6.9554 11.9277 -1.3256 0.9460
-7.8372 11.4605 -1.3329 0.9457
-8.4602 11.4645 -1.3679 0.9444
-9.8144 11.4734 -1.4495 0.9411
-10.5560 11.4783 -1.4971 0.9393
-11.3489 11.4835 -1.5500 0.9372
-15.7714 11.0603 -1.8494 0.9255
-16.1587 10.4865 -1.8494 0.9255
-16.5251 9.8991 -1.8494 0.9255
-17.1933 8.6867 -1.8494 0.9255
-17.9033 8.2518 -1.8926 0.9238
-19.7633 6.6387 -2.0016 0.9196
-19.9891 5.9243 -2.0016 0.9196
-20.3629 4.4734 -2.0016 0.9196
-20.5105 3.7388 -2.0016 0.9196
-20.6316 2.9994 -2.0016 0.9196
-20.7261 2.2561 -2.0016 0.9196
-20.8346 0.7617 -2.0016 0.9196
-20.8485 0.0126 -2.0016 0.9196
-20.8355 -0.7365 -2.0016 0.9196
-20.6352 -2.9744 -2.0016 0.9196
-20.5150 -3.7140 -2.0016 0.9196
-20.3683 -4.4487 -2.0016 0.9196
-19.9962 -5.9001 -2.0016 0.9196
-19.5208 -7.3210 -2.0016 0.9196
-18.6197 -9.3791 -2.0016 0.9196
-17.0839 -11.9499 -2.0016 0.9196
-16.6435 -12.5561 -2.0016 0.9196
-11.0979 -16.1866 -1.8842 0.9242
-9.7237 -16.6289 -1.8494 0.9255
-8.5043 -17.2843 -1.8494 0.9255
-7.8778 -17.5787 -1.8494 0.9255
-5.3562 -16.5223 -1.6675 0.9326
-5.2781 -18.5260 -1.8494 0.9255
-3.9340 -18.8572 -1.8494 0.9255
-3.2538 -18.9864 -1.8494 0.9255
-1.8818 -19.1710 -1.8494 0.9255
-1.1917 -19.2263 -1.8494 0.9255
-0.5001 -19.2567 -1.8494 0.9255
0.1715 -17.1898 -1.6504 0.9333
2.9498 -19.0360 -1.8494 0.9255
3.6319 -18.9177 -1.8494 0.9255
4.3093 -18.7749 -1.8494 0.9255
6.0914 -19.8678 -1.9950 0.9199
6.8236 -19.7002 -2.0016 0.9196
7.5270 -19.4423 -2.0016 0.9196
8.2208 -19.1593 -2.0016 0.9196
8.9039 -18.8515 -2.0016 0.9196
10.2348 -18.1634 -2.0016 0.9196
10.8809 -17.7839 -2.0016 0.9196
11.5129 -17.3814 -2.0016 0.9196
12.7314 -16.5097 -2.0016 0.9196
13.8843 -15.5527 -2.0016 0.9196
15.9692 -13.4031 -2.0016 0.9196
16.4405 -12.8206 -2.0016 0.9196
16.8906 -12.2216 -2.0016 0.9196
17.3188 -11.6068 -2.0016 0.9196
20.2946 -4.7739 -2.0016 0.9196
20.4530 -4.0416 -2.0016 0.9196
20.5850 -3.3040 -2.0016 0.9196
20.6905 -2.5622 -2.0016 0.9196
20.7692 -1.8171 -2.0016 0.9196
20.8152 1.1772 -2.0016 0.9196
20.7595 1.9243 -2.0016 0.9196
20.6769 2.6690 -2.0016 0.9196
19.8669 6.3218 -2.0016 0.9196
19.3616 7.7323 -2.0016 0.9196
19.0713 8.4230 -2.0016 0.9196
18.7563 9.1028 -2.0016 0.9196
18.4171 9.7709 -2.0016 0.9196
17.6678 11.0684 -2.0016 0.9196
17.2587 11.6961 -2.0016 0.9196
16.8273 12.3087 -2.0016 0.9196
15.8998 13.4854 -2.0016 0.9196
14.3563 15.1181 -2.0016 0.9196
13.2334 16.1101 -2.0016 0.9196
12.6460 16.5752 -2.0016 0.9196
12.0423 17.0189 -2.0016 0.9196
10.7889 17.8399 -2.0016 0.9196
10.1409 18.2160 -2.0016 0.9196
9.4798 18.5686 -2.0016 0.9196
7.7293 16.5858 -1.7567 0.9291
6.8618 17.9996 -1.8494 0.9255
4.8747 16.1975 -1.6239 0.9343
3.4881 13.3053 -1.3205 0.9462
0.5034 12.3455 -1.1862 0.9516
-0.8015 11.9327 -1.1482 0.9531
-1.2303 11.9008 -1.1486 0.9531
-3.9743 12.0471 -1.2179 0.9503
-4.4710 12.0759 -1.2363 0.9496
-4.8761 11.8444 -1.2297 0.9498
-5.4183 11.9252 -1.2575 0.9487
-6.4188 11.7956 -1.2893 0.9475
-8.5742 11.4653 -1.3745 0.9441
-9.9425 11.4743 -1.4576 0.9408
-11.4955 11.4844 -1.5600 0.9368
-12.3590 11.4901 -1.6201 0.9344
-13.2931 11.4962 -1.6873 0.9318
-16.5878 9.7936 -1.8494 0.9255
-18.1972 8.2471 -1.9181 0.9229
-19.2657 7.9097 -1.9994 0.9197
-19.5584 7.2200 -2.0016 0.9196
-19.8052 6.5126 -2.0016 0.9196
-20.3910 4.3435 -2.0016 0.9196
-20.7400 2.1240 -2.0016 0.9196
-20.8482 -0.1203 -2.0016 0.9196
-20.4909 -3.8446 -2.0016 0.9196
-20.3396 -4.5785 -2.0016 0.9196
-20.1619 -5.3064 -2.0016 0.9196
-19.9582 -6.0274 -2.0016 0.9196
-19.7288 -6.7407 -2.0016 0.9196
-18.8888 -8.8246 -2.0016 0.9196
-18.2062 -10.1583 -2.0016 0.9196
-17.4297 -11.4397 -2.0016 0.9196
-16.0974 -13.2489 -2.0016 0.9196
-14.0332 -15.4184 -2.0016 0.9196
-13.4504 -15.8894 -1.9986 0.9197
-12.7191 -16.1697 -1.9751 0.9207
-11.8109 -16.1793 -1.9231 0.9227
-9.6176 -16.6905 -1.8494 0.9255
-7.7656 -17.6285 -1.8494 0.9255
-6.4795 -18.1407 -1.8494 0.9255
-5.2342 -16.5037 -1.6622 0.9328
-5.1599 -18.5592 -1.8494 0.9255
-4.4897 -18.7326 -1.8494 0.9255
-1.0692 -19.2335 -1.8494 0.9255
0.2809 -17.1820 -1.6498 0.9333
1.0068 -19.2368 -1.8494 0.9255
1.6973 -19.1882 -1.8494 0.9255
2.3857 -19.1148 -1.8494 0.9255
10.9940 -17.7142 -2.0016 0.9196
12.8364 -16.4282 -2.0016 0.9196
13.4184 -15.9564 -2.0016 0.9196
13.9831 -15.4639 -2.0016 0.9196
14.5297 -14.9515 -2.0016 0.9196
15.0576 -14.4197 -2.0016 0.9196
16.0543 -13.3011 -2.0016 0.9196
16.9681 -12.1137 -2.0016 0.9196
19.1672 -8.2024 -2.0016 0.9196
19.4495 -7.5084 -2.0016 0.9196
19.7068 -6.8047 -2.0016 0.9196
19.9385 -6.0922 -2.0016 0.9196
20.1446 -5.3718 -2.0016 0.9196
20.6057 -3.1728 -2.0016 0.9196
20.8477 -0.1880 -2.0016 0.9196
20.8073 1.3098 -2.0016 0.9196
15.8988 5.5818 -2.0016 0.9344
15.6879 6.1495 -2.0016 0.9344
14.9351 7.8020 -2.0016 0.9344
14.3362 8.8545 -2.0016 0.9344
14.0087 9.3639 -2.0016 0.9344
13.6632 9.8612 -2.0016 0.9344
13.3001 10.3458 -2.0016 0.9344
12.9197 10.8170 -2.0016 0.9344
12.5227 11.2743 -2.0016 0.9344
11.2367 12.5564 -2.0016 0.9344
10.3059 13.3310 -2.0016 0.9344
9.8202 13.6927 -2.0016 0.9344
9.3219 14.0367 -2.0016 0.9344
7.1673 13.8209 -1.8494 0.9392
6.1562 14.3000 -1.8494 0.9392
5.6384 14.5120 -1.8494 0.9392
5.1133 14.7052 -1.8494 0.9392
4.5817 14.8794 -1.8494 0.9392
2.4835 12.8521 -1.5549 0.9486
0.5652 11.9868 -1.4255 0.9528
0.1318 11.7913 -1.4007 0.9536
-0.2873 11.6023 -1.3786 0.9543
-1.1067 11.4163 -1.3625 0.9548
-1.1766 8.8230 -1.0573 0.9648
-4.1515 11.4363 -1.4452 0.9522
-4.6243 11.4394 -1.4657 0.9515
-5.1113 11.4426 -1.4887 0.9508
-7.8372 11.4605 -1.6492 0.9456
-9.1177 11.4689 -1.7404 0.9427
-9.8144 11.4734 -1.7935 0.9410
-10.5388 11.4596 -1.8494 0.9392
-10.9438 11.0735 -1.8494 0.9392
-11.3346 10.6731 -1.8494 0.9392
-11.7108 10.2590 -1.8494 0.9392
-12.0719 9.8315 -1.8494 0.9392
-12.7468 8.9392 -1.8494 0.9392
-15.0396 7.5986 -2.0016 0.9344
-15.3029 7.0532 -2.0016 0.9344
-15.9731 5.3655 -2.0016 0.9344
-16.3172 4.2045 -2.0016 0.9344
-16.5770 3.0217 -2.0016 0.9344
-16.7512 1.8234 -2.0016 0.9344
-16.8059 1.2203 -2.0016 0.9344
-16.8389 0.6156 -2.0016 0.9344
-16.8502 0.0102 -2.0016 0.9344
-16.8396 -0.5953 -2.0016 0.9344
-16.8074 -1.2000 -2.0016 0.9344
-16.6778 -2.4040 -2.0016 0.9344
-16.5806 -3.0017 -2.0016 0.9344
-16.3222 -4.1848 -2.0016 0.9344
-15.7771 -5.9169 -2.0016 0.9344
-15.0488 -7.5804 -2.0016 0.9344
-13.4515 -10.1481 -2.0016 0.9344
-12.6880 -11.0879 -2.0016 0.9344
-11.8589 -11.9706 -2.0016 0.9344
-10.5019 -13.1772 -2.0016 0.9344
-8.5057 -14.5458 -2.0016 0.9344
-7.9775 -14.8421 -2.0016 0.9344
-7.4390 -15.1191 -2.0016 0.9344
-6.8910 -15.3767 -2.0016 0.9344
-6.3340 -15.6144 -2.0016 0.9344
-3.3738 -16.1721 -1.9624 0.9356
-1.5880 -16.1779 -1.9309 0.9366
-0.4216 -16.2330 -1.9289 0.9367
0.1627 -16.3136 -1.9379 0.9364
0.7551 -16.4345 -1.9542 0.9359
1.9747 -16.6861 -1.9959 0.9346
3.7695 -16.4231 -2.0016 0.9344
4.9392 -16.1100 -2.0016 0.9344
6.0835 -15.7136 -2.0016 0.9344
7.1963 -15.2362 -2.0016 0.9344
2.1930 -4.2413 -0.5671 0.9810
8.2720 -14.6800 -2.0016 0.9344
9.3049 -14.0480 -2.0016 0.9344
9.8037 -13.7046 -2.0016 0.9344
11.2215 -12.5700 -2.0016 0.9344
11.6660 -12.1587 -2.0016 0.9344
12.0953 -11.7316 -2.0016 0.9344
12.9066 -10.8326 -2.0016 0.9344
13.9974 -9.3808 -2.0016 0.9344
14.9256 -7.8201 -2.0016 0.9344
15.1970 -7.2787 -2.0016 0.9344
16.2532 -4.4452 -2.0016 0.9344
16.4025 -3.8584 -2.0016 0.9344
16.5305 -3.2665 -2.0016 0.9344
16.6372 -2.6704 -2.0016 0.9344
16.7860 -1.4686 -2.0016 0.9344
16.8482 -0.2593 -2.0016 0.9344
16.7115 2.1572 -2.0016 0.9344
16.6232 2.7563 -2.0016 0.9344
16.5134 3.3518 -2.0016 0.9344
16.0568 5.1094 -2.0016 0.9344
15.8629 5.6830 -2.0016 0.9344
15.6484 6.2494 -2.0016 0.9344
15.4138 6.8076 -2.0016 0.9344
14.8850 7.8970 -2.0016 0.9344
14.5917 8.4268 -2.0016 0.9344
14.2794 8.9457 -2.0016 0.9344
13.9488 9.4530 -2.0016 0.9344
13.6001 9.9481 -2.0016 0.9344
12.8505 10.8992 -2.0016 0.9344
12.4506 11.3539 -2.0016 0.9344
12.0346 11.7939 -2.0016 0.9344
10.6955 13.0205 -2.0016 0.9344
10.2207 13.3964 -2.0016 0.9344
9.7328 13.7550 -2.0016 0.9344
7.5728 13.6030 -1.8494 0.9392
7.0791 13.8663 -1.8494 0.9392
6.0650 14.3389 -1.8494 0.9392
5.5458 14.5476 -1.8494 0.9392
2.3908 12.8103 -1.5480 0.9489
1.8831 12.5813 -1.5111 0.9500
0.9338 12.1531 -1.4479 0.9521
0.4873 11.9517 -1.4209 0.9530
0.0565 11.7574 -1.3966 0.9537
-0.3603 11.5694 -1.3749 0.9544
-1.1802 11.4168 -1.3634 0.9548
-2.0183 11.4223 -1.3778 0.9544
-2.8788 11.4280 -1.3999 0.9536
-3.3206 11.4309 -1.4140 0.9532
-7.3476 11.4573 -1.6168 0.9466
-7.9454 11.4612 -1.6566 0.9454
-8.5742 11.4653 -1.7006 0.9440
-9.2382 11.4696 -1.7494 0.9424
-9.9425 11.4743 -1.8035 0.9407
-11.0141 11.0036 -1.8494 0.9392
-11.4024 10.6007 -1.8494 0.9392
-11.7759 10.1841 -1.8494 0.9392
-12.8035 8.8578 -1.8494 0.9392
-13.9658 8.2455 -1.9265 0.9368
-15.0877 7.5026 -2.0016 0.9344
-15.3476 6.9556 -2.0016 0.9344
-15.5876 6.3996 -2.0016 0.9344
-15.8075 5.8354 -2.0016 0.9344
-16.4804 3.5105 -2.0016 0.9344
-16.5959 2.9160 -2.0016 0.9344
-16.6900 2.3178 -2.0016 0.9344
-16.8425 0.5083 -2.0016 0.9344
-16.8499 -0.0972 -2.0016 0.9344
-16.7416 -1.9099 -2.0016 0.9344
-16.6621 -2.5102 -2.0016 0.9344
-16.5612 -3.1073 -2.0016 0.9344
-15.5127 -6.5790 -2.0016 0.9344
-14.0870 -9.2458 -2.0016 0.9344
-13.7457 -9.7460 -2.0016 0.9344
-13.0102 -10.7080 -2.0016 0.9344
-12.2076 -11.6147 -2.0016 0.9344
-11.7824 -12.0459 -2.0016 0.9344
-11.3419 -12.4615 -2.0016 0.9344
-10.8868 -12.8610 -2.0016 0.9344
-10.4177 -13.2439 -2.0016 0.9344
-9.9351 -13.6096 -2.0016 0.9344
-9.4396 -13.9578 -2.0016 0.9344
-8.4128 -14.5997 -2.0016 0.9344
-7.8828 -14.8926 -2.0016 0.9344
-7.3425 -15.1662 -2.0016 0.9344
-6.2344 -15.6544 -2.0016 0.9344
-5.0809 -16.0204 -1.9964 0.9345
-3.8754 -16.1697 -1.9751 0.9352
-3.2665 -16.1725 -1.9599 0.9357
0.2670 -16.3336 -1.9405 0.9363
2.0818 -16.6795 -1.9967 0.9345
3.2823 -16.5274 -2.0016 0.9344
3.8741 -16.3988 -2.0016 0.9344
4.4608 -16.2490 -2.0016 0.9344
5.0418 -16.0782 -2.0016 0.9344
2.2123 -4.2126 -0.5652 0.9810
8.3654 -14.6270 -2.0016 0.9344
8.8856 -14.3169 -2.0016 0.9344
9.3943 -13.9884 -2.0016 0.9344
9.8908 -13.6418 -2.0016 0.9344
10.3746 -13.2776 -2.0016 0.9344
11.3014 -12.4982 -2.0016 0.9344
11.7432 -12.0841 -2.0016 0.9344
12.5807 -11.2095 -2.0016 0.9344
13.7140 -9.7905 -2.0016 0.9344
14.0569 -9.2914 -2.0016 0.9344
14.6879 -8.2579 -2.0016 0.9344
15.2431 -7.1817 -2.0016 0.9344
15.7195 -6.0684 -2.0016 0.9344
15.9274 -5.4997 -2.0016 0.9344
16.1147 -4.9238 -2.0016 0.9344
16.4267 -3.7537 -2.0016 0.9344
16.6539 -2.5643 -2.0016 0.9344
16.7353 -1.9642 -2.0016 0.9344
16.7950 -1.3616 -2.0016 0.9344
16.8331 -0.7573 -2.0016 0.9344
13.3288 4.6796 -2.0016 0.9445
12.9583 5.6247 -2.0016 0.9445
12.7478 6.0867 -2.0016 0.9445
12.5209 6.5409 -2.0016 0.9445
12.2778 6.9865 -2.0016 0.9445
11.7443 7.8503 -2.0016 0.9445
10.8313 9.0685 -2.0016 0.9445
10.1520 9.8230 -2.0016 0.9445
9.7925 10.1814 -2.0016 0.9445
9.0360 10.8584 -2.0016 0.9445
7.8150 11.7678 -2.0016 0.9445
7.3797 12.0288 -1.9995 0.9446
6.4213 11.3634 -1.8494 0.9486
6.0088 11.5868 -1.8494 0.9486
5.5886 11.7953 -1.8494 0.9486
4.2868 12.3282 -1.8494 0.9486
3.8410 12.4742 -1.8494 0.9486
3.3903 12.6042 -1.8494 0.9486
2.9353 12.7179 -1.8494 0.9486
1.9713 12.6211 -1.8100 0.9497
1.4827 12.4007 -1.7696 0.9508
-0.6936 11.4136 -1.6202 0.9549
-1.1067 11.4163 -1.6252 0.9547
-1.1657 8.7410 -1.2495 0.9650
-1.9432 11.4218 -1.6416 0.9543
-3.2416 11.4303 -1.6834 0.9531
-3.6912 11.4333 -1.7023 0.9526
-6.5749 11.2752 -1.8494 0.9486
-7.3677 10.7739 -1.8494 0.9486
-8.1225 10.2170 -1.8494 0.9486
-8.8353 9.6072 -1.8494 0.9486
-9.8178 8.6007 -1.8494 0.9486
-10.8998 8.2437 -1.9363 0.9463
-11.5358 8.0899 -1.9964 0.9447
-11.8498 7.6901 -2.0016 0.9445
-12.1184 7.2594 -2.0016 0.9445
-12.3715 6.8192 -2.0016 0.9445
-12.6085 6.3703 -2.0016 0.9445
-12.8293 5.9131 -2.0016 0.9445
-13.0335 5.4483 -2.0016 0.9445
-13.3911 4.4982 -2.0016 0.9445
-13.5441 4.0141 -2.0016 0.9445
-13.6796 3.5248 -2.0016 0.9445
-13.7974 3.0310 -2.0016 0.9445
-13.9795 2.0323 -2.0016 0.9445
-14.0434 1.5287 -2.0016 0.9445
-14.1170 0.5161 -2.0016 0.9445
-14.1264 0.0085 -2.0016 0.9445
-14.0453 -1.5117 -2.0016 0.9445
-12.8041 -2.7966 -1.8570 0.9484
-12.5702 -3.7090 -1.8570 0.9484
-12.2714 -4.6022 -1.8570 0.9484
-12.0981 -5.0401 -1.8570 0.9484
-12.1272 -7.2447 -2.0016 0.9445
-11.8591 -7.6758 -2.0016 0.9445
-11.5756 -8.0970 -2.0016 0.9445
-10.9642 -8.9074 -2.0016 0.9445
-10.6370 -9.2956 -2.0016 0.9445
-7.9882 -11.6509 -2.0016 0.9445
-7.1308 -12.1946 -2.0016 0.9445
-6.6880 -12.4429 -2.0016 0.9445
-5.7771 -12.8911 -2.0016 0.9445
-5.3101 -13.0904 -2.0016 0.9445
-4.8363 -13.2727 -2.0016 0.9445
-4.3563 -13.4379 -2.0016 0.9445
-1.8843 -14.0002 -2.0016 0.9445
-1.3800 -14.0588 -2.0016 0.9445
-0.8740 -14.0993 -2.0016 0.9445
-0.3668 -14.1216 -2.0016 0.9445
0.1409 -14.1257 -2.0016 0.9445
0.6484 -14.1115 -2.0016 0.9445
1.1550 -14.0791 -2.0016 0.9445
3.1602 -13.7684 -2.0016 0.9445
3.6529 -13.6459 -2.0016 0.9445
4.1408 -13.5059 -2.0016 0.9445
6.0331 -12.7733 -2.0016 0.9445
6.9348 -12.3070 -2.0016 0.9445
7.3726 -12.0499 -2.0016 0.9445
7.8008 -11.7772 -2.0016 0.9445
8.6265 -11.1865 -2.0016 0.9445
9.4076 -10.5381 -2.0016 0.9445
9.7802 -10.1933 -2.0016 0.9445
10.1402 -9.8353 -2.0016 0.9445
10.8203 -9.0816 -2.0016 0.9445
11.1397 -8.6869 -2.0016 0.9445
12.5130 -6.5560 -2.0016 0.9445
12.9515 -5.6404 -2.0016 0.9445
13.1458 -5.1714 -2.0016 0.9445
13.3231 -4.6957 -2.0016 0.9445
13.4833 -4.2139 -2.0016 0.9445
13.7511 -3.2347 -2.0016 0.9445
14.0726 -1.2312 -2.0016 0.9445
14.1247 -0.2174 -2.0016 0.9445
14.1234 0.2903 -2.0016 0.9445
13.8441 2.8100 -2.0016 0.9445
13.7342 3.3056 -2.0016 0.9445
13.4613 4.2835 -2.0016 0.9445
13.1189 5.2392 -2.0016 0.9445
12.9222 5.7072 -2.0016 0.9445
12.4789 6.6205 -2.0016 0.9445
12.2330 7.0646 -2.0016 0.9445
11.9712 7.4997 -2.0016 0.9445
10.4380 9.5186 -2.0016 0.9445
10.0892 9.8875 -2.0016 0.9445
8.9666 10.9158 -2.0016 0.9445
8.5686 11.2310 -2.0016 0.9445
8.1595 11.5316 -2.0016 0.9445
7.2973 12.0663 -1.9980 0.9446
6.3487 11.4041 -1.8494 0.9486
5.9348 11.6249 -1.8494 0.9486
5.0846 12.0211 -1.8494 0.9486
4.6494 12.1961 -1.8494 0.9486
4.2081 12.3552 -1.8494 0.9486
3.7615 12.4985 -1.8494 0.9486
3.3099 12.6256 -1.8494 0.9486
2.8541 12.7363 -1.8494 0.9486
1.8831 12.5813 -1.8025 0.9499
0.4873 11.9517 -1.6948 0.9528
-0.3603 11.5694 -1.6400 0.9543
-0.7667 11.4141 -1.6209 0.9548
-1.1802 11.4168 -1.6263 0.9547
-1.2232 8.7465 -1.2513 0.9649
-2.8788 11.4280 -1.6698 0.9535
-3.3206 11.4309 -1.6866 0.9530
-3.7720 11.4338 -1.7059 0.9525
-6.2307 11.4499 -1.8470 0.9487
-7.4362 10.7267 -1.8494 0.9486
-7.8169 10.4526 -1.8494 0.9486
-8.8963 9.5507 -1.8494 0.9486
-9.2337 9.2249 -1.8494 0.9486
-9.8724 8.5379 -1.8494 0.9486
-10.2709 8.2565 -1.8672 0.9482
-11.0415 8.2407 -1.9522 0.9459
-11.5939 8.0209 -1.9975 0.9446
-11.8985 7.6145 -2.0016 0.9445
-12.1645 7.1820 -2.0016 0.9445
-12.8667 5.8312 -2.0016 0.9445
-13.4195 4.4128 -2.0016 0.9445
-13.5694 3.9277 -2.0016 0.9445
-13.8164 2.9431 -2.0016 0.9445
-13.9133 2.4447 -2.0016 0.9445
-13.9921 1.9432 -2.0016 0.9445
-14.1200 0.4262 -2.0016 0.9445
-14.1262 -0.0815 -2.0016 0.9445
-14.1141 -0.5890 -2.0016 0.9445
-14.0838 -1.0958 -2.0016 0.9445
-13.9688 -2.1045 -2.0016 0.9445
-12.6744 -3.3357 -1.8570 0.9484
-12.2418 -4.6803 -1.8570 0.9484
-12.0657 -5.1171 -1.8570 0.9484
-11.8741 -5.5474 -1.8570 0.9484
-12.3361 -6.8830 -2.0016 0.9445
-12.0808 -7.3219 -2.0016 0.9445
-11.5238 -8.1706 -2.0016 0.9445
-10.9072 -8.9771 -2.0016 0.9445
-10.2343 -9.7373 -2.0016 0.9445
-9.8778 -10.0987 -2.0016 0.9445
-9.5086 -10.4471 -2.0016 0.9445
-9.1270 -10.7820 -2.0016 0.9445
-8.7337 -11.1031 -2.0016 0.9445
-8.3291 -11.4097 -2.0016 0.9445
-7.4882 -11.9784 -2.0016 0.9445
-6.6085 -12.4853 -2.0016 0.9445
-6.1557 -12.7147 -2.0016 0.9445
-4.2706 -13.4654 -2.0016 0.9445
-3.7840 -13.6102 -2.0016 0.9445
-2.7967 -13.8468 -2.0016 0.9445
-2.2974 -13.9383 -2.0016 0.9445
-1.7950 -14.0119 -2.0016 0.9445
-1.2904 -14.0673 -2.0016 0.9445
-0.7841 -14.1046 -2.0016 0.9445
0.2309 -14.1245 -2.0016 0.9445
0.7383 -14.1071 -2.0016 0.9445
1.2447 -14.0715 -2.0016 0.9445
2.2521 -13.9457 -2.0016 0.9445
3.7397 -13.6224 -2.0016 0.9445
5.1840 -13.1408 -2.0016 0.9445
5.6528 -12.9461 -2.0016 0.9445
6.1143 -12.7346 -2.0016 0.9445
7.4492 -12.0027 -2.0016 0.9445
8.2920 -11.4367 -2.0016 0.9445
9.0920 -10.8116 -2.0016 0.9445
9.8450 -10.1307 -2.0016 0.9445
10.2026 -9.7704 -2.0016 0.9445
10.8780 -9.0125 -2.0016 0.9445
11.1948 -8.6158 -2.0016 0.9445
11.7847 -7.7895 -2.0016 0.9445
12.0570 -7.3610 -2.0016 0.9445
12.3137 -6.9231 -2.0016 0.9445
12.5545 -6.4761 -2.0016 0.9445
12.9872 -5.5577 -2.0016 0.9445
13.5098 -4.1279 -2.0016 0.9445
13.6494 -3.6398 -2.0016 0.9445
13.9619 -2.1498 -2.0016 0.9445
14.1258 -0.1274 -2.0016 0.9445
14.1213 0.3803 -2.0016 0.9445
14.0985 0.8875 -2.0016 0.9445
11.6011 3.6103 -2.0016 0.9519
11.4639 4.0248 -2.0016 0.9519
10.9642 5.2351 -2.0016 0.9519
10.7690 5.6257 -2.0016 0.9519
10.5599 6.0090 -2.0016 0.9519
9.8519 7.1105 -2.0016 0.9519
9.5901 7.4599 -2.0016 0.9519
9.3158 7.7997 -2.0016 0.9519
9.0295 8.1294 -2.0016 0.9519
8.4224 8.7569 -2.0016 0.9519
8.1023 9.0539 -2.0016 0.9519
7.4311 9.6124 -2.0016 0.9519
7.0809 9.8732 -2.0016 0.9519
6.3536 10.3562 -2.0016 0.9519
5.9584 10.5443 -1.9952 0.9521
4.8066 10.1449 -1.8494 0.9555
4.4390 10.3111 -1.8494 0.9555
3.6870 10.6032 -1.8494 0.9555
3.3036 10.7289 -1.8494 0.9555
2.9160 10.8407 -1.8494 0.9555
2.1299 11.0221 -1.8494 0.9555
0.1255 11.2253 -1.8494 0.9555
-0.6810 11.2053 -1.8494 0.9555
-1.0832 11.1736 -1.8494 0.9555
-1.8828 11.0670 -1.8494 0.9555
-3.0629 10.8001 -1.8494 0.9555
-3.8306 10.5522 -1.8494 0.9555
-4.5785 10.2499 -1.8494 0.9555
-5.9998 9.4882 -1.8494 0.9555
-6.6657 9.0328 -1.8494 0.9555
-8.1518 8.2485 -1.9105 0.9541
-8.7462 8.2358 -1.9791 0.9525
-9.4208 7.6725 -2.0016 0.9519
-9.9475 6.9761 -2.0016 0.9519
-10.4229 6.2437 -2.0016 0.9519
-10.8444 5.4790 -2.0016 0.9519
-11.7656 3.0317 -2.0016 0.9519
-11.8669 2.6069 -2.0016 0.9519
-12.0235 1.7479 -2.0016 0.9519
-12.1423 -0.4292 -2.0016 0.9519
-12.1190 -0.8653 -2.0016 0.9519
-12.0256 -1.7334 -2.0016 0.9519
-11.9555 -2.1644 -2.0016 0.9519
-10.2429 -4.7060 -1.8570 0.9553
-9.8785 -5.4295 -1.8570 0.9553
-10.4304 -6.2311 -2.0016 0.9519
-9.9560 -6.9641 -2.0016 0.9519
-9.1487 -7.9950 -2.0016 0.9519
-8.2352 -8.9331 -2.0016 0.9519
-6.8705 -10.0208 -2.0016 0.9519
-6.1331 -10.4883 -2.0016 0.9519
-5.7522 -10.7019 -2.0016 0.9519
-4.9688 -11.0874 -2.0016 0.9519
-3.7468 -11.5577 -2.0016 0.9519
-3.3291 -11.6849 -2.0016 0.9519
-2.9070 -11.7970 -2.0016 0.9519
-2.4813 -11.8938 -2.0016 0.9519
-1.1869 -12.0918 -2.0016 0.9519
-0.3155 -12.1458 -2.0016 0.9519
0.1212 -12.1493 -2.0016 0.9519
0.5577 -12.1371 -2.0016 0.9519
0.9934 -12.1092 -2.0016 0.9519
2.2907 -11.9320 -2.0016 0.9519
2.1930 -4.2413 -0.7866 0.9808
5.9645 -10.5851 -2.0016 0.9519
6.3410 -10.3639 -2.0016 0.9519
7.0690 -9.8817 -2.0016 0.9519
7.4195 -9.6214 -2.0016 0.9519
8.0913 -9.0636 -2.0016 0.9519
8.4118 -8.7671 -2.0016 0.9519
9.3064 -7.8109 -2.0016 0.9519
9.5810 -7.4715 -2.0016 0.9519
9.8433 -7.1224 -2.0016 0.9519
10.0929 -6.7641 -2.0016 0.9519
10.3294 -6.3971 -2.0016 0.9519
10.5526 -6.0218 -2.0016 0.9519
10.7622 -5.6387 -2.0016 0.9519
11.1394 -4.8512 -2.0016 0.9519
11.3065 -4.4478 -2.0016 0.9519
11.4590 -4.0387 -2.0016 0.9519
11.5967 -3.6243 -2.0016 0.9519
11.7195 -3.2053 -2.0016 0.9519
11.8271 -2.7821 -2.0016 0.9519
11.9194 -2.3553 -2.0016 0.9519
11.9963 -1.9255 -2.0016 0.9519
12.1036 -1.0590 -2.0016 0.9519
12.1305 0.6860 -2.0016 0.9519
12.0980 1.1215 -2.0016 0.9519
11.9862 1.9874 -2.0016 0.9519
11.9071 2.4168 -2.0016 0.9519
10.7329 5.6942 -2.0016 0.9519
10.5214 6.0762 -2.0016 0.9519
10.2962 6.4503 -2.0016 0.9519
9.8064 7.1731 -2.0016 0.9519
9.2659 7.8589 -2.0016 0.9519
8.9775 8.1868 -2.0016 0.9519
8.6776 8.5041 -2.0016 0.9519
8.3664 8.8104 -2.0016 0.9519
7.7120 9.3885 -2.0016 0.9519
6.2856 10.3935 -2.0010 0.9520
5.8874 10.5755 -1.9940 0.9521
4.7419 10.1753 -1.8494 0.9555
4.3732 10.3391 -1.8494 0.9555
3.9988 10.4896 -1.8494 0.9555
3.6194 10.6265 -1.8494 0.9555
2.4548 10.9543 -1.8494 0.9555
2.0596 11.0354 -1.8494 0.9555
1.6617 11.1023 -1.8494 0.9555
1.2617 11.1549 -1.8494 0.9555
0.4573 11.2167 -1.8494 0.9555
0.0540 11.2259 -1.8494 0.9555
-1.2204 8.7262 -1.4515 0.9649
-1.9533 11.0547 -1.8494 0.9555
-2.3493 10.9774 -1.8494 0.9555
-3.1316 10.7803 -1.8494 0.9555
-4.2735 10.3807 -1.8494 0.9555
-4.6438 10.2205 -1.8494 0.9555
-5.0080 10.0470 -1.8494 0.9555
-5.7167 9.6614 -1.8494 0.9555
-6.3958 9.2259 -1.8494 0.9555
-6.7231 8.9901 -1.8494 0.9555
-7.0418 8.7427 -1.8494 0.9555
-7.6921 8.2580 -1.8592 0.9553
-9.1779 7.9373 -1.9990 0.9520
-9.9918 6.9126 -2.0016 0.9519
-10.2337 6.5491 -2.0016 0.9519
-11.2395 4.6145 -2.0016 0.9519
-11.3980 4.2076 -2.0016 0.9519
-11.7846 2.9566 -2.0016 0.9519
-11.8833 2.5313 -2.0016 0.9519
-12.0344 1.6713 -2.0016 0.9519
-12.0867 1.2378 -2.0016 0.9519
-12.1233 0.8027 -2.0016 0.9519
-12.1443 0.3665 -2.0016 0.9519
-12.1393 -0.5066 -2.0016 0.9519
-12.0143 -1.8100 -2.0016 0.9519
-10.9971 -2.4755 -1.8570 0.9553
-10.9010 -2.8690 -1.8570 0.9553
-10.6668 -3.6445 -1.8570 0.9553
-10.3775 -4.4012 -1.8570 0.9553
-10.2127 -4.7712 -1.8570 0.9553
-9.8436 -5.4924 -1.8570 0.9553
-10.1575 -6.6667 -2.0016 0.9519
-9.3811 -7.7210 -2.0016 0.9519
-9.0976 -8.0531 -2.0016 0.9519
-8.4957 -8.6857 -2.0016 0.9519
-7.8500 -9.2735 -2.0016 0.9519
-7.5117 -9.5495 -2.0016 0.9519
-7.1637 -9.8133 -2.0016 0.9519
-6.8065 -10.0644 -2.0016 0.9519
-6.4404 -10.3024 -2.0016 0.9519
-6.0661 -10.5272 -2.0016 0.9519
-5.2944 -10.9357 -2.0016 0.9519
-4.8980 -11.1189 -2.0016 0.9519
-4.4953 -11.2877 -2.0016 0.9519
-3.6730 -11.5814 -2.0016 0.9519
-3.2545 -11.7059 -2.0016 0.9519
-2.4054 -11.9094 -2.0016 0.9519
-0.2380 -12.1475 -2.0016 0.9519
0.6350 -12.1333 -2.0016 0.9519
1.0706 -12.1026 -2.0016 0.9519
1.5048 -12.0563 -2.0016 0.9519
1.9370 -11.9945 -2.0016 0.9519
2.3667 -11.9171 -2.0016 0.9519
4.0496 -11.4551 -2.0016 0.9519
4.4587 -11.3022 -2.0016 0.9519
4.8619 -11.1347 -2.0016 0.9519
2.2123 -4.2126 -0.7839 0.9809
6.0319 -10.5468 -2.0016 0.9519
6.4070 -10.3233 -2.0016 0.9519
6.7738 -10.0864 -2.0016 0.9519
7.1318 -9.8365 -2.0016 0.9519
7.4807 -9.5739 -2.0016 0.9519
7.8198 -9.2989 -2.0016 0.9519
8.7751 -8.4034 -2.0016 0.9519
9.0714 -8.0826 -2.0016 0.9519
9.6285 -7.4103 -2.0016 0.9519
9.8885 -7.0595 -2.0016 0.9519
10.1358 -6.6996 -2.0016 0.9519
10.5908 -5.9544 -2.0016 0.9519
11.1700 -4.7801 -2.0016 0.9519
11.4845 -3.9656 -2.0016 0.9519
11.7396 -3.1305 -2.0016 0.9519
11.9342 -2.2793 -2.0016 0.9519
12.0084 -1.8490 -2.0016 0.9519
12.1455 0.3271 -2.0016 0.9519
10.1678 3.1643 -2.0016 0.9576
9.9143 3.8863 -2.0016 0.9576
9.7683 4.2401 -2.0016 0.9576
9.6096 4.5883 -2.0016 0.9576
9.4385 4.9307 -2.0016 0.9576
8.8531 5.9177 -2.0016 0.9576
8.6348 6.2320 -2.0016 0.9576
8.4053 6.5383 -2.0016 0.9576
7.9140 7.1250 -2.0016 0.9576
7.6529 7.4048 -2.0016 0.9576
7.3818 7.6750 -2.0016 0.9576
7.1013 7.9353 -2.0016 0.9576
6.8116 8.1853 -2.0016 0.9576
6.2061 8.6534 -2.0016 0.9576
5.5686 9.0768 -2.0016 0.9576
5.2389 9.2710 -2.0016 0.9576
3.9268 9.1214 -1.8666 0.9604
3.2315 9.2933 -1.8494 0.9607
2.2127 9.5870 -1.8494 0.9607
1.5184 9.7212 -1.8494 0.9607
1.1681 9.7695 -1.8494 0.9607
0.8163 9.8052 -1.8494 0.9607
0.4635 9.8282 -1.8494 0.9607
0.1100 9.8385 -1.8494 0.9607
-0.2436 9.8361 -1.8494 0.9607
-0.5968 9.8210 -1.8494 0.9607
-0.9494 9.7932 -1.8494 0.9607
-1.1610 8.7059 -1.6509 0.9649
-1.9977 9.6341 -1.8494 0.9607
-3.0229 9.3632 -1.8494 0.9607
-6.0848 8.2456 -1.9262 0.9591
-6.5476 8.2360 -1.9776 0.9581
-6.9051 8.0723 -1.9967 0.9577
-7.2052 7.8348 -2.0007 0.9576
-8.0100 7.0170 -2.0016 0.9576
-8.2569 6.7246 -2.0016 0.9576
-8.7186 6.1142 -2.0016 0.9576
-8.9326 5.7970 -2.0016 0.9576
-9.1352 5.4723 -2.0016 0.9576
-9.5046 4.8021 -2.0016 0.9576
-9.6710 4.4574 -2.0016 0.9576
-9.9662 3.7514 -2.0016 0.9576
-10.2098 3.0259 -2.0016 0.9576
-10.3120 2.6571 -2.0016 0.9576
-10.6208 0.7712 -2.0016 0.9576
-10.6417 0.3891 -2.0016 0.9576
-10.6218 -0.7584 -2.0016 0.9576
-10.5877 -1.1395 -2.0016 0.9576
-10.5399 -1.5193 -2.0016 0.9576
-10.4785 -1.8970 -2.0016 0.9576
-10.1845 -2.2244 -1.9594 0.9585
-9.4757 -2.7959 -1.8570 0.9606
-9.3692 -3.1346 -1.8570 0.9606
-9.2505 -3.4692 -1.8570 0.9606
-8.9774 -4.1246 -1.8570 0.9606
-8.8234 -4.4445 -1.8570 0.9606
-8.4814 -5.0668 -1.8570 0.9606
