ply
format ascii 1.0
element vertex 1537
property float32 x
property float32 y
property float32 z
property float32 I
end_header
-27.7866 -22.3475 3.0186 0.8666
-25.8391 -22.3530 2.8922 0.8718
-22.3851 -22.3626 2.6785 0.8807
-20.8389 -22.3668 2.5879 0.8845
-17.6204 -21.8638 2.3771 0.8934
-14.1644 -22.0607 2.2193 0.9001
-13.1280 -22.1552 2.1800 0.9018
-12.3007 -22.5662 2.1757 0.9020
-11.1847 -22.3937 2.1190 0.9044
-9.2467 -22.3991 2.0514 0.9073
-8.3210 -22.4016 2.0230 0.9085
-6.5374 -22.4016 1.9755 0.9106
-5.6751 -22.4040 1.9565 0.9114
-4.8281 -22.4064 1.9403 0.9121
-3.9940 -22.4087 1.9269 0.9127
-3.1635 -22.3632 1.9120 0.9133
0.0648 -22.4200 1.8979 0.9139
33.4390 -35.4775 4.1271 0.8223
45.5471 13.0025 2.9372 0.8271
39.8837 12.9489 2.6003 0.8453
34.6461 14.0651 2.3187 0.8608
34.5988 15.5129 2.3513 0.8590
34.8172 23.8588 2.6173 0.8444
31.4845 25.0707 2.4957 0.8510
1.6851 22.8295 1.4195 0.9123
0.6003 15.8627 0.9844 0.9384
0.0267 13.5691 0.8414 0.9471
-0.4600 13.5705 0.8420 0.9470
-0.9480 13.5718 0.8436 0.9469
-1.2568 8.8259 0.5529 0.9649
-2.9387 13.5774 0.8614 0.9458
-3.9767 13.5802 0.8775 0.9449
-6.0480 14.6126 0.9807 0.9386
-6.9827 13.9485 0.9673 0.9394
-11.4099 17.7348 1.3077 0.9190
-12.3323 17.7373 1.3396 0.9171
-12.9905 17.3242 1.3427 0.9169
-13.0352 13.9653 1.1846 0.9263
-16.5113 14.2572 1.3528 0.9163
-19.7183 14.6983 1.5251 0.9061
-21.1712 8.6922 1.4192 0.9124
-25.3900 -22.3542 2.0977 0.8732
-23.6309 -22.3591 2.0173 0.8778
-21.9995 -22.3636 1.9453 0.8819
-20.4787 -22.3679 1.8806 0.8856
-14.9805 -18.9232 1.4966 0.9078
-10.9423 -22.3944 1.5456 0.9049
-9.9656 -22.3971 1.5201 0.9064
-9.0194 -22.3997 1.4974 0.9078
-8.0981 -22.3973 1.4769 0.9090
-6.3264 -22.4022 1.4435 0.9109
-5.4680 -22.4046 1.4301 0.9117
-3.7867 -22.3719 1.4070 0.9131
-2.1575 -22.4138 1.3963 0.9137
-1.3490 -22.4160 1.3925 0.9139
0.2601 -22.4205 1.3904 0.9141
32.9525 -36.9195 3.0687 0.8201
32.6123 -31.6487 2.8180 0.8335
32.8104 -27.5628 2.6572 0.8422
32.6295 -25.4729 2.5669 0.8471
43.8699 -3.9226 2.7312 0.8382
34.6108 15.1575 2.3430 0.8595
35.0418 16.8682 2.4116 0.8557
29.3501 15.4479 2.0567 0.8755
28.2911 16.2114 2.0220 0.8775
35.0554 21.7928 2.5596 0.8475
2.7118 22.8267 1.4254 0.9120
1.8852 22.8290 1.4204 0.9123
0.7387 15.8623 0.9847 0.9383
0.1450 13.5688 0.8415 0.9471
-0.3417 13.5702 0.8418 0.9471
-0.8292 13.5715 0.8431 0.9470
-1.3191 13.5729 0.8456 0.9468
-1.1792 8.8318 0.5525 0.9649
-2.3106 13.5756 0.8539 0.9463
-2.8150 13.5770 0.8598 0.9459
-3.3271 13.5784 0.8669 0.9455
-4.3805 13.5814 0.8849 0.9444
-6.2208 13.9463 0.9470 0.9406
-7.4635 13.9498 0.9811 0.9386
-10.2249 17.5665 1.2604 0.9218
-11.1923 17.7342 1.3004 0.9194
-12.9166 17.5420 1.3509 0.9164
-13.2089 16.6539 1.3181 0.9183
-13.2122 15.4838 1.2622 0.9217
-13.7600 13.9621 1.2156 0.9244
-17.6661 14.4363 1.4147 0.9126
-19.3067 14.6548 1.5030 0.9074
-20.9987 14.7835 1.5925 0.9022
-33.4478 -23.1601 2.5228 0.8496
-27.7866 -22.3475 2.2112 0.8668
-25.8391 -22.3530 2.1186 0.8720
-22.3851 -22.3626 1.9621 0.8809
-20.8389 -22.3668 1.8957 0.8847
-14.8991 -19.9076 1.5419 0.9052
-13.1734 -22.2317 1.6024 0.9016
-10.2000 -22.3964 1.5261 0.9061
-7.4178 -22.3991 1.4632 0.9098
-3.9873 -22.3713 1.4091 0.9130
-3.1591 -22.3318 1.3986 0.9136
-2.3547 -22.4132 1.3975 0.9136
-1.5451 -22.4155 1.3933 0.9139
-0.7393 -22.4177 1.3909 0.9140
0.0648 -22.4200 1.3903 0.9141
2.3160 -4.1911 0.2969 0.9810
32.6002 -37.1717 3.0659 0.8202
32.6141 -32.2068 2.8423 0.8322
46.0394 13.1430 1.8879 0.8256
36.1272 13.1786 1.5164 0.8573
35.1784 18.9086 1.5748 0.8522
2.5104 22.8272 0.9055 0.9122
0.6003 15.8627 0.6259 0.9384
-1.1083 15.8674 0.6272 0.9383
-1.6819 15.8690 0.6292 0.9381
-1.2566 8.8246 0.3515 0.9649
-2.8440 15.8723 0.6358 0.9375
-3.4358 15.8739 0.6404 0.9371
-4.6493 15.8773 0.6523 0.9359
-5.9155 15.8808 0.6682 0.9344
-6.0480 14.6126 0.6236 0.9387
-6.9827 13.9485 0.6151 0.9395
-7.6208 13.9502 0.6268 0.9383
-11.4099 17.7348 0.8315 0.9190
-12.9905 17.3242 0.8538 0.9170
-14.0026 13.9628 0.7797 0.9239
-17.1208 15.8898 0.9210 0.9107
-18.1917 13.5604 0.8947 0.9132
-19.6281 13.5644 0.9408 0.9089
-25.3900 -22.3542 1.3339 0.8733
-23.6309 -22.3591 1.2828 0.8779
-22.0534 -22.4184 1.2400 0.8817
-17.3479 -18.9482 1.0130 0.9023
-16.1142 -18.9200 0.9800 0.9053
-13.9571 -18.9916 0.9293 0.9100
-13.9613 -20.4985 0.9779 0.9055
-13.0042 -22.3886 1.0209 0.9015
-9.9656 -22.3971 0.9666 0.9065
-5.3486 -16.6350 0.6890 0.9324
-6.3264 -22.4022 0.9179 0.9110
-4.6459 -22.5112 0.9063 0.9121
-3.7867 -22.3719 0.8947 0.9132
-2.9714 -22.4115 0.8914 0.9135
-2.1744 -22.5893 0.8948 0.9132
0.2621 -22.5961 0.8910 0.9135
1.0649 -22.4227 0.8851 0.9141
2.1946 -4.2392 0.1882 0.9811
32.8862 -36.8452 1.9474 0.8206
32.6123 -31.6487 1.7919 0.8337
33.2289 -30.0106 1.7655 0.8359
32.8921 -27.6314 1.6939 0.8420
32.6295 -25.4729 1.6323 0.8473
37.1764 -26.9347 1.8102 0.8321
38.1820 -25.6278 1.8133 0.8319
43.8625 -3.9219 1.7364 0.8384
37.1210 13.1759 1.5532 0.8541
35.0334 13.8681 1.4857 0.8600
35.1773 18.5149 1.5675 0.8529
35.0604 23.5793 1.6660 0.8444
35.0656 25.4546 1.7086 0.8408
35.0711 27.4308 1.7556 0.8367
2.7118 22.8267 0.9064 0.9121
0.7387 15.8623 0.6261 0.9384
0.1695 15.8639 0.6256 0.9385
-1.1790 8.8303 0.3513 0.9650
-3.8899 15.8752 0.6445 0.9367
-4.4994 15.8768 0.6507 0.9361
-5.1215 15.8786 0.6579 0.9354
-5.7583 15.8803 0.6661 0.9346
-6.0470 14.9780 0.6369 0.9374
-7.4635 13.9498 0.6238 0.9386
-10.2249 17.5665 0.8015 0.9219
-11.1923 17.7342 0.8269 0.9195
-13.2122 15.4838 0.8026 0.9217
-12.9262 14.0926 0.7540 0.9263
-17.8636 13.5595 0.8843 0.9141
-20.8191 13.5677 0.9799 0.9053
-25.8391 -22.3530 1.3472 0.8722
-22.3851 -22.3626 1.2477 0.8810
-20.8389 -22.3668 1.2054 0.8848
-16.4001 -18.9193 0.9873 0.9046
-10.2000 -22.3964 0.9704 0.9062
-9.2694 -22.4540 0.9579 0.9073
-8.3210 -22.4016 0.9423 0.9088
-7.4178 -22.3991 0.9304 0.9099
-6.5535 -22.4565 0.9224 0.9106
-4.8506 -22.5106 0.9080 0.9119
-3.1591 -22.3318 0.8893 0.9137
0.0648 -22.4200 0.8840 0.9142
0.8760 -22.5978 0.8917 0.9134
32.6002 -37.1717 1.9495 0.8204
46.9347 13.3986 0.8245 0.8226
35.8907 14.5704 0.6543 0.8564
35.2970 17.3714 0.6645 0.8544
35.3381 22.3977 0.7067 0.8459
35.2038 28.0322 0.7602 0.8352
3.9608 15.3231 0.2673 0.9386
1.9562 13.3603 0.2281 0.9474
2.5104 22.8272 0.3879 0.9122
0.9405 12.7418 0.2158 0.9502
0.4719 12.4699 0.2108 0.9513
0.0313 15.8643 0.2680 0.9385
-1.2958 12.2259 0.2077 0.9520
-1.2564 8.8233 0.1505 0.9650
-2.2046 12.3037 0.2111 0.9512
-3.4358 15.8739 0.2743 0.9371
-4.0291 12.1290 0.2159 0.9502
-10.4311 17.5671 0.3451 0.9215
-10.0097 12.3969 0.2691 0.9382
-13.2129 15.2143 0.3404 0.9225
-12.3045 12.2695 0.2935 0.9328
-18.4062 15.8934 0.4108 0.9073
-19.8035 15.8972 0.4290 0.9034
-21.3324 15.9015 0.4494 0.8990
-33.2626 22.9867 0.6830 0.8507
-21.1666 8.6903 0.3865 0.9125
-27.3762 -22.4130 0.5976 0.8680
-23.6309 -22.3591 0.5495 0.8780
-22.0534 -22.4184 0.5312 0.8818
-13.0042 -22.3886 0.4374 0.9016
-12.0473 -22.5669 0.4321 0.9027
-9.9656 -22.3971 0.4141 0.9066
-9.0415 -22.4546 0.4089 0.9077
-8.0981 -22.3973 0.4023 0.9091
-5.3480 -16.6332 0.2951 0.9325
-6.3264 -22.4022 0.3932 0.9111
-5.4680 -22.4046 0.3896 0.9119
-4.6459 -22.5112 0.3883 0.9121
-3.7867 -22.3719 0.3833 0.9132
-2.9714 -22.4115 0.3819 0.9135
-0.5438 -22.4183 0.3788 0.9142
0.2621 -22.5961 0.3817 0.9136
1.0648 -22.4227 0.3792 0.9141
32.8828 -36.8414 0.8341 0.8207
32.6123 -31.6487 0.7676 0.8338
32.8892 -27.6290 0.7256 0.8421
37.1782 -26.9360 0.7755 0.8322
34.5519 -4.3427 0.5882 0.8700
32.9817 9.1054 0.5780 0.8721
42.5650 13.4107 0.7538 0.8365
37.6692 13.3705 0.6752 0.8522
35.2875 13.9687 0.6411 0.8591
36.0485 15.7871 0.6648 0.8543
35.6003 17.1370 0.6674 0.8538
35.1773 18.5149 0.6715 0.8530
35.3870 21.9989 0.7038 0.8465
35.2024 27.5335 0.7549 0.8363
4.6084 17.2082 0.3009 0.9312
2.6220 13.6372 0.2346 0.9460
2.7118 22.8267 0.3883 0.9121
0.5797 12.4482 0.2105 0.9514
-0.3995 15.8655 0.2681 0.9385
-0.9695 15.8671 0.2685 0.9384
-1.1788 8.8289 0.1505 0.9650
-2.1194 12.4521 0.2134 0.9507
-3.2912 15.8735 0.2738 0.9372
-3.8899 15.8752 0.2761 0.9367
-4.4994 15.8768 0.2787 0.9361
-4.0071 12.4236 0.2205 0.9491
-4.4610 12.3027 0.2211 0.9490
-6.2208 13.9463 0.2580 0.9407
-7.4635 13.9498 0.2672 0.9387
-11.1923 17.7342 0.3542 0.9195
-8.3487 12.2338 0.2502 0.9425
-12.9166 17.5420 0.3680 0.9165
-10.5357 12.3472 0.2742 0.9371
-12.9262 14.0926 0.3230 0.9264
-13.7600 13.9621 0.3311 0.9246
-19.4528 15.8963 0.4244 0.9044
-33.2614 23.4166 0.6871 0.8498
-33.4421 -23.1561 0.6871 0.8498
-27.7866 -22.3475 0.6023 0.8671
-24.2341 -22.5330 0.5590 0.8760
-16.5933 -22.1712 0.4678 0.8951
-14.1644 -22.0607 0.4428 0.9004
-13.1734 -22.2317 0.4365 0.9018
-10.2000 -22.3964 0.4157 0.9062
-8.3210 -22.4016 0.4037 0.9088
-7.4178 -22.3991 0.3986 0.9099
-6.5887 -22.5771 0.3973 0.9102
-4.0126 -22.5129 0.3863 0.9126
-3.1591 -22.3318 0.3810 0.9137
-1.5572 -22.5910 0.3825 0.9134
0.0648 -22.4200 0.3787 0.9142
0.8760 -22.5978 0.3820 0.9135
1.6759 -22.4244 0.3798 0.9140
32.6002 -37.1717 0.8352 0.8205
32.6141 -32.2068 0.7743 0.8325
36.6655 13.3750 -0.2197 0.8555
35.8907 14.5704 -0.2181 0.8565
36.0142 16.1475 -0.2222 0.8540
34.4726 21.8491 -0.2298 0.8494
35.2038 28.0322 -0.2534 0.8353
3.5037 13.5545 -0.0788 0.9455
2.4502 13.3705 -0.0765 0.9471
1.9113 13.0536 -0.0743 0.9486
1.3811 12.5584 -0.0711 0.9507
0.4704 12.4299 -0.0700 0.9515
-0.4149 12.2399 -0.0690 0.9522
-2.1937 12.2431 -0.0700 0.9515
-2.6968 12.4596 -0.0718 0.9503
-3.0526 12.0047 -0.0697 0.9517
-3.5505 12.1251 -0.0711 0.9507
-4.0331 12.1410 -0.0720 0.9501
-4.4265 11.8834 -0.0714 0.9505
-5.0199 12.1287 -0.0739 0.9488
-5.4898 12.0248 -0.0744 0.9485
-6.0876 12.1606 -0.0766 0.9471
-6.4906 11.8814 -0.0762 0.9473
-7.2351 12.1847 -0.0798 0.9449
-7.7204 12.0001 -0.0803 0.9445
-8.9016 11.8712 -0.0835 0.9424
-9.6764 11.9842 -0.0867 0.9402
-10.3206 11.8838 -0.0886 0.9390
-11.0940 11.8856 -0.0915 0.9370
-12.8809 11.9547 -0.0989 0.9321
-14.8245 11.9004 -0.1070 0.9268
-16.2234 12.0932 -0.1139 0.9222
-17.3247 11.9725 -0.1186 0.9192
-22.0317 11.9544 -0.1411 0.9046
-22.1718 -22.5388 -0.1780 0.8812
-20.4787 -22.3679 -0.1707 0.8858
-10.9423 -22.3944 -0.1403 0.9051
-9.9656 -22.3971 -0.1380 0.9066
-9.0900 -22.5751 -0.1370 0.9072
-6.3264 -22.4022 -0.1311 0.9111
-2.9714 -22.4115 -0.1273 0.9135
-2.1744 -22.5893 -0.1278 0.9132
-0.5438 -22.4183 -0.1263 0.9142
32.8794 -36.8375 -0.2780 0.8208
32.8864 -27.6266 -0.2418 0.8421
32.6295 -25.4729 -0.2331 0.8474
43.8477 -3.9206 -0.2479 0.8385
32.9138 9.0867 -0.1922 0.8723
42.5650 13.4107 -0.2513 0.8365
37.6692 13.3705 -0.2252 0.8522
35.2875 13.9687 -0.2137 0.8592
36.0485 15.7871 -0.2216 0.8543
35.6003 17.1370 -0.2225 0.8538
34.4722 21.4302 -0.2285 0.8501
35.1916 23.6675 -0.2388 0.8440
35.1969 25.5498 -0.2449 0.8403
35.2024 27.5335 -0.2516 0.8363
3.7011 13.8202 -0.0806 0.9444
2.5055 13.0313 -0.0747 0.9483
2.0084 12.9300 -0.0737 0.9490
1.5143 12.7464 -0.0723 0.9500
0.5770 12.3893 -0.0698 0.9516
0.1286 12.0408 -0.0678 0.9530
-0.7572 12.3926 -0.0699 0.9515
-2.0570 12.0853 -0.0690 0.9521
-2.9872 12.1911 -0.0707 0.9510
-3.4507 12.1764 -0.0713 0.9506
-3.9491 12.2439 -0.0724 0.9498
-4.8676 12.0568 -0.0732 0.9493
-6.0017 12.2544 -0.0768 0.9469
-7.6105 12.0588 -0.0803 0.9446
-8.7284 11.8541 -0.0829 0.9428
-13.8255 12.1499 -0.1036 0.9290
-18.2930 11.9214 -0.1229 0.9164
-19.8774 11.9613 -0.1306 0.9114
-23.7706 12.0746 -0.1501 0.8988
-26.3431 12.2139 -0.1635 0.8903
-33.4383 -23.1535 -0.2289 0.8499
-27.7866 -22.3475 -0.2008 0.8671
-25.8391 -22.3530 -0.1924 0.8723
-22.3851 -22.3626 -0.1781 0.8811
-20.8389 -22.3668 -0.1721 0.8849
-17.6903 -21.9505 -0.1587 0.8934
-16.5933 -22.1712 -0.1559 0.8951
-15.6526 -22.5569 -0.1546 0.8960
-14.1644 -22.0607 -0.1476 0.9004
-13.1734 -22.2317 -0.1455 0.9018
-12.3007 -22.5662 -0.1447 0.9023
-11.1847 -22.3937 -0.1409 0.9047
-10.2000 -22.3964 -0.1386 0.9062
-7.4178 -22.3991 -0.1328 0.9099
-6.5887 -22.5771 -0.1324 0.9102
-5.6751 -22.4040 -0.1301 0.9117
-4.0126 -22.5129 -0.1287 0.9126
-3.1591 -22.3318 -0.1270 0.9137
-2.3685 -22.5446 -0.1276 0.9133
-1.5572 -22.5910 -0.1275 0.9134
-0.7393 -22.4177 -0.1263 0.9142
0.0648 -22.4200 -0.1262 0.9142
1.6759 -22.4244 -0.1266 0.9140
32.6002 -37.1717 -0.2784 0.8206
33.9541 -36.0241 -0.2787 0.8204
32.6141 -32.2068 -0.2581 0.8325
36.1167 13.1748 -1.0825 0.8574
35.7914 14.5301 -1.0877 0.8568
36.0495 16.1633 -1.1124 0.8538
35.0467 17.2482 -1.0999 0.8553
29.8568 17.4558 -0.9738 0.8708
34.9715 23.9645 -1.1937 0.8440
2.9344 13.3037 -0.3836 0.9469
2.4179 13.1941 -0.3777 0.9477
0.9129 12.3675 -0.3492 0.9516
0.4632 12.2396 -0.3449 0.9522
0.0240 12.1697 -0.3427 0.9525
-0.4096 12.0852 -0.3405 0.9528
-2.1402 11.9446 -0.3417 0.9526
-3.9126 11.7784 -0.3495 0.9515
-5.5040 12.0560 -0.3732 0.9483
-6.4734 11.8499 -0.3802 0.9474
-7.1037 11.9634 -0.3918 0.9458
-8.9323 11.9122 -0.4192 0.9422
-11.0356 11.8230 -0.4554 0.9373
-11.8729 11.8392 -0.4721 0.9351
-12.9299 12.0002 -0.4967 0.9318
-13.8929 11.9962 -0.5168 0.9292
-14.7735 11.8594 -0.5334 0.9270
-17.0721 11.7980 -0.5843 0.9203
-18.4629 11.8043 -0.6170 0.9160
-20.1302 11.8758 -0.6581 0.9107
-27.9986 12.6863 -0.8655 0.8843
-27.2613 -22.3190 -0.9921 0.8685
-23.5430 -22.2759 -0.9126 0.8784
-21.8956 -22.2580 -0.8792 0.8826
-14.1359 -19.2348 -0.6721 0.9089
-12.9068 -22.2209 -0.7236 0.9023
-10.8665 -22.2392 -0.6970 0.9057
-8.0640 -22.3031 -0.6678 0.9095
-6.3082 -22.3378 -0.6536 0.9113
-5.4552 -22.3521 -0.6479 0.9120
-4.6459 -22.5112 -0.6472 0.9121
-2.9678 -22.3843 -0.6358 0.9136
-0.5434 -22.4012 -0.6310 0.9142
0.2599 -22.4036 -0.6309 0.9142
1.0640 -22.4044 -0.6316 0.9142
32.8166 -36.7673 -1.3877 0.8210
32.6123 -31.6487 -1.2796 0.8337
32.8289 -27.5783 -1.2073 0.8423
32.6295 -25.4729 -1.1656 0.8473
37.1277 -26.8994 -1.2910 0.8324
38.1820 -25.6278 -1.2948 0.8319
43.7420 -3.9111 -1.2366 0.8388
32.9805 9.1051 -0.9634 0.8720
41.7785 13.1629 -1.2334 0.8392
35.2336 12.5060 -1.0527 0.8610
35.5538 17.1147 -1.1111 0.8539
33.6076 17.6887 -1.0694 0.8590
30.0991 17.2474 -0.9768 0.8704
34.2864 24.8889 -1.1930 0.8441
34.9809 27.3603 -1.2505 0.8372
5.2838 17.2327 -0.5075 0.9304
2.5262 13.1387 -0.3767 0.9479
1.4937 12.5732 -0.3565 0.9506
0.1284 12.0231 -0.3386 0.9530
-0.3015 11.9739 -0.3373 0.9532
-2.0293 11.9228 -0.3405 0.9528
-2.4528 11.8300 -0.3402 0.9528
-2.9381 11.9905 -0.3476 0.9518
-3.4158 12.0534 -0.3528 0.9511
-6.3496 11.8678 -0.3790 0.9476
-7.0420 12.0982 -0.3942 0.9455
-7.4626 11.8245 -0.3937 0.9456
-10.9357 11.9225 -0.4555 0.9373
-11.7988 11.9721 -0.4733 0.9349
-12.5691 11.8708 -0.4868 0.9332
-14.5934 11.9253 -0.5307 0.9274
-15.5630 11.8131 -0.5502 0.9248
-16.9215 11.9130 -0.5827 0.9205
-18.4137 12.0001 -0.6189 0.9158
-19.6325 11.8139 -0.6452 0.9124
-21.3357 11.8184 -0.6868 0.9070
-25.6547 11.8947 -0.7962 0.8930
-33.3798 -23.1130 -1.1432 0.8500
-23.9626 -22.2806 -0.9213 0.8773
-17.6903 -21.9505 -0.7938 0.8933
-15.6526 -22.5569 -0.7731 0.8960
-12.1137 -22.2231 -0.7127 0.9037
-11.1043 -22.2327 -0.6998 0.9053
-10.1372 -22.2586 -0.6887 0.9068
-9.1984 -22.2820 -0.6788 0.9080
-8.2844 -22.3030 -0.6699 0.9092
-4.8506 -22.5106 -0.6484 0.9120
-4.0126 -22.5129 -0.6439 0.9126
-3.1635 -22.3632 -0.6360 0.9136
-2.3522 -22.3900 -0.6339 0.9139
-0.7387 -22.4004 -0.6311 0.9142
0.0647 -22.4032 -0.6308 0.9143
1.6744 -22.4039 -0.6326 0.9140
6.9351 -47.0627 -1.3395 0.8267
2.3160 -4.1910 -0.1348 0.9810
32.6002 -37.1717 -1.3922 0.8205
33.9045 -35.9715 -1.3919 0.8205
32.1810 -31.7792 -1.2735 0.8345
39.2749 3.8933 -2.0016 0.8538
38.8950 6.6972 -2.0016 0.8538
38.5370 8.0677 -1.9967 0.8541
33.2747 14.9192 -1.8494 0.8641
32.7185 16.1024 -1.8494 0.8641
29.6402 17.3292 -1.7412 0.8715
30.8008 19.5218 -1.8494 0.8641
30.0812 20.6134 -1.8494 0.8641
29.3229 21.6784 -1.8494 0.8641
28.1451 22.4116 -1.8246 0.8658
27.6944 23.7236 -1.8494 0.8641
27.0077 28.7070 -1.9989 0.8540
22.6578 32.3156 -2.0016 0.8538
21.4849 33.1071 -2.0016 0.8538
20.2843 33.8559 -2.0016 0.8538
16.5324 35.8379 -2.0016 0.8538
15.2371 36.4075 -2.0016 0.8538
13.9223 36.9303 -2.0016 0.8538
12.5895 37.4056 -2.0016 0.8538
4.7650 16.0376 -0.8485 0.9352
1.3890 12.6305 -0.6444 0.9504
-1.2497 11.7914 -0.6013 0.9536
-1.2559 8.8194 -0.4518 0.9649
-2.1277 11.8747 -0.6118 0.9528
-2.5556 11.8072 -0.6127 0.9528
-3.0308 11.9190 -0.6237 0.9519
-3.4516 11.7874 -0.6229 0.9520
-3.9739 11.9630 -0.6393 0.9508
-5.3690 11.7603 -0.6556 0.9495
-5.8789 11.7437 -0.6660 0.9488
-7.1360 12.0177 -0.7088 0.9456
-9.5064 11.7737 -0.7674 0.9412
-11.0170 11.8030 -0.8188 0.9374
-13.7717 11.8916 -0.9228 0.9297
-14.7863 11.8697 -0.9616 0.9269
-16.0356 11.9532 -1.0143 0.9230
-17.1259 11.8352 -1.0557 0.9200
-20.1433 11.8836 -1.1861 0.9106
-21.8661 11.8645 -1.2616 0.9052
-23.2600 11.5615 -1.3173 0.9012
-21.1191 8.6708 -1.1578 0.9126
-37.4902 12.3354 -2.0016 0.8538
-37.9083 10.9836 -2.0016 0.8538
-39.0889 5.4528 -2.0016 0.8538
-39.3791 2.6381 -2.0016 0.8538
-39.4484 1.2249 -2.0016 0.8538
-39.4669 -0.1900 -2.0016 0.8538
-39.4348 -1.6047 -2.0016 0.8538
-38.5166 -8.6107 -2.0016 0.8538
-38.1832 -9.9858 -2.0016 0.8538
-37.3696 -12.6958 -2.0016 0.8538
-34.5070 -19.1558 -2.0016 0.8538
-31.2281 -18.8307 -1.8494 0.8641
-30.5330 -19.9380 -1.8494 0.8641
-29.7986 -21.0197 -1.8494 0.8641
-29.0260 -22.0744 -1.8494 0.8641
-27.2979 -22.3489 -1.7892 0.8682
-25.3900 -22.3542 -1.7156 0.8733
-23.6309 -22.3591 -1.6498 0.8778
-19.0541 -22.3718 -1.4903 0.8890
-14.1359 -19.2348 -1.2106 0.9088
-13.7772 -21.8745 -1.3110 0.9016
-13.0042 -22.3886 -1.3131 0.9015
-11.9537 -22.3915 -1.2873 0.9033
-10.9423 -22.3944 -1.2640 0.9050
-9.9656 -22.3971 -1.2432 0.9065
-9.0194 -22.3997 -1.2246 0.9078
-8.0981 -22.3973 -1.2078 0.9090
-5.3463 -16.6278 -0.8858 0.9324
-6.3264 -22.4022 -1.1805 0.9110
-4.6459 -22.5112 -1.1657 0.9121
-3.7930 -22.4092 -1.1526 0.9130
-0.5438 -22.4183 -1.1373 0.9141
0.2601 -22.4205 -1.1371 0.9141
5.6303 -36.0290 -1.8494 0.8641
6.9182 -35.8040 -1.8494 0.8641
10.2447 -38.1146 -2.0016 0.8538
12.9491 -37.2827 -2.0016 0.8538
14.2772 -36.7945 -2.0016 0.8538
24.1037 -31.2520 -2.0016 0.8538
25.2085 -30.3679 -2.0016 0.8538
26.9770 -26.1799 -1.9064 0.8602
27.9216 -23.4558 -1.8494 0.8641
28.7445 -22.4399 -1.8494 0.8641
30.2783 -20.3228 -1.8494 0.8641
32.2851 -16.9548 -1.8494 0.8641
33.8930 -16.2769 -1.9068 0.8602
36.1446 -15.7897 -2.0003 0.8539
36.7101 -14.4929 -2.0016 0.8538
37.2060 -13.1676 -2.0016 0.8538
38.0538 -10.4681 -2.0016 0.8538
38.7061 -7.7148 -2.0016 0.8538
32.4739 -4.0815 -1.6598 0.8771
39.4614 -0.6894 -2.0016 0.8538
39.4607 0.7256 -2.0016 0.8538
39.1548 4.9577 -2.0016 0.8538
32.7537 9.0425 -1.7232 0.8728
30.9696 19.2528 -1.8494 0.8641
30.2596 20.3506 -1.8494 0.8641
27.2691 24.6735 -1.8650 0.8630
27.2675 26.5105 -1.9287 0.8587
26.2538 29.4688 -2.0016 0.8538
22.9384 32.1170 -2.0016 0.8538
19.3580 34.3940 -2.0016 0.8538
18.1126 35.0658 -2.0016 0.8538
5.2188 17.0204 -0.9028 0.9312
2.4827 12.9123 -0.6668 0.9487
1.9782 12.7352 -0.6536 0.9497
1.4986 12.6146 -0.6442 0.9504
1.0137 12.2756 -0.6247 0.9519
0.1270 11.8857 -0.6028 0.9535
-0.7362 12.0489 -0.6122 0.9528
-2.0344 11.9525 -0.6149 0.9526
-2.4337 11.7376 -0.6079 0.9531
-2.9631 12.0929 -0.6314 0.9514
-3.7866 11.7399 -0.6256 0.9518
-4.2782 11.7986 -0.6365 0.9510
-4.8813 12.0907 -0.6613 0.9491
-6.3448 11.8588 -0.6821 0.9476
-8.0732 11.8300 -0.7263 0.9443
-8.7210 11.8440 -0.7459 0.9428
-9.3733 11.8179 -0.7650 0.9414
-10.0788 11.8118 -0.7875 0.9397
-11.8097 11.9831 -0.8532 0.9348
-12.6442 11.9417 -0.8820 0.9327
-13.5123 11.8747 -0.9123 0.9305
-19.6189 11.8058 -1.1612 0.9124
-21.3706 11.8378 -1.2390 0.9068
-23.1175 11.7429 -1.3150 0.9014
-33.6119 14.1432 -1.8494 0.8641
-38.5245 8.5753 -2.0016 0.8538
-38.8072 7.1888 -2.0016 0.8538
-39.0399 5.7931 -2.0016 0.8538
-39.2225 4.3899 -2.0016 0.8538
-39.4362 1.5685 -2.0016 0.8538
-39.4671 0.1538 -2.0016 0.8538
-39.3767 -2.6743 -2.0016 0.8538
-30.0895 -4.2255 -1.5409 0.8854
-38.5902 -8.2748 -2.0016 0.8538
-38.2688 -9.6528 -2.0016 0.8538
-37.8982 -11.0184 -2.0016 0.8538
-37.0113 -13.7053 -2.0016 0.8538
-36.4963 -15.0232 -2.0016 0.8538
-35.9343 -16.3219 -2.0016 0.8538
-33.9744 -20.0852 -2.0016 0.8538
-30.7055 -19.6713 -1.8494 0.8641
-29.9806 -20.7594 -1.8494 0.8641
-25.8391 -22.3530 -1.7327 0.8721
-24.0458 -22.3579 -1.6652 0.8768
-22.3851 -22.3626 -1.6047 0.8810
-19.3921 -22.3709 -1.5014 0.8882
-17.6903 -21.9505 -1.4298 0.8932
-16.5933 -22.1712 -1.4044 0.8950
-15.6526 -22.5569 -1.3924 0.8959
-14.1213 -21.9936 -1.3255 0.9006
-10.2000 -22.3964 -1.2481 0.9061
-9.2467 -22.3991 -1.2289 0.9075
-8.3210 -22.4016 -1.2119 0.9087
-5.6751 -22.4040 -1.1721 0.9116
-4.8506 -22.5106 -1.1678 0.9119
-3.1635 -22.3632 -1.1454 0.9135
-1.5451 -22.4155 -1.1395 0.9139
0.0648 -22.4200 -1.1370 0.9141
1.6759 -22.4244 -1.1404 0.9139
4.0196 -36.2441 -1.8494 0.8641
7.8873 -35.6031 -1.8494 0.8641
11.2753 -37.8225 -2.0016 0.8538
16.5653 -35.8227 -2.0016 0.8538
17.8388 -35.2059 -2.0016 0.8538
2.3160 -4.1909 -0.2428 0.9810
20.3153 -33.8373 -2.0016 0.8538
23.8305 -31.4608 -2.0016 0.8538
24.9430 -30.5864 -2.0016 0.8538
26.0234 -29.6725 -2.0016 0.8538
27.0510 3.6649 -2.0016 0.8963
26.9023 4.6322 -2.0016 0.8963
26.7189 5.5936 -2.0016 0.8963
26.2495 7.4935 -2.0016 0.8963
25.6452 9.3550 -2.0016 0.8963
24.9090 11.1683 -2.0016 0.8963
24.0448 12.9243 -2.0016 0.8963
23.5661 13.7779 -2.0016 0.8963
23.0570 14.6138 -2.0016 0.8963
21.9508 16.2282 -2.0016 0.8963
19.4060 19.1989 -2.0016 0.8963
17.9806 20.5400 -2.0016 0.8963
17.2327 21.1713 -2.0016 0.8963
15.6716 22.3515 -2.0016 0.8963
14.8603 22.8990 -2.0016 0.8963
14.0299 23.4169 -2.0016 0.8963
13.1815 23.9048 -2.0016 0.8963
12.3161 24.3619 -2.0016 0.8963
4.7657 16.0403 -1.2269 0.9351
2.3854 13.0169 -0.9703 0.9483
1.8719 12.7843 -0.9474 0.9495
1.3879 12.6203 -0.9309 0.9504
0.9071 12.2891 -0.9035 0.9518
0.4557 12.0410 -0.8835 0.9528
0.0235 11.9025 -0.8727 0.9534
-2.1277 11.8744 -0.8845 0.9528
-4.0028 12.0499 -0.9310 0.9503
-4.9121 11.8682 -0.9418 0.9498
-5.9821 11.9497 -0.9798 0.9478
-6.4827 11.8668 -0.9915 0.9472
-7.6202 11.8444 -1.0327 0.9451
-8.2284 11.8348 -1.0569 0.9438
-8.8679 11.8263 -1.0838 0.9424
-11.9717 11.9377 -1.2396 0.9344
-12.9515 12.0202 -1.2956 0.9316
-14.3296 11.5030 -1.3473 0.9290
-15.4415 11.5103 -1.4121 0.9257
-19.5563 11.5373 -1.6648 0.9130
-22.5862 11.2266 -1.8494 0.9038
-21.0496 8.6422 -1.6684 0.9128
-26.4753 6.6522 -2.0016 0.8963
-27.0364 3.7715 -2.0016 0.8963
-27.1542 2.7999 -2.0016 0.8963
-27.2850 0.8472 -2.0016 0.8963
-25.1666 -2.8401 -1.8570 0.9034
-26.4100 -6.9068 -2.0016 0.8963
-26.1454 -7.8491 -2.0016 0.8963
-25.1517 -10.6105 -2.0016 0.8963
-24.3268 -12.3853 -2.0016 0.8963
-23.8672 -13.2494 -2.0016 0.8963
-23.3769 -14.0964 -2.0016 0.8963
-22.8566 -14.9254 -2.0016 0.8963
-22.3038 -15.7329 -2.0013 0.8963
-21.2658 -16.1727 -1.9589 0.8984
-19.7733 -16.1885 -1.8737 0.9026
-18.3211 -17.3351 -1.8494 0.9038
-17.0320 -18.6032 -1.8494 0.9038
-16.3542 -19.2018 -1.8494 0.9038
-14.1359 -19.2348 -1.7502 0.9087
-14.1983 -20.8465 -1.8494 0.9038
-13.4419 -21.3421 -1.8494 0.9038
-11.8783 -22.2503 -1.8494 0.9038
-9.9656 -22.3971 -1.7974 0.9064
-9.0194 -22.3997 -1.7705 0.9077
-8.0981 -22.3973 -1.7463 0.9089
-6.3264 -22.4022 -1.7068 0.9109
-5.4680 -22.4046 -1.6910 0.9117
-2.1575 -22.4138 -1.6510 0.9136
-1.3490 -22.4160 -1.6466 0.9139
0.2000 -17.2351 -1.2638 0.9332
2.0988 -25.1349 -1.8494 0.9038
2.9985 -25.0435 -1.8494 0.9038
4.7852 -24.7643 -1.8494 0.9038
7.4160 -24.1075 -1.8494 0.9038
9.8751 -25.4494 -2.0016 0.8963
2.1946 -4.2391 -0.3500 0.9810
13.4110 -23.7768 -2.0016 0.8963
14.2547 -23.2807 -2.0016 0.8963
15.8861 -22.1996 -2.0016 0.8963
16.6717 -21.6159 -2.0016 0.8963
18.1775 -20.3658 -2.0016 0.8963
18.8959 -19.7012 -2.0016 0.8963
19.5900 -19.0111 -2.0016 0.8963
22.1060 -16.0161 -2.0016 0.8963
22.6659 -15.2134 -2.0016 0.8963
23.6977 -13.5503 -2.0016 0.8963
24.1682 -12.6921 -2.0016 0.8963
25.0154 -10.9279 -2.0016 0.8963
27.0851 -3.4042 -2.0016 0.8963
27.1897 -2.4311 -2.0016 0.8963
27.2594 -1.4549 -2.0016 0.8963
27.2936 0.5019 -2.0016 0.8963
27.2580 1.4799 -2.0016 0.8963
26.9416 4.3977 -2.0016 0.8963
26.7667 5.3606 -2.0016 0.8963
26.3138 7.2646 -2.0016 0.8963
26.0365 8.2032 -2.0016 0.8963
25.3818 10.0475 -2.0016 0.8963
25.0054 10.9509 -2.0016 0.8963
24.5967 11.8402 -2.0016 0.8963
23.1835 14.4124 -2.0016 0.8963
22.6519 15.2342 -2.0016 0.8963
22.0913 16.0364 -2.0016 0.8963
20.8855 17.5779 -2.0016 0.8963
20.2420 18.3153 -2.0016 0.8963
18.8778 19.7185 -2.0016 0.8963
17.4165 21.0204 -2.0016 0.8963
13.3892 23.7891 -2.0016 0.8963
11.6504 24.6872 -2.0016 0.8963
9.8517 25.4585 -2.0016 0.8963
8.2535 23.8338 -1.8494 0.9038
3.6336 13.5681 -1.0299 0.9452
2.5033 13.0198 -0.9721 0.9482
1.5016 12.6398 -0.9333 0.9502
-0.7270 11.8976 -0.8740 0.9533
-1.1782 8.8242 -0.6528 0.9649
-2.5149 12.1295 -0.9083 0.9515
-2.9400 11.9986 -0.9058 0.9517
-3.3644 11.8720 -0.9048 0.9517
-5.2416 11.7512 -0.9435 0.9497
-6.3481 11.8650 -0.9867 0.9475
-6.9752 11.9834 -1.0167 0.9459
-7.4642 11.8270 -1.0254 0.9455
-8.7602 11.8972 -1.0833 0.9425
-9.3796 11.8258 -1.1067 0.9413
-10.1947 11.9476 -1.1516 0.9390
-10.9266 11.9126 -1.1852 0.9372
-13.6050 11.9561 -1.3280 0.9299
-14.0746 11.5013 -1.3327 0.9297
-16.3580 11.5163 -1.4668 0.9229
-20.8433 11.5457 -1.7471 0.9089
-22.4875 11.4229 -1.8494 0.9038
-21.0326 8.8501 -1.6731 0.9125
-24.3656 8.2530 -1.8862 0.9020
-26.1453 7.8229 -2.0010 0.8963
-26.6460 5.9312 -2.0016 0.8963
-26.8415 4.9723 -2.0016 0.8963
-27.0025 4.0069 -2.0016 0.8963
-27.1288 3.0363 -2.0016 0.8963
-27.2980 0.1064 -2.0016 0.8963
-27.2354 -1.8497 -2.0016 0.8963
-25.1904 -2.6208 -1.8570 0.9034
-25.0802 -3.5221 -1.8570 0.9034
-24.9379 -4.4189 -1.8570 0.9034
-26.4691 -6.6765 -2.0016 0.8963
-25.5994 -9.4795 -2.0016 0.8963
-25.2432 -10.3910 -2.0016 0.8963
-24.4338 -12.1729 -2.0016 0.8963
-23.9817 -13.0410 -2.0016 0.8963
-22.9857 -14.7257 -2.0016 0.8963
-21.6492 -16.1686 -1.9812 0.8973
-20.1239 -16.1848 -1.8935 0.9016
-18.4714 -17.1749 -1.8494 0.9038
-17.8439 -17.8260 -1.8494 0.9038
-17.1935 -18.4541 -1.8494 0.9038
-15.1129 -20.1933 -1.8494 0.9038
-12.0716 -22.1460 -1.8494 0.9038
-11.1847 -22.3937 -1.8354 0.9045
-10.2000 -22.3964 -1.8044 0.9060
-9.2467 -22.3991 -1.7768 0.9074
-6.5375 -22.4016 -1.7110 0.9107
-3.9661 -22.2523 -1.6573 0.9133
-2.3547 -22.4132 -1.6524 0.9136
-1.5451 -22.4155 -1.6475 0.9138
-0.7393 -22.4177 -1.6446 0.9140
1.6759 -22.4244 -1.6488 0.9138
3.6772 -24.9529 -1.8494 0.9038
4.5693 -24.8051 -1.8494 0.9038
8.7315 -25.8641 -2.0016 0.8963
11.4576 -24.7773 -2.0016 0.8963
12.3385 -24.3506 -2.0016 0.8963
2.3159 -4.1909 -0.3511 0.9810
14.0514 -23.4040 -2.0016 0.8963
17.2521 -21.1555 -2.0016 0.8963
17.9994 -20.5234 -2.0016 0.8963
18.7236 -19.8650 -2.0016 0.8963
20.7468 2.0566 -2.0016 0.9196
20.5461 3.5378 -2.0016 0.9196
20.0476 5.7231 -2.0016 0.9196
19.8296 6.4380 -2.0016 0.9196
19.5860 7.1447 -2.0016 0.9196
19.0238 8.5296 -2.0016 0.9196
18.3638 9.8707 -2.0016 0.9196
17.1980 11.7851 -2.0016 0.9196
16.7645 12.3940 -2.0016 0.9196
16.3095 12.9870 -2.0016 0.9196
15.8334 13.5633 -2.0016 0.9196
15.3371 14.1221 -2.0016 0.9196
14.2858 15.1847 -2.0016 0.9196
11.3493 17.4887 -2.0016 0.9196
10.7151 17.8843 -2.0016 0.9196
10.0671 18.2569 -2.0016 0.9196
7.6603 16.6054 -1.7557 0.9292
4.5968 15.4717 -1.5495 0.9372
3.4327 13.2803 -1.3169 0.9464
2.8907 13.1055 -1.2884 0.9475
2.4316 13.2693 -1.2951 0.9472
0.9058 12.2712 -1.1813 0.9518
0.0239 12.1238 -1.1639 0.9524
-0.4057 11.9689 -1.1497 0.9530
-0.8315 11.9037 -1.1456 0.9532
-1.2528 11.8205 -1.1412 0.9534
-1.2555 8.8168 -0.8550 0.9648
-2.1117 11.7852 -1.1495 0.9530
-3.9850 11.9963 -1.2136 0.9505
-4.8942 11.8250 -1.2287 0.9499
-5.9208 11.8273 -1.2698 0.9482
-6.5605 12.0093 -1.3138 0.9465
-6.9931 11.7771 -1.3150 0.9464
-7.9688 11.4613 -1.3402 0.9455
-8.5973 11.4654 -1.3758 0.9440
-9.2611 11.4698 -1.4153 0.9425
-9.9650 11.4744 -1.4590 0.9408
-10.7148 11.4793 -1.5076 0.9388
-11.5173 11.4846 -1.5615 0.9367
-12.3804 11.4902 -1.6216 0.9344
-13.3140 11.4964 -1.6888 0.9318
-14.3296 11.5030 -1.7641 0.9288
-16.5911 9.7880 -1.8494 0.9255
-18.2010 8.2470 -1.9184 0.9228
-19.2656 7.9098 -1.9994 0.9197
-19.5577 7.2218 -2.0016 0.9196
-19.8041 6.5161 -2.0016 0.9196
-20.3891 4.3524 -2.0016 0.9196
-20.5320 3.6187 -2.0016 0.9196
-20.6486 2.8804 -2.0016 0.9196
-20.7385 2.1384 -2.0016 0.9196
-20.8019 1.3936 -2.0016 0.9196
-20.8483 -0.1004 -2.0016 0.9196
-20.8312 -0.8477 -2.0016 0.9196
-20.7875 -1.5938 -2.0016 0.9196
-20.6199 -3.0791 -2.0016 0.9196
-20.1701 -5.2750 -2.0016 0.9196
-18.5792 -9.4591 -2.0016 0.9196
-17.8537 -10.7659 -2.0016 0.9196
-17.4563 -11.3990 -2.0016 0.9196
-17.0365 -12.0174 -2.0016 0.9196
-16.5948 -12.6204 -2.0016 0.9196
-15.6479 -13.7769 -2.0016 0.9196
-15.1440 -14.3290 -2.0016 0.9196
-14.0785 -15.3772 -2.0016 0.9196
-13.5025 -15.8535 -1.9992 0.9197
-11.0250 -16.1873 -1.8803 0.9243
-10.2660 -16.2996 -1.8494 0.9255
-9.0718 -16.9933 -1.8494 0.9255
-8.4568 -17.3076 -1.8494 0.9255
-7.1951 -17.8690 -1.8494 0.9255
-6.5499 -18.1154 -1.8494 0.9255
-5.2352 -18.5381 -1.8494 0.9255
-1.1572 -19.2284 -1.8494 0.9255
1.6030 -19.1964 -1.8494 0.9255
4.3302 -18.7702 -1.8494 0.9255
6.1109 -19.8650 -1.9953 0.9199
6.8403 -19.6944 -2.0016 0.9196
7.5419 -19.4366 -2.0016 0.9196
8.2338 -19.1537 -2.0016 0.9196
2.1945 -4.2391 -0.4583 0.9810
10.2425 -18.1591 -2.0016 0.9196
12.7327 -16.5087 -2.0016 0.9196
14.9615 -14.5194 -2.0016 0.9196
15.4723 -13.9738 -2.0016 0.9196
16.8831 -12.2320 -2.0016 0.9196
17.3107 -11.6189 -2.0016 0.9196
17.7161 -10.9909 -2.0016 0.9196
18.0987 -10.3488 -2.0016 0.9196
19.6539 -6.9558 -2.0016 0.9196
20.4463 -4.0753 -2.0016 0.9196
20.5793 -3.3398 -2.0016 0.9196
20.6858 -2.5999 -2.0016 0.9196
20.8189 -1.1112 -2.0016 0.9196
20.8453 -0.3642 -2.0016 0.9196
20.8178 1.1303 -2.0016 0.9196
20.7639 1.8758 -2.0016 0.9196
20.5762 3.3587 -2.0016 0.9196
20.0967 5.5482 -2.0016 0.9196
19.6475 6.9738 -2.0016 0.9196
19.0974 8.3636 -2.0016 0.9196
18.4491 9.7103 -2.0016 0.9196
17.3000 11.6348 -2.0016 0.9196
16.4220 12.8444 -2.0016 0.9196
15.4595 13.9880 -2.0016 0.9196
14.9481 14.5332 -2.0016 0.9196
14.4176 15.0597 -2.0016 0.9196
13.3015 16.0539 -2.0016 0.9196
9.5679 18.5234 -2.0016 0.9196
7.5914 17.7042 -1.8494 0.9255
6.3035 18.2026 -1.8494 0.9255
5.3352 17.4002 -1.7473 0.9295
2.5376 13.1979 -1.2903 0.9474
1.5158 12.7596 -1.2336 0.9497
1.0119 12.2544 -1.1805 0.9518
0.5639 12.1097 -1.1638 0.9525
0.1282 11.9960 -1.1517 0.9529
-0.7410 12.1268 -1.1664 0.9524
-1.1520 11.8542 -1.1434 0.9533
-1.1781 8.8231 -0.8546 0.9649
-2.8977 11.8257 -1.1689 0.9523
-3.7932 11.7604 -1.1863 0.9516
-4.2970 11.8504 -1.2102 0.9506
-5.8321 11.9080 -1.2730 0.9481
-6.3767 11.9185 -1.2977 0.9471
-7.8209 11.4604 -1.3320 0.9458
-9.0963 11.4687 -1.4053 0.9429
-9.7900 11.4733 -1.4480 0.9412
-10.5281 11.4781 -1.4953 0.9393
-12.1647 11.4888 -1.6064 0.9350
-14.0746 11.5013 -1.7450 0.9296
-15.7512 11.0891 -1.8494 0.9255
-16.1386 10.5174 -1.8494 0.9255
-17.1745 8.7240 -1.8494 0.9255
-19.1705 8.0666 -1.9968 0.9198
-19.4941 7.3919 -2.0016 0.9196
-19.9736 5.9763 -2.0016 0.9196
-20.6227 3.0602 -2.0016 0.9196
-20.7889 1.5748 -2.0016 0.9196
-20.8483 0.0812 -2.0016 0.9196
-20.6459 -2.8994 -2.0016 0.9196
-20.2153 -5.0990 -2.0016 0.9196
-20.0196 -5.8204 -2.0016 0.9196
-19.7981 -6.5343 -2.0016 0.9196
-19.5511 -7.2398 -2.0016 0.9196
-19.2790 -7.9360 -2.0016 0.9196
-18.9821 -8.6220 -2.0016 0.9196
-18.6609 -9.2969 -2.0016 0.9196
-16.7041 -12.4753 -2.0016 0.9196
-16.2462 -13.0661 -2.0016 0.9196
-14.7495 -14.7347 -2.0016 0.9196
-13.6521 -15.7492 -2.0010 0.9197
-12.1065 -16.1763 -1.9398 0.9220
-11.2312 -16.1852 -1.8913 0.9239
-9.8199 -16.5723 -1.8494 0.9255
-9.2195 -16.9136 -1.8494 0.9255
-6.7075 -18.0577 -1.8494 0.9255
-4.7301 -18.6734 -1.8494 0.9255
-3.3801 -18.9643 -1.8494 0.9255
-2.6981 -19.0733 -1.8494 0.9255
0.0556 -19.2631 -1.8494 0.9255
1.4356 -19.2096 -1.8494 0.9255
2.1233 -19.1458 -1.8494 0.9255
2.8083 -19.0574 -1.8494 0.9255
3.4896 -18.9445 -1.8494 0.9255
4.1665 -18.8072 -1.8494 0.9255
4.8379 -18.6458 -1.8494 0.9255
5.8681 -19.6845 -1.9720 0.9208
8.0666 -19.2247 -2.0016 0.9196
8.7506 -18.9232 -2.0016 0.9196
9.4233 -18.5974 -2.0016 0.9196
2.3159 -4.1909 -0.4596 0.9809
10.7315 -17.8744 -2.0016 0.9196
11.3653 -17.4782 -2.0016 0.9196
11.9846 -17.0596 -2.0016 0.9196
12.5884 -16.6190 -2.0016 0.9196
13.7468 -15.6744 -2.0016 0.9196
16.7680 1.6622 -2.0016 0.9344
16.6058 2.8593 -2.0016 0.9344
16.4926 3.4527 -2.0016 0.9344
16.2029 4.6255 -2.0016 0.9344
16.0266 5.2033 -2.0016 0.9344
15.8298 5.7745 -2.0016 0.9344
15.6127 6.3382 -2.0016 0.9344
15.3754 6.8938 -2.0016 0.9344
14.5465 8.5046 -2.0016 0.9344
13.1816 10.4963 -2.0016 0.9344
12.3957 11.4138 -2.0016 0.9344
9.6735 13.7968 -2.0016 0.9344
7.5177 13.6335 -1.8494 0.9392
5.4920 14.5680 -1.8494 0.9392
4.9662 14.7555 -1.8494 0.9392
4.4341 14.9241 -1.8494 0.9392
3.4327 13.2803 -1.6294 0.9462
1.8392 12.5615 -1.5080 0.9501
1.3575 12.3442 -1.4752 0.9512
0.8958 12.1359 -1.4455 0.9522
0.4517 11.9356 -1.4188 0.9530
-0.7973 11.4143 -1.3592 0.9550
-1.2100 11.4170 -1.3638 0.9548
-1.2553 8.8155 -1.0577 0.9648
-2.4729 11.4253 -1.3886 0.9540
-3.3473 11.4310 -1.4149 0.9532
-4.2602 11.4370 -1.4497 0.9520
-6.8011 11.4537 -1.5823 0.9478
-7.3713 11.4574 -1.6183 0.9466
-7.9688 11.4613 -1.6582 0.9453
-8.5973 11.4654 -1.7023 0.9439
-9.2611 11.4698 -1.7511 0.9423
-9.9650 11.4744 -1.8052 0.9406
-11.7838 10.1751 -1.8494 0.9392
-12.1409 9.7461 -1.8494 0.9392
-12.4825 9.3046 -1.8494 0.9392
-12.8080 8.8512 -1.8494 0.9392
-13.9762 8.2453 -1.9276 0.9367
-14.7807 8.0200 -1.9976 0.9345
-15.0890 7.5001 -2.0016 0.9344
-15.3481 6.9543 -2.0016 0.9344
-16.0060 5.2665 -2.0016 0.9344
-16.1845 4.6893 -2.0016 0.9344
-16.3422 4.1062 -2.0016 0.9344
-16.4789 3.5177 -2.0016 0.9344
-16.5944 2.9247 -2.0016 0.9344
-16.8125 1.1263 -2.0016 0.9344
-16.8420 0.5229 -2.0016 0.9344
-16.8500 -0.0811 -2.0016 0.9344
-16.8362 -0.6851 -2.0016 0.9344
-16.7439 -1.8896 -2.0016 0.9344
-16.6654 -2.4886 -2.0016 0.9344
-16.5654 -3.0844 -2.0016 0.9344
-16.4442 -3.6762 -2.0016 0.9344
-16.3019 -4.2633 -2.0016 0.9344
-15.9545 -5.4203 -2.0016 0.9344
-15.2804 -7.1018 -2.0016 0.9344
-15.0160 -7.6450 -2.0016 0.9344
-14.4297 -8.7012 -2.0016 0.9344
-13.7692 -9.7127 -2.0016 0.9344
-13.0380 -10.6742 -2.0016 0.9344
-11.8167 -12.0123 -2.0016 0.9344
-11.3785 -12.4281 -2.0016 0.9344
-10.9256 -12.8280 -2.0016 0.9344
-9.4854 -13.9268 -2.0016 0.9344
-8.9800 -14.2579 -2.0016 0.9344
-8.4632 -14.5706 -2.0016 0.9344
-7.9354 -14.8646 -2.0016 0.9344
-7.3975 -15.1395 -2.0016 0.9344
-5.1452 -16.0025 -1.9967 0.9345
-3.3377 -16.1722 -1.9615 0.9356
-0.9744 -16.1911 -1.9268 0.9368
-0.3938 -16.2353 -1.9291 0.9367
1.3867 -16.6061 -1.9794 0.9351
2.6005 -16.6411 -2.0007 0.9344
3.1967 -16.5441 -2.0016 0.9344
3.7877 -16.4189 -2.0016 0.9344
4.3738 -16.2726 -2.0016 0.9344
4.9543 -16.1053 -2.0016 0.9344
6.0955 -15.7090 -2.0016 0.9344
6.6547 -15.4804 -2.0016 0.9344
7.2053 -15.2319 -2.0016 0.9344
2.1945 -4.2390 -0.5670 0.9810
9.8059 -13.7030 -2.0016 0.9344
10.2908 -13.3427 -2.0016 0.9344
12.5050 -11.2939 -2.0016 0.9344
13.2821 -10.3689 -2.0016 0.9344
13.9908 -9.3907 -2.0016 0.9344
14.6277 -8.3641 -2.0016 0.9344
14.9181 -7.8344 -2.0016 0.9344
15.1894 -7.2946 -2.0016 0.9344
15.6730 -6.1876 -2.0016 0.9344
15.8847 -5.6218 -2.0016 0.9344
16.0760 -5.0488 -2.0016 0.9344
16.2466 -4.4692 -2.0016 0.9344
16.5251 -3.2937 -2.0016 0.9344
16.6325 -2.6993 -2.0016 0.9344
16.6301 2.7145 -2.0016 0.9344
16.5221 3.3089 -2.0016 0.9344
16.3928 3.8990 -2.0016 0.9344
16.2425 4.4842 -2.0016 0.9344
14.9109 7.8481 -2.0016 0.9344
14.6200 8.3775 -2.0016 0.9344
14.3103 8.8962 -2.0016 0.9344
13.6361 9.8987 -2.0016 0.9344
13.2725 10.3811 -2.0016 0.9344
12.8919 10.8502 -2.0016 0.9344
12.4947 11.3054 -2.0016 0.9344
11.6526 12.1715 -2.0016 0.9344
11.2088 12.5814 -2.0016 0.9344
10.7506 12.9751 -2.0016 0.9344
9.7933 13.7120 -2.0016 0.9344
9.2955 14.0542 -2.0016 0.9344
6.1355 14.3089 -1.8494 0.9392
5.0946 14.7117 -1.8494 0.9392
2.4699 12.8460 -1.5539 0.9487
1.9596 12.6158 -1.5165 0.9499
1.0062 12.1858 -1.4524 0.9519
-2.3688 11.4246 -1.3859 0.9541
-2.8001 11.4274 -1.3976 0.9537
-4.1468 11.4363 -1.4450 0.9522
-5.1040 11.4425 -1.4883 0.9508
-6.1257 11.4492 -1.5424 0.9490
-7.2303 11.4565 -1.6092 0.9469
-8.4415 11.4644 -1.6912 0.9443
-9.0963 11.4687 -1.7388 0.9427
-9.7900 11.4733 -1.7916 0.9411
-10.9283 11.0888 -1.8494 0.9392
-11.3188 10.6899 -1.8494 0.9392
-11.6947 10.2773 -1.8494 0.9392
-12.4010 9.4130 -1.8494 0.9392
-12.7304 8.9624 -1.8494 0.9392
-13.0435 8.5003 -1.8494 0.9392
-15.2870 7.0878 -2.0016 0.9344
-15.7555 5.9743 -2.0016 0.9344
-16.1430 4.8301 -2.0016 0.9344
-16.3058 4.2483 -2.0016 0.9344
-16.6677 2.4733 -2.0016 0.9344
-16.6864 -2.3433 -2.0016 0.9344
-16.5917 -2.9400 -2.0016 0.9344
-16.4756 -3.5328 -2.0016 0.9344
-16.3384 -4.1211 -2.0016 0.9344
-16.1802 -4.7042 -2.0016 0.9344
-15.5817 -6.4140 -2.0016 0.9344
-15.3417 -6.9684 -2.0016 0.9344
-15.0821 -7.5139 -2.0016 0.9344
-14.5050 -8.5752 -2.0016 0.9344
-13.1305 -10.5603 -2.0016 0.9344
-11.9208 -11.9089 -2.0016 0.9344
-11.0370 -12.7323 -2.0016 0.9344
-10.5735 -13.1198 -2.0016 0.9344
-9.6063 -13.8436 -2.0016 0.9344
-8.0646 -14.7949 -2.0016 0.9344
-6.9839 -15.3347 -2.0016 0.9344
-6.4297 -15.5752 -2.0016 0.9344
-5.2863 -15.9625 -1.9974 0.9345
-4.7043 -16.1202 -1.9947 0.9346
-4.0956 -16.1686 -1.9813 0.9350
-2.8828 -16.1741 -1.9515 0.9360
-2.2883 -16.1761 -1.9406 0.9363
-1.6996 -16.1777 -1.9323 0.9366
1.2377 -16.5605 -1.9726 0.9353
1.8513 -16.6931 -1.9951 0.9346
3.6445 -16.4513 -2.0016 0.9344
4.8139 -16.1479 -2.0016 0.9344
5.3896 -15.9650 -2.0016 0.9344
5.9584 -15.7615 -2.0016 0.9344
6.5196 -15.5378 -2.0016 0.9344
7.0724 -15.2941 -2.0016 0.9344
7.6161 -15.0307 -2.0016 0.9344
9.1857 -14.1262 -2.0016 0.9344
10.1742 -13.4318 -2.0016 0.9344
11.9895 -11.8398 -2.0016 0.9344
14.0575 1.3935 -2.0016 0.9445
13.9985 1.8965 -2.0016 0.9445
13.9215 2.3971 -2.0016 0.9445
13.7140 3.3884 -2.0016 0.9445
13.5837 3.8778 -2.0016 0.9445
13.2710 4.8411 -2.0016 0.9445
13.0889 5.3137 -2.0016 0.9445
12.6746 6.2378 -2.0016 0.9445
12.4428 6.6881 -2.0016 0.9445
11.9317 7.5624 -2.0016 0.9445
11.3592 8.3979 -2.0016 0.9445
10.7283 9.1901 -2.0016 0.9445
10.0423 9.9352 -2.0016 0.9445
9.6797 10.2887 -2.0016 0.9445
9.3047 10.6291 -2.0016 0.9445
8.9177 10.9558 -2.0016 0.9445
8.5192 11.2685 -2.0016 0.9445
8.1098 11.5666 -2.0016 0.9445
7.6900 11.8499 -2.0016 0.9445
5.8887 11.6483 -1.8494 0.9486
5.0391 12.0403 -1.8494 0.9486
4.6042 12.2132 -1.8494 0.9486
3.7174 12.5117 -1.8494 0.9486
3.2665 12.6369 -1.8494 0.9486
2.3436 12.7890 -1.8422 0.9488
1.8392 12.5615 -1.7988 0.9500
1.3575 12.3442 -1.7596 0.9511
0.4517 11.9356 -1.6924 0.9529
-0.3917 11.5552 -1.6382 0.9544
-0.7973 11.4143 -1.6212 0.9548
-3.3473 11.4310 -1.6877 0.9530
-4.2602 11.4370 -1.7293 0.9519
-4.7350 11.4401 -1.7543 0.9512
-5.2243 11.4433 -1.7824 0.9504
-6.2550 11.4501 -1.8487 0.9487
-7.4510 10.7165 -1.8494 0.9486
-7.8303 10.4425 -1.8494 0.9486
-8.1996 10.1551 -1.8494 0.9486
-8.5584 9.8547 -1.8494 0.9486
-8.9061 9.5416 -1.8494 0.9486
-9.2424 9.2162 -1.8494 0.9486
-9.5669 8.8790 -1.8494 0.9486
-10.2849 8.2562 -1.8687 0.9481
-11.0549 8.2405 -1.9536 0.9458
-11.5985 8.0154 -1.9976 0.9446
-12.1669 7.1779 -2.0016 0.9445
-13.0679 5.3652 -2.0016 0.9445
-13.2518 4.8933 -2.0016 0.9445
-13.4187 4.4152 -2.0016 0.9445
-13.8151 2.9491 -2.0016 0.9445
-13.9120 2.4520 -2.0016 0.9445
-14.0519 1.4489 -2.0016 0.9445
-14.0948 0.9443 -2.0016 0.9445
-14.1196 0.4384 -2.0016 0.9445
-14.1262 -0.0680 -2.0016 0.9445
-14.0851 -1.0799 -2.0016 0.9445
-14.0373 -1.5841 -2.0016 0.9445
-13.9715 -2.0863 -2.0016 0.9445
-13.8877 -2.5858 -2.0016 0.9445
-12.7903 -2.8594 -1.8570 0.9484
-12.6796 -3.3160 -1.8570 0.9484
-12.5525 -3.7684 -1.8570 0.9484
-12.4094 -4.2159 -1.8570 0.9484
-12.2503 -4.6580 -1.8570 0.9484
-12.5888 -6.4092 -2.0016 0.9445
-12.0972 -7.2947 -2.0016 0.9445
-11.8280 -7.7237 -2.0016 0.9445
-11.5435 -8.1427 -2.0016 0.9445
-11.2442 -8.5512 -2.0016 0.9445
-8.7682 -11.0758 -2.0016 0.9445
-8.3655 -11.3830 -2.0016 0.9445
-7.9521 -11.6756 -2.0016 0.9445
-7.5285 -11.9531 -2.0016 0.9445
-7.0951 -12.2153 -2.0016 0.9445
-6.6527 -12.4618 -2.0016 0.9445
-6.2017 -12.6923 -2.0016 0.9445
-2.8553 -13.8348 -2.0016 0.9445
-2.3575 -13.9283 -2.0016 0.9445
-1.8567 -14.0039 -2.0016 0.9445
-0.3426 -14.1222 -2.0016 0.9445
1.1755 -14.0774 -2.0016 0.9445
1.6794 -14.0262 -2.0016 0.9445
2.1811 -13.9570 -2.0016 0.9445
2.6800 -13.8699 -2.0016 0.9445
3.1755 -13.7649 -2.0016 0.9445
4.1535 -13.5020 -2.0016 0.9445
4.6348 -13.3444 -2.0016 0.9445
5.1102 -13.1697 -2.0016 0.9445
5.5790 -12.9781 -2.0016 0.9445
2.1945 -4.2390 -0.6763 0.9809
6.9400 -12.3041 -2.0016 0.9445
7.3766 -12.0474 -2.0016 0.9445
8.2208 -11.4880 -2.0016 0.9445
10.8163 -9.0864 -2.0016 0.9445
11.4395 -8.2881 -2.0016 0.9445
12.0040 -7.4472 -2.0016 0.9445
12.2632 -7.0121 -2.0016 0.9445
12.5067 -6.5680 -2.0016 0.9445
12.7341 -6.1154 -2.0016 0.9445
13.3170 -4.7130 -2.0016 0.9445
13.4774 -4.2326 -2.0016 0.9445
13.6204 -3.7468 -2.0016 0.9445
14.0703 -1.2581 -2.0016 0.9445
14.1242 -0.2467 -2.0016 0.9445
14.1056 0.7658 -2.0016 0.9445
14.0145 1.7745 -2.0016 0.9445
13.8514 2.7740 -2.0016 0.9445
13.6170 3.7593 -2.0016 0.9445
13.3127 4.7253 -2.0016 0.9445
13.1347 5.1994 -2.0016 0.9445
12.7285 6.1271 -2.0016 0.9445
12.5006 6.5795 -2.0016 0.9445
10.1285 9.8473 -2.0016 0.9445
9.7690 10.2040 -2.0016 0.9445
8.6171 11.1938 -2.0016 0.9445
8.2103 11.4955 -2.0016 0.9445
7.7929 11.7824 -2.0016 0.9445
7.3565 12.0394 -1.9991 0.9446
5.9900 11.5966 -1.8494 0.9486
5.5705 11.8038 -1.8494 0.9486
5.1437 11.9959 -1.8494 0.9486
4.7104 12.1726 -1.8494 0.9486
3.8262 12.4788 -1.8494 0.9486
2.9223 12.7209 -1.8494 0.9486
1.4726 12.3961 -1.7688 0.9508
0.5580 11.9836 -1.6998 0.9527
-2.3688 11.4246 -1.6532 0.9540
-2.8001 11.4274 -1.6670 0.9536
-3.2393 11.4303 -1.6833 0.9531
-3.6877 11.4333 -1.7022 0.9526
-4.1468 11.4363 -1.7236 0.9520
-5.1040 11.4425 -1.7753 0.9506
-6.1257 11.4492 -1.8398 0.9489
-6.5660 11.2804 -1.8494 0.9486
-6.9661 11.0378 -1.8494 0.9486
-7.3573 10.7810 -1.8494 0.9486
-7.7390 10.5104 -1.8494 0.9486
-8.1108 10.2262 -1.8494 0.9486
-8.8227 9.6188 -1.8494 0.9486
-9.1618 9.2964 -1.8494 0.9486
-9.4891 8.9620 -1.8494 0.9486
-10.8615 8.2445 -1.9321 0.9464
-11.5191 8.1096 -1.9960 0.9447
-11.8350 7.7128 -2.0016 0.9445
-12.5946 6.3976 -2.0016 0.9445
-13.2087 5.0086 -2.0016 0.9445
-13.3797 4.5319 -2.0016 0.9445
-13.5336 4.0494 -2.0016 0.9445
-13.6700 3.5616 -2.0016 0.9445
-13.7889 3.0693 -2.0016 0.9445
-13.8901 2.5731 -2.0016 0.9445
-14.1152 0.5614 -2.0016 0.9445
-14.1192 -0.4514 -2.0016 0.9445
-14.0939 -0.9572 -2.0016 0.9445
-14.0506 -1.4618 -2.0016 0.9445
-13.9891 -1.9645 -2.0016 0.9445
-12.8147 -2.7478 -1.8570 0.9484
-12.7080 -3.2054 -1.8570 0.9484
-12.4457 -4.1077 -1.8570 0.9484
-12.2904 -4.5512 -1.8570 0.9484
-12.1194 -4.9888 -1.8570 0.9484
-11.9327 -5.4200 -1.8570 0.9484
-12.4102 -6.7485 -2.0016 0.9445
-11.3183 -8.4530 -2.0016 0.9445
-10.6835 -9.2422 -2.0016 0.9445
-10.3454 -9.6192 -2.0016 0.9445
-9.6296 -10.3357 -2.0016 0.9445
-8.8643 -10.9990 -2.0016 0.9445
-8.4644 -11.3097 -2.0016 0.9445
-7.6323 -11.8871 -2.0016 0.9445
-7.2013 -12.1531 -2.0016 0.9445
-4.9188 -13.2424 -2.0016 0.9445
-4.4410 -13.4102 -2.0016 0.9445
-3.9574 -13.5608 -2.0016 0.9445
-3.4688 -13.6939 -2.0016 0.9445
-2.9757 -13.8094 -2.0016 0.9445
-2.4788 -13.9072 -2.0016 0.9445
-1.4760 -14.0491 -2.0016 0.9445
-0.9714 -14.0930 -2.0016 0.9445
0.5472 -14.1158 -2.0016 0.9445
1.0528 -14.0871 -2.0016 0.9445
1.5571 -14.0403 -2.0016 0.9445
3.0554 -13.7920 -2.0016 0.9445
3.5478 -13.6736 -2.0016 0.9445
4.0357 -13.5377 -2.0016 0.9445
4.5184 -13.3843 -2.0016 0.9445
4.9953 -13.2137 -2.0016 0.9445
5.4657 -13.0262 -2.0016 0.9445
5.9292 -12.8219 -2.0016 0.9445
6.3850 -12.6011 -2.0016 0.9445
2.3159 -4.1908 -0.6784 0.9808
7.2714 -12.1112 -2.0016 0.9445
7.7009 -11.8428 -2.0016 0.9445
8.5296 -11.2606 -2.0016 0.9445
8.9277 -10.9476 -2.0016 0.9445
11.8921 2.4896 -2.0016 0.9519
11.7952 2.9143 -2.0016 0.9519
11.5561 3.7519 -2.0016 0.9519
11.4142 4.1637 -2.0016 0.9519
11.2576 4.5702 -2.0016 0.9519
11.0865 4.9708 -2.0016 0.9519
10.9012 5.3650 -2.0016 0.9519
10.7019 5.7523 -2.0016 0.9519
9.7698 7.2228 -2.0016 0.9519
9.2272 7.9043 -2.0016 0.9519
8.9380 8.2299 -2.0016 0.9519
8.6372 8.5450 -2.0016 0.9519
8.3254 8.8492 -2.0016 0.9519
8.0028 9.1419 -2.0016 0.9519
7.3272 9.6918 -2.0016 0.9519
6.2401 10.4152 -2.0002 0.9520
5.7671 10.4587 -1.9675 0.9527
5.0648 10.0185 -1.8494 0.9555
4.7024 10.1936 -1.8494 0.9555
4.3340 10.3556 -1.8494 0.9555
3.5809 10.6395 -1.8494 0.9555
3.1972 10.7611 -1.8494 0.9555
2.8094 10.8688 -1.8494 0.9555
2.4180 10.9625 -1.8494 0.9555
2.0235 11.0421 -1.8494 0.9555
1.2272 11.1587 -1.8494 0.9555
0.4245 11.2180 -1.8494 0.9555
-1.1832 11.1635 -1.8494 0.9555
-2.3748 10.9719 -1.8494 0.9555
-3.1548 10.7736 -1.8494 0.9555
-3.9186 10.5199 -1.8494 0.9555
-4.2931 10.3726 -1.8494 0.9555
-5.3819 9.8518 -1.8494 0.9555
-5.7316 9.6526 -1.8494 0.9555
-6.0739 9.4409 -1.8494 0.9555
-7.3609 8.4758 -1.8494 0.9555
-7.7077 8.2577 -1.8609 0.9552
-8.2695 8.2460 -1.9239 0.9538
-9.9953 6.9075 -2.0016 0.9519
-10.2365 6.5447 -2.0016 0.9519
-10.4645 6.1736 -2.0016 0.9519
-10.8800 5.4079 -2.0016 0.9519
-11.3977 4.2087 -2.0016 0.9519
-11.5412 3.7974 -2.0016 0.9519
-11.9654 2.1089 -2.0016 0.9519
-12.0334 1.6786 -2.0016 0.9519
-12.0858 1.2462 -2.0016 0.9519
-12.1227 0.8121 -2.0016 0.9519
-12.1440 0.3771 -2.0016 0.9519
-12.1398 -0.4940 -2.0016 0.9519
-12.1143 -0.9288 -2.0016 0.9519
-10.9055 -2.8520 -1.8570 0.9553
-10.7962 -3.2411 -1.8570 0.9553
-10.6731 -3.6260 -1.8570 0.9553
-10.0453 -5.1143 -1.8570 0.9553
-9.8555 -5.4711 -1.8570 0.9553
-9.9284 -7.0034 -2.0016 0.9519
-9.6709 -7.3548 -2.0016 0.9519
-9.4011 -7.6967 -2.0016 0.9519
-8.8255 -8.3505 -2.0016 0.9519
-8.5204 -8.6615 -2.0016 0.9519
-7.8780 -9.2497 -2.0016 0.9519
-7.5414 -9.5261 -2.0016 0.9519
-6.4751 -10.2807 -2.0016 0.9519
-5.7219 -10.7182 -2.0016 0.9519
-5.3340 -10.9164 -2.0016 0.9519
-4.9392 -11.1006 -2.0016 0.9519
-4.5382 -11.2705 -2.0016 0.9519
-4.1312 -11.4260 -2.0016 0.9519
-3.3020 -11.6926 -2.0016 0.9519
-2.8807 -11.8034 -2.0016 0.9519
-2.0276 -11.9795 -2.0016 0.9519
-1.5969 -12.0445 -2.0016 0.9519
-1.1641 -12.0940 -2.0016 0.9519
-0.7299 -12.1279 -2.0016 0.9519
0.5764 -12.1362 -2.0016 0.9519
1.0110 -12.1077 -2.0016 0.9519
2.3050 -11.9292 -2.0016 0.9519
2.7312 -11.8389 -2.0016 0.9519
4.3952 -11.3270 -2.0016 0.9519
5.1954 -10.9830 -2.0016 0.9519
6.3445 -10.3618 -2.0016 0.9519
6.7119 -10.1277 -2.0016 0.9519
7.4202 -9.6208 -2.0016 0.9519
8.7191 -8.4615 -2.0016 0.9519
9.0168 -8.1435 -2.0016 0.9519
10.0881 -6.7712 -2.0016 0.9519
10.3244 -6.4052 -2.0016 0.9519
11.1339 -4.8638 -2.0016 0.9519
11.3010 -4.4616 -2.0016 0.9519
11.7147 -3.2226 -2.0016 0.9519
11.8227 -2.8006 -2.0016 0.9519
11.9930 -1.9463 -2.0016 0.9519
12.0550 -1.5151 -2.0016 0.9519
12.1326 -0.6475 -2.0016 0.9519
12.1320 0.6587 -2.0016 0.9519
12.0536 1.5262 -2.0016 0.9519
11.9133 2.3859 -2.0016 0.9519
11.8201 2.8114 -2.0016 0.9519
11.7117 3.2333 -2.0016 0.9519
11.5883 3.6511 -2.0016 0.9519
10.9475 5.2698 -2.0016 0.9519
10.7516 5.6589 -2.0016 0.9519
10.3185 6.4147 -2.0016 0.9519
10.0819 6.7804 -2.0016 0.9519
9.8324 7.1375 -2.0016 0.9519
9.5702 7.4853 -2.0016 0.9519
7.0615 9.8871 -2.0016 0.9519
6.7026 10.1339 -2.0016 0.9519
5.9394 10.5527 -1.9949 0.9521
4.0514 10.4694 -1.8494 0.9555
3.6735 10.6079 -1.8494 0.9555
3.2909 10.7328 -1.8494 0.9555
2.9040 10.8439 -1.8494 0.9555
1.7231 11.0930 -1.8494 0.9555
1.3243 11.1476 -1.8494 0.9555
0.9239 11.1879 -1.8494 0.9555
0.1199 11.2253 -1.8494 0.9555
-0.2826 11.2224 -1.8494 0.9555
-0.6846 11.2051 -1.8494 0.9555
-1.0859 11.1733 -1.8494 0.9555
-1.1650 8.7253 -1.4502 0.9649
-1.8836 11.0668 -1.8494 0.9555
-2.2791 10.9922 -1.8494 0.9555
-3.4460 10.6840 -1.8494 0.9555
-4.5731 10.2523 -1.8494 0.9555
-4.9377 10.0818 -1.8494 0.9555
-5.2959 9.8983 -1.8494 0.9555
-6.3279 9.2726 -1.8494 0.9555
-6.9760 8.7954 -1.8494 0.9555
-7.2868 8.5397 -1.8494 0.9555
-7.5882 8.2729 -1.8494 0.9555
-8.1295 8.2489 -1.9079 0.9541
-8.7208 8.2363 -1.9761 0.9525
-9.6777 7.3459 -2.0016 0.9519
-10.4104 6.2645 -2.0016 0.9519
-10.6282 5.8873 -2.0016 0.9519
-10.8324 5.5025 -2.0016 0.9519
-11.3606 4.3078 -2.0016 0.9519
-11.5077 3.8978 -2.0016 0.9519
-11.6400 3.4828 -2.0016 0.9519
-11.8596 2.6399 -2.0016 0.9519
-11.9466 2.2131 -2.0016 0.9519
-12.0183 1.7834 -2.0016 0.9519
-12.1152 0.9177 -2.0016 0.9519
-12.1437 -0.3882 -2.0016 0.9519
-12.1220 -0.8233 -2.0016 0.9519
-12.0846 -1.2573 -2.0016 0.9519
-11.0217 -2.3634 -1.8570 0.9553
-10.9299 -2.7569 -1.8570 0.9553
-10.8241 -3.1470 -1.8570 0.9553
-10.7043 -3.5329 -1.8570 0.9553
-10.4237 -4.2908 -1.8570 0.9553
-10.0895 -5.0266 -1.8570 0.9553
-9.9028 -5.3850 -1.8570 0.9553
