ply
format ascii 1.0
element vertex 1600
property float32 x
property float32 y
property float32 z
property float32 I
end_header
0.6726 -9.4451 -2.0016 0.9620
1.0113 -9.4149 -2.0016 0.9620
1.6843 -9.3180 -2.0016 0.9620
2.0177 -9.2515 -2.0016 0.9620
2.3486 -9.1731 -2.0016 0.9620
3.3214 -8.8674 -2.0016 0.9620
3.6376 -8.7424 -2.0016 0.9620
3.9491 -8.6062 -2.0016 0.9620
4.2556 -8.4589 -2.0016 0.9620
2.2985 -4.1872 -1.0097 0.9807
4.8516 -8.1317 -2.0016 0.9620
5.1405 -7.9522 -2.0016 0.9620
6.2259 -7.1344 -2.0016 0.9620
6.9570 -6.4236 -2.0016 0.9620
7.4000 -5.9078 -2.0016 0.9620
7.6074 -5.6383 -2.0016 0.9620
8.1695 -4.7876 -2.0016 0.9620
8.3362 -4.4912 -2.0016 0.9620
8.4920 -4.1890 -2.0016 0.9620
9.0042 -2.9302 -2.0016 0.9620
9.1036 -2.6050 -2.0016 0.9620
9.2671 -1.9450 -2.0016 0.9620
9.3310 -1.6110 -2.0016 0.9620
9.3828 -1.2750 -2.0016 0.9620
9.4225 -0.9373 -2.0016 0.9620
9.4655 -0.2587 -2.0016 0.9620
9.4687 0.0813 -2.0016 0.9620
9.4596 0.4213 -2.0016 0.9620
9.4384 0.7606 -2.0016 0.9620
9.4050 1.0990 -2.0016 0.9620
9.3595 1.4360 -2.0016 0.9620
9.2323 2.1039 -2.0016 0.9620
9.1508 2.4341 -2.0016 0.9620
9.0575 2.7610 -2.0016 0.9620
8.9526 3.0845 -2.0016 0.9620
8.8361 3.4039 -2.0016 0.9620
8.7081 3.7190 -2.0016 0.9620
8.5690 4.0292 -2.0016 0.9620
8.4188 4.3343 -2.0016 0.9620
8.0861 4.9273 -2.0016 0.9620
7.7116 5.4948 -2.0016 0.9620
7.5094 5.7682 -2.0016 0.9620
7.2974 6.0341 -2.0016 0.9620
6.3585 7.0166 -2.0016 0.9620
6.1024 7.2403 -2.0016 0.9620
5.8385 7.4548 -2.0016 0.9620
5.5671 7.6596 -2.0016 0.9620
5.2885 7.8545 -2.0016 0.9620
4.4133 8.3777 -2.0016 0.9620
3.4764 8.7773 -1.9956 0.9621
3.1023 8.7366 -1.9597 0.9628
2.3506 8.5139 -1.8670 0.9645
1.4081 8.6349 -1.8494 0.9649
0.1574 8.7476 -1.8494 0.9649
-0.7841 8.7138 -1.8494 0.9649
-1.0946 8.6652 -1.8462 0.9649
-1.4074 8.6351 -1.8494 0.9649
-2.6290 8.3446 -1.8494 0.9649
-2.9331 8.2621 -1.8532 0.9648
-3.6145 8.2497 -1.9039 0.9638
-4.3388 8.2378 -1.9681 0.9627
-4.6945 8.1862 -1.9947 0.9622
-4.9923 8.0234 -1.9975 0.9621
-5.2849 7.8505 -2.0004 0.9620
-5.5665 7.6600 -2.0016 0.9620
-6.1019 7.2408 -2.0016 0.9620
-6.3579 7.0171 -2.0016 0.9620
-6.6057 6.7843 -2.0016 0.9620
-7.2969 6.0346 -2.0016 0.9620
-7.9035 5.2150 -2.0016 0.9620
-8.2574 4.6344 -2.0016 0.9620
-8.7078 3.7196 -2.0016 0.9620
-8.8358 3.4046 -2.0016 0.9620
-8.9523 3.0852 -2.0016 0.9620
-9.0573 2.7618 -2.0016 0.9620
-9.1506 2.4348 -2.0016 0.9620
-9.3018 1.7718 -2.0016 0.9620
-9.3594 1.4367 -2.0016 0.9620
-9.4384 0.7614 -2.0016 0.9620
-9.4687 0.0821 -2.0016 0.9620
-9.4501 -0.5976 -2.0016 0.9620
-9.3829 -1.2742 -2.0016 0.9620
-9.3311 -1.6103 -2.0016 0.9620
-9.2673 -1.9443 -2.0016 0.9620
-8.9861 -2.2249 -1.9568 0.9629
-8.3540 -2.7179 -1.8570 0.9647
-8.2511 -3.0161 -1.8570 0.9647
-8.1375 -3.3104 -1.8570 0.9647
-7.8789 -3.8858 -1.8570 0.9647
-7.4154 -4.7105 -1.8570 0.9647
-7.0583 -5.2305 -1.8570 0.9647
-7.1836 -6.1691 -2.0016 0.9620
-6.7224 -6.6687 -2.0016 0.9620
-6.4786 -6.9058 -2.0016 0.9620
-5.1411 -7.9518 -2.0016 0.9620
-4.5572 -8.3003 -2.0016 0.9620
-4.2563 -8.4585 -2.0016 0.9620
-3.3221 -8.8671 -2.0016 0.9620
-2.6772 -9.0827 -2.0016 0.9620
-2.3493 -9.1729 -2.0016 0.9620
-2.0185 -9.2514 -2.0016 0.9620
-1.6850 -9.3179 -2.0016 0.9620
-1.3494 -9.3724 -2.0016 0.9620
-0.6733 -9.4451 -2.0016 0.9620
0.3462 -9.4627 -2.0016 0.9620
1.6973 -9.3157 -2.0016 0.9620
3.3337 -8.8628 -2.0016 0.9620
3.6498 -8.7374 -2.0016 0.9620
3.9611 -8.6007 -2.0016 0.9620
2.3071 -4.1890 -1.0109 0.9806
4.8630 -8.1249 -2.0016 0.9620
5.4335 -7.7550 -2.0016 0.9620
6.2358 -7.1258 -2.0016 0.9620
6.4877 -6.8973 -2.0016 0.9620
6.9659 -6.4139 -2.0016 0.9620
7.6152 -5.6277 -2.0016 0.9620
8.3424 -4.4796 -2.0016 0.9620
8.4979 -4.1772 -2.0016 0.9620
8.6423 -3.8694 -2.0016 0.9620
8.7757 -3.5566 -2.0016 0.9620
9.3332 -1.5980 -2.0016 0.9620
9.4509 -0.5852 -2.0016 0.9620
9.4658 -0.2455 -2.0016 0.9620
9.4591 0.4344 -2.0016 0.9620
9.4374 0.7738 -2.0016 0.9620
9.4035 1.1121 -2.0016 0.9620
9.3575 1.4490 -2.0016 0.9620
9.2294 2.1168 -2.0016 0.9620
8.7029 3.7311 -2.0016 0.9620
8.2513 4.6453 -2.0016 0.9620
8.0792 4.9385 -2.0016 0.9620
7.8967 5.2254 -2.0016 0.9620
7.5013 5.7786 -2.0016 0.9620
7.2890 6.0442 -2.0016 0.9620
7.0673 6.3020 -2.0016 0.9620
6.8365 6.5517 -2.0016 0.9620
6.3487 7.0254 -2.0016 0.9620
6.0923 7.2488 -2.0016 0.9620
5.8281 7.4629 -2.0016 0.9620
5.5564 7.6674 -2.0016 0.9620
4.9919 8.0463 -2.0016 0.9620
4.6998 8.2204 -2.0016 0.9620
4.4016 8.3838 -2.0016 0.9620
4.0977 8.5364 -2.0016 0.9620
3.4639 8.7814 -1.9954 0.9621
3.0868 8.7315 -1.9576 0.9628
2.3370 8.5108 -1.8656 0.9646
1.7052 8.5812 -1.8494 0.9649
0.7726 8.7148 -1.8494 0.9649
0.4592 8.7369 -1.8494 0.9649
-0.7962 8.7127 -1.8494 0.9649
-1.1072 8.6680 -1.8471 0.9649
-2.3395 8.4304 -1.8494 0.9649
-2.6406 8.3410 -1.8494 0.9649
-2.9458 8.2614 -1.8540 0.9648
-3.2819 8.2545 -1.8777 0.9643
-3.9848 8.2438 -1.9355 0.9633
-4.3533 8.2375 -1.9694 0.9626
-5.0037 8.0169 -1.9976 0.9621
-5.8483 7.4471 -2.0016 0.9620
-6.1119 7.2323 -2.0016 0.9620
-6.6152 6.7751 -2.0016 0.9620
-6.8542 6.5332 -2.0016 0.9620
-7.0843 6.2829 -2.0016 0.9620
-7.3053 6.0245 -2.0016 0.9620
-7.9108 5.2040 -2.0016 0.9620
-8.2638 4.6229 -2.0016 0.9620
-8.5743 4.0180 -2.0016 0.9620
-8.7130 3.7075 -2.0016 0.9620
-8.9566 3.0727 -2.0016 0.9620
-9.1540 2.4220 -2.0016 0.9620
-9.4065 1.0867 -2.0016 0.9620
-9.4602 0.4088 -2.0016 0.9620
-9.4493 -0.6108 -2.0016 0.9620
-9.4213 -0.9496 -2.0016 0.9620
-3.5632 -7.7352 -2.0016 0.9656
-1.8270 -8.3182 -2.0016 0.9656
-1.5272 -8.3784 -2.0016 0.9656
-0.9220 -8.4664 -2.0016 0.9656
-0.6174 -8.4940 -2.0016 0.9656
-0.0063 -8.5164 -2.0016 0.9656
0.2995 -8.5112 -2.0016 0.9656
0.6049 -8.4949 -2.0016 0.9656
0.9095 -8.4677 -2.0016 0.9656
1.8148 -8.3208 -2.0016 0.9656
2.4072 -8.1692 -2.0016 0.9656
3.2717 -7.8630 -2.0016 0.9656
3.5519 -7.7404 -2.0016 0.9656
2.1473 -4.2681 -1.1229 0.9806
4.3636 -7.3136 -2.0016 0.9656
4.8772 -6.9816 -2.0016 0.9656
5.1247 -6.8020 -2.0016 0.9656
5.3656 -6.6136 -2.0016 0.9656
5.5996 -6.4167 -2.0016 0.9656
6.0456 -5.9983 -2.0016 0.9656
6.2571 -5.7774 -2.0016 0.9656
6.6556 -5.3135 -2.0016 0.9656
6.8421 -5.0711 -2.0016 0.9656
7.0197 -4.8222 -2.0016 0.9656
7.3477 -4.3060 -2.0016 0.9656
7.6377 -3.7676 -2.0016 0.9656
7.7681 -3.4909 -2.0016 0.9656
7.9986 -2.9245 -2.0016 0.9656
8.1878 -2.3430 -2.0016 0.9656
8.2667 -2.0475 -2.0016 0.9656
8.3348 -1.7493 -2.0016 0.9656
8.3923 -1.4490 -2.0016 0.9656
8.4994 -0.5382 -2.0016 0.9656
8.4889 0.6841 -2.0016 0.9656
8.4179 1.2915 -2.0016 0.9656
8.3661 1.5929 -2.0016 0.9656
8.3036 1.8923 -2.0016 0.9656
8.1464 2.4833 -2.0016 0.9656
7.9472 3.0615 -2.0016 0.9656
7.7070 3.6239 -2.0016 0.9656
7.5719 3.8983 -2.0016 0.9656
7.4270 4.1676 -2.0016 0.9656
7.2726 4.4316 -2.0016 0.9656
7.1088 4.6899 -2.0016 0.9656
6.9358 4.9421 -2.0016 0.9656
6.3642 5.6592 -2.0016 0.9656
5.9417 6.1013 -2.0016 0.9656
5.2512 6.7048 -2.0016 0.9656
4.7565 7.0644 -2.0016 0.9656
4.4998 7.2306 -2.0016 0.9656
4.2373 7.3875 -2.0016 0.9656
3.9693 7.5349 -2.0016 0.9656
2.5589 8.1199 -2.0009 0.9656
1.6655 8.3205 -1.9943 0.9657
1.0452 8.2693 -1.9590 0.9663
0.7436 8.2565 -1.9483 0.9665
-0.4441 8.2430 -1.9401 0.9666
-0.7416 8.2421 -1.9449 0.9666
-1.0410 8.2407 -1.9522 0.9664
-1.3428 8.2389 -1.9619 0.9663
-2.2582 8.1818 -1.9948 0.9657
-2.8437 8.0103 -1.9977 0.9657
-3.9687 7.5352 -2.0016 0.9656
-4.7559 7.0648 -2.0016 0.9656
-5.0065 6.8895 -2.0016 0.9656
-5.2507 6.7053 -2.0016 0.9656
-6.1565 5.8845 -2.0016 0.9656
-6.3638 5.6597 -2.0016 0.9656
-6.5629 5.4276 -2.0016 0.9656
-6.7535 5.1884 -2.0016 0.9656
-6.9354 4.9426 -2.0016 0.9656
-7.1084 4.6904 -2.0016 0.9656
-7.4267 4.1682 -2.0016 0.9656
-7.5716 3.8989 -2.0016 0.9656
-7.7067 3.6245 -2.0016 0.9656
-8.1462 2.4839 -2.0016 0.9656
-8.3034 1.8929 -2.0016 0.9656
-8.3660 1.5936 -2.0016 0.9656
-8.4178 1.2922 -2.0016 0.9656
-8.4588 0.9891 -2.0016 0.9656
-8.5161 0.0738 -2.0016 0.9656
-8.5133 -0.2320 -2.0016 0.9656
-8.4747 -0.8423 -2.0016 0.9656
-8.3924 -1.4483 -2.0016 0.9656
-8.3350 -1.7487 -2.0016 0.9656
-7.8087 -2.2338 -1.9088 0.9672
-6.3482 -4.7043 -1.8570 0.9681
-6.1752 -4.9292 -1.8570 0.9681
-5.9942 -5.1477 -1.8570 0.9681
-5.8268 -6.2111 -2.0016 0.9656
-5.3661 -6.6132 -2.0016 0.9656
-5.1252 -6.8016 -2.0016 0.9656
-4.6239 -7.1519 -2.0016 0.9656
-4.0988 -7.4653 -2.0016 0.9656
-3.5525 -7.7401 -2.0016 0.9656
-3.2723 -7.8627 -2.0016 0.9656
-2.9879 -7.9751 -2.0016 0.9656
-2.6996 -8.0773 -2.0016 0.9656
-1.8154 -8.3207 -2.0016 0.9656
-1.2136 -8.4295 -2.0016 0.9656
-0.6056 -8.4949 -2.0016 0.9656
-0.3002 -8.5112 -2.0016 0.9656
0.3114 -8.5108 -2.0016 0.9656
1.5265 -8.3785 -2.0016 0.9656
2.4186 -8.1658 -2.0016 0.9656
2.7102 -8.0737 -2.0016 0.9656
2.9983 -7.9712 -2.0016 0.9656
4.8869 -6.9748 -2.0016 0.9656
5.1342 -6.7949 -2.0016 0.9656
5.6085 -6.4089 -2.0016 0.9656
6.2651 -5.7687 -2.0016 0.9656
6.4682 -5.5400 -2.0016 0.9656
6.6630 -5.3042 -2.0016 0.9656
6.8491 -5.0616 -2.0016 0.9656
7.0264 -4.8124 -2.0016 0.9656
7.1947 -4.5570 -2.0016 0.9656
7.3537 -4.2958 -2.0016 0.9656
7.5032 -4.0290 -2.0016 0.9656
7.7729 -3.4801 -2.0016 0.9656
7.8929 -3.1988 -2.0016 0.9656
8.1021 -2.6242 -2.0016 0.9656
8.2695 -2.0360 -2.0016 0.9656
8.3373 -1.7377 -2.0016 0.9656
8.4758 -0.8312 -2.0016 0.9656
8.5075 0.3907 -2.0016 0.9656
8.4161 1.3033 -2.0016 0.9656
8.3639 1.6046 -2.0016 0.9656
8.3009 1.9039 -2.0016 0.9656
8.0481 2.7854 -2.0016 0.9656
7.9429 3.0725 -2.0016 0.9656
7.7019 3.6346 -2.0016 0.9656
7.4212 4.1780 -2.0016 0.9656
7.2664 4.4417 -2.0016 0.9656
6.9289 4.9517 -2.0016 0.9656
6.3563 5.6681 -2.0016 0.9656
5.9332 6.1096 -2.0016 0.9656
5.7100 6.3187 -2.0016 0.9656
5.4795 6.5196 -2.0016 0.9656
4.4897 7.2369 -2.0016 0.9656
4.2270 7.3934 -2.0016 0.9656
3.6855 7.6777 -2.0016 0.9656
3.4075 7.8051 -2.0016 0.9656
3.1250 7.9224 -2.0016 0.9656
2.5475 8.1231 -2.0008 0.9656
1.3412 8.2978 -1.9755 0.9661
1.0335 8.2689 -1.9585 0.9663
0.7320 8.2559 -1.9479 0.9665
-0.1592 8.2434 -1.9378 0.9667
-0.4556 8.2430 -1.9402 0.9666
-1.0526 8.2407 -1.9525 0.9664
-1.9694 8.2338 -1.9897 0.9658
-2.8549 8.0066 -1.9978 0.9657
-3.1432 7.9057 -1.9995 0.9656
-3.4283 7.7950 -2.0014 0.9656
-3.9792 7.5297 -2.0016 0.9656
-4.2470 7.3819 -2.0016 0.9656
-4.7658 7.0581 -2.0016 0.9656
-5.2600 6.6979 -2.0016 0.9656
-5.4971 6.5048 -2.0016 0.9656
-6.1647 5.8760 -2.0016 0.9656
-7.1150 4.6805 -2.0016 0.9656
-7.5770 3.8883 -2.0016 0.9656
-7.8365 3.3345 -2.0016 0.9656
-8.0556 2.7636 -2.0016 0.9656
-8.1496 2.4726 -2.0016 0.9656
-8.2331 2.1784 -2.0016 0.9656
-8.4196 1.2805 -2.0016 0.9656
-8.4602 0.9773 -2.0016 0.9656
-8.4374 -1.1578 -2.0016 0.9656
-2.4607 -7.3284 -2.0016 0.9686
-1.1123 -7.6501 -2.0016 0.9686
-0.8369 -7.6851 -2.0016 0.9686
-0.2832 -7.7253 -2.0016 0.9686
0.5491 -7.7110 -2.0016 0.9686
1.1010 -7.6517 -2.0016 0.9686
1.3750 -7.6072 -2.0016 0.9686
2.1850 -7.4153 -2.0016 0.9686
2.7115 -7.2393 -2.0016 0.9686
3.2241 -7.0261 -2.0016 0.9686
2.1115 -4.1970 -1.2165 0.9808
4.6517 -6.1743 -2.0016 0.9686
5.6797 -5.2442 -2.0016 0.9686
5.8643 -5.0369 -2.0016 0.9686
6.0414 -4.8231 -2.0016 0.9686
6.2106 -4.6031 -2.0016 0.9686
6.6696 -3.9086 -2.0016 0.9686
6.9329 -3.4199 -2.0016 0.9686
7.2604 -2.6546 -2.0016 0.9686
7.4322 -2.1267 -2.0016 0.9686
7.5038 -1.8585 -2.0016 0.9686
7.5656 -1.5879 -2.0016 0.9686
7.6601 -1.0409 -2.0016 0.9686
7.6925 -0.7652 -2.0016 0.9686
7.6411 1.1723 -2.0016 0.9686
7.5373 1.7177 -2.0016 0.9686
7.3946 2.2541 -2.0016 0.9686
7.1093 3.0362 -2.0016 0.9686
6.7416 3.7830 -2.0016 0.9686
6.2957 4.4860 -2.0016 0.9686
5.9576 4.9262 -2.0016 0.9686
5.7769 5.1369 -2.0016 0.9686
5.5887 5.3410 -2.0016 0.9686
5.1910 5.7283 -2.0016 0.9686
4.5450 6.2533 -2.0016 0.9686
4.3175 6.4124 -2.0016 0.9686
4.0845 6.5633 -2.0016 0.9686
3.8462 6.7057 -2.0016 0.9686
2.5868 7.2848 -2.0016 0.9686
2.3235 7.3730 -2.0016 0.9686
2.0573 7.4517 -2.0016 0.9686
1.7885 7.5208 -2.0016 0.9686
1.5173 7.5801 -2.0016 0.9686
0.9694 7.6695 -2.0016 0.9686
0.6934 7.6993 -2.0016 0.9686
0.4165 7.7193 -2.0016 0.9686
0.1391 7.7292 -2.0016 0.9686
-0.6928 7.6994 -2.0016 0.9686
-0.9688 7.6695 -2.0016 0.9686
-1.5167 7.5802 -2.0016 0.9686
-1.7879 7.5209 -2.0016 0.9686
-3.1023 7.0807 -2.0016 0.9686
-3.3546 6.9647 -2.0016 0.9686
-4.0840 6.5636 -2.0016 0.9686
-4.5445 6.2536 -2.0016 0.9686
-4.7661 6.0864 -2.0016 0.9686
-5.3929 5.5387 -2.0016 0.9686
-5.7765 5.1374 -2.0016 0.9686
-6.2954 4.4865 -2.0016 0.9686
-6.7413 3.7835 -2.0016 0.9686
-6.9954 3.2900 -2.0016 0.9686
-7.1091 3.0367 -2.0016 0.9686
-7.2135 2.7795 -2.0016 0.9686
-7.3087 2.5187 -2.0016 0.9686
-7.3944 2.2547 -2.0016 0.9686
-7.5371 1.7182 -2.0016 0.9686
-7.5939 1.4465 -2.0016 0.9686
-7.7055 0.6216 -2.0016 0.9686
-7.7228 0.3445 -2.0016 0.9686
-7.7302 0.0670 -2.0016 0.9686
-7.6602 -1.0403 -2.0016 0.9686
-7.6179 -1.3146 -2.0016 0.9686
-7.5039 -1.8579 -2.0016 0.9686
-7.4324 -2.1262 -2.0016 0.9686
-6.5421 -2.9394 -1.8570 0.9708
-6.4323 -3.1724 -1.8570 0.9708
-6.1881 -3.6258 -1.8570 0.9708
-6.0539 -3.8456 -1.8570 0.9708
-5.7623 -4.2701 -1.8570 0.9708
-5.4411 -4.6727 -1.8570 0.9708
-5.0917 -5.0511 -1.8570 0.9708
-4.4276 -6.3370 -2.0016 0.9686
-3.9614 -6.6384 -2.0016 0.9686
-3.7205 -6.7763 -2.0016 0.9686
-2.1856 -7.4151 -2.0016 0.9686
-0.8262 -7.6862 -2.0016 0.9686
-0.2725 -7.7257 -2.0016 0.9686
0.2826 -7.7253 -2.0016 0.9686
0.5598 -7.7102 -2.0016 0.9686
0.8363 -7.6851 -2.0016 0.9686
1.1117 -7.6501 -2.0016 0.9686
1.6578 -7.5506 -2.0016 0.9686
1.9278 -7.4862 -2.0016 0.9686
2.9797 -7.1332 -2.0016 0.9686
3.2338 -7.0216 -2.0016 0.9686
2.2641 -4.1110 -1.2152 0.9808
4.6603 -6.1678 -2.0016 0.9686
4.8788 -5.9965 -2.0016 0.9686
5.2965 -5.6309 -2.0016 0.9686
5.4953 -5.4371 -2.0016 0.9686
5.6869 -5.2363 -2.0016 0.9686
5.8713 -5.0287 -2.0016 0.9686
6.0481 -4.8147 -2.0016 0.9686
6.3780 -4.3683 -2.0016 0.9686
6.5307 -4.1365 -2.0016 0.9686
6.6750 -3.8993 -2.0016 0.9686
6.8107 -3.6571 -2.0016 0.9686
6.9376 -3.4102 -2.0016 0.9686
7.0556 -3.1590 -2.0016 0.9686
7.3544 -2.3820 -2.0016 0.9686
7.4351 -2.1164 -2.0016 0.9686
7.5063 -1.8481 -2.0016 0.9686
7.6196 -1.3046 -2.0016 0.9686
7.6615 -1.0302 -2.0016 0.9686
7.6936 -0.7545 -2.0016 0.9686
7.7157 -0.4778 -2.0016 0.9686
7.7279 -0.2004 -2.0016 0.9686
7.7301 0.0772 -2.0016 0.9686
7.7046 0.6317 -2.0016 0.9686
7.6394 1.1830 -2.0016 0.9686
7.5920 1.4565 -2.0016 0.9686
7.5348 1.7282 -2.0016 0.9686
7.4679 1.9976 -2.0016 0.9686
7.2098 2.7890 -2.0016 0.9686
6.9911 3.2992 -2.0016 0.9686
6.8682 3.5481 -2.0016 0.9686
6.5958 4.0318 -2.0016 0.9686
6.2895 4.4947 -2.0016 0.9686
4.9738 5.9179 -2.0016 0.9686
4.7581 6.0927 -2.0016 0.9686
4.3086 6.4184 -2.0016 0.9686
2.3133 7.3763 -2.0016 0.9686
2.0470 7.4546 -2.0016 0.9686
1.2335 7.6314 -2.0016 0.9686
0.9587 7.6708 -2.0016 0.9686
0.6827 7.7003 -2.0016 0.9686
0.1283 7.7294 -2.0016 0.9686
-0.1493 7.7290 -2.0016 0.9686
-0.4267 7.7187 -2.0016 0.9686
-1.2542 7.6281 -2.0016 0.9686
-1.5272 7.5781 -2.0016 0.9686
-1.7983 7.5184 -2.0016 0.9686
-2.0671 7.4490 -2.0016 0.9686
-2.5964 7.2814 -2.0016 0.9686
-3.6120 6.8348 -2.0016 0.9686
-3.8550 6.7007 -2.0016 0.9686
-4.5532 6.2473 -2.0016 0.9686
-4.7746 6.0798 -2.0016 0.9686
-4.9898 5.9045 -2.0016 0.9686
-5.7836 5.1293 -2.0016 0.9686
-6.6067 4.0139 -2.0016 0.9686
-6.7466 3.7741 -2.0016 0.9686
-7.0000 3.2803 -2.0016 0.9686
-7.1133 3.0268 -2.0016 0.9686
-7.2174 2.7695 -2.0016 0.9686
-7.3122 2.5085 -2.0016 0.9686
-7.3975 2.2444 -2.0016 0.9686
-7.4733 1.9774 -2.0016 0.9686
-7.5395 1.7078 -2.0016 0.9686
-7.6794 0.8871 -2.0016 0.9686
-7.7233 0.3338 -2.0016 0.9686
-7.7273 -0.2213 -2.0016 0.9686
-7.6915 -0.7753 -2.0016 0.9686
-7.6587 -1.0509 -2.0016 0.9686
-2.7257 -6.5238 -2.0016 0.9710
-2.4897 -6.6175 -2.0016 0.9710
-2.0084 -6.7791 -2.0016 0.9710
-1.7637 -6.8468 -2.0016 0.9710
-1.5168 -6.9057 -2.0016 0.9710
-1.0173 -6.9968 -2.0016 0.9710
-0.5126 -7.0517 -2.0016 0.9710
-0.2591 -7.0656 -2.0016 0.9710
-0.0052 -7.0703 -2.0016 0.9710
0.7551 -7.0299 -2.0016 0.9710
1.0070 -6.9982 -2.0016 0.9710
1.2576 -6.9576 -2.0016 0.9710
2.2407 -6.7059 -2.0016 0.9710
2.4800 -6.6211 -2.0016 0.9710
2.0978 -4.1698 -1.3214 0.9808
2.2489 -4.0967 -1.3230 0.9808
2.4545 -4.1139 -1.3562 0.9803
3.8383 -5.9378 -2.0016 0.9710
4.2545 -5.6470 -2.0016 0.9710
4.4545 -5.4906 -2.0016 0.9710
4.8370 -5.1568 -2.0016 0.9710
5.0191 -4.9798 -2.0016 0.9710
5.1946 -4.7964 -2.0016 0.9710
5.5254 -4.4112 -2.0016 0.9710
5.8277 -4.0034 -2.0016 0.9710
5.9677 -3.7915 -2.0016 0.9710
6.3408 -3.1279 -2.0016 0.9710
6.7233 -2.1879 -2.0016 0.9710
6.7975 -1.9451 -2.0016 0.9710
6.8630 -1.6998 -2.0016 0.9710
7.0059 -0.9520 -2.0016 0.9710
7.0701 0.0607 -2.0016 0.9710
7.0475 0.5679 -2.0016 0.9710
6.9886 1.0722 -2.0016 0.9710
6.9456 1.3225 -2.0016 0.9710
6.8936 1.5710 -2.0016 0.9710
6.7631 2.0616 -2.0016 0.9710
6.5977 2.5416 -2.0016 0.9710
6.5022 2.7769 -2.0016 0.9710
5.9017 3.8935 -2.0016 0.9710
5.7581 4.1029 -2.0016 0.9710
5.4488 4.5055 -2.0016 0.9710
5.1115 4.8849 -2.0016 0.9710
4.5566 5.4062 -2.0016 0.9710
4.3595 5.5663 -2.0016 0.9710
4.1569 5.7193 -2.0016 0.9710
3.9488 5.8648 -2.0016 0.9710
3.7357 6.0028 -2.0016 0.9710
3.5178 6.1331 -2.0016 0.9710
3.2953 6.2554 -2.0016 0.9710
2.8379 6.4758 -2.0016 0.9710
2.1251 6.7434 -2.0016 0.9710
1.1379 6.9782 -2.0016 0.9710
0.8866 7.0145 -2.0016 0.9710
0.6342 7.0418 -2.0016 0.9710
0.3810 7.0601 -2.0016 0.9710
0.1272 7.0692 -2.0016 0.9710
-0.3804 7.0601 -2.0016 0.9710
-0.8861 7.0146 -2.0016 0.9710
-2.1246 6.7436 -2.0016 0.9710
-2.3654 6.6629 -2.0016 0.9710
-3.9484 5.8651 -2.0016 0.9710
-4.1564 5.7196 -2.0016 0.9710
-4.3591 5.5667 -2.0016 0.9710
-4.7473 5.2395 -2.0016 0.9710
-5.1111 4.8853 -2.0016 0.9710
-5.4485 4.5059 -2.0016 0.9710
-5.6067 4.3074 -2.0016 0.9710
-5.7578 4.1033 -2.0016 0.9710
-5.9014 3.8940 -2.0016 0.9710
-6.0374 3.6796 -2.0016 0.9710
-6.1656 3.4604 -2.0016 0.9710
-6.3981 3.0090 -2.0016 0.9710
-6.5975 2.5422 -2.0016 0.9710
-6.6845 2.3036 -2.0016 0.9710
-6.7629 2.0622 -2.0016 0.9710
-6.9454 1.3230 -2.0016 0.9710
-6.9885 1.0728 -2.0016 0.9710
-7.0474 0.5685 -2.0016 0.9710
-7.0633 0.3151 -2.0016 0.9710
-7.0701 0.0613 -2.0016 0.9710
-7.0677 -0.1926 -2.0016 0.9710
-7.0562 -0.4462 -2.0016 0.9710
-7.0357 -0.6993 -2.0016 0.9710
-6.9673 -1.2024 -2.0016 0.9710
-6.1609 -2.2520 -1.8570 0.9731
-6.0761 -2.4718 -1.8570 0.9731
-5.8830 -2.9015 -1.8570 0.9731
-5.7751 -3.1108 -1.8570 0.9731
-5.4071 -3.7138 -1.8570 0.9731
-5.2703 -3.9055 -1.8570 0.9731
-4.4880 -4.7839 -1.8570 0.9731
-4.1331 -5.0937 -1.8570 0.9731
-3.9476 -5.2388 -1.8570 0.9731
-3.1781 -6.3158 -2.0016 0.9710
-2.9492 -6.4258 -2.0016 0.9710
-2.2412 -6.7057 -2.0016 0.9710
-1.9990 -6.7819 -2.0016 0.9710
-1.0075 -6.9982 -2.0016 0.9710
-0.5027 -7.0524 -2.0016 0.9710
0.5120 -7.0518 -2.0016 0.9710
1.2673 -6.9558 -2.0016 0.9710
1.5162 -6.9058 -2.0016 0.9710
2.2500 -6.7028 -2.0016 0.9710
2.7252 -6.5240 -2.0016 0.9710
2.9577 -6.4220 -2.0016 0.9710
2.2562 -4.0966 -1.3240 0.9807
3.6311 -6.0667 -2.0016 0.9710
3.8466 -5.9324 -2.0016 0.9710
4.0571 -5.7905 -2.0016 0.9710
4.4621 -5.4844 -2.0016 0.9710
4.6562 -5.3207 -2.0016 0.9710
4.8442 -5.1501 -2.0016 0.9710
5.0260 -4.9728 -2.0016 0.9710
5.6861 -4.2021 -2.0016 0.9710
5.8333 -3.9952 -2.0016 0.9710
5.9730 -3.7832 -2.0016 0.9710
6.1050 -3.5663 -2.0016 0.9710
6.4531 -2.8892 -2.0016 0.9710
6.6438 -2.4187 -2.0016 0.9710
6.7263 -2.1786 -2.0016 0.9710
6.8002 -1.9357 -2.0016 0.9710
6.9216 -1.4427 -2.0016 0.9710
6.9689 -1.1932 -2.0016 0.9710
7.0680 -0.1833 -2.0016 0.9710
7.0467 0.5778 -2.0016 0.9710
6.8302 1.8270 -2.0016 0.9710
6.4983 2.7859 -2.0016 0.9710
6.3941 3.0175 -2.0016 0.9710
5.7524 4.1109 -2.0016 0.9710
5.6011 4.3148 -2.0016 0.9710
5.2770 4.7056 -2.0016 0.9710
4.9257 5.0722 -2.0016 0.9710
4.5490 5.4126 -2.0016 0.9710
4.1489 5.7251 -2.0016 0.9710
3.7274 6.0080 -2.0016 0.9710
3.5092 6.1380 -2.0016 0.9710
3.0597 6.3740 -2.0016 0.9710
2.8289 6.4797 -2.0016 0.9710
2.5944 6.5771 -2.0016 0.9710
1.3780 6.9347 -2.0016 0.9710
1.1282 6.9797 -2.0016 0.9710
0.8769 7.0158 -2.0016 0.9710
0.6244 7.0427 -2.0016 0.9710
0.1174 7.0694 -2.0016 0.9710
-0.1365 7.0690 -2.0016 0.9710
-2.6122 6.5701 -2.0016 0.9710
-2.8464 6.4721 -2.0016 0.9710
-3.9565 5.8596 -2.0016 0.9710
-4.1644 5.7138 -2.0016 0.9710
-4.5637 5.4002 -2.0016 0.9710
-4.9394 5.0588 -2.0016 0.9710
-5.1179 4.8782 -2.0016 0.9710
-5.2897 4.6913 -2.0016 0.9710
-5.4548 4.4984 -2.0016 0.9710
-5.9068 3.8857 -2.0016 0.9710
-6.1704 3.4518 -2.0016 0.9710
-6.2904 3.2281 -2.0016 0.9710
-6.4022 3.0001 -2.0016 0.9710
-6.6877 2.2943 -2.0016 0.9710
-6.7658 2.0527 -2.0016 0.9710
-6.8956 1.5619 -2.0016 0.9710
-7.0236 0.8114 -2.0016 0.9710
-7.0347 -0.7091 -2.0016 0.9710
-7.0047 -0.9612 -2.0016 0.9710
-2.3275 -5.5707 -1.8570 0.9751
-2.1260 -5.6507 -1.8570 0.9751
-1.8485 -6.2394 -2.0016 0.9731
-1.6233 -6.3018 -2.0016 0.9731
-0.9363 -6.4398 -2.0016 0.9731
-0.7045 -6.4692 -2.0016 0.9731
1.1575 -6.4037 -2.0016 0.9731
1.3867 -6.3580 -2.0016 0.9731
1.8394 -6.2421 -2.0016 0.9731
2.0623 -6.1720 -2.0016 0.9731
2.2826 -6.0940 -2.0016 0.9731
2.3193 -5.5742 -1.8570 0.9751
2.2410 -4.0824 -1.4324 0.9807
3.5327 -5.4651 -2.0016 0.9731
3.7267 -5.3347 -2.0016 0.9731
3.9158 -5.1975 -2.0016 0.9731
4.2787 -4.9031 -2.0016 0.9731
4.4520 -4.7463 -2.0016 0.9731
4.7811 -4.4146 -2.0016 0.9731
4.9365 -4.2401 -2.0016 0.9731
5.7289 -3.0865 -2.0016 0.9731
5.8360 -2.8789 -2.0016 0.9731
6.0276 -2.4526 -2.0016 0.9731
6.1118 -2.2346 -2.0016 0.9731
6.2564 -1.7903 -2.0016 0.9731
6.3687 -1.3367 -2.0016 0.9731
6.4126 -1.1072 -2.0016 0.9731
6.4482 -0.8762 -2.0016 0.9731
6.4755 -0.6441 -2.0016 0.9731
6.4945 -0.4112 -2.0016 0.9731
6.5072 0.0559 -2.0016 0.9731
6.4635 0.7553 -2.0016 0.9731
6.4322 0.9869 -2.0016 0.9731
6.3926 1.2172 -2.0016 0.9731
6.2247 1.8975 -2.0016 0.9731
5.8889 2.7690 -2.0016 0.9731
5.7857 2.9787 -2.0016 0.9731
5.5571 3.3862 -2.0016 0.9731
5.2997 3.7763 -2.0016 0.9731
5.0151 4.1468 -2.0016 0.9731
4.8629 4.3242 -2.0016 0.9731
4.5401 4.6621 -2.0016 0.9731
4.3698 4.8221 -2.0016 0.9731
4.1938 4.9758 -2.0016 0.9731
4.0125 5.1232 -2.0016 0.9731
3.4383 5.5250 -2.0016 0.9731
3.2377 5.6448 -2.0016 0.9731
3.0330 5.7575 -2.0016 0.9731
2.8243 5.8626 -2.0016 0.9731
2.3963 6.0502 -2.0016 0.9731
2.1775 6.1323 -2.0016 0.9731
1.9560 6.2066 -2.0016 0.9731
1.7319 6.2728 -2.0016 0.9731
1.5055 6.3309 -2.0016 0.9731
1.2772 6.3809 -2.0016 0.9731
0.5837 6.4812 -2.0016 0.9731
0.1171 6.5064 -2.0016 0.9731
-0.1166 6.5064 -2.0016 0.9731
-0.8155 6.4562 -2.0016 0.9731
-1.5050 6.3310 -2.0016 0.9731
-1.7314 6.2729 -2.0016 0.9731
-2.3958 6.0504 -2.0016 0.9731
-2.6115 5.9605 -2.0016 0.9731
-3.0325 5.7577 -2.0016 0.9731
-3.2373 5.6451 -2.0016 0.9731
-3.6340 5.3982 -2.0016 0.9731
-3.8255 5.2643 -2.0016 0.9731
-4.5397 4.6624 -2.0016 0.9731
-4.8626 4.3246 -2.0016 0.9731
-5.0148 4.1472 -2.0016 0.9731
-5.1604 3.9645 -2.0016 0.9731
-5.6748 3.1850 -2.0016 0.9731
-5.7855 2.9792 -2.0016 0.9731
-5.8887 2.7695 -2.0016 0.9731
-5.9844 2.5563 -2.0016 0.9731
-6.2246 1.8980 -2.0016 0.9731
-6.3447 1.4464 -2.0016 0.9731
-6.3925 1.2177 -2.0016 0.9731
-6.4864 0.5232 -2.0016 0.9731
-6.5072 0.0564 -2.0016 0.9731
-6.4945 -0.4107 -2.0016 0.9731
-6.4756 -0.6436 -2.0016 0.9731
-6.4127 -1.1067 -2.0016 0.9731
-6.2565 -1.7898 -2.0016 0.9731
-6.0709 -2.2191 -1.9881 0.9733
-5.5924 -2.2750 -1.8570 0.9751
-5.4147 -2.6705 -1.8570 0.9751
-5.3153 -2.8632 -1.8570 0.9751
-4.9766 -3.4181 -1.8570 0.9751
-4.8507 -3.5946 -1.8570 0.9751
-4.7185 -3.7664 -1.8570 0.9751
-4.5802 -3.9334 -1.8570 0.9751
-4.4361 -4.0953 -1.8570 0.9751
-4.2862 -4.2520 -1.8570 0.9751
-4.1307 -4.4031 -1.8570 0.9751
-3.9700 -4.5486 -1.8570 0.9751
-3.8041 -4.6882 -1.8570 0.9751
-3.0938 -5.1845 -1.8570 0.9751
-2.9057 -5.2922 -1.8570 0.9751
-2.7138 -5.3931 -1.8570 0.9751
-2.3198 -5.5740 -1.8570 0.9751
-2.1181 -5.6537 -1.8570 0.9751
-2.0628 -6.1719 -2.0016 0.9731
-1.6146 -6.3040 -2.0016 0.9731
-0.9273 -6.4411 -2.0016 0.9731
-0.6955 -6.4702 -2.0016 0.9731
-0.2294 -6.5034 -2.0016 0.9731
0.2379 -6.5031 -2.0016 0.9731
0.4712 -6.4904 -2.0016 0.9731
1.1664 -6.4021 -2.0016 0.9731
1.6228 -6.3019 -2.0016 0.9731
3.7341 -5.3295 -2.0016 0.9731
3.9230 -5.1920 -2.0016 0.9731
4.2855 -4.8971 -2.0016 0.9731
4.7872 -4.4079 -2.0016 0.9731
5.0912 -4.0530 -2.0016 0.9731
5.3689 -3.6772 -2.0016 0.9731
5.4975 -3.4820 -2.0016 0.9731
5.6190 -3.2824 -2.0016 0.9731
5.7332 -3.0786 -2.0016 0.9731
5.9394 -2.6592 -2.0016 0.9731
6.0310 -2.4442 -2.0016 0.9731
6.2589 -1.7816 -2.0016 0.9731
6.3188 -1.5557 -2.0016 0.9731
6.4494 -0.8672 -2.0016 0.9731
6.4764 -0.6351 -2.0016 0.9731
6.4950 -0.4022 -2.0016 0.9731
6.5006 0.2986 -2.0016 0.9731
6.4857 0.5318 -2.0016 0.9731
6.4624 0.7643 -2.0016 0.9731
6.4308 0.9958 -2.0016 0.9731
6.3909 1.2261 -2.0016 0.9731
6.3428 1.4547 -2.0016 0.9731
6.2865 1.6815 -2.0016 0.9731
6.1496 2.1283 -2.0016 0.9731
6.0692 2.3478 -2.0016 0.9731
5.9810 2.5641 -2.0016 0.9731
5.7816 2.9868 -2.0016 0.9731
5.4269 3.5911 -2.0016 0.9731
5.2945 3.7836 -2.0016 0.9731
4.6983 4.5026 -2.0016 0.9731
4.5336 4.6684 -2.0016 0.9731
4.0053 5.1288 -2.0016 0.9731
3.2299 5.6494 -2.0016 0.9731
3.0250 5.7617 -2.0016 0.9731
2.8161 5.8666 -2.0016 0.9731
2.6037 5.9639 -2.0016 0.9731
1.9473 6.2093 -2.0016 0.9731
0.8070 6.4572 -2.0016 0.9731
0.1080 6.5066 -2.0016 0.9731
-0.1257 6.5063 -2.0016 0.9731
-0.3592 6.4976 -2.0016 0.9731
-1.2856 6.3792 -2.0016 0.9731
-1.9641 6.2040 -2.0016 0.9731
-2.1856 6.1295 -2.0016 0.9731
-2.6198 5.9568 -2.0016 0.9731
-2.8320 5.8589 -2.0016 0.9731
-3.2451 5.6406 -2.0016 0.9731
-3.6416 5.3932 -2.0016 0.9731
-3.8328 5.2589 -2.0016 0.9731
-4.2004 4.9703 -2.0016 0.9731
-4.5462 4.6561 -2.0016 0.9731
-5.1659 3.9573 -2.0016 0.9731
-5.5615 3.3789 -2.0016 0.9731
-5.6792 3.1770 -2.0016 0.9731
-5.7896 2.9711 -2.0016 0.9731
-5.8926 2.7613 -2.0016 0.9731
-5.9879 2.5479 -2.0016 0.9731
-6.0755 2.3313 -2.0016 0.9731
-6.2272 1.8893 -2.0016 0.9731
-6.3467 1.4376 -2.0016 0.9731
-6.3942 1.2088 -2.0016 0.9731
-6.4335 0.9784 -2.0016 0.9731
-6.4871 0.5142 -2.0016 0.9731
-6.5014 0.2810 -2.0016 0.9731
-6.5073 0.0474 -2.0016 0.9731
-6.4747 -0.6526 -2.0016 0.9731
-6.4471 -0.8847 -2.0016 0.9731
-2.3374 -5.0740 -1.8570 0.9767
-1.9672 -5.2287 -1.8570 0.9767
-1.5869 -5.3564 -1.8570 0.9767
-0.8038 -5.5284 -1.8570 0.9767
-0.6048 -5.5537 -1.8570 0.9767
-0.2047 -5.5827 -1.8570 0.9767
0.1965 -5.5830 -1.8570 0.9767
0.3968 -5.5724 -1.8570 0.9767
0.5966 -5.5545 -1.8570 0.9767
0.7957 -5.5295 -1.8570 0.9767
0.9937 -5.4974 -1.8570 0.9767
1.1904 -5.4582 -1.8570 0.9767
1.3856 -5.4119 -1.8570 0.9767
1.7704 -5.2985 -1.8570 0.9767
1.9595 -5.2316 -1.8570 0.9767
2.0530 -4.4740 -1.6363 0.9795
2.2330 -4.0679 -1.5425 0.9806
3.3616 -4.4619 -1.8570 0.9767
3.7937 -4.6761 -2.0016 0.9749
3.9591 -4.5369 -2.0016 0.9749
4.1195 -4.3918 -2.0016 0.9749
4.2745 -4.2410 -2.0016 0.9749
4.5678 -3.9234 -2.0016 0.9749
4.7057 -3.7568 -2.0016 0.9749
4.9632 -3.4095 -2.0016 0.9749
5.1951 -3.0445 -2.0016 0.9749
5.3010 -2.8560 -2.0016 0.9749
5.4002 -2.6638 -2.0016 0.9749
5.6553 -2.0677 -2.0016 0.9749
5.7259 -1.8633 -2.0016 0.9749
5.9666 -0.8108 -2.0016 0.9749
5.9919 -0.5960 -2.0016 0.9749
6.0192 -0.1645 -2.0016 0.9749
6.0212 0.0517 -2.0016 0.9749
6.0155 0.2679 -2.0016 0.9749
6.0020 0.4837 -2.0016 0.9749
5.9807 0.6989 -2.0016 0.9749
5.8191 1.5478 -2.0016 0.9749
5.6930 1.9614 -2.0016 0.9749
5.4491 2.5622 -2.0016 0.9749
5.3536 2.7562 -2.0016 0.9749
5.2512 2.9467 -2.0016 0.9749
5.1420 3.1333 -2.0016 0.9749
4.0434 4.4619 -2.0016 0.9749
3.7128 4.7406 -2.0016 0.9749
3.5402 4.8708 -2.0016 0.9749
2.4169 5.5151 -2.0016 0.9749
2.2173 5.5983 -2.0016 0.9749
1.6025 5.8043 -2.0016 0.9749
1.3931 5.8581 -2.0016 0.9749
0.7551 5.9739 -2.0016 0.9749
0.1084 6.0205 -2.0016 0.9749
-0.1079 6.0205 -2.0016 0.9749
-0.5396 5.9972 -2.0016 0.9749
-0.7546 5.9740 -2.0016 0.9749
-0.9686 5.9430 -2.0016 0.9749
-1.1814 5.9044 -2.0016 0.9749
-1.8094 5.7432 -2.0016 0.9749
-2.0144 5.6745 -2.0016 0.9749
-2.2169 5.5985 -2.0016 0.9749
-2.4165 5.5153 -2.0016 0.9749
-2.8060 5.3277 -2.0016 0.9749
-2.9955 5.2235 -2.0016 0.9749
-3.3626 4.9950 -2.0016 0.9749
-3.8802 4.6045 -2.0016 0.9749
-4.2007 4.3142 -2.0016 0.9749
-4.7750 3.6684 -2.0016 0.9749
-4.9036 3.4946 -2.0016 0.9749
-5.0259 3.3163 -2.0016 0.9749
-5.1418 3.1337 -2.0016 0.9749
-5.4489 2.5627 -2.0016 0.9749
-5.5374 2.3654 -2.0016 0.9749
-5.6929 1.9619 -2.0016 0.9749
-5.7596 1.7562 -2.0016 0.9749
-5.8190 1.5483 -2.0016 0.9749
-5.9807 0.6993 -2.0016 0.9749
-6.0019 0.4842 -2.0016 0.9749
-6.0094 -0.3800 -2.0016 0.9749
-5.9337 -1.0240 -2.0016 0.9749
-5.8449 -1.4472 -2.0016 0.9749
-5.7260 -1.8629 -2.0016 0.9749
-5.6554 -2.0673 -2.0016 0.9749
-5.4669 -2.2240 -1.9619 0.9754
-4.9183 -2.6493 -1.8570 0.9767
-4.8200 -2.8242 -1.8570 0.9767
-4.2382 -3.6396 -1.8570 0.9767
-4.1047 -3.7895 -1.8570 0.9767
-3.9660 -3.9344 -1.8570 0.9767
-3.6735 -4.2089 -1.8570 0.9767
-3.5200 -4.3380 -1.8570 0.9767
-3.1996 -4.5795 -1.8570 0.9767
-3.0331 -4.6914 -1.8570 0.9767
-2.8627 -4.7973 -1.8570 0.9767
-2.6886 -4.8969 -1.8570 0.9767
-2.3303 -5.0773 -1.8570 0.9767
-1.9599 -5.2314 -1.8570 0.9767
-1.7708 -5.2984 -1.8570 0.9767
-1.5795 -5.3586 -1.8570 0.9767
-1.3860 -5.4118 -1.8570 0.9767
-0.9941 -5.4973 -1.8570 0.9767
-0.7961 -5.5295 -1.8570 0.9767
-0.1969 -5.5830 -1.8570 0.9767
0.2042 -5.5828 -1.8570 0.9767
0.4046 -5.5718 -1.8570 0.9767
0.6044 -5.5537 -1.8570 0.9767
0.8034 -5.5284 -1.8570 0.9767
1.0013 -5.4960 -1.8570 0.9767
1.1980 -5.4565 -1.8570 0.9767
1.9668 -5.2288 -1.8570 0.9767
2.2403 -4.0677 -1.5437 0.9806
2.4326 -4.0642 -1.5745 0.9802
3.0393 -4.6874 -1.8570 0.9767
3.2056 -4.5752 -1.8570 0.9767
3.3678 -4.4572 -1.8570 0.9767
3.8002 -4.6708 -2.0016 0.9749
4.2804 -4.2351 -2.0016 0.9749
4.4297 -4.0787 -2.0016 0.9749
4.5733 -3.9170 -2.0016 0.9749
4.9679 -3.4025 -2.0016 0.9749
5.0869 -3.2220 -2.0016 0.9749
5.3050 -2.8486 -2.0016 0.9749
5.4958 -2.4606 -2.0016 0.9749
5.7914 -1.6485 -2.0016 0.9749
5.9677 -0.8025 -2.0016 0.9749
6.0099 -0.3721 -2.0016 0.9749
6.0194 -0.1561 -2.0016 0.9749
6.0151 0.2763 -2.0016 0.9749
5.9505 0.9214 -2.0016 0.9749
5.9136 1.1345 -2.0016 0.9749
5.7573 1.7638 -2.0016 0.9749
5.5343 2.3726 -2.0016 0.9749
5.3498 2.7637 -2.0016 0.9749
5.2471 2.9540 -2.0016 0.9749
5.0216 3.3229 -2.0016 0.9749
4.8990 3.5010 -2.0016 0.9749
4.7702 3.6747 -2.0016 0.9749
4.6352 3.8436 -2.0016 0.9749
4.4942 4.0075 -2.0016 0.9749
4.1950 4.3197 -2.0016 0.9749
4.0372 4.4675 -2.0016 0.9749
2.9886 5.2274 -2.0016 0.9749
2.7990 5.3313 -2.0016 0.9749
2.2095 5.6014 -2.0016 0.9749
2.0070 5.6771 -2.0016 0.9749
1.5944 5.8065 -2.0016 0.9749
0.9608 5.9443 -2.0016 0.9749
0.7468 5.9750 -2.0016 0.9749
0.3161 6.0131 -2.0016 0.9749
0.1000 6.0206 -2.0016 0.9749
-0.1163 6.0203 -2.0016 0.9749
-0.3323 6.0123 -2.0016 0.9749
-0.9769 5.9417 -2.0016 0.9749
-1.1896 5.9028 -2.0016 0.9749
-1.6101 5.8022 -2.0016 0.9749
-2.4241 5.5119 -2.0016 0.9749
-3.0028 5.2193 -2.0016 0.9749
-3.3696 4.9904 -2.0016 0.9749
-3.5466 4.8662 -2.0016 0.9749
-3.7190 4.7357 -2.0016 0.9749
-3.8866 4.5991 -2.0016 0.9749
-4.2067 4.3083 -2.0016 0.9749
-4.3586 4.1545 -2.0016 0.9749
-4.5050 3.9953 -2.0016 0.9749
-5.1461 3.1265 -2.0016 0.9749
-5.2551 2.9398 -2.0016 0.9749
-5.3572 2.7492 -2.0016 0.9749
-5.4525 2.5551 -2.0016 0.9749
-5.5407 2.3576 -2.0016 0.9749
-5.6218 2.1572 -2.0016 0.9749
-5.6956 1.9540 -2.0016 0.9749
-5.8211 1.5402 -2.0016 0.9749
-5.8727 1.3302 -2.0016 0.9749
-5.9166 1.1185 -2.0016 0.9749
-5.9530 0.9053 -2.0016 0.9749
-5.9817 0.6910 -2.0016 0.9749
-6.0026 0.4758 -2.0016 0.9749
-6.0158 0.2600 -2.0016 0.9749
-6.0190 -0.1724 -2.0016 0.9749
-6.0089 -0.3884 -2.0016 0.9749
-5.9655 -0.8186 -2.0016 0.9749
-5.9323 -1.0323 -2.0016 0.9749
-1.8286 -4.8602 -1.8570 0.9782
-1.4751 -4.9789 -1.8570 0.9782
-0.9312 -5.1086 -1.8570 0.9782
-0.5622 -5.1623 -1.8570 0.9782
-0.3765 -5.1791 -1.8570 0.9782
-0.0038 -5.1928 -1.8570 0.9782
0.1826 -5.1896 -1.8570 0.9782
0.5546 -5.1631 -1.8570 0.9782
0.9237 -5.1100 -1.8570 0.9782
1.2880 -5.0305 -1.8570 0.9782
1.4678 -4.9810 -1.8570 0.9782
1.9948 -4.7943 -1.8570 0.9782
2.0007 -4.3600 -1.7155 0.9798
2.0523 -4.0794 -1.6330 0.9808
2.4103 -4.0398 -1.6823 0.9802
2.8190 -4.3610 -1.8570 0.9782
2.9738 -4.2570 -1.8570 0.9782
3.2716 -4.0326 -1.8570 0.9782
3.8292 -4.0823 -2.0016 0.9765
3.9733 -3.9422 -2.0016 0.9765
4.4967 -3.3328 -2.0016 0.9765
4.6134 -3.1692 -2.0016 0.9765
5.1053 -2.2943 -2.0016 0.9765
5.2567 -1.9220 -2.0016 0.9765
5.3224 -1.7320 -2.0016 0.9765
5.4329 -1.3456 -2.0016 0.9765
5.5155 -0.9523 -2.0016 0.9765
5.5461 -0.7536 -2.0016 0.9765
5.5696 -0.5540 -2.0016 0.9765
5.5950 -0.1529 -2.0016 0.9765
5.5969 0.0481 -2.0016 0.9765
5.5916 0.2490 -2.0016 0.9765
5.4983 1.0469 -2.0016 0.9765
5.4572 1.2436 -2.0016 0.9765
5.4090 1.4388 -2.0016 0.9765
5.3539 1.6320 -2.0016 0.9765
5.1473 2.1983 -2.0016 0.9765
4.9763 2.5620 -2.0016 0.9765
4.7796 2.9125 -2.0016 0.9765
4.6720 3.0822 -2.0016 0.9765
4.4388 3.4095 -2.0016 0.9765
4.3135 3.5667 -2.0016 0.9765
4.1826 3.7193 -2.0016 0.9765
4.0464 3.8671 -2.0016 0.9765
3.9049 4.0099 -2.0016 0.9765
3.7585 4.1475 -2.0016 0.9765
3.6071 4.2797 -2.0016 0.9765
3.4511 4.4065 -2.0016 0.9765
3.2907 4.5276 -2.0016 0.9765
2.7848 4.8551 -2.0016 0.9765
2.2466 5.1264 -2.0016 0.9765
1.8729 5.2744 -2.0016 0.9765
1.4896 5.3952 -2.0016 0.9765
0.9008 5.5241 -2.0016 0.9765
0.7019 5.5529 -2.0016 0.9765
0.5021 5.5745 -2.0016 0.9765
-0.5016 5.5746 -2.0016 0.9765
-0.7014 5.5530 -2.0016 0.9765
-1.0981 5.4883 -2.0016 0.9765
-1.2945 5.4453 -2.0016 0.9765
-1.4891 5.3954 -2.0016 0.9765
-1.6819 5.3384 -2.0016 0.9765
-2.4288 5.0427 -2.0016 0.9765
-2.6083 4.9522 -2.0016 0.9765
-2.9569 4.7523 -2.0016 0.9765
-3.2903 4.5278 -2.0016 0.9765
-3.4508 4.4068 -2.0016 0.9765
-3.6068 4.2800 -2.0016 0.9765
-3.7581 4.1478 -2.0016 0.9765
-3.9046 4.0102 -2.0016 0.9765
-4.3132 3.5670 -2.0016 0.9765
-4.4385 3.4099 -2.0016 0.9765
-4.5580 3.2483 -2.0016 0.9765
-4.8809 2.7394 -2.0016 0.9765
-5.0649 2.3821 -2.0016 0.9765
-5.1472 2.1987 -2.0016 0.9765
-5.3537 1.6325 -2.0016 0.9765
-5.4089 1.4392 -2.0016 0.9765
-5.4571 1.2441 -2.0016 0.9765
-5.5790 0.4500 -2.0016 0.9765
-5.5950 -0.1525 -2.0016 0.9765
-5.5859 -0.3533 -2.0016 0.9765
-5.5462 -0.7532 -2.0016 0.9765
-5.5156 -0.9518 -2.0016 0.9765
-5.4330 -1.3452 -2.0016 0.9765
-5.3812 -1.5394 -2.0016 0.9765
-5.2569 -1.9216 -2.0016 0.9765
-5.1845 -2.1091 -2.0016 0.9765
-4.2804 -2.9399 -1.8570 0.9782
-3.8155 -3.5224 -1.8570 0.9782
-3.5529 -3.7871 -1.8570 0.9782
-3.2719 -4.0323 -1.8570 0.9782
-3.1250 -4.1472 -1.8570 0.9782
-2.9741 -4.2567 -1.8570 0.9782
-2.4992 -4.5518 -1.8570 0.9782
-2.3341 -4.6386 -1.8570 0.9782
-2.1661 -4.7194 -1.8570 0.9782
-1.9952 -4.7942 -1.8570 0.9782
-1.4682 -4.9809 -1.8570 0.9782
-1.1069 -5.0734 -1.8570 0.9782
-0.1830 -5.1896 -1.8570 0.9782
0.1899 -5.1893 -1.8570 0.9782
0.5618 -5.1623 -1.8570 0.9782
0.7467 -5.1388 -1.8570 0.9782
1.1136 -5.0720 -1.8570 0.9782
1.4747 -4.9790 -1.8570 0.9782
1.8282 -4.8603 -1.8570 0.9782
2.0507 -4.0621 -1.6273 0.9809
2.2323 -4.0531 -1.6547 0.9805
2.9797 -4.2528 -1.8570 0.9782
3.1305 -4.1431 -1.8570 0.9782
3.2772 -4.0280 -1.8570 0.9782
4.3790 -3.4860 -2.0016 0.9765
4.6178 -3.1628 -2.0016 0.9765
4.7284 -2.9949 -2.0016 0.9765
5.1084 -2.2872 -2.0016 0.9765
5.2594 -1.9147 -2.0016 0.9765
5.3248 -1.7246 -2.0016 0.9765
5.3833 -1.5323 -2.0016 0.9765
5.4348 -1.3381 -2.0016 0.9765
5.4793 -1.1421 -2.0016 0.9765
5.5168 -0.9446 -2.0016 0.9765
5.5472 -0.7459 -2.0016 0.9765
5.5704 -0.5463 -2.0016 0.9765
5.5952 -0.1451 -2.0016 0.9765
5.5968 0.0559 -2.0016 0.9765
5.5912 0.2568 -2.0016 0.9765
5.4969 1.0545 -2.0016 0.9765
5.4554 1.2512 -2.0016 0.9765
5.4070 1.4463 -2.0016 0.9765
5.3516 1.6395 -2.0016 0.9765
5.2201 2.0193 -2.0016 0.9765
5.1443 2.2054 -2.0016 0.9765
4.7756 2.9191 -2.0016 0.9765
4.6677 3.0887 -2.0016 0.9765
4.5538 3.2543 -2.0016 0.9765
4.3085 3.5727 -2.0016 0.9765
4.1774 3.7251 -2.0016 0.9765
3.7527 4.1527 -2.0016 0.9765
3.6012 4.2848 -2.0016 0.9765
3.2844 4.5321 -2.0016 0.9765
3.1196 4.6471 -2.0016 0.9765
2.7780 4.8590 -2.0016 0.9765
2.6018 4.9556 -2.0016 0.9765
2.4222 5.0458 -2.0016 0.9765
2.2394 5.1296 -2.0016 0.9765
1.6749 5.3406 -2.0016 0.9765
1.4821 5.3973 -2.0016 0.9765
1.2873 5.4470 -2.0016 0.9765
1.0909 5.4898 -2.0016 0.9765
0.6941 5.5539 -2.0016 0.9765
0.0929 5.5963 -2.0016 0.9765
-0.1081 5.5960 -2.0016 0.9765
-0.5094 5.5739 -2.0016 0.9765
-0.9081 5.5229 -2.0016 0.9765
-1.1058 5.4868 -2.0016 0.9765
-1.3020 5.4435 -2.0016 0.9765
-1.8798 5.2720 -2.0016 0.9765
-2.2533 5.1235 -2.0016 0.9765
-2.6152 4.9486 -2.0016 0.9765
-2.7912 4.8515 -2.0016 0.9765
-2.9636 4.7481 -2.0016 0.9765
-3.1321 4.6387 -2.0016 0.9765
-3.2966 4.5232 -2.0016 0.9765
-3.6127 4.2750 -2.0016 0.9765
-3.9102 4.0047 -2.0016 0.9765
-4.0515 3.8617 -2.0016 0.9765
-4.1875 3.7138 -2.0016 0.9765
-4.4432 3.4037 -2.0016 0.9765
-4.5626 3.2420 -2.0016 0.9765
-4.6760 3.0761 -2.0016 0.9765
-4.8847 2.7326 -2.0016 0.9765
-5.0682 2.3750 -2.0016 0.9765
-5.2256 2.0052 -2.0016 0.9765
-5.4588 1.2365 -2.0016 0.9765
-5.4997 1.0397 -2.0016 0.9765
-5.5601 0.6423 -2.0016 0.9765
-5.5919 0.2417 -2.0016 0.9765
-5.5969 0.0407 -2.0016 0.9765
-5.5689 -0.5613 -2.0016 0.9765
-5.5142 -0.9595 -2.0016 0.9765
-2.0274 -4.4012 -1.8570 0.9795
-1.2088 -4.6926 -1.8570 0.9795
-0.6972 -4.7953 -1.8570 0.9795
-0.5246 -4.8173 -1.8570 0.9795
-0.1775 -4.8425 -1.8570 0.9795
-0.0036 -4.8458 -1.8570 0.9795
0.1704 -4.8428 -1.8570 0.9795
1.3697 -4.6482 -1.8570 0.9795
1.6997 -4.5379 -1.8570 0.9795
1.8615 -4.4739 -1.8570 0.9795
2.0007 -4.3600 -1.8383 0.9797
2.6306 -4.0695 -1.8570 0.9795
2.7751 -3.9725 -1.8570 0.9795
2.9159 -3.8703 -1.8570 0.9795
3.0530 -3.7631 -1.8570 0.9795
3.1861 -3.6510 -1.8570 0.9795
3.3151 -3.5343 -1.8570 0.9795
3.8374 -3.5432 -2.0016 0.9779
3.9622 -3.4031 -2.0016 0.9779
4.0818 -3.2587 -2.0016 0.9779
4.1962 -3.1100 -2.0016 0.9779
4.3051 -2.9574 -2.0016 0.9779
4.4085 -2.8009 -2.0016 0.9779
4.5062 -2.6408 -2.0016 0.9779
4.6841 -2.3106 -2.0016 0.9779
5.1469 -0.8886 -2.0016 0.9779
5.2126 -0.3300 -2.0016 0.9779
5.2228 0.0449 -2.0016 0.9779
5.2062 0.4196 -2.0016 0.9779
5.1877 0.6062 -2.0016 0.9779
5.1626 0.7921 -2.0016 0.9779
4.9382 1.7014 -2.0016 0.9779
4.8739 1.8776 -2.0016 0.9779
4.7266 2.2225 -2.0016 0.9779
4.5549 2.5559 -2.0016 0.9779
4.2537 3.0309 -2.0016 0.9779
3.9031 3.4707 -2.0016 0.9779
3.7760 3.6086 -2.0016 0.9779
3.6440 3.7419 -2.0016 0.9779
3.5073 3.8703 -2.0016 0.9779
3.3660 3.9937 -2.0016 0.9779
3.2205 4.1120 -2.0016 0.9779
3.0708 4.2250 -2.0016 0.9779
2.7597 4.4344 -2.0016 0.9779
2.5987 4.5307 -2.0016 0.9779
1.9233 4.8560 -2.0016 0.9779
1.7477 4.9219 -2.0016 0.9779
1.5699 4.9815 -2.0016 0.9779
0.8406 5.1549 -2.0016 0.9779
0.4685 5.2020 -2.0016 0.9779
-0.4681 5.2020 -2.0016 0.9779
-0.6546 5.1819 -2.0016 0.9779
-0.8402 5.1550 -2.0016 0.9779
-1.0247 5.1215 -2.0016 0.9779
-1.5695 4.9816 -2.0016 0.9779
-1.7473 4.9221 -2.0016 0.9779
-1.9229 4.8562 -2.0016 0.9779
-2.0961 4.7840 -2.0016 0.9779
-2.2665 4.7057 -2.0016 0.9779
-2.4340 4.6212 -2.0016 0.9779
-3.0704 4.2252 -2.0016 0.9779
-3.2202 4.1123 -2.0016 0.9779
-3.3657 3.9940 -2.0016 0.9779
-3.5070 3.8706 -2.0016 0.9779
-3.9028 3.4710 -2.0016 0.9779
-4.0249 3.3287 -2.0016 0.9779
-4.1419 3.1820 -2.0016 0.9779
-4.2534 3.0312 -2.0016 0.9779
-4.3595 2.8766 -2.0016 0.9779
-4.4600 2.7182 -2.0016 0.9779
-4.7264 2.2229 -2.0016 0.9779
-4.8737 1.8780 -2.0016 0.9779
-4.9380 1.7018 -2.0016 0.9779
-5.1626 0.7925 -2.0016 0.9779
-5.1877 0.6066 -2.0016 0.9779
-5.2061 0.4200 -2.0016 0.9779
-5.2211 -0.1423 -2.0016 0.9779
-5.2126 -0.3296 -2.0016 0.9779
-5.1974 -0.5166 -2.0016 0.9779
-5.1755 -0.7029 -2.0016 0.9779
-5.0699 -1.2553 -2.0016 0.9779
-4.9668 -1.6159 -2.0016 0.9779
-4.9056 -1.7932 -2.0016 0.9779
-4.7642 -2.1406 -2.0016 0.9779
-4.5207 -2.2296 -1.9317 0.9786
-4.1809 -2.4497 -1.8570 0.9795
-3.8933 -2.8851 -1.8570 0.9795
-3.6762 -3.1570 -1.8570 0.9795
-3.5605 -3.2870 -1.8570 0.9795
-3.0533 -3.7628 -1.8570 0.9795
-2.7754 -3.9722 -1.8570 0.9795
-2.6310 -4.0693 -1.8570 0.9795
-2.3321 -4.2476 -1.8570 0.9795
-1.0329 -4.7344 -1.8570 0.9795
-0.6905 -4.7963 -1.8570 0.9795
-0.5179 -4.8180 -1.8570 0.9795
-0.3446 -4.8335 -1.8570 0.9795
-0.1708 -4.8427 -1.8570 0.9795
0.0032 -4.8458 -1.8570 0.9795
0.3509 -4.8330 -1.8570 0.9795
0.5242 -4.8173 -1.8570 0.9795
0.6968 -4.7954 -1.8570 0.9795
1.0392 -4.7330 -1.8570 0.9795
1.3761 -4.6462 -1.8570 0.9795
1.7060 -4.5355 -1.8570 0.9795
2.0007 -4.3441 -1.8328 0.9797
2.0276 -4.0162 -1.7241 0.9809
2.3946 -4.0008 -1.7868 0.9802
2.9213 -3.8662 -1.8570 0.9795
3.0582 -3.7588 -1.8570 0.9795
3.3201 -3.5297 -1.8570 0.9795
3.4446 -3.4082 -1.8570 0.9795
3.8423 -3.5379 -2.0016 0.9779
4.0863 -3.2530 -2.0016 0.9779
4.3092 -2.9514 -2.0016 0.9779
4.5099 -2.6345 -2.0016 0.9779
4.6016 -2.4709 -2.0016 0.9779
4.8406 -1.9618 -2.0016 0.9779
4.9079 -1.7867 -2.0016 0.9779
4.9689 -1.6094 -2.0016 0.9779
5.0235 -1.4299 -2.0016 0.9779
5.0716 -1.2486 -2.0016 0.9779
5.1131 -1.0657 -2.0016 0.9779
5.1481 -0.8815 -2.0016 0.9779
5.1981 -0.5097 -2.0016 0.9779
5.2130 -0.3228 -2.0016 0.9779
5.2228 0.0521 -2.0016 0.9779
5.2056 0.4268 -2.0016 0.9779
5.0456 1.3496 -2.0016 0.9779
4.8005 2.0580 -2.0016 0.9779
4.7235 2.2291 -2.0016 0.9779
4.6404 2.3972 -2.0016 0.9779
4.5513 2.5623 -2.0016 0.9779
4.4564 2.7241 -2.0016 0.9779
4.3557 2.8823 -2.0016 0.9779
4.1377 3.1874 -2.0016 0.9779
4.0206 3.3339 -2.0016 0.9779
3.7709 3.6139 -2.0016 0.9779
3.6388 3.7469 -2.0016 0.9779
3.5019 3.8752 -2.0016 0.9779
3.2148 4.1165 -2.0016 0.9779
2.0898 4.7867 -2.0016 0.9779
1.9166 4.8587 -2.0016 0.9779
1.7409 4.9244 -2.0016 0.9779
1.0180 5.1229 -2.0016 0.9779
0.6478 5.1827 -2.0016 0.9779
0.4613 5.2026 -2.0016 0.9779
0.2742 5.2158 -2.0016 0.9779
-0.1008 5.2221 -2.0016 0.9779
-0.2883 5.2151 -2.0016 0.9779
-0.4753 5.2014 -2.0016 0.9779
-0.6618 5.1809 -2.0016 0.9779
-0.8474 5.1538 -2.0016 0.9779
-1.2150 5.0797 -2.0016 0.9779
-1.9297 4.8535 -2.0016 0.9779
-2.2730 4.7025 -2.0016 0.9779
-2.7655 4.4308 -2.0016 0.9779
-3.0763 4.2209 -2.0016 0.9779
-3.5123 3.8657 -2.0016 0.9779
-3.6489 3.7371 -2.0016 0.9779
-3.7807 3.6037 -2.0016 0.9779
-3.9077 3.4656 -2.0016 0.9779
-4.0296 3.3230 -2.0016 0.9779
-4.1463 3.1762 -2.0016 0.9779
-4.2576 3.0253 -2.0016 0.9779
-4.3635 2.8705 -2.0016 0.9779
-4.5583 2.5500 -2.0016 0.9779
-4.6469 2.3847 -2.0016 0.9779
-4.8060 2.0450 -2.0016 0.9779
-4.9404 1.6949 -2.0016 0.9779
-5.0940 1.1538 -2.0016 0.9779
-5.1321 0.9702 -2.0016 0.9779
-5.1885 0.5994 -2.0016 0.9779
-5.2229 0.0380 -2.0016 0.9779
-5.2209 -0.1495 -2.0016 0.9779
-5.1457 -0.8954 -2.0016 0.9779
-1.7492 -4.1865 -1.8570 0.9806
-1.4442 -4.3013 -1.8570 0.9806
-0.9734 -4.4316 -1.8570 0.9806
-0.8136 -4.4637 -1.8570 0.9806
-0.6528 -4.4900 -1.8570 0.9806
-0.1662 -4.5342 -1.8570 0.9806
-0.0033 -4.5372 -1.8570 0.9806
0.4846 -4.5113 -1.8570 0.9806
0.6462 -4.4910 -1.8570 0.9806
0.8071 -4.4649 -1.8570 0.9806
0.9668 -4.4330 -1.8570 0.9806
1.1254 -4.3955 -1.8570 0.9806
1.2825 -4.3522 -1.8570 0.9806
1.5915 -4.2490 -1.8570 0.9806
1.7430 -4.1891 -1.8570 0.9806
2.1833 -3.9774 -1.8570 0.9806
2.5984 -3.7196 -1.8570 0.9806
2.7302 -3.6239 -1.8570 0.9806
2.9833 -3.4186 -1.8570 0.9806
3.1041 -3.3093 -1.8570 0.9806
3.2209 -3.1957 -1.8570 0.9806
3.3335 -3.0780 -1.8570 0.9806
3.7099 -3.1865 -2.0016 0.9791
3.9290 -2.9120 -2.0016 0.9791
4.1278 -2.6226 -2.0016 0.9791
4.3054 -2.3196 -2.0016 0.9791
4.4608 -2.0046 -2.0016 0.9791
4.5299 -1.8432 -2.0016 0.9791
4.6505 -1.5134 -2.0016 0.9791
4.7018 -1.3454 -2.0016 0.9791
4.7471 -1.1757 -2.0016 0.9791
4.7862 -1.0046 -2.0016 0.9791
4.8192 -0.8321 -2.0016 0.9791
4.8665 -0.4841 -2.0016 0.9791
4.8887 -0.1336 -2.0016 0.9791
4.8575 0.5676 -2.0016 0.9791
4.8042 0.9147 -2.0016 0.9791
4.7683 1.0866 -2.0016 0.9791
4.7262 1.2571 -2.0016 0.9791
4.6780 1.4260 -2.0016 0.9791
4.6238 1.5930 -2.0016 0.9791
4.5636 1.7580 -2.0016 0.9791
4.4257 2.0810 -2.0016 0.9791
4.3481 2.2385 -2.0016 0.9791
4.2649 2.3932 -2.0016 0.9791
4.1762 2.5448 -2.0016 0.9791
3.9829 2.8379 -2.0016 0.9791
3.7689 3.1164 -2.0016 0.9791
3.6546 3.2498 -2.0016 0.9791
3.2840 3.6239 -2.0016 0.9791
3.1518 3.7395 -2.0016 0.9791
3.0155 3.8502 -2.0016 0.9791
2.4332 4.2422 -2.0016 0.9791
2.2793 4.3269 -2.0016 0.9791
1.9630 4.4793 -2.0016 0.9791
1.8009 4.5469 -2.0016 0.9791
1.6365 4.6086 -2.0016 0.9791
1.1314 4.7578 -2.0016 0.9791
0.9599 4.7954 -2.0016 0.9791
0.7871 4.8268 -2.0016 0.9791
0.6133 4.8519 -2.0016 0.9791
0.4387 4.8708 -2.0016 0.9791
0.0880 4.8897 -2.0016 0.9791
-0.2631 4.8834 -2.0016 0.9791
-0.6129 4.8520 -2.0016 0.9791
-0.7867 4.8268 -2.0016 0.9791
-0.9595 4.7955 -2.0016 0.9791
-1.1310 4.7579 -2.0016 0.9791
-1.8005 4.5470 -2.0016 0.9791
-1.9626 4.4794 -2.0016 0.9791
-2.5836 4.1523 -2.0016 0.9791
-3.1515 3.7397 -2.0016 0.9791
-3.2837 3.6241 -2.0016 0.9791
-3.5353 3.3792 -2.0016 0.9791
-3.6543 3.2500 -2.0016 0.9791
-3.9826 2.8383 -2.0016 0.9791
-4.1760 2.5451 -2.0016 0.9791
-4.2647 2.3936 -2.0016 0.9791
-4.5634 1.7584 -2.0016 0.9791
-4.6236 1.5934 -2.0016 0.9791
-4.7261 1.2575 -2.0016 0.9791
-4.7682 1.0870 -2.0016 0.9791
-1.9860 0.3049 -0.8223 0.9914
-1.9551 0.2286 -0.8056 0.9915
-1.9578 -0.1946 -0.8052 0.9915
-1.9487 -0.2646 -0.8049 0.9915
-2.1389 -0.3691 -0.8883 0.9907
-4.7863 -1.0042 -2.0016 0.9791
-4.7472 -1.1754 -2.0016 0.9791
-4.7019 -1.3451 -2.0016 0.9791
-4.6506 -1.5130 -2.0016 0.9791
-4.5300 -1.8428 -2.0016 0.9791
-4.3861 -2.1632 -2.0016 0.9791
-4.1413 -2.2308 -1.9252 0.9799
-3.9147 -2.2938 -1.8570 0.9806
-3.8299 -2.4328 -1.8570 0.9806
-3.6454 -2.7014 -1.8570 0.9806
-3.5461 -2.8305 -1.8570 0.9806
-3.3338 -3.0777 -1.8570 0.9806
-3.2211 -3.1954 -1.8570 0.9806
-2.9835 -3.4184 -1.8570 0.9806
-2.8589 -3.5233 -1.8570 0.9806
-2.4635 -3.8103 -1.8570 0.9806
-2.3250 -3.8962 -1.8570 0.9806
-2.1837 -3.9772 -1.8570 0.9806
-2.0395 -4.0530 -1.8570 0.9806
-1.7433 -4.1890 -1.8570 0.9806
-1.4382 -4.3033 -1.8570 0.9806
-1.1257 -4.3954 -1.8570 0.9806
-0.6466 -4.4909 -1.8570 0.9806
-0.4849 -4.5113 -1.8570 0.9806
0.0030 -4.5372 -1.8570 0.9806
0.4908 -4.5106 -1.8570 0.9806
0.8133 -4.4638 -1.8570 0.9806
0.9730 -4.4317 -1.8570 0.9806
1.1315 -4.3939 -1.8570 0.9806
1.2885 -4.3504 -1.8570 0.9806
1.7488 -4.1867 -1.8570 0.9806
1.8980 -4.1212 -1.8570 0.9806
2.1889 -3.9743 -1.8570 0.9806
2.3302 -3.8932 -1.8570 0.9806
2.7353 -3.6201 -1.8570 0.9806
2.8635 -3.5195 -1.8570 0.9806
3.1087 -3.3049 -1.8570 0.9806
3.3378 -3.0733 -1.8570 0.9806
3.7143 -3.1813 -2.0016 0.9791
3.9331 -2.9066 -2.0016 0.9791
4.0349 -2.7635 -2.0016 0.9791
4.3086 -2.3136 -2.0016 0.9791
4.3889 -2.1574 -2.0016 0.9791
4.4635 -1.9984 -2.0016 0.9791
4.5324 -1.8369 -2.0016 0.9791
4.6526 -1.5069 -2.0016 0.9791
4.7037 -1.3389 -2.0016 0.9791
4.7487 -1.1691 -2.0016 0.9791
4.8029 0.9214 -2.0016 0.9791
4.7667 1.0933 -2.0016 0.9791
4.7244 1.2637 -2.0016 0.9791
4.6760 1.4325 -2.0016 0.9791
4.5611 1.7644 -2.0016 0.9791
4.4949 1.9270 -2.0016 0.9791
4.4228 2.0872 -2.0016 0.9791
4.1727 2.5506 -2.0016 0.9791
4.0784 2.6988 -2.0016 0.9791
3.7646 3.1217 -2.0016 0.9791
3.5309 3.3838 -2.0016 0.9791
3.4071 3.5084 -2.0016 0.9791
3.2789 3.6285 -2.0016 0.9791
2.8698 3.9600 -2.0016 0.9791
2.7257 4.0605 -2.0016 0.9791
1.9567 4.4820 -2.0016 0.9791
1.7945 4.5494 -2.0016 0.9791
1.2950 4.7159 -2.0016 0.9791
0.9532 4.7967 -2.0016 0.9791
0.2567 4.8838 -2.0016 0.9791
0.0812 4.8898 -2.0016 0.9791
-0.0944 4.8896 -2.0016 0.9791
-0.2699 4.8831 -2.0016 0.9791
-0.6196 4.8511 -2.0016 0.9791
-0.7934 4.8257 -2.0016 0.9791
-0.9662 4.7941 -2.0016 0.9791
-1.1377 4.7563 -2.0016 0.9791
-1.4761 4.6624 -2.0016 0.9791
-2.1283 4.4031 -2.0016 0.9791
-2.2850 4.3239 -2.0016 0.9791
-2.5894 4.1487 -2.0016 0.9791
-2.7367 4.0531 -2.0016 0.9791
-3.2887 3.6196 -2.0016 0.9791
-3.4166 3.4992 -2.0016 0.9791
-3.5400 3.3742 -2.0016 0.9791
-3.7730 3.1115 -2.0016 0.9791
-3.8823 2.9740 -2.0016 0.9791
-4.0857 2.6877 -2.0016 0.9791
-4.5000 1.9148 -2.0016 0.9791
-4.5659 1.7520 -2.0016 0.9791
-4.7278 1.2509 -2.0016 0.9791
-4.7697 1.0804 -2.0016 0.9791
-2.2052 0.4169 -0.9185 0.9903
-1.9750 0.3004 -0.8176 0.9914
-1.9554 0.2259 -0.8056 0.9915
-1.9555 0.1550 -0.8029 0.9916
-1.9054 0.0139 -0.7798 0.9918
-1.9252 -0.0551 -0.7882 0.9917
-1.7827 -3.8700 -1.8570 0.9816
-1.6427 -3.9316 -1.8570 0.9816
-1.3563 -4.0393 -1.8570 0.9816
-1.2104 -4.0854 -1.8570 0.9816
-1.0629 -4.1262 -1.8570 0.9816
-0.0031 -4.2609 -1.8570 0.9816
0.3026 -4.2502 -1.8570 0.9816
0.4551 -4.2366 -1.8570 0.9816
0.6069 -4.2175 -1.8570 0.9816
0.9080 -4.1631 -1.8570 0.9816
1.7771 -3.8727 -1.8570 0.9816
2.1832 -3.6591 -1.8570 0.9816
2.6845 -3.3089 -1.8570 0.9816
2.8016 -3.2104 -1.8570 0.9816
3.4840 -2.9924 -2.0016 0.9802
3.5892 -2.8654 -2.0016 0.9802
3.6897 -2.7347 -2.0016 0.9802
3.9624 -2.3221 -2.0016 0.9802
4.1188 -2.0318 -2.0016 0.9802
4.1891 -1.8826 -2.0016 0.9802
4.3672 -1.4212 -2.0016 0.9802
4.4154 -1.2635 -2.0016 0.9802
4.4580 -1.1041 -2.0016 0.9802
4.5257 -0.7814 -2.0016 0.9802
4.5701 -0.4546 -2.0016 0.9802
4.5835 -0.2902 -2.0016 0.9802
4.5909 -0.1255 -2.0016 0.9802
4.5881 0.2043 -2.0016 0.9802
