ply
format ascii 1.0
element vertex 1572
property float32 x
property float32 y
property float32 z
property float32 I
end_header
2.2965 -4.1870 -0.4585 0.9810
10.6750 -17.9082 -2.0016 0.9196
11.3100 -17.5141 -2.0016 0.9196
13.6970 -15.7179 -2.0016 0.9196
14.2515 -15.2169 -2.0016 0.9196
15.3051 -14.1568 -2.0016 0.9196
16.2800 -13.0239 -2.0016 0.9196
16.7363 -12.4320 -2.0016 0.9196
17.5840 -11.2010 -2.0016 0.9196
18.3413 -9.9125 -2.0016 0.9196
20.5380 -3.5850 -2.0016 0.9196
20.7420 -2.1044 -2.0016 0.9196
20.8395 -0.6130 -2.0016 0.9196
20.8481 0.1344 -2.0016 0.9196
20.7849 1.6276 -2.0016 0.9196
20.7132 2.3716 -2.0016 0.9196
20.6149 3.1125 -2.0016 0.9196
20.4900 3.8494 -2.0016 0.9196
20.3389 4.5814 -2.0016 0.9196
20.1616 5.3075 -2.0016 0.9196
19.7296 6.7383 -2.0016 0.9196
19.4754 7.4411 -2.0016 0.9196
19.1961 8.1344 -2.0016 0.9196
18.8922 8.8173 -2.0016 0.9196
18.5640 9.4888 -2.0016 0.9196
18.2120 10.1481 -2.0016 0.9196
16.5747 12.6467 -2.0016 0.9196
15.6261 13.8016 -2.0016 0.9196
14.0542 15.3993 -2.0016 0.9196
13.4932 15.8932 -2.0016 0.9196
12.3199 16.8190 -2.0016 0.9196
10.4432 18.0444 -2.0016 0.9196
7.4516 16.8173 -1.7659 0.9288
6.5218 18.1255 -1.8494 0.9255
5.8680 18.3477 -1.8494 0.9255
3.7710 13.4329 -1.3395 0.9455
3.2269 13.3112 -1.3150 0.9464
2.7241 13.3028 -1.3036 0.9469
1.1931 12.5969 -1.2148 0.9504
0.7351 12.5350 -1.2055 0.9508
-0.1561 11.8895 -1.1415 0.9533
-1.8806 11.9158 -1.1581 0.9527
-3.7039 11.9761 -1.2035 0.9509
-5.6197 11.8341 -1.2577 0.9487
-6.7773 11.9739 -1.3209 0.9462
-7.1697 11.6705 -1.3150 0.9464
-7.6187 11.4590 -1.3211 0.9462
-8.2287 11.4630 -1.3547 0.9449
-8.8715 11.4672 -1.3919 0.9434
-10.2738 11.4764 -1.4788 0.9400
-11.8715 11.4869 -1.5859 0.9358
-13.7292 11.4991 -1.7193 0.9306
-14.7832 11.5060 -1.7985 0.9275
-16.0100 10.7121 -1.8494 0.9255
-17.3766 8.3140 -1.8494 0.9255
-19.6640 6.9274 -2.0016 0.9196
-19.8996 6.2181 -2.0016 0.9196
-20.1097 5.5008 -2.0016 0.9196
-20.2940 4.7765 -2.0016 0.9196
-20.4521 4.0460 -2.0016 0.9196
-20.7683 1.8271 -2.0016 0.9196
-20.8162 -1.1598 -2.0016 0.9196
-20.6796 -2.6481 -2.0016 0.9196
-20.5714 -3.3877 -2.0016 0.9196
-20.4368 -4.1229 -2.0016 0.9196
-19.8761 -6.2929 -2.0016 0.9196
-19.6378 -7.0013 -2.0016 0.9196
-19.0858 -8.3902 -2.0016 0.9196
-18.4356 -9.7360 -2.0016 0.9196
-18.0746 -10.3906 -2.0016 0.9196
-17.6907 -11.0317 -2.0016 0.9196
-16.8550 -12.2708 -2.0016 0.9196
-15.4403 -14.0092 -2.0016 0.9196
-14.3970 -15.0794 -2.0016 0.9196
-12.4150 -16.1730 -1.9574 0.9213
-9.4255 -16.7997 -1.8494 0.9255
-7.5676 -17.7144 -1.8494 0.9255
-6.2791 -18.2111 -1.8494 0.9255
-5.6223 -18.4244 -1.8494 0.9255
-4.2879 -18.7799 -1.8494 0.9255
-3.6120 -18.9215 -1.8494 0.9255
-0.8707 -19.2435 -1.8494 0.9255
1.8884 -19.1704 -1.8494 0.9255
2.5743 -19.0904 -1.8494 0.9255
3.2570 -18.9858 -1.8494 0.9255
3.9354 -18.8569 -1.8494 0.9255
4.6088 -18.7037 -1.8494 0.9255
6.4207 -19.8186 -2.0000 0.9197
7.8299 -19.3223 -2.0016 0.9196
2.2488 -4.1902 -0.4566 0.9811
10.5110 -18.0050 -2.0016 0.9196
11.1496 -17.6166 -2.0016 0.9196
11.7739 -17.2057 -2.0016 0.9196
12.9763 -16.3179 -2.0016 0.9196
13.5529 -15.8424 -2.0016 0.9196
14.1120 -15.3464 -2.0016 0.9196
14.6530 -14.8307 -2.0016 0.9196
15.6779 -13.7428 -2.0016 0.9196
16.1604 -13.1720 -2.0016 0.9196
16.6222 -12.5843 -2.0016 0.9196
17.8770 -10.7272 -2.0016 0.9196
18.9252 -8.7462 -2.0016 0.9196
19.7548 -6.6640 -2.0016 0.9196
20.1814 -5.2317 -2.0016 0.9196
20.6264 -3.0350 -2.0016 0.9196
20.8330 -0.8032 -2.0016 0.9196
20.8370 0.6913 -2.0016 0.9196
20.7989 1.4378 -2.0016 0.9196
20.7340 2.1824 -2.0016 0.9196
20.6424 2.9242 -2.0016 0.9196
20.3799 4.3955 -2.0016 0.9196
20.0126 5.8443 -2.0016 0.9196
19.7903 6.5578 -2.0016 0.9196
19.5425 7.2630 -2.0016 0.9196
18.6499 9.3189 -2.0016 0.9196
18.3039 9.9814 -2.0016 0.9196
17.5417 11.2671 -2.0016 0.9196
17.1266 11.8886 -2.0016 0.9196
16.6895 12.4948 -2.0016 0.9196
16.2309 13.0850 -2.0016 0.9196
15.2517 14.2142 -2.0016 0.9196
14.7324 14.7518 -2.0016 0.9196
14.1942 15.2703 -2.0016 0.9196
13.6378 15.7693 -2.0016 0.9196
12.4729 16.7058 -2.0016 0.9196
11.8661 17.1422 -2.0016 0.9196
11.2441 17.5565 -2.0016 0.9196
9.9574 18.3169 -2.0016 0.9196
9.2944 18.6621 -2.0016 0.9196
7.5324 16.5890 -1.7491 0.9294
6.6870 18.0652 -1.8494 0.9255
3.3483 13.2812 -1.3150 0.9464
2.8253 13.1834 -1.2944 0.9473
2.2726 12.8335 -1.2513 0.9490
-0.0477 11.9336 -1.1457 0.9532
-0.4732 11.8689 -1.1404 0.9534
-1.3359 11.9257 -1.1521 0.9529
-2.2252 12.0064 -1.1723 0.9521
-2.6709 11.9943 -1.1797 0.9518
-3.1281 12.0020 -1.1907 0.9514
-4.5044 11.8763 -1.2194 0.9502
-5.0427 11.9817 -1.2480 0.9491
-5.5369 11.9399 -1.2636 0.9485
-5.9572 11.7256 -1.2627 0.9485
-6.6112 11.9333 -1.3097 0.9467
-8.0704 11.4620 -1.3458 0.9452
-8.7044 11.4661 -1.3821 0.9438
-16.4863 -3.4828 -2.0016 0.9344
-15.1049 -7.4679 -2.0016 0.9344
-14.8275 -8.0045 -2.0016 0.9344
-14.5311 -8.5308 -2.0016 0.9344
-13.8826 -9.5499 -2.0016 0.9344
-13.5314 -10.0414 -2.0016 0.9344
-12.7772 -10.9850 -2.0016 0.9344
-11.9574 -11.8722 -2.0016 0.9344
-11.5241 -12.2932 -2.0016 0.9344
-11.0761 -12.6983 -2.0016 0.9344
-10.6138 -13.0872 -2.0016 0.9344
-10.1379 -13.4592 -2.0016 0.9344
-8.1103 -14.7699 -2.0016 0.9344
-7.0313 -15.3130 -2.0016 0.9344
-6.4779 -15.5552 -2.0016 0.9344
-4.1491 -16.1683 -1.9828 0.9350
-2.3397 -16.1759 -1.9415 0.9363
-1.1664 -16.1856 -1.9276 0.9367
-0.5856 -16.2195 -1.9279 0.9367
0.5842 -16.3944 -1.9487 0.9361
1.1844 -16.5442 -1.9702 0.9354
3.0005 -16.5809 -2.0016 0.9344
5.3394 -15.9818 -2.0016 0.9344
5.9088 -15.7802 -2.0016 0.9344
8.6277 -14.4738 -2.0016 0.9344
9.1410 -14.1552 -2.0016 0.9344
9.6425 -13.8185 -2.0016 0.9344
11.0701 -12.7035 -2.0016 0.9344
11.5184 -12.2986 -2.0016 0.9344
11.9518 -11.8778 -2.0016 0.9344
12.3699 -11.4418 -2.0016 0.9344
12.7720 -10.9910 -2.0016 0.9344
15.1014 -7.4750 -2.0016 0.9344
15.3596 -6.9289 -2.0016 0.9344
15.5981 -6.3739 -2.0016 0.9344
16.1922 -4.6626 -2.0016 0.9344
16.3489 -4.0792 -2.0016 0.9344
16.5992 -2.8975 -2.0016 0.9344
16.6924 -2.3006 -2.0016 0.9344
16.7641 -1.7008 -2.0016 0.9344
16.8429 -0.4954 -2.0016 0.9344
16.8351 0.7125 -2.0016 0.9344
16.7987 1.3155 -2.0016 0.9344
16.6613 2.5156 -2.0016 0.9344
16.1308 4.8709 -2.0016 0.9344
15.5147 6.5744 -2.0016 0.9344
15.0038 7.6690 -2.0016 0.9344
14.7193 8.2019 -2.0016 0.9344
13.3960 10.2213 -2.0016 0.9344
13.0210 10.6949 -2.0016 0.9344
12.6293 11.1548 -2.0016 0.9344
11.7977 12.0309 -2.0016 0.9344
11.3589 12.4460 -2.0016 0.9344
10.9055 12.8452 -2.0016 0.9344
8.9577 14.2719 -2.0016 0.9344
7.3106 13.7457 -1.8494 0.9392
6.8132 13.9989 -1.8494 0.9392
6.3070 14.2341 -1.8494 0.9392
5.7928 14.4511 -1.8494 0.9392
4.7426 14.8289 -1.8494 0.9392
3.1933 13.1723 -1.6100 0.9469
1.6337 12.4688 -1.4938 0.9506
1.1607 12.2554 -1.4623 0.9516
0.2694 11.8534 -1.4084 0.9534
-0.1531 11.6628 -1.3855 0.9541
-0.5594 11.4128 -1.3573 0.9550
-0.9707 11.4155 -1.3609 0.9549
-1.3847 11.4182 -1.3663 0.9547
-1.8025 11.4209 -1.3734 0.9545
-2.2253 11.4237 -1.3825 0.9542
-2.6542 11.4265 -1.3934 0.9538
-3.9910 11.4353 -1.4387 0.9524
-4.9388 11.4415 -1.4803 0.9510
-5.4348 11.4447 -1.5050 0.9502
-6.4817 11.4516 -1.5631 0.9484
-7.6187 11.4590 -1.6346 0.9461
-8.8715 11.4672 -1.7222 0.9433
-9.5514 11.4717 -1.7732 0.9416
-10.2738 11.4764 -1.8297 0.9398
-11.9355 9.9967 -1.8494 0.9392
-12.9396 8.6577 -1.8494 0.9392
-14.9260 7.8109 -2.0011 0.9344
-15.1999 7.2725 -2.0016 0.9344
-15.4508 6.7230 -2.0016 0.9344
-15.6819 6.1649 -2.0016 0.9344
-15.8928 5.5988 -2.0016 0.9344
-16.0833 5.0256 -2.0016 0.9344
-16.2531 4.4459 -2.0016 0.9344
-16.5298 3.2700 -2.0016 0.9344
-16.6364 2.6754 -2.0016 0.9344
-16.7216 2.0774 -2.0016 0.9344
-16.8480 0.2704 -2.0016 0.9344
-16.8469 -0.3337 -2.0016 0.9344
-16.5174 -3.3322 -2.0016 0.9344
-16.3873 -3.9221 -2.0016 0.9344
-16.2362 -4.5069 -2.0016 0.9344
-15.1725 -7.3296 -2.0016 0.9344
-14.9000 -7.8688 -2.0016 0.9344
-14.2980 -8.9160 -2.0016 0.9344
-13.9692 -9.4228 -2.0016 0.9344
-13.6225 -9.9174 -2.0016 0.9344
-12.8770 -10.8679 -2.0016 0.9344
-12.4791 -11.3225 -2.0016 0.9344
-12.0653 -11.7625 -2.0016 0.9344
-11.6359 -12.1874 -2.0016 0.9344
-10.7329 -12.9897 -2.0016 0.9344
-9.2764 -14.0668 -2.0016 0.9344
-7.1708 -15.2482 -2.0016 0.9344
-6.6197 -15.4954 -2.0016 0.9344
-6.0597 -15.7220 -2.0015 0.9344
-4.9034 -16.0685 -1.9956 0.9346
-4.3066 -16.1674 -1.9874 0.9348
-3.6921 -16.1706 -1.9703 0.9354
-3.0874 -16.1733 -1.9558 0.9358
-2.4906 -16.1755 -1.9441 0.9362
-0.7333 -16.2073 -1.9272 0.9367
4.0315 -16.3608 -2.0016 0.9344
4.6153 -16.2058 -2.0016 0.9344
5.7645 -15.8335 -2.0016 0.9344
6.8840 -15.3798 -2.0016 0.9344
7.4308 -15.1232 -2.0016 0.9344
8.4952 -14.5520 -2.0016 0.9344
9.5159 -13.9059 -2.0016 0.9344
10.0082 -13.5559 -2.0016 0.9344
10.4877 -13.1885 -2.0016 0.9344
10.9537 -12.8041 -2.0016 0.9344
11.4056 -12.4032 -2.0016 0.9344
11.8429 -11.9864 -2.0016 0.9344
12.2649 -11.5542 -2.0016 0.9344
14.1285 -9.1823 -2.0016 0.9344
14.7500 -8.1465 -2.0016 0.9344
15.0325 -7.6125 -2.0016 0.9344
15.5393 -6.5160 -2.0016 0.9344
15.9662 -5.3860 -2.0016 0.9344
16.3110 -4.2283 -2.0016 0.9344
16.4521 -3.6409 -2.0016 0.9344
16.6707 -2.4529 -2.0016 0.9344
16.7479 -1.8538 -2.0016 0.9344
16.8035 -1.2523 -2.0016 0.9344
16.8501 -0.0453 -2.0016 0.9344
16.8100 1.1620 -2.0016 0.9344
16.7576 1.7638 -2.0016 0.9344
16.6836 2.3634 -2.0016 0.9344
16.5882 2.9599 -2.0016 0.9344
16.1746 4.7235 -2.0016 0.9344
15.7946 5.8701 -2.0016 0.9344
14.4949 8.5922 -2.0016 0.9344
13.8421 9.6086 -2.0016 0.9344
13.1181 10.5756 -2.0016 0.9344
12.3267 11.4882 -2.0016 0.9344
11.9070 11.9227 -2.0016 0.9344
10.5584 13.1320 -2.0016 0.9344
10.0809 13.5020 -2.0016 0.9344
9.5904 13.8546 -2.0016 0.9344
9.0877 14.1895 -2.0016 0.9344
6.9407 13.9361 -1.8494 0.9392
6.4367 14.1759 -1.8494 0.9392
5.9245 14.3976 -1.8494 0.9392
5.4046 14.6007 -1.8494 0.9392
4.1794 14.3813 -1.7790 0.9415
3.3373 13.2372 -1.6216 0.9465
0.3793 11.9030 -1.4146 0.9532
-0.4595 11.5246 -1.3700 0.9546
-0.8657 11.4148 -1.3598 0.9549
-1.2789 11.4175 -1.3647 0.9548
-1.6957 11.4202 -1.3714 0.9546
-2.1171 11.4230 -1.3800 0.9543
-2.5443 11.4258 -1.3905 0.9539
-3.4214 11.4315 -1.4174 0.9531
-4.3380 11.4375 -1.4531 0.9519
-5.8158 11.4472 -1.5252 0.9496
-6.3438 11.4507 -1.5550 0.9486
-8.0704 11.4620 -1.6652 0.9451
-9.3744 11.4705 -1.7597 0.9421
-10.0854 11.4752 -1.8147 0.9403
-12.4581 -4.0698 -1.8570 0.9484
-12.1345 -4.9519 -1.8570 0.9484
-11.9180 -7.5839 -2.0016 0.9445
-11.6385 -8.0062 -2.0016 0.9445
-11.3441 -8.4183 -2.0016 0.9445
-10.3748 -9.5874 -2.0016 0.9445
-9.6613 -10.3060 -2.0016 0.9445
-9.2857 -10.6457 -2.0016 0.9445
-8.8981 -10.9717 -2.0016 0.9445
-8.4992 -11.2836 -2.0016 0.9445
-8.0893 -11.5810 -2.0016 0.9445
-7.2388 -12.1308 -2.0016 0.9445
-5.8947 -12.8377 -2.0016 0.9445
-5.4308 -13.0408 -2.0016 0.9445
-4.4826 -13.3963 -2.0016 0.9445
-3.9995 -13.5484 -2.0016 0.9445
-3.5113 -13.6831 -2.0016 0.9445
-3.0186 -13.8001 -2.0016 0.9445
-2.5220 -13.8994 -2.0016 0.9445
-1.5197 -14.0444 -2.0016 0.9445
-0.5097 -14.1172 -2.0016 0.9445
0.5030 -14.1174 -2.0016 0.9445
2.5155 -13.9006 -2.0016 0.9445
3.0121 -13.8015 -2.0016 0.9445
3.5049 -13.6847 -2.0016 0.9445
3.9932 -13.5503 -2.0016 0.9445
4.4763 -13.3984 -2.0016 0.9445
5.8887 -12.8405 -2.0016 0.9445
6.3452 -12.6212 -2.0016 0.9445
2.2965 -4.1869 -0.6766 0.9809
7.2331 -12.1342 -2.0016 0.9445
8.0838 -11.5848 -2.0016 0.9445
8.4939 -11.2876 -2.0016 0.9445
8.8930 -10.9759 -2.0016 0.9445
9.6565 -10.3106 -2.0016 0.9445
10.0198 -9.9578 -2.0016 0.9445
10.3703 -9.5923 -2.0016 0.9445
10.7075 -9.2144 -2.0016 0.9445
11.3401 -8.4236 -2.0016 0.9445
12.4276 -6.7164 -2.0016 0.9445
12.8768 -5.8088 -2.0016 0.9445
13.0768 -5.3436 -2.0016 0.9445
13.4260 -4.3930 -2.0016 0.9445
13.5748 -3.9089 -2.0016 0.9445
13.7062 -3.4198 -2.0016 0.9445
13.8200 -2.9263 -2.0016 0.9445
13.9160 -2.4291 -2.0016 0.9445
14.0963 -0.9212 -2.0016 0.9445
14.1138 0.5973 -2.0016 0.9445
14.0833 1.1028 -2.0016 0.9445
14.0347 1.6069 -2.0016 0.9445
13.8835 2.6083 -2.0016 0.9445
13.7811 3.1042 -2.0016 0.9445
13.5233 4.0836 -2.0016 0.9445
13.3682 4.5657 -2.0016 0.9445
13.1960 5.0419 -2.0016 0.9445
12.8009 5.9743 -2.0016 0.9445
12.5785 6.4293 -2.0016 0.9445
12.0856 7.3140 -2.0016 0.9445
11.8156 7.7425 -2.0016 0.9445
11.5305 8.1610 -2.0016 0.9445
11.2306 8.5691 -2.0016 0.9445
10.2458 9.7251 -2.0016 0.9445
9.5228 10.4342 -2.0016 0.9445
8.7508 11.0896 -2.0016 0.9445
7.9338 11.6880 -2.0016 0.9445
6.7936 11.7384 -1.9217 0.9467
6.1289 11.5238 -1.8494 0.9486
5.7119 11.7360 -1.8494 0.9486
5.2875 11.9333 -1.8494 0.9486
3.5278 12.5664 -1.8494 0.9486
2.6185 12.7869 -1.8494 0.9486
2.1281 12.6918 -1.8234 0.9493
0.7067 12.0506 -1.7104 0.9524
-0.1531 11.6628 -1.6526 0.9540
-0.5594 11.4128 -1.6190 0.9549
-2.2253 11.4237 -1.6490 0.9541
-3.0905 11.4294 -1.6776 0.9533
-3.5357 11.4323 -1.6955 0.9528
-4.4581 11.4383 -1.7394 0.9516
-4.9388 11.4415 -1.7657 0.9509
-5.9483 11.4481 -1.8280 0.9492
-6.8323 11.1212 -1.8494 0.9486
-7.2265 10.8691 -1.8494 0.9486
-7.9866 10.3235 -1.8494 0.9486
-8.3515 10.0306 -1.8494 0.9486
-8.7057 9.7248 -1.8494 0.9486
-9.0487 9.4065 -1.8494 0.9486
-9.6993 8.7341 -1.8494 0.9486
-10.0062 8.3808 -1.8494 0.9486
-11.3990 8.2333 -1.9924 0.9448
-11.7340 7.8511 -2.0004 0.9446
-12.0148 7.4297 -2.0016 0.9445
-12.2734 6.9942 -2.0016 0.9445
-12.5162 6.5498 -2.0016 0.9445
-12.9533 5.6363 -2.0016 0.9445
-13.3238 4.6938 -2.0016 0.9445
-13.4835 4.2132 -2.0016 0.9445
-13.6258 3.7272 -2.0016 0.9445
-13.8578 2.7415 -2.0016 0.9445
-13.9472 2.2430 -2.0016 0.9445
-14.0721 1.2380 -2.0016 0.9445
-14.1236 -0.2798 -2.0016 0.9445
-14.0673 -1.2909 -2.0016 0.9445
-13.8474 -2.7935 -2.0016 0.9445
-12.7460 -3.0506 -1.8570 0.9484
-12.3449 -4.4012 -1.8570 0.9484
-11.9979 -5.2743 -1.8570 0.9484
-12.7199 -6.1448 -2.0016 0.9445
-12.4915 -6.5968 -2.0016 0.9445
-11.7111 -7.8996 -2.0016 0.9445
-11.1151 -8.7184 -2.0016 0.9445
-10.7955 -9.1112 -2.0016 0.9445
-10.1150 -9.8612 -2.0016 0.9445
-8.9979 -10.8900 -2.0016 0.9445
-8.1947 -11.5066 -2.0016 0.9445
-7.7770 -11.7930 -2.0016 0.9445
-7.3492 -12.0642 -2.0016 0.9445
-6.9121 -12.3198 -2.0016 0.9445
-6.0117 -12.7834 -2.0016 0.9445
-4.1231 -13.5113 -2.0016 0.9445
-3.6361 -13.6504 -2.0016 0.9445
-2.6488 -13.8758 -2.0016 0.9445
-2.1497 -13.9619 -2.0016 0.9445
-1.6479 -14.0300 -2.0016 0.9445
-0.6385 -14.1120 -2.0016 0.9445
-0.1323 -14.1258 -2.0016 0.9445
1.3848 -14.0584 -2.0016 0.9445
1.8879 -13.9997 -2.0016 0.9445
2.8860 -13.8285 -2.0016 0.9445
3.3798 -13.7161 -2.0016 0.9445
3.8693 -13.5862 -2.0016 0.9445
4.3538 -13.4387 -2.0016 0.9445
5.3053 -13.0923 -2.0016 0.9445
8.3904 -11.3647 -2.0016 0.9445
9.1831 -10.7344 -2.0016 0.9445
9.9285 -10.0489 -2.0016 0.9445
10.9499 -8.9250 -2.0016 0.9445
11.5611 -8.1176 -2.0016 0.9445
13.5386 -4.0327 -2.0016 0.9445
13.7927 -3.0524 -2.0016 0.9445
13.9759 -2.0564 -2.0016 0.9445
14.0407 -1.5541 -2.0016 0.9445
14.1264 -0.0379 -2.0016 0.9445
14.0928 0.9742 -2.0016 0.9445
13.8089 2.9783 -2.0016 0.9445
13.6932 3.4713 -2.0016 0.9445
13.5600 3.9599 -2.0016 0.9445
13.0566 5.3927 -2.0016 0.9445
12.8549 5.8572 -2.0016 0.9445
12.6367 6.3142 -2.0016 0.9445
12.1518 7.2033 -2.0016 0.9445
10.3342 9.6312 -2.0016 0.9445
9.9823 9.9954 -2.0016 0.9445
9.6176 10.3468 -2.0016 0.9445
8.8517 11.0093 -2.0016 0.9445
8.4513 11.3194 -2.0016 0.9445
6.2338 11.4673 -1.8494 0.9486
5.8188 11.6834 -1.8494 0.9486
5.3963 11.8845 -1.8494 0.9486
4.9668 12.0703 -1.8494 0.9486
4.5310 12.2405 -1.8494 0.9486
4.0893 12.3951 -1.8494 0.9486
3.1908 12.6562 -1.8494 0.9486
2.7351 12.7624 -1.8494 0.9486
0.8206 12.1020 -1.7187 0.9522
-1.2789 11.4175 -1.6279 0.9546
-2.1170 11.4230 -1.6461 0.9542
-2.9786 11.4286 -1.6734 0.9534
-3.8740 11.4345 -1.7106 0.9524
-4.3379 11.4375 -1.7332 0.9518
-5.8157 11.4472 -1.8193 0.9495
-7.5143 10.6722 -1.8494 0.9486
-7.8920 10.3960 -1.8494 0.9486
-11.0288 -2.3299 -1.8570 0.9553
-10.8336 -3.1141 -1.8570 0.9553
-9.9192 -5.3548 -1.8570 0.9553
-10.4777 -6.1512 -2.0016 0.9519
-10.2505 -6.5228 -2.0016 0.9519
-10.0101 -6.8860 -2.0016 0.9519
-9.2131 -7.9208 -2.0016 0.9519
-8.9232 -8.2459 -2.0016 0.9519
-8.3095 -8.8640 -2.0016 0.9519
-7.6531 -9.4366 -2.0016 0.9519
-7.3100 -9.7048 -2.0016 0.9519
-6.2259 -10.4335 -2.0016 0.9519
-5.4625 -10.8527 -2.0016 0.9519
-4.6709 -11.2161 -2.0016 0.9519
-3.4399 -11.6527 -2.0016 0.9519
-3.0200 -11.7686 -2.0016 0.9519
-2.5962 -11.8692 -2.0016 0.9519
-2.1691 -11.9547 -2.0016 0.9519
-1.3071 -12.0794 -2.0016 0.9519
-0.4384 -12.1420 -2.0016 0.9519
-0.0029 -12.1499 -2.0016 0.9519
0.8676 -12.1189 -2.0016 0.9519
1.3014 -12.0800 -2.0016 0.9519
1.7336 -12.0256 -2.0016 0.9519
2.1635 -11.9557 -2.0016 0.9519
3.0145 -11.7700 -2.0016 0.9519
4.2605 -11.3784 -2.0016 0.9519
5.0648 -11.0439 -2.0016 0.9519
5.4574 -10.8553 -2.0016 0.9519
6.2210 -10.4364 -2.0016 0.9519
6.9527 -9.9639 -2.0016 0.9519
7.3054 -9.7083 -2.0016 0.9519
7.6487 -9.4402 -2.0016 0.9519
7.9822 -9.1599 -2.0016 0.9519
8.9193 -8.2501 -2.0016 0.9519
9.2093 -7.9251 -2.0016 0.9519
10.0069 -6.8907 -2.0016 0.9519
10.2474 -6.5276 -2.0016 0.9519
10.8889 -5.3898 -2.0016 0.9519
11.2471 -4.5959 -2.0016 0.9519
11.4046 -4.1898 -2.0016 0.9519
11.6755 -3.3620 -2.0016 0.9519
11.8863 -2.5169 -2.0016 0.9519
11.9689 -2.0892 -2.0016 0.9519
12.0361 -1.6589 -2.0016 0.9519
12.0878 -1.2264 -2.0016 0.9519
12.1240 -0.7923 -2.0016 0.9519
12.1446 -0.3572 -2.0016 0.9519
12.1496 0.0783 -2.0016 0.9519
11.3497 4.3365 -2.0016 0.9519
11.1869 4.7405 -2.0016 0.9519
11.0098 5.1384 -2.0016 0.9519
10.8186 5.5298 -2.0016 0.9519
9.6592 7.3701 -2.0016 0.9519
9.3889 7.7116 -2.0016 0.9519
8.5068 8.6749 -2.0016 0.9519
7.1797 9.8016 -2.0016 0.9519
6.8237 10.0527 -2.0016 0.9519
6.4590 10.2908 -2.0016 0.9519
6.0728 10.4929 -1.9972 0.9520
5.3883 10.1314 -1.8904 0.9545
4.5477 10.2636 -1.8494 0.9555
3.8007 10.5630 -1.8494 0.9555
3.4197 10.6925 -1.8494 0.9555
3.0342 10.8082 -1.8494 0.9555
2.2521 10.9978 -1.8494 0.9555
1.8564 11.0714 -1.8494 0.9555
0.2551 11.2231 -1.8494 0.9555
-0.1473 11.2250 -1.8494 0.9555
-0.5496 11.2125 -1.8494 0.9555
-0.9511 11.1856 -1.8494 0.9555
-1.3786 8.7353 -1.4569 0.9648
-2.1464 11.0189 -1.8494 0.9555
-2.9303 10.8368 -1.8494 0.9555
-3.3169 10.7248 -1.8494 0.9555
-4.0767 10.4596 -1.8494 0.9555
-4.8156 10.1407 -1.8494 0.9555
-5.1759 9.9615 -1.8494 0.9555
-5.8763 9.5651 -1.8494 0.9555
-6.2154 9.3484 -1.8494 0.9555
-6.8691 8.8791 -1.8494 0.9555
-7.1830 8.6271 -1.8494 0.9555
-7.9390 8.2529 -1.8865 0.9546
-9.0040 8.1079 -1.9961 0.9521
-9.3131 7.8003 -2.0013 0.9519
-9.8494 7.1140 -2.0016 0.9519
-10.0980 6.7564 -2.0016 0.9519
-10.5561 6.0156 -2.0016 0.9519
-10.7650 5.6334 -2.0016 0.9519
-10.9600 5.2439 -2.0016 0.9519
-11.1409 4.8477 -2.0016 0.9519
-11.3075 4.4452 -2.0016 0.9519
-11.7193 3.2057 -2.0016 0.9519
-11.9189 2.3579 -2.0016 0.9519
-12.0572 1.4979 -2.0016 0.9519
-12.1031 1.0648 -2.0016 0.9519
-12.1311 -0.6759 -2.0016 0.9519
-12.0990 -1.1103 -2.0016 0.9519
-12.0515 -1.5432 -2.0016 0.9519
-11.9884 -1.9742 -2.0016 0.9519
-10.9626 -2.6238 -1.8570 0.9553
-10.8615 -3.0150 -1.8570 0.9553
-10.7465 -3.4024 -1.8570 0.9553
-10.6176 -3.7854 -1.8570 0.9553
-10.3192 -4.5363 -1.8570 0.9553
-10.1499 -4.9033 -1.8570 0.9553
-9.9676 -5.2640 -1.8570 0.9553
-9.7726 -5.6179 -1.8570 0.9553
-10.3096 -6.4289 -2.0016 0.9519
-10.0726 -6.7943 -2.0016 0.9519
-9.5599 -7.4985 -2.0016 0.9519
-9.2850 -7.8363 -2.0016 0.9519
-8.6997 -8.4814 -2.0016 0.9519
-7.7390 -9.3663 -2.0016 0.9519
-7.0481 -9.8967 -2.0016 0.9519
-5.9450 -10.5961 -2.0016 0.9519
-5.1706 -10.9948 -2.0016 0.9519
-4.3696 -11.3369 -2.0016 0.9519
-3.5462 -11.6208 -2.0016 0.9519
-3.1273 -11.7405 -2.0016 0.9519
-2.7045 -11.8450 -2.0016 0.9519
-1.4173 -12.0669 -2.0016 0.9519
-0.5492 -12.1375 -2.0016 0.9519
-0.1138 -12.1493 -2.0016 0.9519
0.3218 -12.1456 -2.0016 0.9519
1.6237 -12.0409 -2.0016 0.9519
2.4822 -11.8936 -2.0016 0.9519
3.7446 -11.5584 -2.0016 0.9519
4.9637 -11.0897 -2.0016 0.9519
5.3580 -10.9046 -2.0016 0.9519
2.2488 -4.1901 -0.7834 0.9809
7.5622 -9.5096 -2.0016 0.9519
7.8982 -9.2324 -2.0016 0.9519
8.8436 -8.3312 -2.0016 0.9519
9.1366 -8.0089 -2.0016 0.9519
9.4178 -7.6762 -2.0016 0.9519
9.6869 -7.3337 -2.0016 0.9519
9.9435 -6.9818 -2.0016 0.9519
10.1874 -6.6209 -2.0016 0.9519
10.6356 -5.8740 -2.0016 0.9519
10.8393 -5.4890 -2.0016 0.9519
11.2047 -4.6984 -2.0016 0.9519
11.6443 -3.4685 -2.0016 0.9519
11.7611 -3.0489 -2.0016 0.9519
11.8629 -2.6253 -2.0016 0.9519
11.9493 -2.1984 -2.0016 0.9519
12.0204 -1.7687 -2.0016 0.9519
12.0761 -1.3367 -2.0016 0.9519
12.1409 -0.4681 -2.0016 0.9519
12.1432 0.4029 -2.0016 0.9519
12.0831 1.2718 -2.0016 0.9519
11.0563 5.0377 -2.0016 0.9519
10.8686 5.4308 -2.0016 0.9519
10.6669 5.8168 -2.0016 0.9519
10.2228 6.5661 -2.0016 0.9519
9.7261 7.2816 -2.0016 0.9519
8.8883 8.2836 -2.0016 0.9519
8.5856 8.5969 -2.0016 0.9519
8.2720 8.8991 -2.0016 0.9519
7.9477 9.1899 -2.0016 0.9519
7.2689 9.7357 -2.0016 0.9519
6.9152 9.9899 -2.0016 0.9519
6.5527 10.2314 -2.0016 0.9519
5.6105 10.3207 -1.9352 0.9535
4.6412 10.2216 -1.8494 0.9555
3.8970 10.5279 -1.8494 0.9555
3.5172 10.6608 -1.8494 0.9555
3.1328 10.7800 -1.8494 0.9555
2.7444 10.8854 -1.8494 0.9555
1.9575 11.0540 -1.8494 0.9555
0.7595 11.2003 -1.8494 0.9555
-0.0448 11.2259 -1.8494 0.9555
-1.2944 8.7177 -1.4519 0.9649
-2.4401 10.9576 -1.8494 0.9555
-2.8312 10.8631 -1.8494 0.9555
-5.0848 10.0084 -1.8494 0.9555
-5.4403 9.8197 -1.8494 0.9555
-5.7887 9.6184 -1.8494 0.9555
-6.1298 9.4047 -1.8494 0.9555
-6.7878 8.9414 -1.8494 0.9555
-7.4109 8.4321 -1.8494 0.9555
-10.4189 -2.2011 -2.0016 0.9576
-9.3912 -3.0679 -1.8570 0.9606
-8.8563 -4.3786 -1.8570 0.9606
-8.6937 -4.6932 -1.8570 0.9606
-8.3351 -5.3040 -1.8570 0.9606
-8.5514 -6.3459 -2.0016 0.9576
-7.8208 -7.2272 -2.0016 0.9576
-6.0979 -8.7300 -2.0016 0.9576
-5.4568 -9.1445 -2.0016 0.9576
-4.7876 -9.5119 -2.0016 0.9576
-3.7389 -9.9709 -2.0016 0.9576
-3.0149 -10.2131 -2.0016 0.9576
-1.9011 -10.4777 -2.0016 0.9576
-1.5244 -10.5391 -2.0016 0.9576
0.7604 -10.6216 -2.0016 0.9576
1.1406 -10.5876 -2.0016 0.9576
2.2706 -10.4039 -2.0016 0.9576
3.3743 -10.1001 -2.0016 0.9576
3.7342 -9.9726 -2.0016 0.9576
4.0892 -9.8324 -2.0016 0.9576
4.4390 -9.6795 -2.0016 0.9576
4.7831 -9.5141 -2.0016 0.9576
6.0938 -8.7329 -2.0016 0.9576
6.4029 -8.5088 -2.0016 0.9576
6.7037 -8.2739 -2.0016 0.9576
6.9960 -8.0283 -2.0016 0.9576
7.2793 -7.7723 -2.0016 0.9576
7.8174 -7.2309 -2.0016 0.9576
8.3154 -6.6522 -2.0016 0.9576
8.5484 -6.3499 -2.0016 0.9576
9.3682 -5.0630 -2.0016 0.9576
9.5437 -4.7240 -2.0016 0.9576
9.8576 -4.0281 -2.0016 0.9576
9.9956 -3.6722 -2.0016 0.9576
10.3321 -2.5780 -2.0016 0.9576
10.4902 -1.8311 -2.0016 0.9576
10.5491 -1.4539 -2.0016 0.9576
10.5944 -1.0749 -2.0016 0.9576
10.6262 -0.6944 -2.0016 0.9576
10.6442 -0.3131 -2.0016 0.9576
10.6486 0.0686 -2.0016 0.9576
10.3885 2.3401 -2.0016 0.9576
10.2980 2.7109 -2.0016 0.9576
10.1942 3.0783 -2.0016 0.9576
9.9475 3.8007 -2.0016 0.9576
9.8048 4.1548 -2.0016 0.9576
9.6496 4.5036 -2.0016 0.9576
9.4820 4.8466 -2.0016 0.9576
8.9069 5.8365 -2.0016 0.9576
8.6920 6.1520 -2.0016 0.9576
8.2289 6.7589 -2.0016 0.9576
7.9814 7.0495 -2.0016 0.9576
7.7235 7.3310 -2.0016 0.9576
7.4558 7.6032 -2.0016 0.9576
7.1785 7.8655 -2.0016 0.9576
6.2927 8.5907 -2.0016 0.9576
5.6610 9.0194 -2.0016 0.9576
5.3341 9.2165 -2.0016 0.9576
4.9946 9.3911 -1.9993 0.9576
4.0771 9.2016 -1.8917 0.9599
3.3312 9.2580 -1.8494 0.9607
2.9972 9.3715 -1.8494 0.9607
2.6594 9.4729 -1.8494 0.9607
2.3181 9.5621 -1.8494 0.9607
1.6271 9.7036 -1.8494 0.9607
1.2782 9.7557 -1.8494 0.9607
0.5760 9.8222 -1.8494 0.9607
0.2236 9.8365 -1.8494 0.9607
-0.8336 9.8037 -1.8494 0.9607
-1.0554 8.7026 -1.6477 0.9649
-1.3717 8.6910 -1.6538 0.9648
-1.8812 9.6576 -1.8494 0.9607
-2.2262 9.5839 -1.8494 0.9607
-3.5730 9.1674 -1.8494 0.9607
-4.5365 8.7309 -1.8494 0.9607
-5.1503 8.3834 -1.8494 0.9607
-5.4899 8.2571 -1.8637 0.9604
-5.9214 8.2488 -1.9086 0.9595
-6.3745 8.2396 -1.9581 0.9585
-7.0942 7.9246 -1.9992 0.9576
-7.3825 7.6744 -2.0016 0.9576
-7.6528 7.4049 -2.0016 0.9576
-8.6325 6.2351 -2.0016 0.9576
-9.0570 5.6007 -2.0016 0.9576
-9.2520 5.2724 -2.0016 0.9576
-9.4350 4.9374 -2.0016 0.9576
-9.6059 4.5960 -2.0016 0.9576
-10.0438 3.5383 -2.0016 0.9576
-10.1642 3.1760 -2.0016 0.9576
-10.2715 2.8097 -2.0016 0.9576
-10.4464 2.0666 -2.0016 0.9576
-10.5137 1.6908 -2.0016 0.9576
-10.5676 1.3129 -2.0016 0.9576
-10.6474 0.1709 -2.0016 0.9576
-10.6467 -0.2109 -2.0016 0.9576
-10.6323 -0.5924 -2.0016 0.9576
-10.5073 -1.7303 -2.0016 0.9576
-10.4385 -2.1058 -2.0016 0.9576
-9.6083 -2.2996 -1.8570 0.9606
-9.5197 -2.6425 -1.8570 0.9606
-9.3059 -3.3177 -1.8570 0.9606
-9.1810 -3.6492 -1.8570 0.9606
-9.0443 -3.9759 -1.8570 0.9606
-8.7362 -4.6136 -1.8570 0.9606
-8.3832 -5.2277 -1.8570 0.9606
-8.1904 -5.5248 -1.8570 0.9606
-8.6090 -6.2675 -2.0016 0.9576
-6.7829 -8.2091 -2.0016 0.9576
-6.4843 -8.4470 -2.0016 0.9576
-4.5318 -9.6364 -2.0016 0.9576
-3.8297 -9.9363 -2.0016 0.9576
-3.4711 -10.0672 -2.0016 0.9576
-1.9967 -10.4599 -2.0016 0.9576
-1.6205 -10.5248 -2.0016 0.9576
-0.8623 -10.6138 -2.0016 0.9576
-0.0997 -10.6483 -2.0016 0.9576
0.2820 -10.6451 -2.0016 0.9576
0.6634 -10.6281 -2.0016 0.9576
1.4231 -10.5533 -2.0016 0.9576
2.9167 -10.2416 -2.0016 0.9576
3.2820 -10.1304 -2.0016 0.9576
3.6430 -10.0063 -2.0016 0.9576
3.9993 -9.8693 -2.0016 0.9576
4.3505 -9.7196 -2.0016 0.9576
5.6949 -8.9981 -2.0016 0.9576
6.6279 -8.3347 -2.0016 0.9576
6.9224 -8.0918 -2.0016 0.9576
7.4843 -7.5751 -2.0016 0.9576
8.7151 -6.1192 -2.0016 0.9576
8.9288 -5.8029 -2.0016 0.9576
9.1311 -5.4792 -2.0016 0.9576
9.8204 -4.1179 -2.0016 0.9576
10.2057 -3.0399 -2.0016 0.9576
10.4730 -1.9268 -2.0016 0.9576
10.5842 -1.1715 -2.0016 0.9576
10.6430 0.3531 -2.0016 0.9576
10.5436 1.4936 -2.0016 0.9576
10.4832 1.8705 -2.0016 0.9576
10.4095 2.2451 -2.0016 0.9576
10.2219 2.9851 -2.0016 0.9576
10.1083 3.3496 -2.0016 0.9576
9.3491 5.0982 -2.0016 0.9576
8.9598 5.7549 -2.0016 0.9576
8.7478 6.0723 -2.0016 0.9576
8.2903 6.6835 -2.0016 0.9576
7.7902 7.2602 -2.0016 0.9576
7.5249 7.5348 -2.0016 0.9576
6.9658 8.0545 -2.0016 0.9576
6.3708 8.5329 -2.0016 0.9576
6.0609 8.7557 -2.0016 0.9576
5.4180 9.1675 -2.0016 0.9576
4.2125 9.2774 -1.9151 0.9594
3.7441 9.0988 -1.8494 0.9607
2.4053 9.5405 -1.8494 0.9607
1.7156 9.6883 -1.8494 0.9607
0.6657 9.8165 -1.8494 0.9607
0.3134 9.8341 -1.8494 0.9607
-0.3920 9.8313 -1.8494 0.9607
-0.7441 9.8109 -1.8494 0.9607
-1.2923 8.7034 -1.6538 0.9648
-1.7930 9.6743 -1.8494 0.9607
-2.1386 9.6038 -1.8494 0.9607
-2.8211 9.4260 -1.8494 0.9607
-3.8167 9.0686 -1.8494 0.9607
-4.1393 8.9260 -1.8494 0.9607
-4.7681 8.6065 -1.8494 0.9607
-5.0736 8.4301 -1.8494 0.9607
-5.3848 8.2617 -1.8536 0.9607
-5.8096 8.2510 -1.8967 0.9598
-6.7140 8.2153 -1.9942 0.9577
-7.0179 7.9850 -1.9981 0.9577
-8.9417 -2.2266 -1.9478 0.9630
-8.2476 -3.0256 -1.8570 0.9647
-7.7305 -4.1732 -1.8570 0.9647
-7.5760 -4.4477 -1.8570 0.9647
-7.4117 -4.7164 -1.8570 0.9647
-7.2379 -4.9790 -1.8570 0.9647
-6.8626 -5.4847 -1.8570 0.9647
-7.1802 -6.1731 -2.0016 0.9620
-6.9543 -6.4265 -2.0016 0.9620
-6.2243 -7.1359 -2.0016 0.9620
-4.8522 -8.1313 -2.0016 0.9620
-4.5576 -8.3000 -2.0016 0.9620
-3.9513 -8.6052 -2.0016 0.9620
-3.6403 -8.7413 -2.0016 0.9620
-3.3246 -8.8662 -2.0016 0.9620
-3.0047 -8.9797 -2.0016 0.9620
-2.0234 -9.2503 -2.0016 0.9620
-1.3555 -9.3715 -2.0016 0.9620
-1.0187 -9.4141 -2.0016 0.9620
-0.3416 -9.4629 -2.0016 0.9620
-0.0022 -9.4690 -2.0016 0.9620
0.6762 -9.4448 -2.0016 0.9620
1.0143 -9.4145 -2.0016 0.9620
1.6861 -9.3177 -2.0016 0.9620
2.0190 -9.2513 -2.0016 0.9620
2.3494 -9.1729 -2.0016 0.9620
2.6766 -9.0828 -2.0016 0.9620
3.0005 -8.9811 -2.0016 0.9620
3.3205 -8.8677 -2.0016 0.9620
3.9472 -8.6071 -2.0016 0.9620
5.1368 -7.9546 -2.0016 0.9620
5.4186 -7.7654 -2.0016 0.9620
6.2209 -7.1388 -2.0016 0.9620
6.7164 -6.6748 -2.0016 0.9620
6.9513 -6.4298 -2.0016 0.9620
7.1773 -6.1765 -2.0016 0.9620
7.6014 -5.6464 -2.0016 0.9620
7.9863 -5.0873 -2.0016 0.9620
8.1636 -4.7978 -2.0016 0.9620
8.6314 -3.8937 -2.0016 0.9620
8.7654 -3.5818 -2.0016 0.9620
9.0993 -2.6202 -2.0016 0.9620
9.4649 -0.2784 -2.0016 0.9620
9.4606 0.4004 -2.0016 0.9620
9.4401 0.7392 -2.0016 0.9620
9.3629 1.4137 -2.0016 0.9620
9.2376 2.0808 -2.0016 0.9620
9.1570 2.4106 -2.0016 0.9620
8.8454 3.3796 -2.0016 0.9620
8.1010 4.9026 -2.0016 0.9620
7.9201 5.1898 -2.0016 0.9620
7.7290 5.4704 -2.0016 0.9620
7.5279 5.7439 -2.0016 0.9620
7.0971 6.2685 -2.0016 0.9620
6.8678 6.5188 -2.0016 0.9620
6.6298 6.7608 -2.0016 0.9620
6.3832 6.9941 -2.0016 0.9620
6.1284 7.2184 -2.0016 0.9620
5.5955 7.6389 -2.0016 0.9620
5.3181 7.8346 -2.0016 0.9620
4.7431 8.1954 -2.0016 0.9620
4.4463 8.3602 -2.0016 0.9620
3.8331 8.6508 -2.0001 0.9621
3.5134 8.7648 -1.9960 0.9621
3.1491 8.7521 -1.9661 0.9627
2.3929 8.5236 -1.8714 0.9645
0.8249 8.7100 -1.8494 0.9649
0.5122 8.7340 -1.8494 0.9649
0.1988 8.7467 -1.8494 0.9649
-0.4283 8.7385 -1.8494 0.9649
-1.3639 8.6420 -1.8494 0.9649
-1.6728 8.5876 -1.8494 0.9649
-1.9796 8.5221 -1.8494 0.9649
-2.5850 8.3584 -1.8494 0.9649
-3.2176 8.2554 -1.8729 0.9644
-3.5614 8.2505 -1.8995 0.9639
-4.2808 8.2388 -1.9626 0.9628
-5.2384 7.8789 -1.9999 0.9621
-5.5219 7.6923 -2.0016 0.9620
-5.7941 7.4894 -2.0016 0.9620
-6.0588 7.2769 -2.0016 0.9620
-6.3157 7.0551 -2.0016 0.9620
-6.5646 6.8242 -2.0016 0.9620
-7.0366 6.3363 -2.0016 0.9620
-7.4724 5.8159 -2.0016 0.9620
-7.6761 5.5443 -2.0016 0.9620
-8.0536 4.9802 -2.0016 0.9620
-8.5417 4.0868 -2.0016 0.9620
-8.9310 3.1463 -2.0016 0.9620
-9.1335 2.4984 -2.0016 0.9620
-9.2890 1.8376 -2.0016 0.9620
-9.3489 1.5035 -2.0016 0.9620
-9.4563 0.4912 -2.0016 0.9620
-9.4678 0.1519 -2.0016 0.9620
-9.4294 -0.8653 -2.0016 0.9620
-8.3753 -2.6517 -1.8570 0.9647
-8.2749 -2.9502 -1.8570 0.9647
-8.1638 -3.2449 -1.8570 0.9647
-7.6163 -4.3783 -1.8570 0.9647
-6.9123 -5.4218 -1.8570 0.9647
-6.7136 -5.6661 -1.8570 0.9647
-6.7801 -6.6100 -2.0016 0.9620
-6.5389 -6.8488 -2.0016 0.9620
-6.2892 -7.0788 -2.0016 0.9620
-5.7659 -7.5111 -2.0016 0.9620
-4.9262 -8.0867 -2.0016 0.9620
-3.7200 -8.7077 -2.0016 0.9620
-3.4054 -8.8355 -2.0016 0.9620
-2.4373 -9.1500 -2.0016 0.9620
-1.7755 -9.3011 -2.0016 0.9620
-1.4410 -9.3587 -2.0016 0.9620
-0.4280 -9.4593 -2.0016 0.9620
-0.0887 -9.4686 -2.0016 0.9620
0.2508 -9.4657 -2.0016 0.9620
0.9283 -9.4234 -2.0016 0.9620
1.2654 -9.3841 -2.0016 0.9620
1.6010 -9.3327 -2.0016 0.9620
1.9345 -9.2693 -2.0016 0.9620
2.2655 -9.1940 -2.0016 0.9620
2.5936 -9.1069 -2.0016 0.9620
3.8685 -8.6428 -2.0016 0.9620
2.2487 -4.1901 -1.0052 0.9807
4.7739 -8.1775 -2.0016 0.9620
5.0640 -8.0012 -2.0016 0.9620
5.6242 -7.6178 -2.0016 0.9620
6.1555 -7.1953 -2.0016 0.9620
6.6551 -6.7358 -2.0016 0.9620
6.8923 -6.4930 -2.0016 0.9620
7.1206 -6.2417 -2.0016 0.9620
7.9396 -5.1600 -2.0016 0.9620
8.1194 -4.8721 -2.0016 0.9620
8.2888 -4.5779 -2.0016 0.9620
8.4476 -4.2779 -2.0016 0.9620
8.5955 -3.9724 -2.0016 0.9620
8.8580 -3.3463 -2.0016 0.9620
8.9723 -3.0267 -2.0016 0.9620
9.0750 -2.7031 -2.0016 0.9620
9.1660 -2.3761 -2.0016 0.9620
9.3682 -1.3784 -2.0016 0.9620
9.4115 -1.0418 -2.0016 0.9620
9.4690 -0.0254 -2.0016 0.9620
9.4465 0.6530 -2.0016 0.9620
9.4170 0.9912 -2.0016 0.9620
9.2562 1.9964 -2.0016 0.9620
9.1787 2.3269 -2.0016 0.9620
8.9884 2.9785 -2.0016 0.9620
8.6167 3.9261 -2.0016 0.9620
8.4704 4.2325 -2.0016 0.9620
8.3133 4.5334 -2.0016 0.9620
7.9672 5.1173 -2.0016 0.9620
7.7786 5.3996 -2.0016 0.9620
7.5801 5.6749 -2.0016 0.9620
7.3718 5.9430 -2.0016 0.9620
6.9271 6.4558 -2.0016 0.9620
6.1940 7.1621 -2.0016 0.9620
5.9333 7.3796 -2.0016 0.9620
5.3894 7.7857 -2.0016 0.9620
5.1069 7.9738 -2.0016 0.9620
3.9140 8.6200 -2.0011 0.9620
3.2523 8.7861 -1.9803 0.9624
2.8554 8.6551 -1.9265 0.9634
1.8334 8.5547 -1.8494 0.9649
1.5255 8.6150 -1.8494 0.9649
1.2158 8.6641 -1.8494 0.9649
0.9044 8.7021 -1.8494 0.9649
-0.3485 8.7420 -1.8494 0.9649
-0.6617 8.7239 -1.8494 0.9649
-0.9739 8.6946 -1.8494 0.9649
-1.2850 8.6541 -1.8494 0.9649
-1.5943 8.6025 -1.8494 0.9649
-1.9017 8.5398 -1.8494 0.9649
-2.2065 8.4662 -1.8494 0.9649
-2.8074 8.2863 -1.8494 0.9649
-3.4729 8.2518 -1.8925 0.9641
-4.1866 8.2404 -1.9538 0.9629
-4.5616 8.2338 -1.9897 0.9622
-5.1643 7.9234 -1.9992 0.9621
-5.4514 7.7424 -2.0016 0.9620
-5.7254 7.5420 -2.0016 0.9620
-5.9921 7.3319 -2.0016 0.9620
-6.2511 7.1124 -2.0016 0.9620
-7.7760 -2.2352 -1.9015 0.9673
-7.5107 -2.4536 -1.8570 0.9681
-7.4179 -2.7212 -1.8570 0.9681
-7.3156 -2.9854 -1.8570 0.9681
-6.9528 -3.7534 -1.8570 0.9681
-6.6661 -4.2419 -1.8570 0.9681
-6.3450 -4.7086 -1.8570 0.9681
-5.6070 -5.5670 -1.8570 0.9681
-5.5981 -6.4180 -2.0016 0.9656
-5.1239 -6.8026 -2.0016 0.9656
-4.6234 -7.1522 -2.0016 0.9656
-4.0991 -7.4650 -2.0016 0.9656
-3.5538 -7.7395 -2.0016 0.9656
-2.9902 -7.9743 -2.0016 0.9656
-2.7024 -8.0763 -2.0016 0.9656
-2.4112 -8.1680 -2.0016 0.9656
-2.1169 -8.2492 -2.0016 0.9656
-1.8198 -8.3197 -2.0016 0.9656
-1.5205 -8.3796 -2.0016 0.9656
-0.9162 -8.4670 -2.0016 0.9656
-0.0020 -8.5164 -2.0016 0.9656
0.9122 -8.4674 -2.0016 0.9656
1.2152 -8.4293 -2.0016 0.9656
1.5165 -8.3803 -2.0016 0.9656
1.8159 -8.3206 -2.0016 0.9656
2.6986 -8.0776 -2.0016 0.9656
3.5501 -7.7412 -2.0016 0.9656
2.1468 -4.2701 -1.1233 0.9806
2.2760 -4.1495 -1.1123 0.9807
4.3606 -7.3154 -2.0016 0.9656
4.6200 -7.1544 -2.0016 0.9656
5.1207 -6.8050 -2.0016 0.9656
5.3614 -6.6171 -2.0016 0.9656
5.5951 -6.4207 -2.0016 0.9656
6.2520 -5.7829 -2.0016 0.9656
6.6502 -5.3202 -2.0016 0.9656
6.8367 -5.0784 -2.0016 0.9656
7.1829 -4.5755 -2.0016 0.9656
7.3423 -4.3151 -2.0016 0.9656
7.4923 -4.0492 -2.0016 0.9656
7.6326 -3.7780 -2.0016 0.9656
8.2631 -2.0617 -2.0016 0.9656
8.4367 -1.1628 -2.0016 0.9656
8.4729 -0.8596 -2.0016 0.9656
8.5163 0.0549 -2.0016 0.9656
8.5088 0.3601 -2.0016 0.9656
8.4905 0.6649 -2.0016 0.9656
8.4612 0.9688 -2.0016 0.9656
8.3700 1.5725 -2.0016 0.9656
8.3083 1.8715 -2.0016 0.9656
8.2359 2.1681 -2.0016 0.9656
8.1529 2.4619 -2.0016 0.9656
7.8415 3.3228 -2.0016 0.9656
7.7173 3.6018 -2.0016 0.9656
7.5833 3.8761 -2.0016 0.9656
7.2861 4.4094 -2.0016 0.9656
6.5811 5.4054 -2.0016 0.9656
6.3831 5.6379 -2.0016 0.9656
6.1769 5.8630 -2.0016 0.9656
5.5119 6.4922 -2.0016 0.9656
5.2756 6.6856 -2.0016 0.9656
5.0326 6.8704 -2.0016 0.9656
4.5275 7.2133 -2.0016 0.9656
4.2660 7.3710 -2.0016 0.9656
3.7269 7.6577 -2.0016 0.9656
3.4501 7.7863 -2.0016 0.9656
2.5938 8.1102 -2.0012 0.9656
2.0013 8.2552 -1.9964 0.9657
1.7025 8.3139 -1.9945 0.9657
1.3925 8.3047 -1.9790 0.9660
1.0837 8.2710 -1.9605 0.9663
0.4835 8.2450 -1.9411 0.9666
-0.1082 8.2434 -1.9376 0.9667
-0.4040 8.2431 -1.9396 0.9667
-0.9994 8.2410 -1.9510 0.9665
-1.6045 8.2370 -1.9723 0.9661
-1.9127 8.2343 -1.9868 0.9659
-2.5093 8.1135 -1.9960 0.9657
-2.8006 8.0244 -1.9975 0.9657
-3.0890 7.9255 -1.9992 0.9657
-3.6533 7.6931 -2.0016 0.9656
-4.1950 7.4116 -2.0016 0.9656
-6.5289 5.4684 -2.0016 0.9656
-7.0782 4.7359 -2.0016 0.9656
-7.2434 4.4792 -2.0016 0.9656
-7.3993 4.2166 -2.0016 0.9656
-7.6824 3.6757 -2.0016 0.9656
-7.8092 3.3980 -2.0016 0.9656
-7.9260 3.1159 -2.0016 0.9656
-8.0326 2.8298 -2.0016 0.9656
-8.1288 2.5400 -2.0016 0.9656
-8.2147 2.2470 -2.0016 0.9656
-8.2899 1.9511 -2.0016 0.9656
-8.3545 1.6528 -2.0016 0.9656
-8.4515 1.0500 -2.0016 0.9656
-8.4837 0.7464 -2.0016 0.9656
-8.5154 0.1367 -2.0016 0.9656
-8.5148 -0.1687 -2.0016 0.9656
-8.5033 -0.4738 -2.0016 0.9656
-8.4808 -0.7782 -2.0016 0.9656
-8.4475 -1.0817 -2.0016 0.9656
-8.4033 -1.3838 -2.0016 0.9656
-8.3483 -1.6842 -2.0016 0.9656
-7.4424 -2.6534 -1.8570 0.9681
-7.3425 -2.9184 -1.8570 0.9681
-7.2332 -3.1797 -1.8570 0.9681
-6.9868 -3.6898 -1.8570 0.9681
-6.8501 -3.9378 -1.8570 0.9681
-6.7045 -4.1808 -1.8570 0.9681
-6.5504 -4.4185 -1.8570 0.9681
-6.3878 -4.6504 -1.8570 0.9681
-6.2170 -4.8764 -1.8570 0.9681
-6.0382 -5.0961 -1.8570 0.9681
-5.8516 -5.3093 -1.8570 0.9681
-5.6576 -5.5156 -1.8570 0.9681
-5.8810 -6.1598 -2.0016 0.9656
-5.6565 -6.3666 -2.0016 0.9656
-5.1858 -6.7555 -2.0016 0.9656
-3.8982 -7.5719 -2.0016 0.9656
-3.6243 -7.7068 -2.0016 0.9656
-3.3457 -7.8317 -2.0016 0.9656
-2.7761 -8.0513 -2.0016 0.9656
-1.5969 -8.3654 -2.0016 0.9656
-1.2960 -8.4173 -2.0016 0.9656
-0.9935 -8.4583 -2.0016 0.9656
-0.3850 -8.5077 -2.0016 0.9656
-0.0798 -8.5161 -2.0016 0.9656
0.2255 -8.5135 -2.0016 0.9656
0.5306 -8.4999 -2.0016 0.9656
1.1381 -8.4401 -2.0016 0.9656
1.4399 -8.3938 -2.0016 0.9656
1.7399 -8.3368 -2.0016 0.9656
2.0376 -8.2691 -2.0016 0.9656
2.3327 -8.1908 -2.0016 0.9656
2.6248 -8.1019 -2.0016 0.9656
2.9135 -8.0026 -2.0016 0.9656
3.4793 -7.7733 -2.0016 0.9656
2.1527 -4.3812 -1.1473 0.9801
2.2322 -4.1592 -1.1094 0.9808
4.5545 -7.1963 -2.0016 0.9656
4.8095 -7.0284 -2.0016 0.9656
5.0584 -6.8515 -2.0016 0.9656
5.3007 -6.6658 -2.0016 0.9656
5.7646 -6.2689 -2.0016 0.9656
6.1990 -5.8398 -2.0016 0.9656
6.4043 -5.6138 -2.0016 0.9656
7.1408 -4.6409 -2.0016 0.9656
7.3026 -4.3820 -2.0016 0.9656
7.4550 -4.1174 -2.0016 0.9656
7.7308 -3.5728 -2.0016 0.9656
7.8539 -3.2933 -2.0016 0.9656
7.9669 -3.0097 -2.0016 0.9656
8.0697 -2.7222 -2.0016 0.9656
8.2439 -2.1371 -2.0016 0.9656
8.5101 -0.3281 -2.0016 0.9656
8.5164 -0.0229 -2.0016 0.9656
8.5118 0.2824 -2.0016 0.9656
8.4697 0.8915 -2.0016 0.9656
8.3840 1.4960 -2.0016 0.9656
8.3250 1.7955 -2.0016 0.9656
8.2553 2.0928 -2.0016 0.9656
8.1750 2.3873 -2.0016 0.9656
7.9830 2.9669 -2.0016 0.9656
7.6183 3.8067 -2.0016 0.9656
7.4770 4.0773 -2.0016 0.9656
7.1657 4.6025 -2.0016 0.9656
6.6302 5.3451 -2.0016 0.9656
6.2302 5.8064 -2.0016 0.9656
5.7982 6.2378 -2.0016 0.9656
4.3331 7.3317 -2.0016 0.9656
4.0675 7.4823 -2.0016 0.9656
3.5210 7.7545 -2.0016 0.9656
3.2408 7.8757 -2.0016 0.9656
2.9564 7.9868 -2.0016 0.9656
2.3740 8.1689 -1.9993 0.9656
1.1611 8.2742 -1.9637 0.9663
-0.0329 8.2435 -1.9374 0.9667
-0.3286 8.2432 -1.9389 0.9667
-1.2234 8.2397 -1.9578 0.9664
-1.8338 8.2351 -1.9828 0.9659
-2.4346 8.1346 -1.9956 0.9657
-3.3019 7.8455 -2.0005 0.9656
-3.5829 7.7261 -2.0016 0.9656
-4.1272 7.4496 -2.0016 0.9656
-4.3915 7.2969 -2.0016 0.9656
-4.6503 7.1348 -2.0016 0.9656
-5.3893 6.5943 -2.0016 0.9656
-5.6222 6.3969 -2.0016 0.9656
-7.5635 -1.5979 -2.0016 0.9686
-7.5014 -1.8679 -2.0016 0.9686
-7.4296 -2.1356 -2.0016 0.9686
-6.8607 -2.2412 -1.8687 0.9706
-6.7333 -2.4701 -1.8570 0.9708
-6.5391 -2.9461 -1.8570 0.9708
-6.4293 -3.1786 -1.8570 0.9708
-6.3112 -3.4070 -1.8570 0.9708
-5.9090 -4.0648 -1.8570 0.9708
-5.7595 -4.2740 -1.8570 0.9708
-5.4385 -4.6757 -1.8570 0.9708
-5.2674 -4.8676 -1.8570 0.9708
-5.0895 -5.0533 -1.8570 0.9708
-4.9051 -5.2324 -1.8570 0.9708
-4.5177 -5.5704 -1.8570 0.9708
-3.7208 -6.7761 -2.0016 0.9686
-3.4756 -6.9051 -2.0016 0.9686
-2.9719 -7.1364 -2.0016 0.9686
-1.9215 -7.4879 -2.0016 0.9686
-1.6519 -7.5519 -2.0016 0.9686
-1.1066 -7.6509 -2.0016 0.9686
-0.8317 -7.6856 -2.0016 0.9686
-0.0018 -7.7305 -2.0016 0.9686
0.2753 -7.7256 -2.0016 0.9686
0.8280 -7.6860 -2.0016 0.9686
1.3766 -7.6069 -2.0016 0.9686
1.9180 -7.4888 -2.0016 0.9686
2.1852 -7.4152 -2.0016 0.9686
2.4496 -7.3321 -2.0016 0.9686
2.7108 -7.2396 -2.0016 0.9686
2.9686 -7.1378 -2.0016 0.9686
2.2549 -4.1111 -1.2140 0.9808
3.9582 -6.6403 -2.0016 0.9686
4.4238 -6.3396 -2.0016 0.9686
4.6481 -6.1770 -2.0016 0.9686
5.2844 -5.6423 -2.0016 0.9686
5.4832 -5.4493 -2.0016 0.9686
5.8595 -5.0424 -2.0016 0.9686
6.3670 -4.3843 -2.0016 0.9686
6.6647 -3.9169 -2.0016 0.9686
6.8008 -3.6755 -2.0016 0.9686
7.0467 -3.1788 -2.0016 0.9686
7.2563 -2.6658 -2.0016 0.9686
7.3472 -2.4040 -2.0016 0.9686
7.5005 -1.8715 -2.0016 0.9686
7.6581 -1.0555 -2.0016 0.9686
7.6910 -0.7803 -2.0016 0.9686
7.7140 -0.5041 -2.0016 0.9686
7.7303 0.0498 -2.0016 0.9686
7.7236 0.3269 -2.0016 0.9686
7.7069 0.6035 -2.0016 0.9686
7.6803 0.8794 -2.0016 0.9686
7.6439 1.1541 -2.0016 0.9686
7.5976 1.4273 -2.0016 0.9686
7.4758 1.9680 -2.0016 0.9686
7.4004 2.2347 -2.0016 0.9686
7.3156 2.4985 -2.0016 0.9686
7.1178 3.0162 -2.0016 0.9686
7.0051 3.2694 -2.0016 0.9686
6.8834 3.5184 -2.0016 0.9686
6.4660 4.2370 -2.0016 0.9686
6.3099 4.4660 -2.0016 0.9686
5.6069 5.3220 -2.0016 0.9686
5.4125 5.5195 -2.0016 0.9686
5.2112 5.7100 -2.0016 0.9686
4.7887 6.0686 -2.0016 0.9686
4.3417 6.3961 -2.0016 0.9686
4.1096 6.5476 -2.0016 0.9686
3.8723 6.6907 -2.0016 0.9686
3.6300 6.8252 -2.0016 0.9686
3.3830 6.9510 -2.0016 0.9686
3.1317 7.0677 -2.0016 0.9686
2.8763 7.1755 -2.0016 0.9686
2.6173 7.2739 -2.0016 0.9686
2.3549 7.3631 -2.0016 0.9686
1.8213 7.5129 -2.0016 0.9686
1.5508 7.5733 -2.0016 0.9686
1.2784 7.6240 -2.0016 0.9686
1.0043 7.6650 -2.0016 0.9686
0.7289 7.6960 -2.0016 0.9686
0.4526 7.7172 -2.0016 0.9686
0.1757 7.7285 -2.0016 0.9686
-0.1015 7.7298 -2.0016 0.9686
-0.3785 7.7212 -2.0016 0.9686
-1.2051 7.6360 -2.0016 0.9686
-1.7491 7.5300 -2.0016 0.9686
-2.0179 7.4625 -2.0016 0.9686
-2.2841 7.3854 -2.0016 0.9686
-2.8073 7.2027 -2.0016 0.9686
-3.0637 7.0975 -2.0016 0.9686
-3.3161 6.9831 -2.0016 0.9686
-3.8079 6.7276 -2.0016 0.9686
-4.0466 6.5868 -2.0016 0.9686
-5.1561 5.7597 -2.0016 0.9686
-5.3593 5.5712 -2.0016 0.9686
-5.5555 5.3755 -2.0016 0.9686
-5.9264 4.9637 -2.0016 0.9686
-6.4250 4.2989 -2.0016 0.9686
-6.5749 4.0658 -2.0016 0.9686
-6.7165 3.8275 -2.0016 0.9686
-6.8493 3.5843 -2.0016 0.9686
-6.9734 3.3365 -2.0016 0.9686
-7.0885 3.0844 -2.0016 0.9686
-7.2913 2.5686 -2.0016 0.9686
-7.6715 0.9531 -2.0016 0.9686
-7.7201 0.4010 -2.0016 0.9686
-7.7185 -0.4300 -2.0016 0.9686
-7.6679 -0.9819 -2.0016 0.9686
-7.5778 -1.5287 -2.0016 0.9686
-7.5182 -1.7994 -2.0016 0.9686
-6.6649 -2.6491 -1.8570 0.9708
-6.5657 -2.8863 -1.8570 0.9708
-6.4580 -3.1198 -1.8570 0.9708
-6.2179 -3.5744 -1.8570 0.9708
-6.0858 -3.7950 -1.8570 0.9708
-5.9458 -4.0107 -1.8570 0.9708
-5.7982 -4.2213 -1.8570 0.9708
-5.4809 -4.6258 -1.8570 0.9708
-5.3116 -4.8193 -1.8570 0.9708
-5.1355 -5.0066 -1.8570 0.9708
-4.7636 -5.3616 -1.8570 0.9708
-4.4844 -6.2969 -2.0016 0.9686
-3.7825 -6.7419 -2.0016 0.9686
-3.5385 -6.8731 -2.0016 0.9686
-3.2898 -6.9955 -2.0016 0.9686
-3.0370 -7.1090 -2.0016 0.9686
-2.7802 -7.2132 -2.0016 0.9686
-2.2563 -7.3939 -2.0016 0.9686
-1.9898 -7.4700 -2.0016 0.9686
-1.7208 -7.5365 -2.0016 0.9686
-1.4495 -7.5934 -2.0016 0.9686
-1.1764 -7.6405 -2.0016 0.9686
-0.6260 -7.7051 -2.0016 0.9686
0.4816 -7.7155 -2.0016 0.9686
0.7578 -7.6932 -2.0016 0.9686
1.3071 -7.6192 -2.0016 0.9686
1.8495 -7.5060 -2.0016 0.9686
2.3825 -7.3542 -2.0016 0.9686
2.9033 -7.1646 -2.0016 0.9686
3.1582 -7.0559 -2.0016 0.9686
2.2067 -4.1117 -1.2082 0.9809
2.3988 -4.1091 -1.2320 0.9805
4.5916 -6.2192 -2.0016 0.9686
5.4332 -5.4991 -2.0016 0.9686
5.6269 -5.3008 -2.0016 0.9686
5.8132 -5.0957 -2.0016 0.9686
5.9922 -4.8841 -2.0016 0.9686
6.6287 -3.9776 -2.0016 0.9686
6.7670 -3.7374 -2.0016 0.9686
6.8966 -3.4925 -2.0016 0.9686
7.2317 -2.7319 -2.0016 0.9686
7.3249 -2.4710 -2.0016 0.9686
7.4088 -2.2068 -2.0016 0.9686
7.5479 -1.6704 -2.0016 0.9686
7.6836 -0.8505 -2.0016 0.9686
7.7091 -0.5745 -2.0016 0.9686
7.7247 -0.2978 -2.0016 0.9686
7.7305 -0.0208 -2.0016 0.9686
7.7121 0.5331 -2.0016 0.9686
7.6880 0.8092 -2.0016 0.9686
7.6541 1.0843 -2.0016 0.9686
7.6103 1.3579 -2.0016 0.9686
7.5567 1.6298 -2.0016 0.9686
7.2462 2.6931 -2.0016 0.9686
6.9153 3.4554 -2.0016 0.9686
6.3504 4.4082 -2.0016 0.9686
5.4627 5.4699 -2.0016 0.9686
4.6249 6.1944 -2.0016 0.9686
4.1692 6.5098 -2.0016 0.9686
3.9332 6.6551 -2.0016 0.9686
3.6921 6.7918 -2.0016 0.9686
3.4463 6.9198 -2.0016 0.9686
3.1961 7.0389 -2.0016 0.9686
2.6836 7.2497 -2.0016 0.9686
2.1573 7.4234 -2.0016 0.9686
1.8898 7.4959 -2.0016 0.9686
1.6199 7.5589 -2.0016 0.9686
0.7991 7.6891 -2.0016 0.9686
0.5230 7.7128 -2.0016 0.9686
0.2462 7.7266 -2.0016 0.9686
-0.0309 7.7304 -2.0016 0.9686
-0.8606 7.6824 -2.0016 0.9686
-1.1354 7.6467 -2.0016 0.9686
-1.4087 7.6010 -2.0016 0.9686
-1.9497 7.4806 -2.0016 0.9686
-2.2165 7.4059 -2.0016 0.9686
-2.4806 7.3217 -2.0016 0.9686
-3.9863 6.6235 -2.0016 0.9686
-4.2211 6.4763 -2.0016 0.9686
-4.6742 6.1573 -2.0016 0.9686
-5.1033 5.8066 -2.0016 0.9686
-6.8608 -1.7084 -2.0016 0.9710
-6.1583 -2.2591 -1.8570 0.9731
-6.0734 -2.4784 -1.8570 0.9731
-5.5342 -3.5216 -1.8570 0.9731
-4.9740 -4.2764 -1.8570 0.9731
-4.6549 -4.6217 -1.8570 0.9731
-4.3118 -4.9433 -1.8570 0.9731
-4.1319 -5.0947 -1.8570 0.9731
-3.7563 -5.3777 -1.8570 0.9731
-3.3613 -5.6329 -1.8570 0.9731
-3.4031 -6.1975 -2.0016 0.9710
-3.1788 -6.3155 -2.0016 0.9710
-2.2435 -6.7049 -2.0016 0.9710
-2.0018 -6.7810 -2.0016 0.9710
-1.0121 -6.9975 -2.0016 0.9710
-0.7606 -7.0293 -2.0016 0.9710
-0.5082 -7.0520 -2.0016 0.9710
-0.2551 -7.0657 -2.0016 0.9710
0.2518 -7.0658 -2.0016 0.9710
0.5049 -7.0523 -2.0016 0.9710
0.7573 -7.0297 -2.0016 0.9710
2.4793 -6.6214 -2.0016 0.9710
2.9473 -6.4267 -2.0016 0.9710
2.0977 -4.1725 -1.3221 0.9808
2.4496 -4.1094 -1.3543 0.9803
4.0460 -5.7982 -2.0016 0.9710
4.2512 -5.6495 -2.0016 0.9710
4.4510 -5.4935 -2.0016 0.9710
4.8331 -5.1605 -2.0016 0.9710
5.0150 -4.9839 -2.0016 0.9710
5.8232 -4.0099 -2.0016 0.9710
6.4449 -2.9074 -2.0016 0.9710
6.7198 -2.1987 -2.0016 0.9710
6.7943 -1.9564 -2.0016 0.9710
6.8600 -1.7116 -2.0016 0.9710
6.9170 -1.4647 -2.0016 0.9710
7.0342 -0.7137 -2.0016 0.9710
7.0702 0.0456 -2.0016 0.9710
7.0640 0.2990 -2.0016 0.9710
7.0487 0.5520 -2.0016 0.9710
7.0244 0.8043 -2.0016 0.9710
6.9911 1.0555 -2.0016 0.9710
6.9488 1.3055 -2.0016 0.9710
6.6909 2.2851 -2.0016 0.9710
6.6047 2.5235 -2.0016 0.9710
6.5100 2.7586 -2.0016 0.9710
5.9138 3.8751 -2.0016 0.9710
5.6210 4.2889 -2.0016 0.9710
5.4636 4.4876 -2.0016 0.9710
5.2993 4.6805 -2.0016 0.9710
5.1281 4.8675 -2.0016 0.9710
4.9503 5.0482 -2.0016 0.9710
4.5759 5.3898 -2.0016 0.9710
4.1780 5.7038 -2.0016 0.9710
3.9709 5.8499 -2.0016 0.9710
3.7587 5.9885 -2.0016 0.9710
3.5416 6.1194 -2.0016 0.9710
3.3200 6.2424 -2.0016 0.9710
2.8642 6.4642 -2.0016 0.9710
2.6307 6.5627 -2.0016 0.9710
2.3938 6.6528 -2.0016 0.9710
1.6658 6.8713 -2.0016 0.9710
1.4184 6.9266 -2.0016 0.9710
0.9185 7.0104 -2.0016 0.9710
0.6667 7.0388 -2.0016 0.9710
0.1607 7.0685 -2.0016 0.9710
-0.0928 7.0697 -2.0016 0.9710
-0.3462 7.0619 -2.0016 0.9710
-0.5990 7.0449 -2.0016 0.9710
-0.8512 7.0189 -2.0016 0.9710
-1.5997 6.8870 -2.0016 0.9710
-2.0890 6.7547 -2.0016 0.9710
-2.5676 6.5877 -2.0016 0.9710
-3.0329 6.3868 -2.0016 0.9710
-3.2599 6.2740 -2.0016 0.9710
-3.4827 6.1531 -2.0016 0.9710
-4.3263 5.5922 -2.0016 0.9710
-4.9016 5.0955 -2.0016 0.9710
-5.2541 4.7312 -2.0016 0.9710
-5.4203 4.5398 -2.0016 0.9710
-5.7316 4.1398 -2.0016 0.9710
-5.8763 3.9317 -2.0016 0.9710
-6.0135 3.7186 -2.0016 0.9710
-6.2644 3.2782 -2.0016 0.9710
-6.3779 3.0516 -2.0016 0.9710
-6.8198 1.8655 -2.0016 0.9710
-6.8823 1.6198 -2.0016 0.9710
-7.0431 0.6196 -2.0016 0.9710
-7.0608 0.3668 -2.0016 0.9710
-7.0694 0.1134 -2.0016 0.9710
-7.0689 -0.1400 -2.0016 0.9710
-7.0594 -0.3933 -2.0016 0.9710
-7.0407 -0.6461 -2.0016 0.9710
-6.9764 -1.1489 -2.0016 0.9710
-6.8127 -1.8911 -2.0016 0.9710
-6.2772 -2.2379 -1.8866 0.9727
-6.0958 -2.4229 -1.8570 0.9731
-5.9065 -2.8534 -1.8570 0.9731
-5.5661 -3.4709 -1.8570 0.9731
-5.4381 -3.6682 -1.8570 0.9731
-5.3031 -3.8608 -1.8570 0.9731
-5.1613 -4.0484 -1.8570 0.9731
-5.0129 -4.2308 -1.8570 0.9731
-4.8580 -4.4077 -1.8570 0.9731
-4.5298 -4.7445 -1.8570 0.9731
-4.3568 -4.9038 -1.8570 0.9731
-4.1782 -5.0568 -1.8570 0.9731
-3.9943 -5.2033 -1.8570 0.9731
-3.8052 -5.3431 -1.8570 0.9731
-3.2363 -6.2862 -2.0016 0.9710
-3.0089 -6.3981 -2.0016 0.9710
-2.5428 -6.5973 -2.0016 0.9710
-2.3047 -6.6842 -2.0016 0.9710
-2.0636 -6.7625 -2.0016 0.9710
-0.5726 -7.0471 -2.0016 0.9710
-0.3196 -7.0631 -2.0016 0.9710
-0.0662 -7.0700 -2.0016 0.9710
0.4405 -7.0566 -2.0016 0.9710
1.1954 -6.9685 -2.0016 0.9710
2.1791 -6.7262 -2.0016 0.9710
2.4188 -6.6437 -2.0016 0.9710
2.6553 -6.5528 -2.0016 0.9710
2.8885 -6.4534 -2.0016 0.9710
2.3904 -4.0946 -1.3422 0.9805
3.9929 -5.8349 -2.0016 0.9710
4.5962 -5.3726 -2.0016 0.9710
4.7858 -5.2044 -2.0016 0.9710
5.4805 -4.4670 -2.0016 0.9710
5.7864 -4.0629 -2.0016 0.9710
5.9283 -3.8529 -2.0016 0.9710
6.0626 -3.6379 -2.0016 0.9710
6.1891 -3.4183 -2.0016 0.9710
6.4181 -2.9661 -2.0016 0.9710
6.6141 -2.4986 -2.0016 0.9710
6.7761 -2.0184 -2.0016 0.9710
6.8441 -1.7742 -2.0016 0.9710
6.9536 -1.2793 -2.0016 0.9710
6.9950 -1.0293 -2.0016 0.9710
7.0274 -0.7779 -2.0016 0.9710
7.0651 -0.2724 -2.0016 0.9710
7.0703 -0.0190 -2.0016 0.9710
7.0665 0.2345 -2.0016 0.9710
7.0535 0.4876 -2.0016 0.9710
7.0315 0.7401 -2.0016 0.9710
7.0004 0.9917 -2.0016 0.9710
6.8535 1.7374 -2.0016 0.9710
6.7115 2.2240 -2.0016 0.9710
6.6274 2.4631 -2.0016 0.9710
6.5349 2.6991 -2.0016 0.9710
6.3247 3.1603 -2.0016 0.9710
6.2074 3.3850 -2.0016 0.9710
5.8081 4.0318 -2.0016 0.9710
5.5044 4.4375 -2.0016 0.9710
5.3418 4.6320 -2.0016 0.9710
5.1723 4.8205 -2.0016 0.9710
4.6250 5.3478 -2.0016 0.9710
4.2299 5.6654 -2.0016 0.9710
4.0242 5.8134 -2.0016 0.9710
3.8132 5.9539 -2.0016 0.9710
2.6905 6.5384 -2.0016 0.9710
2.4544 6.6306 -2.0016 0.9710
1.9731 6.7894 -2.0016 0.9710
1.7284 6.8558 -2.0016 0.9710
0.4784 7.0541 -2.0016 0.9710
