ply
format ascii 1.0
element vertex 1534
property float32 x
property float32 y
property float32 z
property float32 I
end_header
25.5713 -30.0630 -2.0016 0.8538
26.6089 -29.0971 -1.9996 0.8539
26.9845 -25.5544 -1.8848 0.8617
27.3612 -24.1072 -1.8494 0.8641
28.2093 -23.1089 -1.8494 0.8641
29.7955 -21.0242 -1.8494 0.8641
32.5994 -16.5916 -1.8551 0.8637
36.3682 -15.3306 -2.0016 0.8538
36.8954 -14.0145 -2.0016 0.8538
37.3749 -12.6803 -2.0016 0.8538
37.8063 -11.3297 -2.0016 0.8538
36.1161 -2.7360 -1.8369 0.8650
39.4363 -1.5659 -2.0016 0.8538
39.4671 -0.1485 -2.0016 0.8538
39.4470 1.2692 -2.0016 0.8538
38.8587 6.9052 -2.0016 0.8538
38.2971 8.2344 -1.9866 0.8548
35.3532 8.9411 -1.8494 0.8641
35.0092 10.2051 -1.8494 0.8641
34.1863 12.6920 -1.8494 0.8641
33.1870 15.1134 -1.8494 0.8641
32.6227 16.2957 -1.8494 0.8641
29.9528 20.7995 -1.8494 0.8641
29.1864 21.8619 -1.8494 0.8641
27.8393 22.4579 -1.8140 0.8665
27.2667 27.3317 -1.9579 0.8567
25.7967 29.8698 -2.0016 0.8538
23.5858 31.6446 -2.0016 0.8538
22.4340 32.4714 -2.0016 0.8538
21.2533 33.2562 -2.0016 0.8538
14.9698 36.5182 -2.0016 0.8538
2.2478 12.8267 -0.6604 0.9492
0.8061 12.2504 -0.6226 0.9520
0.3670 12.3172 -0.6249 0.9518
-0.5009 11.9005 -0.6041 0.9534
-0.9291 11.8884 -0.6048 0.9534
-1.8024 11.9386 -0.6123 0.9528
-2.2765 12.1136 -0.6251 0.9518
-2.7219 12.0760 -0.6278 0.9516
-3.1159 11.8264 -0.6202 0.9522
-3.5971 11.9004 -0.6305 0.9514
-4.0909 11.9642 -0.6412 0.9506
-4.5781 11.9668 -0.6498 0.9500
-6.6734 11.9560 -0.6944 0.9466
-7.7774 11.8466 -0.7187 0.9448
-8.4863 11.9663 -0.7440 0.9429
-9.1103 11.9149 -0.7607 0.9417
-13.0167 11.8469 -0.8926 0.9319
-14.0567 11.8990 -0.9340 0.9289
-16.3271 11.9195 -1.0252 0.9222
-17.5007 11.8367 -1.0715 0.9189
-18.8834 11.8063 -1.1294 0.9147
-22.3664 11.8413 -1.2835 0.9036
-23.8828 11.5656 -1.3457 0.8992
-33.3700 14.7047 -1.8494 0.8641
-36.6647 14.6074 -2.0016 0.8538
-37.1657 13.2811 -2.0016 0.8538
-38.0232 10.5788 -2.0016 0.8538
-38.3786 9.2063 -2.0016 0.8538
-38.6845 7.8219 -2.0016 0.8538
-38.9405 6.4274 -2.0016 0.8538
-39.3015 3.6154 -2.0016 0.8538
-39.4060 2.2014 -2.0016 0.8538
-39.4596 0.7846 -2.0016 0.8538
-39.4623 -0.6332 -2.0016 0.8538
-39.4141 -2.0501 -2.0016 0.8538
-39.3151 -3.4645 -2.0016 0.8538
-38.4137 -9.0589 -2.0016 0.8538
-37.2164 -13.1383 -2.0016 0.8538
-36.1772 -15.7761 -2.0016 0.8538
-30.9943 -19.2131 -1.8494 0.8641
-30.2842 -20.3140 -1.8494 0.8641
-22.7761 -16.4939 -1.4261 0.8935
-28.7478 -22.4356 -1.8494 0.8641
-26.6104 -22.3508 -1.7624 0.8701
-24.7538 -22.3560 -1.6916 0.8749
-23.0386 -22.3607 -1.6282 0.8793
-21.4453 -22.3652 -1.5714 0.8833
-17.0997 -19.1662 -1.3026 0.9022
-18.1378 -21.8624 -1.4407 0.8925
-16.9475 -21.9893 -1.4079 0.8948
-14.6666 -22.1543 -1.3474 0.8991
-8.6685 -22.4007 -1.2181 0.9083
-7.7547 -22.3982 -1.2021 0.9094
-3.4713 -22.4101 -1.1501 0.9132
-1.0298 -22.4169 -1.1381 0.9140
-0.2237 -22.4191 -1.1370 0.9141
0.5594 -21.5551 -1.0935 0.9173
1.3891 -22.4236 -1.1394 0.9139
6.1567 -35.9428 -1.8494 0.8641
7.4437 -35.6985 -1.8494 0.8641
12.1655 -37.5456 -2.0016 0.8538
13.5062 -37.0845 -2.0016 0.8538
17.4169 -35.4165 -2.0016 0.8538
23.4642 -31.7349 -2.0016 0.8538
24.5889 -30.8717 -2.0016 0.8538
25.6819 -29.9686 -2.0016 0.8538
26.6962 -28.9775 -1.9982 0.8540
26.9642 -27.2367 -1.9437 0.8577
28.2942 -23.0048 -1.8494 0.8641
30.6046 -19.8278 -1.8494 0.8641
31.2971 -18.7158 -1.8494 0.8641
31.9491 -17.5797 -1.8494 0.8641
36.9468 -13.8785 -2.0016 0.8538
38.2253 -9.8237 -2.0016 0.8538
38.5534 -8.4444 -2.0016 0.8538
38.8319 -7.0543 -2.0016 0.8538
34.0699 -3.6888 -1.7379 0.8718
36.1903 -2.6075 -1.8401 0.8647
39.4418 -1.4206 -2.0016 0.8538
39.4674 -0.0030 -2.0016 0.8538
39.3658 2.8303 -2.0016 0.8538
39.0610 5.6490 -2.0016 0.8538
38.8329 7.0483 -2.0016 0.8538
37.6491 8.2403 -1.9545 0.8570
34.1393 12.8179 -1.8494 0.8641
33.6569 14.0358 -1.8494 0.8641
30.7222 16.8983 -1.7782 0.8690
29.8760 20.9096 -1.8494 0.8641
29.1057 21.9692 -1.8494 0.8641
27.8572 22.6423 -1.8206 0.8661
27.4535 24.0020 -1.8494 0.8641
27.2683 25.6253 -1.8977 0.8608
26.7462 29.0227 -2.0016 0.8538
25.6865 29.9646 -2.0016 0.8538
24.5937 30.8679 -2.0016 0.8538
23.4691 31.7313 -2.0016 0.8538
19.9198 34.0717 -2.0016 0.8538
18.6831 34.7652 -2.0016 0.8538
17.4224 35.4138 -2.0016 0.8538
16.1392 36.0167 -2.0016 0.8538
13.5120 37.0824 -2.0016 0.8538
3.2787 13.3029 -0.6948 0.9466
2.7596 13.2240 -0.6851 0.9473
1.7331 12.8684 -0.6585 0.9493
1.2203 12.4181 -0.6328 0.9513
0.7662 12.3376 -0.6269 0.9517
0.3219 12.3302 -0.6255 0.9518
-0.1168 11.8862 -0.6028 0.9535
-1.4050 11.8926 -0.6073 0.9532
-2.3215 12.1072 -0.6252 0.9518
-2.7574 12.0268 -0.6258 0.9518
-3.6180 11.8121 -0.6265 0.9517
-4.5564 11.7799 -0.6405 0.9507
-6.2476 12.0934 -0.6903 0.9469
-7.3179 11.9707 -0.7115 0.9454
-7.8034 11.7912 -0.7171 0.9449
-8.5290 11.9330 -0.7439 0.9429
-9.1273 11.8464 -0.7584 0.9419
-9.7867 11.8001 -0.7775 0.9404
-11.4322 11.9263 -0.8378 0.9360
-13.0817 11.8182 -0.8941 0.9318
-15.2197 11.8817 -0.9792 0.9256
-16.3837 11.8686 -1.0260 0.9222
-19.0651 11.8224 -1.1377 0.9141
-20.7334 11.8477 -1.2110 0.9088
-22.8172 11.9725 -1.3068 0.9019
-37.2143 13.1441 -2.0016 0.8538
-38.0619 10.4387 -2.0016 0.8538
-38.4123 9.0649 -2.0016 0.8538
-38.7131 7.6794 -2.0016 0.8538
-38.9639 6.2839 -2.0016 0.8538
-39.3145 3.4706 -2.0016 0.8538
-39.4622 0.6393 -2.0016 0.8538
-39.4597 -0.7785 -2.0016 0.8538
-39.4063 -2.1953 -2.0016 0.8538
-39.3020 -3.6092 -2.0016 0.8538
-38.9415 -6.4214 -2.0016 0.8538
-38.6857 -7.8159 -2.0016 0.8538
-38.0249 -10.5729 -2.0016 0.8538
-36.6670 -14.6017 -2.0016 0.8538
-36.1188 -15.9093 -2.0016 0.8538
-35.5241 -17.1963 -2.0016 0.8538
-28.6649 -22.5413 -1.8494 0.8641
-26.4129 -22.3514 -1.7548 0.8706
-24.5718 -22.3565 -1.6847 0.8754
-22.8700 -22.3612 -1.6221 0.8798
-21.2881 -22.3656 -1.5659 0.8837
-16.9230 -22.1255 -1.4127 0.8944
-16.0016 -22.5559 -1.4025 0.8952
-14.5497 -22.1546 -1.3442 0.8993
-13.2673 -21.8759 -1.2975 0.9026
-9.5087 -22.3983 -1.2340 0.9071
-8.5739 -22.4009 -1.2164 0.9084
-7.6625 -22.3985 -1.2006 0.9095
-6.7750 -22.4009 -1.1869 0.9105
-5.9063 -22.4034 -1.1750 0.9114
-5.0538 -22.4057 -1.1648 0.9121
-3.3869 -22.4104 -1.1494 0.9132
-1.7552 -22.4149 -1.1402 0.9139
-0.9470 -22.4171 -1.1379 0.9141
-0.1411 -22.4194 -1.1370 0.9141
1.4721 -22.4239 -1.1397 0.9139
3.6942 -36.2787 -1.8494 0.8641
6.2891 -35.9199 -1.8494 0.8641
10.9489 -37.9183 -2.0016 0.8538
12.3038 -37.5006 -2.0016 0.8538
14.9641 -36.5206 -2.0016 0.8538
16.2662 -35.9595 -2.0016 0.8538
20.0399 -34.0012 -2.0016 0.8538
24.7024 -30.7809 -2.0016 0.8538
25.7921 -29.8738 -2.0016 0.8538
28.3789 -22.9004 -1.8494 0.8641
29.1831 -21.8664 -1.8494 0.8641
29.9496 -20.8041 -1.8494 0.8641
31.3658 -18.6004 -1.8494 0.8641
32.0137 -17.4619 -1.8494 0.8641
-13.0047 11.9238 -1.2937 0.9317
-13.6456 11.6375 -1.3150 0.9306
-18.2897 11.5290 -1.5852 0.9169
-19.8526 11.5392 -1.6837 0.9120
-21.6248 11.5508 -1.7976 0.9064
-23.0432 10.2557 -1.8494 0.9038
-26.2721 7.4138 -2.0016 0.8963
-26.5215 6.4654 -2.0016 0.8963
-27.2906 0.6432 -2.0016 0.8963
-27.2664 -1.3176 -2.0016 0.8963
-26.4227 -2.2303 -1.9443 0.8991
-24.8610 -4.8325 -1.8570 0.9034
-26.0809 -8.0609 -2.0016 0.8963
-24.6577 -11.7127 -2.0016 0.8963
-23.7532 -13.4526 -2.0016 0.8963
-20.8862 -16.1768 -1.9370 0.8995
-18.1638 -17.4999 -1.8494 0.9038
-17.5235 -18.1410 -1.8494 0.9038
-14.7450 -20.4635 -1.8494 0.9038
-11.6623 -22.3641 -1.8494 0.9038
-10.6738 -22.3951 -1.8190 0.9053
-8.7634 -22.4004 -1.7637 0.9080
-6.9554 -22.4004 -1.7198 0.9102
-2.7352 -22.4122 -1.6555 0.9134
-1.9214 -22.4144 -1.6495 0.9137
-1.1125 -22.4167 -1.6457 0.9139
0.3837 -17.2330 -1.2639 0.9332
3.2706 -25.0095 -1.8494 0.9038
5.0577 -24.7101 -1.8494 0.9038
5.9418 -24.5125 -1.8494 0.9038
6.8184 -24.2833 -1.8494 0.9038
7.6862 -24.0227 -1.8494 0.9038
9.2472 -25.6842 -2.0016 0.8963
11.0672 -24.9541 -2.0016 0.8963
11.9563 -24.5405 -2.0016 0.8963
2.2349 -4.1973 -0.3487 0.9811
14.5267 -23.1120 -2.0016 0.8963
15.3474 -22.5754 -2.0016 0.8963
18.4222 -20.1448 -2.0016 0.8963
19.1338 -19.4702 -2.0016 0.8963
21.1172 -17.2990 -2.0016 0.8963
21.7249 -16.5294 -2.0016 0.8963
23.3768 -14.0966 -2.0016 0.8963
23.8680 -13.2479 -2.0016 0.8963
24.3285 -12.3821 -2.0016 0.8963
24.7575 -11.5003 -2.0016 0.8963
25.1546 -10.6036 -2.0016 0.8963
25.5192 -9.6933 -2.0016 0.8963
25.8509 -8.7705 -2.0016 0.8963
26.8404 -4.9781 -2.0016 0.8963
27.1286 -3.0384 -2.0016 0.8963
27.2202 -2.0621 -2.0016 0.8963
27.2841 0.8779 -2.0016 0.8963
27.0313 3.8076 -2.0016 0.8963
26.8771 4.7761 -2.0016 0.8963
26.2074 7.6394 -2.0016 0.8963
25.9161 8.5758 -2.0016 0.8963
25.5914 9.5011 -2.0016 0.8963
25.2336 10.4141 -2.0016 0.8963
24.4209 12.1987 -2.0016 0.8963
23.4822 13.9204 -2.0016 0.8963
21.2467 17.1397 -2.0016 0.8963
20.6174 17.8918 -2.0016 0.8963
18.5732 20.0057 -2.0016 0.8963
17.0891 21.2874 -2.0016 0.8963
15.5168 22.4593 -2.0016 0.8963
13.0109 23.9981 -2.0016 0.8963
7.5267 16.6325 -1.3386 0.9294
4.3398 15.0209 -1.1464 0.9392
3.3754 13.4812 -1.0190 0.9458
1.7739 12.8138 -0.9485 0.9494
-1.8135 12.0124 -0.8908 0.9524
-3.5643 11.7916 -0.9032 0.9518
-4.1052 12.0062 -0.9304 0.9504
-5.0756 11.9611 -0.9527 0.9492
-6.6419 11.8995 -0.9992 0.9468
-7.8335 11.9319 -1.0466 0.9444
-12.0606 11.7960 -1.2370 0.9346
-17.0335 11.5207 -1.5078 0.9208
-20.0239 11.5403 -1.6946 0.9115
-23.4313 9.3352 -1.8494 0.9038
-25.9220 8.2259 -1.9941 0.8967
-26.7567 5.4101 -2.0016 0.8963
-26.9338 4.4456 -2.0016 0.8963
-27.1834 2.5006 -2.0016 0.8963
-27.2557 1.5226 -2.0016 0.8963
-27.2613 -1.4180 -2.0016 0.8963
-25.9221 -2.2843 -1.9080 0.9009
-25.0039 -4.0285 -1.8570 0.9034
-24.8431 -4.9240 -1.8570 0.9034
-26.3272 -7.2160 -2.0016 0.8963
-25.3982 -10.0060 -2.0016 0.8963
-24.6144 -11.8035 -2.0016 0.8963
-23.7035 -13.5401 -2.0016 0.8963
-22.6704 -15.2068 -2.0016 0.8963
-20.7302 -16.1784 -1.9281 0.8999
-18.0992 -17.5667 -1.8494 0.9038
-17.4566 -18.2054 -1.8494 0.9038
-14.6696 -20.5176 -1.8494 0.9038
-13.1588 -21.5178 -1.8494 0.9038
-11.5727 -22.3926 -1.8482 0.9038
-9.6061 -22.3981 -1.7869 0.9069
-7.7547 -22.3982 -1.7379 0.9093
-4.2360 -22.0728 -1.6480 0.9138
-1.8383 -22.4147 -1.6490 0.9137
-1.0298 -22.4169 -1.6454 0.9139
-0.2237 -22.4191 -1.6439 0.9140
0.4472 -17.2331 -1.2640 0.9332
2.4627 -25.1019 -1.8494 0.9038
6.0321 -24.4905 -1.8494 0.9038
6.9078 -24.2580 -1.8494 0.9038
9.3418 -25.6500 -2.0016 0.8963
10.2570 -25.2979 -2.0016 0.8963
12.0466 -24.4963 -2.0016 0.8963
2.2508 -4.1898 -0.3487 0.9811
15.4305 -22.5187 -2.0016 0.8963
17.0072 -21.3528 -2.0016 0.8963
18.4963 -20.0768 -2.0016 0.8963
19.2054 -19.3995 -2.0016 0.8963
19.8898 -18.6972 -2.0016 0.8963
22.9102 -14.8429 -2.0016 0.8963
23.4286 -14.0104 -2.0016 0.8963
23.9167 -13.1599 -2.0016 0.8963
25.1935 -10.5109 -2.0016 0.8963
25.5547 -9.5992 -2.0016 0.8963
25.8830 -8.6752 -2.0016 0.8963
26.4390 -6.7947 -2.0016 0.8963
26.6660 -5.8407 -2.0016 0.8963
27.0165 -3.9113 -2.0016 0.8963
27.2276 -1.9618 -2.0016 0.8963
27.2982 -0.0021 -2.0016 0.8963
27.2806 0.9784 -2.0016 0.8963
27.2279 1.9576 -2.0016 0.8963
27.1400 2.9343 -2.0016 0.8963
26.8593 4.8751 -2.0016 0.8963
26.6669 5.8366 -2.0016 0.8963
26.4401 6.7907 -2.0016 0.8963
26.1791 7.7359 -2.0016 0.8963
25.8844 8.6712 -2.0016 0.8963
25.1951 10.5070 -2.0016 0.8963
24.8015 11.4052 -2.0016 0.8963
22.3648 15.6527 -2.0016 0.8963
21.7882 16.4459 -2.0016 0.8963
21.1834 17.2178 -2.0016 0.8963
20.5513 17.9676 -2.0016 0.8963
19.8927 18.6941 -2.0016 0.8963
19.2084 19.3966 -2.0016 0.8963
18.4994 20.0739 -2.0016 0.8963
17.0106 21.3502 -2.0016 0.8963
15.4340 22.5163 -2.0016 0.8963
12.0504 24.4944 -2.0016 0.8963
9.3458 25.6485 -2.0016 0.8963
7.7784 23.9931 -1.8494 0.9038
4.1256 14.4791 -1.1039 0.9414
2.7572 13.2127 -0.9896 0.9473
1.7235 12.7971 -0.9468 0.9495
0.7692 12.3856 -0.9099 0.9514
0.3178 12.1732 -0.8929 0.9523
-0.9787 11.9565 -0.8796 0.9530
-1.8559 11.9937 -0.8899 0.9525
-2.2758 11.8684 -0.8861 0.9527
-2.7658 12.0636 -0.9075 0.9516
-3.1895 11.9272 -0.9053 0.9517
-3.6279 11.8444 -0.9083 0.9515
-4.6552 12.0353 -0.9462 0.9496
-5.1016 11.9003 -0.9494 0.9494
-5.5528 11.7667 -0.9540 0.9492
-6.6781 11.8615 -0.9981 0.9469
-7.2173 11.8062 -1.0146 0.9460
-7.8564 11.8714 -1.0438 0.9445
-8.4916 11.8808 -1.0708 0.9431
-11.4518 11.9468 -1.2134 0.9358
-12.3964 12.0353 -1.2668 0.9331
-13.1007 11.8353 -1.2945 0.9316
-14.7380 11.5057 -1.3709 0.9278
-15.8932 11.5133 -1.4390 0.9243
-17.1708 11.5216 -1.5162 0.9204
-20.1975 11.5415 -1.7057 0.9109
-22.7410 10.9095 -1.8494 0.9038
-23.1182 10.0856 -1.8494 0.9038
-26.3261 7.2201 -2.0016 0.8963
-26.7764 5.3115 -2.0016 0.8963
-26.9499 4.3464 -2.0016 0.8963
-27.0887 3.3756 -2.0016 0.8963
-27.1924 2.4005 -2.0016 0.8963
-27.2611 1.4222 -2.0016 0.8963
-27.2946 0.4422 -2.0016 0.8963
-27.2929 -0.5385 -2.0016 0.8963
-27.2559 -1.5184 -2.0016 0.8963
-25.6382 -2.3544 -1.8878 0.9019
-25.1207 -3.2205 -1.8570 0.9034
-24.9889 -4.1206 -1.8570 0.9034
-26.5461 -6.3635 -2.0016 0.8963
-26.0208 -8.2528 -2.0016 0.8963
-25.7076 -9.1821 -2.0016 0.8963
-25.3612 -10.0995 -2.0016 0.8963
-24.9821 -11.0039 -2.0016 0.8963
-24.5707 -11.8941 -2.0016 0.8963
-23.6535 -13.6273 -2.0016 0.8963
-20.5756 -16.1801 -1.9192 0.9003
-18.0344 -17.6332 -1.8494 0.9038
-16.7220 -18.8824 -1.8494 0.9038
-15.3233 -20.0341 -1.8494 0.9038
-14.5939 -20.5716 -1.8494 0.9038
-12.2964 -22.0220 -1.8494 0.9038
-11.4685 -22.3929 -1.8447 0.9040
-8.5739 -22.4009 -1.7587 0.9083
-7.6625 -22.3985 -1.7357 0.9094
-5.9063 -22.4034 -1.6988 0.9113
-2.5678 -22.4126 -1.6541 0.9135
-0.9470 -22.4171 -1.6451 0.9139
0.6384 -21.5387 -1.5800 0.9172
1.4721 -22.4239 -1.6477 0.9138
2.5552 -25.0926 -1.8494 0.9038
3.4550 -24.9846 -1.8494 0.9038
6.9971 -24.2324 -1.8494 0.9038
10.3501 -25.2599 -2.0016 0.8963
11.2507 -24.8719 -2.0016 0.8963
12.1368 -24.4518 -2.0016 0.8963
13.8608 -23.5174 -2.0016 0.8963
16.3101 -21.8900 -2.0016 0.8963
17.8395 -20.6626 -2.0016 0.8963
19.2768 -19.3287 -2.0016 0.8963
19.9585 -18.6238 -2.0016 0.8963
20.6146 -17.8949 -2.0016 0.8963
21.2440 -17.1430 -2.0016 0.8963
21.8461 -16.3689 -2.0016 0.8963
22.9648 -14.7584 -2.0016 0.8963
-10.8434 11.4802 -1.5161 0.9385
-12.5329 11.4912 -1.6324 0.9340
-13.4814 11.4974 -1.7010 0.9313
-15.5163 11.4155 -1.8494 0.9255
-15.9163 10.8508 -1.8494 0.9255
-16.2958 10.2721 -1.8494 0.9255
-17.3062 8.4596 -1.8494 0.9255
-19.6066 7.0880 -2.0016 0.9196
-20.0649 5.6622 -2.0016 0.9196
-20.5576 3.4710 -2.0016 0.9196
-20.6689 2.7304 -2.0016 0.9196
-20.7537 1.9863 -2.0016 0.9196
-20.8469 -0.2577 -2.0016 0.9196
-20.8242 -1.0063 -2.0016 0.9196
-20.6982 -2.4986 -2.0016 0.9196
-20.4654 -3.9780 -2.0016 0.9196
-20.3094 -4.7105 -2.0016 0.9196
-19.9188 -6.1564 -2.0016 0.9196
-19.6848 -6.8678 -2.0016 0.9196
-19.1410 -8.2632 -2.0016 0.9196
-18.4984 -9.6160 -2.0016 0.9196
-18.1410 -10.2744 -2.0016 0.9196
-16.9307 -12.1660 -2.0016 0.9196
-15.5238 -13.9166 -2.0016 0.9196
-11.6592 -16.1809 -1.9147 0.9230
-10.8037 -16.1894 -1.8686 0.9248
-10.1102 -16.3967 -1.8494 0.9255
-7.0181 -17.9392 -1.8494 0.9255
-5.1968 -16.7370 -1.6825 0.9320
-4.3768 -18.7593 -1.8494 0.9255
-3.0188 -19.0252 -1.8494 0.9255
-1.6452 -19.1928 -1.8494 0.9255
-0.9548 -19.2395 -1.8494 0.9255
0.3826 -17.1823 -1.6500 0.9333
1.1202 -19.2306 -1.8494 0.9255
1.8102 -19.1779 -1.8494 0.9255
2.4979 -19.1005 -1.8494 0.9255
3.8626 -18.8719 -1.8494 0.9255
4.5379 -18.7210 -1.8494 0.9255
5.3730 -19.1356 -1.9082 0.9232
7.0624 -19.6159 -2.0016 0.9196
7.7624 -19.3496 -2.0016 0.9196
9.1314 -18.7424 -2.0016 0.9196
2.2349 -4.1972 -0.4565 0.9811
10.4534 -18.0385 -2.0016 0.9196
12.9288 -16.3556 -2.0016 0.9196
14.6131 -14.8700 -2.0016 0.9196
15.1378 -14.3355 -2.0016 0.9196
15.6429 -13.7826 -2.0016 0.9196
16.5920 -12.6240 -2.0016 0.9196
17.0347 -12.0200 -2.0016 0.9196
17.4554 -11.4004 -2.0016 0.9196
18.2288 -10.1179 -2.0016 0.9196
18.5804 -9.4566 -2.0016 0.9196
19.9710 -5.9849 -2.0016 0.9196
20.7889 -1.5749 -2.0016 0.9196
20.7358 2.1646 -2.0016 0.9196
20.6447 2.9080 -2.0016 0.9196
20.5269 3.6476 -2.0016 0.9196
19.7930 6.5496 -2.0016 0.9196
18.6510 9.3166 -2.0016 0.9196
17.9341 10.6315 -2.0016 0.9196
17.1246 11.8915 -2.0016 0.9196
15.7461 13.6645 -2.0016 0.9196
15.2452 14.2213 -2.0016 0.9196
14.7246 14.7597 -2.0016 0.9196
11.2270 17.5674 -2.0016 0.9196
7.5045 16.5834 -1.7475 0.9295
3.3266 13.2867 -1.3150 0.9464
2.8066 13.2058 -1.2961 0.9472
1.7628 12.7335 -1.2341 0.9497
0.3696 12.4038 -1.1914 0.9514
-0.0733 11.9321 -1.1456 0.9532
-0.9339 11.9506 -1.1508 0.9530
-1.8063 11.9644 -1.1617 0.9525
-2.2465 11.9536 -1.1677 0.9523
-2.6971 11.9663 -1.1776 0.9519
-4.5425 11.8736 -1.2205 0.9502
-5.0807 11.9730 -1.2487 0.9491
-5.5538 11.8820 -1.2592 0.9487
-6.1096 11.9340 -1.2871 0.9476
-6.7683 12.1259 -1.3332 0.9457
-7.1009 11.7125 -1.3150 0.9464
-8.7675 11.4666 -1.3858 0.9436
-10.1595 11.4757 -1.4714 0.9403
-11.7437 11.4861 -1.5771 0.9361
-12.6266 11.4918 -1.6391 0.9337
-13.5832 11.4981 -1.7085 0.9310
-15.5583 11.3582 -1.8494 0.9255
-15.9562 10.7921 -1.8494 0.9255
-16.3335 10.2120 -1.8494 0.9255
-16.6898 9.6188 -1.8494 0.9255
-17.0245 9.0131 -1.8494 0.9255
-17.3372 8.3958 -1.8494 0.9255
-18.6971 8.2390 -1.9616 0.9212
-20.2734 4.8632 -2.0016 0.9196
-20.4349 4.1319 -2.0016 0.9196
-20.5702 3.3953 -2.0016 0.9196
-20.6789 2.6542 -2.0016 0.9196
-20.8444 0.4145 -2.0016 0.9196
-20.8458 -0.3345 -2.0016 0.9196
-20.6889 -2.5748 -2.0016 0.9196
-20.5831 -3.3163 -2.0016 0.9196
-20.2919 -4.7853 -2.0016 0.9196
-20.1069 -5.5111 -2.0016 0.9196
-19.8960 -6.2297 -2.0016 0.9196
-18.7988 -9.0147 -2.0016 0.9196
-18.1031 -10.3410 -2.0016 0.9196
-17.7200 -10.9845 -2.0016 0.9196
-16.4357 -12.8269 -2.0016 0.9196
-15.9644 -13.4089 -2.0016 0.9196
-15.4725 -13.9737 -2.0016 0.9196
-13.8796 -15.5569 -2.0016 0.9196
-8.2237 -17.4195 -1.8494 0.9255
-7.5928 -17.7036 -1.8494 0.9255
-6.9520 -17.9649 -1.8494 0.9255
-4.9793 -18.6085 -1.8494 0.9255
-4.3077 -18.7753 -1.8494 0.9255
-3.6305 -18.9179 -1.8494 0.9255
-2.9487 -19.0361 -1.8494 0.9255
-2.2631 -19.1298 -1.8494 0.9255
-0.8840 -19.2429 -1.8494 0.9255
-0.1922 -19.2622 -1.8494 0.9255
0.4459 -17.1824 -1.6502 0.9333
1.1911 -19.2263 -1.8494 0.9255
3.2523 -18.9866 -1.8494 0.9255
3.9321 -18.8576 -1.8494 0.9255
4.6069 -18.7042 -1.8494 0.9255
5.4842 -19.2589 -1.9225 0.9227
6.4216 -19.8185 -2.0001 0.9197
7.1346 -19.5897 -2.0016 0.9196
10.5197 -17.9999 -2.0016 0.9196
11.7848 -17.1982 -2.0016 0.9196
12.3949 -16.7639 -2.0016 0.9196
12.9890 -16.3079 -2.0016 0.9196
14.1262 -15.3333 -2.0016 0.9196
14.6678 -14.8161 -2.0016 0.9196
15.6936 -13.7249 -2.0016 0.9196
16.1764 -13.1523 -2.0016 0.9196
16.6384 -12.5628 -2.0016 0.9196
18.2659 -10.0506 -2.0016 0.9196
18.9403 -8.7134 -2.0016 0.9196
19.5170 -7.3312 -2.0016 0.9196
20.1923 -5.1893 -2.0016 0.9196
20.3657 -4.4607 -2.0016 0.9196
20.7946 -1.4983 -2.0016 0.9196
20.8350 -0.7504 -2.0016 0.9196
20.8485 -0.0016 -2.0016 0.9196
20.7948 1.4951 -2.0016 0.9196
20.7277 2.2410 -2.0016 0.9196
20.5133 3.7232 -2.0016 0.9196
20.3664 4.4576 -2.0016 0.9196
19.7687 6.6225 -2.0016 0.9196
19.5181 7.3282 -2.0016 0.9196
18.2675 10.0478 -2.0016 0.9196
17.8948 10.6974 -2.0016 0.9196
17.4991 11.3333 -2.0016 0.9196
16.6403 12.5602 -2.0016 0.9196
16.1785 13.1498 -2.0016 0.9196
15.6957 13.7224 -2.0016 0.9196
14.6701 14.8138 -2.0016 0.9196
14.1286 15.3311 -2.0016 0.9196
13.5688 15.8287 -2.0016 0.9196
12.9915 16.3058 -2.0016 0.9196
11.7874 17.1964 -2.0016 0.9196
9.2033 18.7072 -2.0016 0.9196
7.2407 17.8506 -1.8494 0.9255
0.7714 12.4209 -1.1948 0.9512
0.3119 11.9455 -1.1472 0.9531
-0.1167 11.8748 -1.1401 0.9534
-0.9598 11.7249 -1.1294 0.9538
-1.4131 11.9612 -1.1563 0.9528
-1.8464 11.9319 -1.1592 0.9526
-2.7464 11.9789 -1.1799 0.9518
-3.1690 11.8506 -1.1777 0.9519
-3.6587 11.9448 -1.1994 0.9510
-4.1689 12.0473 -1.2239 0.9501
-5.1657 12.0499 -1.2587 0.9487
-5.6026 11.8722 -1.2603 0.9486
-6.2182 12.0365 -1.3007 0.9470
-7.1440 11.6862 -1.3150 0.9464
-7.5834 11.4588 -1.3192 0.9463
-8.8350 11.4670 -1.3897 0.9435
-9.5141 11.4714 -1.4308 0.9419
-11.0055 11.4812 -1.5269 0.9381
-11.8312 11.4866 -1.5831 0.9359
-14.7380 11.5057 -1.7950 0.9276
-15.6000 11.3009 -1.8494 0.9255
-16.3710 10.1518 -1.8494 0.9255
-17.0576 8.9504 -1.8494 0.9255
-18.8786 8.2361 -1.9774 0.9206
-19.3963 7.6449 -2.0016 0.9196
-19.6584 6.9433 -2.0016 0.9196
-20.1061 5.5142 -2.0016 0.9196
-20.2911 4.7885 -2.0016 0.9196
-20.4500 4.0566 -2.0016 0.9196
-20.7677 1.8333 -2.0016 0.9196
-20.8202 1.0862 -2.0016 0.9196
-20.8458 0.3377 -2.0016 0.9196
-20.6793 -2.6510 -2.0016 0.9196
-20.5707 -3.3921 -2.0016 0.9196
-20.4356 -4.1287 -2.0016 0.9196
-19.8729 -6.3029 -2.0016 0.9196
-19.0796 -8.4040 -2.0016 0.9196
-18.4271 -9.7520 -2.0016 0.9196
-16.8406 -12.2904 -2.0016 0.9196
-16.3883 -12.8873 -2.0016 0.9196
-15.9149 -13.4676 -2.0016 0.9196
-15.4209 -14.0306 -2.0016 0.9196
-13.8222 -15.6079 -2.0016 0.9196
-13.2154 -16.0490 -1.9959 0.9199
-11.4804 -16.1827 -1.9049 0.9234
-10.6333 -16.1911 -1.8597 0.9251
-9.9892 -16.4708 -1.8494 0.9255
-8.7810 -17.1454 -1.8494 0.9255
-6.8858 -17.9904 -1.8494 0.9255
-5.5765 -18.4383 -1.8494 0.9255
-4.9107 -18.6267 -1.8494 0.9255
-3.5608 -18.9312 -1.8494 0.9255
-2.8786 -19.0469 -1.8494 0.9255
-2.1926 -19.1380 -1.8494 0.9255
-0.1213 -19.2628 -1.8494 0.9255
0.5093 -17.1853 -1.6506 0.9332
1.9515 -19.1640 -1.8494 0.9255
2.6385 -19.0816 -1.8494 0.9255
4.6758 -18.6871 -1.8494 0.9255
6.4984 -19.8063 -2.0012 0.9196
7.2067 -19.5633 -2.0016 0.9196
7.9047 -19.2918 -2.0016 0.9196
8.5925 -18.9955 -2.0016 0.9196
9.2693 -18.6746 -2.0016 0.9196
2.2688 -4.1863 -0.4571 0.9810
11.2243 -17.5692 -2.0016 0.9196
11.8480 -17.1547 -2.0016 0.9196
14.1826 -15.2812 -2.0016 0.9196
14.7223 -14.7619 -2.0016 0.9196
15.2430 -14.2236 -2.0016 0.9196
15.7440 -13.6669 -2.0016 0.9196
16.2248 -13.0926 -2.0016 0.9196
16.6845 -12.5014 -2.0016 0.9196
17.9325 -10.6342 -2.0016 0.9196
18.3028 -9.9833 -2.0016 0.9196
-11.0901 10.9270 -1.8494 0.9392
-11.8459 10.1027 -1.8494 0.9392
-12.2011 9.6707 -1.8494 0.9392
-12.5406 9.2262 -1.8494 0.9392
-14.1790 8.2415 -1.9481 0.9361
-15.3943 6.8514 -2.0016 0.9344
-15.6305 6.2941 -2.0016 0.9344
-16.0420 5.1558 -2.0016 0.9344
-16.3707 3.9908 -2.0016 0.9344
-16.7050 2.2068 -2.0016 0.9344
-16.8455 0.3971 -2.0016 0.9344
-16.8489 -0.2082 -2.0016 0.9344
-16.7904 -1.4173 -2.0016 0.9344
-16.7287 -2.0194 -2.0016 0.9344
-16.4144 -3.8071 -2.0016 0.9344
-16.2671 -4.3943 -2.0016 0.9344
-16.0988 -4.9757 -2.0016 0.9344
-15.9097 -5.5507 -2.0016 0.9344
-15.7000 -6.1185 -2.0016 0.9344
-15.4701 -6.6785 -2.0016 0.9344
-14.6620 -8.3038 -2.0016 0.9344
-14.3543 -8.8251 -2.0016 0.9344
-14.0280 -9.3350 -2.0016 0.9344
-12.5466 -11.2476 -2.0016 0.9344
-12.1346 -11.6910 -2.0016 0.9344
-11.7068 -12.1193 -2.0016 0.9344
-11.2640 -12.5320 -2.0016 0.9344
-10.3353 -13.3082 -2.0016 0.9344
-9.3532 -14.0159 -2.0016 0.9344
-8.3229 -14.6512 -2.0016 0.9344
-7.7913 -14.9406 -2.0016 0.9344
-6.6987 -15.4614 -2.0016 0.9344
-4.9827 -16.0472 -1.9960 0.9346
-2.5666 -16.1752 -1.9454 0.9362
-1.9742 -16.1770 -1.9359 0.9365
-1.3869 -16.1792 -1.9289 0.9367
-0.2222 -16.2587 -1.9315 0.9366
0.9603 -16.4854 -1.9616 0.9356
2.1804 -16.6728 -1.9974 0.9345
2.7837 -16.6186 -2.0016 0.9344
3.9695 -16.3759 -2.0016 0.9344
4.5551 -16.2228 -2.0016 0.9344
5.1349 -16.0487 -2.0016 0.9344
6.2737 -15.6387 -2.0016 0.9344
6.8314 -15.4033 -2.0016 0.9344
7.3802 -15.1480 -2.0016 0.9344
8.4486 -14.5791 -2.0016 0.9344
9.4734 -13.9349 -2.0016 0.9344
9.9678 -13.5857 -2.0016 0.9344
10.4493 -13.2189 -2.0016 0.9344
11.3713 -12.4347 -2.0016 0.9344
11.8106 -12.0182 -2.0016 0.9344
12.2346 -11.5863 -2.0016 0.9344
12.6429 -11.1393 -2.0016 0.9344
13.0348 -10.6781 -2.0016 0.9344
13.4099 -10.2030 -2.0016 0.9344
14.4296 -8.7013 -2.0016 0.9344
14.7329 -8.1774 -2.0016 0.9344
15.0171 -7.6430 -2.0016 0.9344
15.5270 -6.5452 -2.0016 0.9344
15.7521 -5.9833 -2.0016 0.9344
15.9568 -5.4137 -2.0016 0.9344
16.1409 -4.8371 -2.0016 0.9344
16.6673 -2.4758 -2.0016 0.9344
16.7455 -1.8755 -2.0016 0.9344
16.7591 1.7495 -2.0016 0.9344
16.6854 2.3503 -2.0016 0.9344
16.4737 3.5421 -2.0016 0.9344
16.1769 4.7155 -2.0016 0.9344
15.9971 5.2935 -2.0016 0.9344
15.7966 5.8647 -2.0016 0.9344
15.0741 7.5298 -2.0016 0.9344
14.1767 9.1076 -2.0016 0.9344
13.8404 9.6109 -2.0016 0.9344
13.4863 10.1018 -2.0016 0.9344
13.1148 10.5797 -2.0016 0.9344
12.7263 11.0439 -2.0016 0.9344
11.9007 11.9290 -2.0016 0.9344
11.4645 12.3488 -2.0016 0.9344
11.0136 12.7526 -2.0016 0.9344
10.5485 13.1399 -2.0016 0.9344
10.0697 13.5103 -2.0016 0.9344
9.5780 13.8633 -2.0016 0.9344
8.5580 14.5151 -2.0016 0.9344
7.4205 13.6867 -1.8494 0.9392
6.4188 14.1841 -1.8494 0.9392
5.3839 14.6083 -1.8494 0.9392
4.0802 14.1224 -1.7461 0.9425
2.7576 12.9758 -1.5758 0.9480
2.2324 12.7388 -1.5363 0.9492
1.2542 12.2976 -1.4684 0.9514
0.7956 12.0908 -1.4393 0.9524
0.3543 11.8917 -1.4132 0.9532
-0.4846 11.5133 -1.3688 0.9546
-0.8921 11.4149 -1.3601 0.9549
-1.7242 11.4204 -1.3720 0.9545
-2.5754 11.4260 -1.3913 0.9539
-3.4555 11.4317 -1.4186 0.9530
-3.9098 11.4347 -1.4355 0.9525
-4.3757 11.4378 -1.4547 0.9519
-8.1290 11.4624 -1.6692 0.9450
-8.7675 11.4666 -1.7146 0.9435
-10.7321 11.2788 -1.8494 0.9392
-12.5745 9.1799 -1.8494 0.9392
-14.2962 8.2393 -1.9600 0.9357
-15.1655 7.3441 -2.0016 0.9344
-15.6536 6.2365 -2.0016 0.9344
-16.0609 5.0967 -2.0016 0.9344
-16.5159 3.3395 -2.0016 0.9344
-16.7793 1.5435 -2.0016 0.9344
-16.8239 0.9399 -2.0016 0.9344
-16.8468 0.3350 -2.0016 0.9344
-16.8480 -0.2703 -2.0016 0.9344
-16.2508 -4.4541 -2.0016 0.9344
-16.0803 -5.0350 -2.0016 0.9344
-15.8891 -5.6093 -2.0016 0.9344
-15.6774 -6.1763 -2.0016 0.9344
-15.4454 -6.7354 -2.0016 0.9344
-14.9221 -7.8269 -2.0016 0.9344
-13.9936 -9.3866 -2.0016 0.9344
-13.6474 -9.8831 -2.0016 0.9344
-13.2836 -10.3669 -2.0016 0.9344
-12.9027 -10.8373 -2.0016 0.9344
-12.5051 -11.2938 -2.0016 0.9344
-12.0914 -11.7356 -2.0016 0.9344
-11.6621 -12.1624 -2.0016 0.9344
-11.2177 -12.5734 -2.0016 0.9344
-10.7589 -12.9682 -2.0016 0.9344
-9.8002 -13.7071 -2.0016 0.9344
-7.7362 -14.9692 -2.0016 0.9344
-7.1936 -15.2375 -2.0016 0.9344
-6.6417 -15.4860 -2.0016 0.9344
-4.9229 -16.0633 -1.9957 0.9346
-3.7100 -16.1705 -1.9707 0.9354
-2.5056 -16.1754 -1.9443 0.9362
-1.9138 -16.1771 -1.9350 0.9365
-1.3270 -16.1809 -1.9285 0.9367
-0.1623 -16.2668 -1.9324 0.9366
2.8449 -16.6083 -2.0016 0.9344
3.4396 -16.4954 -2.0016 0.9344
4.0298 -16.3612 -2.0016 0.9344
5.1939 -16.0297 -2.0016 0.9344
10.0178 -13.5489 -2.0016 0.9344
10.4979 -13.1803 -2.0016 0.9344
11.8548 -11.9746 -2.0016 0.9344
13.0741 -10.6300 -2.0016 0.9344
13.4475 -10.1535 -2.0016 0.9344
13.8035 -9.6640 -2.0016 0.9344
14.1417 -9.1620 -2.0016 0.9344
14.7629 -8.1231 -2.0016 0.9344
15.0451 -7.5876 -2.0016 0.9344
15.5510 -6.4880 -2.0016 0.9344
16.1587 -4.7776 -2.0016 0.9344
16.3198 -4.1941 -2.0016 0.9344
16.4599 -3.6053 -2.0016 0.9344
16.5788 -3.0117 -2.0016 0.9344
16.6763 -2.4143 -2.0016 0.9344
16.8392 -0.6065 -2.0016 0.9344
16.8068 1.2084 -2.0016 0.9344
16.5793 3.0092 -2.0016 0.9344
15.9775 5.3524 -2.0016 0.9344
15.5520 6.4856 -2.0016 0.9344
15.3090 7.0400 -2.0016 0.9344
15.0463 7.5853 -2.0016 0.9344
14.7641 8.1208 -2.0016 0.9344
14.1431 9.1598 -2.0016 0.9344
13.8050 9.6618 -2.0016 0.9344
13.0757 10.6279 -2.0016 0.9344
12.6856 11.0907 -2.0016 0.9344
10.5000 13.1787 -2.0016 0.9344
9.0215 14.2317 -2.0016 0.9344
6.8727 13.9698 -1.8494 0.9392
6.3665 14.2076 -1.8494 0.9392
5.8521 14.4271 -1.8494 0.9392
5.3301 14.6280 -1.8494 0.9392
3.2532 13.1993 -1.6148 0.9467
2.7025 12.9509 -1.5715 0.9481
2.1800 12.7152 -1.5324 0.9494
1.6822 12.4907 -1.4971 0.9505
1.2063 12.2760 -1.4652 0.9515
0.7496 12.0700 -1.4365 0.9525
-0.1148 11.6801 -1.3875 0.9540
-0.9344 11.4152 -1.3605 0.9549
-1.3490 11.4179 -1.3657 0.9547
-2.6197 11.4263 -1.3925 0.9539
-3.5016 11.4320 -1.4202 0.9530
-3.9571 11.4350 -1.4373 0.9524
-4.4242 11.4381 -1.4568 0.9518
-4.9048 11.4412 -1.4787 0.9511
-5.4008 11.4445 -1.5032 0.9503
-6.4472 11.4514 -1.5610 0.9484
-7.5834 11.4588 -1.6322 0.9462
-8.1929 11.4628 -1.6737 0.9448
-10.2356 11.4762 -1.8266 0.9399
-10.7736 11.2392 -1.8494 0.9392
-11.5526 10.4368 -1.8494 0.9392
-12.2720 9.5805 -1.8494 0.9392
-12.6082 9.1336 -1.8494 0.9392
-12.9281 8.6748 -1.8494 0.9392
-13.3164 8.2576 -1.8612 0.9388
-14.4148 8.2371 -1.9721 0.9353
-14.9154 7.8263 -2.0008 0.9344
-15.1924 7.2882 -2.0016 0.9344
-15.4444 6.7378 -2.0016 0.9344
-15.6764 6.1788 -2.0016 0.9344
-16.0795 5.0375 -2.0016 0.9344
-16.2501 4.4567 -2.0016 0.9344
-16.6352 2.6829 -2.0016 0.9344
-16.8273 0.8779 -2.0016 0.9344
-16.8469 -0.3324 -2.0016 0.9344
-16.3859 -3.9280 -2.0016 0.9344
-16.2343 -4.5140 -2.0016 0.9344
-15.8683 -5.6678 -2.0016 0.9344
-15.6545 -6.2340 -2.0016 0.9344
-15.4205 -6.7923 -2.0016 0.9344
-14.8931 -7.8818 -2.0016 0.9344
-14.6004 -8.4116 -2.0016 0.9344
-14.2889 -8.9306 -2.0016 0.9344
-13.9589 -9.4381 -2.0016 0.9344
-13.6109 -9.9333 -2.0016 0.9344
-12.4634 -11.3398 -2.0016 0.9344
-12.0481 -11.7801 -2.0016 0.9344
-10.7111 -13.0077 -2.0016 0.9344
-10.2369 -13.3840 -2.0016 0.9344
-9.2497 -14.0844 -2.0016 0.9344
-8.7379 -14.4075 -2.0016 0.9344
-7.1374 -15.2638 -2.0016 0.9344
-6.5846 -15.5104 -2.0016 0.9344
-6.0223 -15.7345 -2.0013 0.9344
-4.8630 -16.0791 -1.9954 0.9346
-4.2624 -16.1677 -1.9861 0.9349
-3.6475 -16.1708 -1.9691 0.9354
-2.4446 -16.1756 -1.9433 0.9362
-1.8534 -16.1773 -1.9342 0.9365
-1.2672 -16.1827 -1.9282 0.9367
-0.6849 -16.2113 -1.9274 0.9367
-0.1025 -16.2750 -1.9333 0.9365
1.0843 -16.5161 -1.9661 0.9355
4.6745 -16.1888 -2.0016 0.9344
6.3888 -15.5920 -2.0016 0.9344
6.9447 -15.3525 -2.0016 0.9344
8.5558 -14.5164 -2.0016 0.9344
11.4626 -12.3505 -2.0016 0.9344
12.3197 -11.4958 -2.0016 0.9344
13.1132 -10.5817 -2.0016 0.9344
13.8390 -9.6131 -2.0016 0.9344
14.1753 -9.1098 -2.0016 0.9344
14.4934 -8.5948 -2.0016 0.9344
-8.9624 9.4887 -1.8494 0.9486
-9.2974 9.1607 -1.8494 0.9486
-9.9311 8.4696 -1.8494 0.9486
-10.4133 8.2536 -1.8827 0.9477
-12.2132 7.0988 -2.0016 0.9445
-12.4603 6.6556 -2.0016 0.9445
-12.6913 6.2038 -2.0016 0.9445
-12.9059 5.7439 -2.0016 0.9445
-13.1039 5.2767 -2.0016 0.9445
-13.4489 4.3224 -2.0016 0.9445
-13.5954 3.8365 -2.0016 0.9445
-13.7245 3.3457 -2.0016 0.9445
-13.8358 2.8506 -2.0016 0.9445
-13.9293 2.3519 -2.0016 0.9445
-14.0047 1.8500 -2.0016 0.9445
-14.0621 1.3458 -2.0016 0.9445
-14.1014 0.8399 -2.0016 0.9445
-14.1225 0.3329 -2.0016 0.9445
-14.1099 -0.6818 -2.0016 0.9445
-13.9547 -2.1956 -2.0016 0.9445
-12.7671 -2.9612 -1.8570 0.9484
-12.6525 -3.4178 -1.8570 0.9484
-12.3745 -4.3173 -1.8570 0.9484
-12.2114 -4.7590 -1.8570 0.9484
-11.8383 -5.6233 -1.8570 0.9484
-12.5341 -6.5156 -2.0016 0.9445
-12.0340 -7.3986 -2.0016 0.9445
-11.4718 -8.2434 -2.0016 0.9445
-11.1683 -8.6501 -2.0016 0.9445
-10.8504 -9.0456 -2.0016 0.9445
-10.5185 -9.4295 -2.0016 0.9445
-10.1731 -9.8012 -2.0016 0.9445
-9.0598 -10.8386 -2.0016 0.9445
-8.6646 -11.1570 -2.0016 0.9445
-7.4142 -12.0243 -2.0016 0.9445
-6.9776 -12.2829 -2.0016 0.9445
-4.1890 -13.4910 -2.0016 0.9445
-3.7017 -13.6328 -2.0016 0.9445
-2.7135 -13.8633 -2.0016 0.9445
-1.7113 -14.0224 -2.0016 0.9445
-1.2065 -14.0748 -2.0016 0.9445
-0.7002 -14.1090 -2.0016 0.9445
0.3145 -14.1229 -2.0016 0.9445
0.8215 -14.1025 -2.0016 0.9445
1.3275 -14.0639 -2.0016 0.9445
3.8188 -13.6004 -2.0016 0.9445
4.3048 -13.4545 -2.0016 0.9445
4.7853 -13.2912 -2.0016 0.9445
6.1872 -12.6994 -2.0016 0.9445
7.5173 -11.9601 -2.0016 0.9445
9.9015 -10.0755 -2.0016 0.9445
11.2423 -8.5537 -2.0016 0.9445
11.8273 -7.7246 -2.0016 0.9445
12.3514 -6.8556 -2.0016 0.9445
12.5896 -6.4075 -2.0016 0.9445
12.8116 -5.9512 -2.0016 0.9445
13.2058 -5.0162 -2.0016 0.9445
13.5318 -4.0552 -2.0016 0.9445
13.9731 -2.0756 -2.0016 0.9445
14.0386 -1.5723 -2.0016 0.9445
14.1153 -0.5605 -2.0016 0.9445
14.1263 -0.0531 -2.0016 0.9445
14.1191 0.4543 -2.0016 0.9445
14.0501 1.4667 -2.0016 0.9445
13.9085 2.4715 -2.0016 0.9445
13.8108 2.9695 -2.0016 0.9445
13.6952 3.4636 -2.0016 0.9445
13.4112 4.4378 -2.0016 0.9445
13.2432 4.9167 -2.0016 0.9445
12.8560 5.8547 -2.0016 0.9445
12.6375 6.3127 -2.0016 0.9445
11.8851 7.6354 -2.0016 0.9445
9.9770 10.0008 -2.0016 0.9445
9.2333 10.6912 -2.0016 0.9445
8.8433 11.0159 -2.0016 0.9445
8.4420 11.3264 -2.0016 0.9445
8.0297 11.6224 -2.0016 0.9445
7.6071 11.9032 -2.0016 0.9445
6.2210 11.4743 -1.8494 0.9486
4.0709 12.4011 -1.8494 0.9486
3.6228 12.5394 -1.8494 0.9486
3.1701 12.6614 -1.8494 0.9486
2.2324 12.7388 -1.8325 0.9491
1.7322 12.5132 -1.7899 0.9502
1.2542 12.2976 -1.7515 0.9513
0.7956 12.0908 -1.7168 0.9522
0.3543 11.8917 -1.6857 0.9531
-1.3183 8.7324 -1.2513 0.9650
-2.5754 11.4260 -1.6596 0.9538
-3.0111 11.4288 -1.6746 0.9534
-3.9098 11.4347 -1.7123 0.9524
-5.3491 11.4442 -1.7899 0.9502
-5.8606 11.4475 -1.8222 0.9494
-6.7667 11.1612 -1.8494 0.9486
-7.9280 10.3686 -1.8494 0.9486
-8.2953 10.0772 -1.8494 0.9486
-8.6519 9.7727 -1.8494 0.9486
-9.3311 9.1264 -1.8494 0.9486
-9.6529 8.7854 -1.8494 0.9486
-10.4905 8.2520 -1.8911 0.9475
-11.2812 8.2358 -1.9791 0.9451
-11.6891 7.9060 -1.9995 0.9446
-11.9780 7.4889 -2.0016 0.9445
-12.2392 7.0538 -2.0016 0.9445
-12.7140 6.1570 -2.0016 0.9445
-13.3026 4.7537 -2.0016 0.9445
-13.6095 3.7864 -2.0016 0.9445
-13.7367 3.2952 -2.0016 0.9445
-13.8462 2.7997 -2.0016 0.9445
-13.9378 2.3005 -2.0016 0.9445
-14.0115 1.7984 -2.0016 0.9445
-14.0670 1.2940 -2.0016 0.9445
-14.1073 -0.7338 -2.0016 0.9445
-14.0183 -1.7446 -2.0016 0.9445
-13.8568 -2.7465 -2.0016 0.9445
-12.7561 -3.0082 -1.8570 0.9484
-12.6398 -3.4644 -1.8570 0.9484
-12.5072 -3.9162 -1.8570 0.9484
-12.3585 -4.3629 -1.8570 0.9484
-12.1938 -4.8039 -1.8570 0.9484
-12.5100 -6.5617 -2.0016 0.9445
-10.4837 -9.4682 -2.0016 0.9445
-10.1369 -9.8386 -2.0016 0.9445
-9.4044 -10.5409 -2.0016 0.9445
-9.0198 -10.8719 -2.0016 0.9445
-8.6235 -11.1889 -2.0016 0.9445
-8.2160 -11.4914 -2.0016 0.9445
-7.7980 -11.7791 -2.0016 0.9445
-7.3699 -12.0516 -2.0016 0.9445
-3.6515 -13.6463 -2.0016 0.9445
-1.6596 -14.0286 -2.0016 0.9445
-0.6482 -14.1115 -2.0016 0.9445
-0.1410 -14.1257 -2.0016 0.9445
0.8734 -14.0994 -2.0016 0.9445
1.3793 -14.0589 -2.0016 0.9445
1.8834 -14.0003 -2.0016 0.9445
3.3784 -13.7165 -2.0016 0.9445
4.3544 -13.4386 -2.0016 0.9445
4.8342 -13.2735 -2.0016 0.9445
2.2508 -4.1898 -0.6739 0.9810
7.1279 -12.1962 -2.0016 0.9445
7.5614 -11.9324 -2.0016 0.9445
7.9851 -11.6531 -2.0016 0.9445
8.3984 -11.3588 -2.0016 0.9445
8.8010 -11.0498 -2.0016 0.9445
9.1922 -10.7265 -2.0016 0.9445
9.5715 -10.3895 -2.0016 0.9445
9.9385 -10.0390 -2.0016 0.9445
11.2737 -8.5122 -2.0016 0.9445
11.5722 -8.1018 -2.0016 0.9445
11.8557 -7.6810 -2.0016 0.9445
12.1240 -7.2502 -2.0016 0.9445
12.3765 -6.8100 -2.0016 0.9445
12.6131 -6.3611 -2.0016 0.9445
13.0373 -5.4392 -2.0016 0.9445
13.2242 -4.9675 -2.0016 0.9445
13.3941 -4.4893 -2.0016 0.9445
13.6818 -3.5162 -2.0016 0.9445
13.9806 -2.0241 -2.0016 0.9445
14.0443 -1.5206 -2.0016 0.9445
14.1264 -0.0011 -2.0016 0.9445
14.0900 1.0130 -2.0016 0.9445
13.6823 3.5141 -2.0016 0.9445
13.2250 4.9654 -2.0016 0.9445
13.0381 5.4372 -2.0016 0.9445
12.8344 5.9020 -2.0016 0.9445
12.3776 6.8081 -2.0016 0.9445
12.1251 7.2483 -2.0016 0.9445
11.5734 8.1000 -2.0016 0.9445
10.9621 8.9100 -2.0016 0.9445
9.9401 10.0374 -2.0016 0.9445
9.5732 10.3880 -2.0016 0.9445
9.1939 10.7251 -2.0016 0.9445
8.8027 11.0484 -2.0016 0.9445
8.4002 11.3575 -2.0016 0.9445
7.9869 11.6518 -2.0016 0.9445
7.5632 11.9312 -2.0016 0.9445
6.1787 11.4971 -1.8494 0.9486
5.3374 11.9110 -1.8494 0.9486
4.9061 12.0951 -1.8494 0.9486
4.4685 12.2635 -1.8494 0.9486
1.6822 12.4907 -1.7858 0.9504
1.2063 12.2760 -1.7478 0.9514
0.3099 11.8717 -1.6827 0.9532
-0.1148 11.6801 -1.6550 0.9539
-0.5229 11.4221 -1.6201 0.9549
-0.9344 11.4152 -1.6228 0.9548
-1.3544 8.7527 -1.2549 0.9649
-3.0563 11.4291 -1.6763 0.9533
-3.9571 11.4350 -1.7145 0.9523
-4.9048 11.4412 -1.7638 0.9510
-5.4008 11.4445 -1.7931 0.9502
-5.9141 11.4479 -1.8257 0.9493
-6.4034 11.3735 -1.8494 0.9486
-6.8077 11.1362 -1.8494 0.9486
-7.5896 10.6188 -1.8494 0.9486
-8.3323 10.0465 -1.8494 0.9486
-9.6852 8.7497 -1.8494 0.9486
-10.5683 8.2505 -1.8997 0.9473
-11.3664 8.2340 -1.9887 0.9449
-11.7222 7.8656 -2.0002 0.9446
-12.2651 7.0087 -2.0016 0.9445
-12.5090 6.5636 -2.0016 0.9445
-12.7366 6.1101 -2.0016 0.9445
-13.1424 5.1800 -2.0016 0.9445
-13.8564 2.7486 -2.0016 0.9445
-13.9462 2.2492 -2.0016 0.9445
-14.0180 1.7468 -2.0016 0.9445
-14.1072 0.7360 -2.0016 0.9445
-14.1237 -0.2786 -2.0016 0.9445
-14.1045 -0.7858 -2.0016 0.9445
-13.9382 -2.2984 -2.0016 0.9445
-13.8466 -2.7975 -2.0016 0.9445
-12.6270 -3.5110 -1.8570 0.9484
-12.7150 -6.1550 -2.0016 0.9445
-12.4857 -6.6077 -2.0016 0.9445
-11.9791 -7.4870 -2.0016 0.9445
-10.7835 -9.1253 -2.0016 0.9445
-10.4488 -9.5067 -2.0016 0.9445
-9.7394 -10.2323 -2.0016 0.9445
-8.9797 -10.9051 -2.0016 0.9445
-8.1736 -11.5216 -2.0016 0.9445
-6.8869 -12.3339 -2.0016 0.9445
-5.5202 -13.0032 -2.0016 0.9445
-4.5725 -13.3659 -2.0016 0.9445
-4.0895 -13.5215 -2.0016 0.9445
-3.6012 -13.6597 -2.0016 0.9445
-3.1082 -13.7802 -2.0016 0.9445
-2.1110 -13.9678 -2.0016 0.9445
-1.6079 -14.0346 -2.0016 0.9445
-1.1028 -14.0833 -2.0016 0.9445
-0.5962 -14.1138 -2.0016 0.9445
-0.0889 -14.1261 -2.0016 0.9445
0.4185 -14.1202 -2.0016 0.9445
0.9254 -14.0961 -2.0016 0.9445
2.4363 -13.9147 -2.0016 0.9445
2.9345 -13.8182 -2.0016 0.9445
4.4038 -13.4224 -2.0016 0.9445
4.8831 -13.2556 -2.0016 0.9445
5.3560 -13.0717 -2.0016 0.9445
5.8221 -12.8708 -2.0016 0.9445
2.2688 -4.1862 -0.6747 0.9809
7.6053 -11.9044 -2.0016 0.9445
8.0279 -11.6236 -2.0016 0.9445
8.4402 -11.3277 -2.0016 0.9445
8.8416 -11.0173 -2.0016 0.9445
9.9754 -10.0023 -2.0016 0.9445
10.3282 -9.6376 -2.0016 0.9445
10.9935 -8.8712 -2.0016 0.9445
11.6020 -8.0591 -2.0016 0.9445
12.1506 -7.2055 -2.0016 0.9445
12.4015 -6.7644 -2.0016 0.9445
-8.3670 8.2439 -1.9350 0.9535
-9.2371 7.8778 -2.0000 0.9520
-9.7866 7.2001 -2.0016 0.9519
-10.0389 6.8439 -2.0016 0.9519
-11.1001 4.9403 -2.0016 0.9519
-11.2704 4.5384 -2.0016 0.9519
-11.4262 4.1307 -2.0016 0.9519
-11.8042 2.8776 -2.0016 0.9519
-11.9803 2.0228 -2.0016 0.9519
-12.0452 1.5912 -2.0016 0.9519
-12.1068 -1.0219 -2.0016 0.9519
-12.0623 -1.4561 -2.0016 0.9519
-10.8822 -2.9396 -1.8570 0.9553
-10.6431 -3.7133 -1.8570 0.9553
-10.3491 -4.4677 -1.8570 0.9553
-10.0016 -5.1991 -1.8570 0.9553
-9.8084 -5.5550 -1.8570 0.9553
-10.3502 -6.3634 -2.0016 0.9519
-9.8667 -7.0900 -2.0016 0.9519
-9.3323 -7.7800 -2.0016 0.9519
-9.0468 -8.1102 -2.0016 0.9519
-8.7497 -8.4299 -2.0016 0.9519
-8.4413 -8.7387 -2.0016 0.9519
-8.1219 -9.0362 -2.0016 0.9519
-7.7921 -9.3221 -2.0016 0.9519
-7.4523 -9.5960 -2.0016 0.9519
-7.1028 -9.8575 -2.0016 0.9519
-6.7442 -10.1062 -2.0016 0.9519
-6.3769 -10.3419 -2.0016 0.9519
-5.6180 -10.7730 -2.0016 0.9519
-5.2274 -10.9678 -2.0016 0.9519
-4.8301 -11.1485 -2.0016 0.9519
-4.4266 -11.3148 -2.0016 0.9519
-4.0173 -11.4665 -2.0016 0.9519
-2.3338 -11.9236 -2.0016 0.9519
-1.4718 -12.0604 -2.0016 0.9519
-0.1660 -12.1487 -2.0016 0.9519
0.2705 -12.1469 -2.0016 0.9519
0.7066 -12.1293 -2.0016 0.9519
1.5755 -12.0473 -2.0016 0.9519
3.2845 -11.6975 -2.0016 0.9519
3.7025 -11.5720 -2.0016 0.9519
2.2349 -4.1972 -0.7834 0.9809
6.0919 -10.5123 -2.0016 0.9519
7.5345 -9.5315 -2.0016 0.9519
8.8218 -8.3543 -2.0016 0.9519
9.6693 -7.3569 -2.0016 0.9519
10.1725 -6.6438 -2.0016 0.9519
10.6232 -5.8964 -2.0016 0.9519
10.8281 -5.5110 -2.0016 0.9519
11.1958 -4.7195 -2.0016 0.9519
11.5057 -3.9036 -2.0016 0.9519
11.8589 -2.6433 -2.0016 0.9519
12.1436 0.3907 -2.0016 0.9519
12.0842 1.2615 -2.0016 0.9519
12.0311 1.6947 -2.0016 0.9519
11.7790 2.9790 -2.0016 0.9519
11.6644 3.4002 -2.0016 0.9519
11.2310 4.6351 -2.0016 0.9519
11.0573 5.0355 -2.0016 0.9519
10.6672 5.8163 -2.0016 0.9519
10.4515 6.1957 -2.0016 0.9519
10.2222 6.5671 -2.0016 0.9519
9.1764 7.9633 -2.0016 0.9519
8.8844 8.2877 -2.0016 0.9519
8.5810 8.6015 -2.0016 0.9519
7.6060 9.4746 -2.0016 0.9519
7.2608 9.7417 -2.0016 0.9519
6.1623 10.4517 -1.9988 0.9520
5.5827 10.2970 -1.9296 0.9536
4.6283 10.2275 -1.8494 0.9555
4.2579 10.3871 -1.8494 0.9555
3.8821 10.5334 -1.8494 0.9555
3.5013 10.6660 -1.8494 0.9555
2.3337 10.9807 -1.8494 0.9555
1.9378 11.0575 -1.8494 0.9555
1.5394 11.1199 -1.8494 0.9555
0.7371 11.2018 -1.8494 0.9555
-0.4721 11.2161 -1.8494 0.9555
-0.8746 11.1919 -1.8494 0.9555
-2.0734 11.0328 -1.8494 0.9555
-2.8601 10.8555 -1.8494 0.9555
-3.6320 10.6222 -1.8494 0.9555
-4.0112 10.4849 -1.8494 0.9555
-4.7535 10.1699 -1.8494 0.9555
-5.1157 9.9926 -1.8494 0.9555
-6.1609 9.3843 -1.8494 0.9555
-6.4940 9.1570 -1.8494 0.9555
-6.8187 8.9178 -1.8494 0.9555
-7.1346 8.6672 -1.8494 0.9555
-8.4275 8.2426 -1.9420 0.9533
-8.9575 8.1524 -1.9953 0.9521
-9.2686 7.8458 -2.0005 0.9520
-9.5494 7.5118 -2.0016 0.9519
-10.0641 6.8069 -2.0016 0.9519
-10.5268 6.0669 -2.0016 0.9519
-10.7379 5.6849 -2.0016 0.9519
-11.2871 4.4968 -2.0016 0.9519
-11.9089 2.4079 -2.0016 0.9519
-11.9877 1.9786 -2.0016 0.9519
-12.0510 1.5468 -2.0016 0.9519
-12.1483 -0.1949 -2.0016 0.9519
-12.0569 -1.5005 -2.0016 0.9519
-11.9952 -1.9326 -2.0016 0.9519
-11.2832 -2.2364 -1.8950 0.9544
-10.9713 -2.5873 -1.8570 0.9553
-10.8713 -2.9797 -1.8570 0.9553
-10.7573 -3.3682 -1.8570 0.9553
-10.1640 -4.8740 -1.8570 0.9553
-10.3267 -6.4015 -2.0016 0.9519
-10.0901 -6.7682 -2.0016 0.9519
-9.8405 -7.1263 -2.0016 0.9519
-9.0169 -8.1434 -2.0016 0.9519
-8.7186 -8.4620 -2.0016 0.9519
-8.4090 -8.7697 -2.0016 0.9519
-8.0886 -9.0661 -2.0016 0.9519
-6.3387 -10.3653 -2.0016 0.9519
-5.1870 -10.9870 -2.0016 0.9519
-4.3848 -11.3310 -2.0016 0.9519
-3.5601 -11.6166 -2.0016 0.9519
-3.1406 -11.7370 -2.0016 0.9519
-2.2899 -11.9321 -2.0016 0.9519
-1.8598 -12.0067 -2.0016 0.9519
0.3152 -12.1458 -2.0016 0.9519
0.7512 -12.1266 -2.0016 0.9519
1.1863 -12.0918 -2.0016 0.9519
1.6199 -12.0414 -2.0016 0.9519
2.0513 -11.9755 -2.0016 0.9519
2.9057 -11.7973 -2.0016 0.9519
3.3276 -11.6853 -2.0016 0.9519
3.7451 -11.5583 -2.0016 0.9519
4.9667 -11.0884 -2.0016 0.9519
6.1306 -10.4898 -2.0016 0.9519
7.5696 -9.5037 -2.0016 0.9519
8.2323 -8.9358 -2.0016 0.9519
8.5479 -8.6343 -2.0016 0.9519
8.8526 -8.3218 -2.0016 0.9519
9.1457 -7.9984 -2.0016 0.9519
9.4271 -7.6648 -2.0016 0.9519
9.6963 -7.3212 -2.0016 0.9519
10.8484 -5.4711 -2.0016 0.9519
11.0379 -5.0779 -2.0016 0.9519
11.2131 -4.6782 -2.0016 0.9519
11.3739 -4.2724 -2.0016 0.9519
11.5200 -3.8612 -2.0016 0.9519
11.6513 -3.4449 -2.0016 0.9519
11.8685 -2.5996 -2.0016 0.9519
12.0245 -1.7409 -2.0016 0.9519
12.0793 -1.3078 -2.0016 0.9519
12.1185 -0.8731 -2.0016 0.9519
12.1499 -0.0009 -2.0016 0.9519
12.1421 0.4355 -2.0016 0.9519
12.1186 0.8713 -2.0016 0.9519
12.0795 1.3060 -2.0016 0.9519
12.0248 1.7390 -2.0016 0.9519
11.9546 2.1698 -2.0016 0.9519
11.8689 2.5978 -2.0016 0.9519
11.7679 3.0224 -2.0016 0.9519
11.6518 3.4431 -2.0016 0.9519
11.5206 3.8594 -2.0016 0.9519
11.3746 4.2707 -2.0016 0.9519
11.2138 4.6765 -2.0016 0.9519
11.0386 5.0762 -2.0016 0.9519
10.4286 6.2341 -2.0016 0.9519
10.1979 6.6047 -2.0016 0.9519
9.6975 7.3197 -2.0016 0.9519
9.1470 7.9970 -2.0016 0.9519
8.5493 8.6330 -2.0016 0.9519
6.5050 10.2618 -2.0016 0.9519
4.9556 10.0730 -1.8494 0.9555
4.5906 10.2445 -1.8494 0.9555
4.2197 10.4027 -1.8494 0.9555
3.8433 10.5476 -1.8494 0.9555
3.4620 10.6788 -1.8494 0.9555
2.6865 10.8998 -1.8494 0.9555
2.2932 10.9893 -1.8494 0.9555
1.4984 11.1255 -1.8494 0.9555
0.6959 11.2044 -1.8494 0.9555
0.2930 11.2222 -1.8494 0.9555
-0.1103 11.2254 -1.8494 0.9555
-0.9158 11.1886 -1.8494 0.9555
-2.1141 11.0251 -1.8494 0.9555
-2.9001 10.8449 -1.8494 0.9555
-3.2877 10.7338 -1.8494 0.9555
-4.0498 10.4701 -1.8494 0.9555
-4.4232 10.3178 -1.8494 0.9555
-4.7910 10.1523 -1.8494 0.9555
-5.1525 9.9737 -1.8494 0.9555
-6.5277 9.1330 -1.8494 0.9555
-7.1665 8.6408 -1.8494 0.9555
-7.4722 8.3779 -1.8494 0.9555
-8.4885 8.2413 -1.9490 0.9532
-8.9898 8.1215 -1.9958 0.9521
-9.2999 7.8137 -2.0010 0.9520
-9.5771 7.4766 -2.0016 0.9519
-9.8394 7.1278 -2.0016 0.9519
-10.3257 6.4031 -2.0016 0.9519
-10.5490 6.0281 -2.0016 0.9519
-11.1362 4.8584 -2.0016 0.9519
-11.3036 4.4552 -2.0016 0.9519
-11.7172 3.2135 -2.0016 0.9519
-12.0566 1.5024 -2.0016 0.9519
-12.1334 0.6330 -2.0016 0.9519
-12.1475 -0.2397 -2.0016 0.9519
-12.0990 -1.1111 -2.0016 0.9519
-11.9880 -1.9768 -2.0016 0.9519
-10.8602 -3.0197 -1.8570 0.9553
-10.7448 -3.4078 -1.8570 0.9553
-10.6154 -3.7916 -1.8570 0.9553
-10.1460 -4.9114 -1.8570 0.9553
-10.3031 -6.4394 -2.0016 0.9519
-9.5506 -7.5103 -2.0016 0.9519
-8.9868 -8.1766 -2.0016 0.9519
-8.6873 -8.4941 -2.0016 0.9519
-7.7233 -9.3793 -2.0016 0.9519
-7.3814 -9.6506 -2.0016 0.9519
-7.0300 -9.9095 -2.0016 0.9519
-6.6696 -10.1556 -2.0016 0.9519
-5.9233 -10.6082 -2.0016 0.9519
-5.5384 -10.8141 -2.0016 0.9519
-5.1465 -11.0061 -2.0016 0.9519
-2.6733 -11.8521 -2.0016 0.9519
-1.3829 -12.0709 -2.0016 0.9519
-0.0765 -12.1496 -2.0016 0.9519
0.3599 -12.1445 -2.0016 0.9519
0.7959 -12.1238 -2.0016 0.9519
1.2308 -12.0874 -2.0016 0.9519
1.6642 -12.0354 -2.0016 0.9519
2.0954 -11.9678 -2.0016 0.9519
2.5239 -11.8848 -2.0016 0.9519
3.7877 -11.5444 -2.0016 0.9519
5.4018 -10.8830 -2.0016 0.9519
2.2688 -4.1862 -0.7844 0.9809
6.5412 -10.2388 -2.0016 0.9519
6.9047 -9.9972 -2.0016 0.9519
7.2593 -9.7428 -2.0016 0.9519
7.6045 -9.4758 -2.0016 0.9519
8.2652 -8.9054 -2.0016 0.9519
8.5797 -8.6028 -2.0016 0.9519
9.4553 -7.6300 -2.0016 0.9519
10.2212 -6.5687 -2.0016 0.9519
-7.5854 7.4739 -2.0016 0.9576
-7.8490 7.1966 -2.0016 0.9576
-8.1024 6.9100 -2.0016 0.9576
-8.3454 6.6146 -2.0016 0.9576
-8.5775 6.3105 -2.0016 0.9576
-9.2066 5.3513 -2.0016 0.9576
-9.7288 4.3299 -2.0016 0.9576
-10.0145 3.6203 -2.0016 0.9576
-10.1381 3.2583 -2.0016 0.9576
-10.3458 2.5221 -2.0016 0.9576
-10.4298 2.1489 -2.0016 0.9576
-10.6004 1.0145 -2.0016 0.9576
-10.6300 0.6331 -2.0016 0.9576
-10.6459 0.2509 -2.0016 0.9576
-10.6364 -0.5140 -2.0016 0.9576
-10.6111 -0.8957 -2.0016 0.9576
-10.5721 -1.2762 -2.0016 0.9576
-10.4532 -2.0319 -2.0016 0.9576
-9.6660 -2.2419 -1.8651 0.9604
-9.3282 -3.2545 -1.8570 0.9606
-9.2053 -3.5874 -1.8570 0.9606
-9.0705 -3.9158 -1.8570 0.9606
-8.5967 -4.8687 -1.8570 0.9606
-8.4162 -5.1743 -1.8570 0.9606
-8.4190 -6.5206 -2.0016 0.9576
-8.1793 -6.8188 -2.0016 0.9576
-7.9291 -7.1082 -2.0016 0.9576
-7.6687 -7.3884 -2.0016 0.9576
-7.3984 -7.6591 -2.0016 0.9576
-7.1185 -7.9199 -2.0016 0.9576
-6.5316 -8.4104 -2.0016 0.9576
-6.2253 -8.6396 -2.0016 0.9576
-5.9110 -8.8576 -2.0016 0.9576
-4.9239 -9.4421 -2.0016 0.9576
-4.5816 -9.6128 -2.0016 0.9576
-4.2334 -9.7712 -2.0016 0.9576
-2.7904 -10.2767 -2.0016 0.9576
-2.4195 -10.3703 -2.0016 0.9576
-2.0455 -10.4505 -2.0016 0.9576
-1.6688 -10.5172 -2.0016 0.9576
-0.9095 -10.6099 -2.0016 0.9576
0.6193 -10.6308 -2.0016 0.9576
1.0007 -10.6017 -2.0016 0.9576
1.7592 -10.5025 -2.0016 0.9576
2.1353 -10.4325 -2.0016 0.9576
3.2451 -10.1423 -2.0016 0.9576
5.3393 -9.2135 -2.0016 0.9576
5.9869 -8.8065 -2.0016 0.9576
6.2994 -8.5858 -2.0016 0.9576
6.6037 -8.3540 -2.0016 0.9576
6.8995 -8.1114 -2.0016 0.9576
7.4640 -7.5952 -2.0016 0.9576
8.9157 -5.8230 -2.0016 0.9576
9.1191 -5.4990 -2.0016 0.9576
9.8126 -4.1364 -2.0016 0.9576
10.0842 -3.4213 -2.0016 0.9576
10.3938 -2.3167 -2.0016 0.9576
10.5332 -1.5646 -2.0016 0.9576
10.6433 0.3424 -2.0016 0.9576
10.5913 1.1056 -2.0016 0.9576
10.5447 1.4853 -2.0016 0.9576
10.3238 2.6110 -2.0016 0.9576
10.2233 2.9801 -2.0016 0.9576
9.9830 3.7063 -2.0016 0.9576
9.6912 4.4134 -2.0016 0.9576
9.5264 4.7586 -2.0016 0.9576
9.3494 5.0977 -2.0016 0.9576
8.7468 6.0738 -2.0016 0.9576
8.5230 6.3841 -2.0016 0.9576
8.2882 6.6861 -2.0016 0.9576
7.5209 7.5388 -2.0016 0.9576
7.2453 7.8041 -2.0016 0.9576
6.9603 8.0593 -2.0016 0.9576
6.6663 8.3041 -2.0016 0.9576
6.3638 8.5381 -2.0016 0.9576
6.0530 8.7612 -2.0016 0.9576
4.7203 9.5062 -1.9950 0.9577
3.7319 9.1039 -1.8494 0.9607
3.0687 9.3483 -1.8494 0.9607
2.3897 9.5445 -1.8494 0.9607
2.0454 9.6241 -1.8494 0.9607
1.6984 9.6914 -1.8494 0.9607
0.9983 9.7883 -1.8494 0.9607
-0.4138 9.8304 -1.8494 0.9607
-0.7666 9.8092 -1.8494 0.9607
-1.8173 9.6698 -1.8494 0.9607
-2.1634 9.5983 -1.8494 0.9607
-2.8469 9.4182 -1.8494 0.9607
-3.1833 9.3099 -1.8494 0.9607
-4.1663 8.9134 -1.8494 0.9607
-4.4837 8.7581 -1.8494 0.9607
-4.7954 8.5914 -1.8494 0.9607
-5.4218 8.2585 -1.8569 0.9606
-6.3013 8.2412 -1.9499 0.9587
-6.7443 8.1930 -1.9946 0.9577
-7.0481 7.9612 -1.9985 0.9576
-7.3406 7.7145 -2.0016 0.9576
-7.6129 7.4459 -2.0016 0.9576
-7.8754 7.1676 -2.0016 0.9576
-8.3697 6.5838 -2.0016 0.9576
-8.6007 6.2789 -2.0016 0.9576
-8.8207 5.9660 -2.0016 0.9576
-9.0293 5.6453 -2.0016 0.9576
-9.4113 4.9825 -2.0016 0.9576
-10.1500 3.2209 -2.0016 0.9576
-10.3551 2.4840 -2.0016 0.9576
-10.4376 2.1105 -2.0016 0.9576
-10.5067 1.7342 -2.0016 0.9576
-10.5622 1.3557 -2.0016 0.9576
-10.6040 0.9755 -2.0016 0.9576
-10.6322 0.5940 -2.0016 0.9576
-10.6467 0.2117 -2.0016 0.9576
-10.6475 -0.1708 -2.0016 0.9576
-10.6344 -0.5531 -2.0016 0.9576
-10.5673 -1.3151 -2.0016 0.9576
-10.5132 -1.6938 -2.0016 0.9576
