ply
format ascii 1.0
element vertex 1599
property float32 x
property float32 y
property float32 z
property float32 I
end_header
-3.5416 5.4593 -2.0016 0.9731
-3.9242 5.1912 -2.0016 0.9731
-4.4594 4.7393 -2.0016 0.9731
-4.9431 4.2324 -2.0016 0.9731
-5.2340 3.8669 -2.0016 0.9731
-5.4979 3.4815 -2.0016 0.9731
-5.6193 3.2819 -2.0016 0.9731
-3.4354 -4.4053 -1.8570 0.9767
-3.2751 -4.5258 -1.8570 0.9767
-3.1105 -4.6404 -1.8570 0.9767
-2.5937 -4.9479 -1.8570 0.9767
-1.8589 -5.2682 -1.8570 0.9767
-1.6686 -5.3315 -1.8570 0.9767
-1.4761 -5.3879 -1.8570 0.9767
-1.2818 -5.4374 -1.8570 0.9767
-1.0858 -5.4800 -1.8570 0.9767
-0.8884 -5.5154 -1.8570 0.9767
-0.2904 -5.5789 -1.8570 0.9767
0.1106 -5.5854 -1.8570 0.9767
0.3110 -5.5778 -1.8570 0.9767
0.5110 -5.5631 -1.8570 0.9767
0.7109 -5.5451 -1.8583 0.9767
1.3019 -5.4327 -1.8570 0.9767
1.4960 -5.3824 -1.8570 0.9767
1.6883 -5.3253 -1.8570 0.9767
1.8783 -5.2613 -1.8570 0.9767
2.0660 -5.1904 -1.8570 0.9767
2.0642 -4.2665 -1.5755 0.9802
3.4517 -4.3926 -1.8570 0.9767
4.0505 -4.4555 -2.0016 0.9749
4.3597 -4.1534 -2.0016 0.9749
4.5059 -3.9943 -2.0016 0.9749
4.7809 -3.6607 -2.0016 0.9749
4.9092 -3.4868 -2.0016 0.9749
5.0312 -3.3083 -2.0016 0.9749
5.2556 -2.9389 -2.0016 0.9749
5.3577 -2.7483 -2.0016 0.9749
5.4529 -2.5542 -2.0016 0.9749
5.6958 -1.9533 -2.0016 0.9749
5.8213 -1.5396 -2.0016 0.9749
5.9167 -1.1181 -2.0016 0.9749
5.9530 -0.9050 -2.0016 0.9749
5.9817 -0.6907 -2.0016 0.9749
6.0190 0.1724 -2.0016 0.9749
6.0089 0.3884 -2.0016 0.9749
5.9911 0.6038 -2.0016 0.9749
5.9656 0.8185 -2.0016 0.9749
5.8430 1.4550 -2.0016 0.9749
5.7236 1.8704 -2.0016 0.9749
5.5746 2.2762 -2.0016 0.9749
5.4894 2.4748 -2.0016 0.9749
5.2977 2.8623 -2.0016 0.9749
5.1915 3.0506 -2.0016 0.9749
5.0787 3.2349 -2.0016 0.9749
4.9593 3.4151 -2.0016 0.9749
4.8335 3.5910 -2.0016 0.9749
4.7015 3.7621 -2.0016 0.9749
3.9543 4.5411 -2.0016 0.9749
3.7887 4.6801 -2.0016 0.9749
3.4432 4.9398 -2.0016 0.9749
3.0800 5.1741 -2.0016 0.9749
2.8923 5.2813 -2.0016 0.9749
2.7008 5.3818 -2.0016 0.9749
2.3078 5.5617 -2.0016 0.9749
2.1067 5.6409 -2.0016 0.9749
1.0657 5.9264 -2.0016 0.9749
0.8523 5.9608 -2.0016 0.9749
0.4224 6.0066 -2.0016 0.9749
-0.0096 6.0214 -2.0016 0.9749
-1.2964 5.8802 -2.0016 0.9749
-1.5066 5.8299 -2.0016 0.9749
-1.7149 5.7721 -2.0016 0.9749
-2.1246 5.6342 -2.0016 0.9749
-2.3254 5.5543 -2.0016 0.9749
-2.5233 5.4672 -2.0016 0.9749
-2.9090 5.2721 -2.0016 0.9749
-3.0964 5.1643 -2.0016 0.9749
-3.2797 5.0499 -2.0016 0.9749
-3.8036 4.6680 -2.0016 0.9749
-3.9687 4.5285 -2.0016 0.9749
-4.2833 4.2321 -2.0016 0.9749
-4.4325 4.0757 -2.0016 0.9749
-4.8449 3.5756 -2.0016 0.9749
-5.2012 3.0341 -2.0016 0.9749
-5.3067 2.8454 -2.0016 0.9749
-5.5818 2.2585 -2.0016 0.9749
-5.6593 2.0567 -2.0016 0.9749
-5.7295 1.8522 -2.0016 0.9749
-5.8476 1.4364 -2.0016 0.9749
-5.9930 0.5848 -2.0016 0.9749
-6.0195 0.1533 -2.0016 0.9749
-6.0211 -0.0628 -2.0016 0.9749
-6.0150 -0.2789 -2.0016 0.9749
-5.9795 -0.7097 -2.0016 0.9749
-5.9131 -1.1368 -2.0016 0.9749
-5.8685 -1.3484 -2.0016 0.9749
-5.6896 -1.9714 -2.0016 0.9749
-5.0514 -2.3858 -1.8570 0.9767
-4.9625 -2.5656 -1.8570 0.9767
-4.7657 -2.9150 -1.8570 0.9767
-4.6580 -3.0842 -1.8570 0.9767
-4.2995 -3.5670 -1.8570 0.9767
-4.0325 -3.8662 -1.8570 0.9767
-3.8911 -4.0085 -1.8570 0.9767
-3.7447 -4.1456 -1.8570 0.9767
-3.5935 -4.2773 -1.8570 0.9767
-3.4377 -4.4035 -1.8570 0.9767
-3.2774 -4.5241 -1.8570 0.9767
-2.5962 -4.9466 -1.8570 0.9767
-1.8616 -5.2672 -1.8570 0.9767
-1.4789 -5.3872 -1.8570 0.9767
-0.8913 -5.5149 -1.8570 0.9767
0.1077 -5.5855 -1.8570 0.9767
0.5081 -5.5633 -1.8570 0.9767
0.7080 -5.5452 -1.8582 0.9767
0.9059 -5.5125 -1.8570 0.9767
1.4932 -5.3832 -1.8570 0.9767
1.8756 -5.2622 -1.8570 0.9767
2.0633 -5.1915 -1.8570 0.9767
2.2483 -5.1141 -1.8570 0.9767
2.3383 -4.0660 -1.5591 0.9804
3.1252 -4.6305 -1.8570 0.9767
3.2894 -4.5154 -1.8570 0.9767
4.2055 -4.3094 -2.0016 0.9749
4.3575 -4.1557 -2.0016 0.9749
4.5039 -3.9966 -2.0016 0.9749
4.7790 -3.6632 -2.0016 0.9749
4.9074 -3.4893 -2.0016 0.9749
5.2540 -2.9416 -2.0016 0.9749
5.3562 -2.7511 -2.0016 0.9749
5.4515 -2.5571 -2.0016 0.9749
5.5398 -2.3598 -2.0016 0.9749
5.6948 -1.9562 -2.0016 0.9749
5.9161 -1.1211 -2.0016 0.9749
6.0157 -0.2629 -2.0016 0.9749
6.0213 -0.0468 -2.0016 0.9749
6.0191 0.1693 -2.0016 0.9749
6.0091 0.3853 -2.0016 0.9749
5.9660 0.8154 -2.0016 0.9749
5.9329 1.0290 -2.0016 0.9749
5.4906 2.4720 -2.0016 0.9749
5.3984 2.6675 -2.0016 0.9749
5.1931 3.0479 -2.0016 0.9749
4.8354 3.5884 -2.0016 0.9749
4.4216 4.0874 -2.0016 0.9749
4.1170 4.3941 -2.0016 0.9749
3.9566 4.5390 -2.0016 0.9749
3.7911 4.6781 -2.0016 0.9749
3.6208 4.8112 -2.0016 0.9749
3.4458 4.9381 -2.0016 0.9749
3.2663 5.0586 -2.0016 0.9749
3.0826 5.1725 -2.0016 0.9749
2.8950 5.2799 -2.0016 0.9749
2.5087 5.4739 -2.0016 0.9749
2.3107 5.5605 -2.0016 0.9749
2.1096 5.6398 -2.0016 0.9749
1.9058 5.7119 -2.0016 0.9749
1.6996 5.7766 -2.0016 0.9749
1.4911 5.8339 -2.0016 0.9749
1.0688 5.9258 -2.0016 0.9749
0.6409 5.9872 -2.0016 0.9749
0.4256 6.0064 -2.0016 0.9749
0.2097 6.0178 -2.0016 0.9749
-0.0064 6.0214 -2.0016 0.9749
-0.6537 5.9859 -2.0016 0.9749
-0.8681 5.9585 -2.0016 0.9749
-1.2933 5.8809 -2.0016 0.9749
-1.5036 5.8307 -2.0016 0.9749
-2.1216 5.6353 -2.0016 0.9749
-2.3225 5.5555 -2.0016 0.9749
-2.5205 5.4686 -2.0016 0.9749
-2.7151 5.3746 -2.0016 0.9749
-3.0937 5.1659 -2.0016 0.9749
-3.2771 5.0516 -2.0016 0.9749
-3.4563 4.9307 -2.0016 0.9749
-3.6311 4.8034 -2.0016 0.9749
-3.8011 4.6700 -2.0016 0.9749
-3.9663 4.5306 -2.0016 0.9749
-4.1264 4.3853 -2.0016 0.9749
-4.2811 4.2344 -2.0016 0.9749
-4.4303 4.0780 -2.0016 0.9749
-4.7115 3.7496 -2.0016 0.9749
-4.9683 3.4020 -2.0016 0.9749
-5.0873 3.2214 -2.0016 0.9749
-5.1996 3.0368 -2.0016 0.9749
-3.0443 -4.2068 -1.8570 0.9782
-2.8913 -4.3134 -1.8570 0.9782
-2.7346 -4.4144 -1.8570 0.9782
-2.5744 -4.5097 -1.8570 0.9782
-2.0747 -4.7603 -1.8570 0.9782
-1.9025 -4.8317 -1.8570 0.9782
-1.5510 -4.9558 -1.8570 0.9782
-1.1915 -5.0543 -1.8570 0.9782
-1.0093 -5.0938 -1.8570 0.9782
-0.8258 -5.1267 -1.8570 0.9782
-0.6413 -5.1530 -1.8570 0.9782
-0.4559 -5.1727 -1.8570 0.9782
-0.2699 -5.1858 -1.8570 0.9782
-0.0836 -5.1921 -1.8570 0.9782
0.1028 -5.1918 -1.8570 0.9782
0.8447 -5.1236 -1.8570 0.9782
1.2101 -5.0498 -1.8570 0.9782
1.3906 -5.0031 -1.8570 0.9782
1.7459 -4.8905 -1.8570 0.9782
1.9204 -4.8247 -1.8570 0.9782
2.1446 -4.0548 -1.6404 0.9807
2.3295 -4.0459 -1.6695 0.9804
3.0598 -4.1956 -1.8570 0.9782
3.2084 -4.0830 -1.8570 0.9782
3.4931 -3.8423 -1.8570 0.9782
3.9112 -4.0037 -2.0016 0.9765
4.0524 -3.8607 -2.0016 0.9765
4.1884 -3.7128 -2.0016 0.9765
4.3190 -3.5601 -2.0016 0.9765
4.4439 -3.4028 -2.0016 0.9765
4.5632 -3.2410 -2.0016 0.9765
4.8852 -2.7317 -2.0016 0.9765
5.2258 -2.0045 -2.0016 0.9765
5.3562 -1.6244 -2.0016 0.9765
5.5796 -0.4420 -2.0016 0.9765
5.5919 -0.2415 -2.0016 0.9765
5.5854 0.3610 -2.0016 0.9765
5.4763 1.1566 -2.0016 0.9765
5.4312 1.3524 -2.0016 0.9765
5.3792 1.5465 -2.0016 0.9765
5.3202 1.7386 -2.0016 0.9765
5.0166 2.4821 -2.0016 0.9765
4.9243 2.6605 -2.0016 0.9765
4.7208 3.0070 -2.0016 0.9765
4.3702 3.4970 -2.0016 0.9765
4.1080 3.8015 -2.0016 0.9765
3.6756 4.2211 -2.0016 0.9765
3.5217 4.3503 -2.0016 0.9765
3.3633 4.4739 -2.0016 0.9765
3.0337 4.7036 -2.0016 0.9765
2.8629 4.8095 -2.0016 0.9765
2.6884 4.9092 -2.0016 0.9765
2.3293 5.0894 -2.0016 0.9765
2.1451 5.1697 -2.0016 0.9765
1.9582 5.2434 -2.0016 0.9765
1.5770 5.3703 -2.0016 0.9765
1.3832 5.4235 -2.0016 0.9765
0.7922 5.5407 -2.0016 0.9765
0.5928 5.5656 -2.0016 0.9765
0.1920 5.5938 -2.0016 0.9765
-0.0089 5.5971 -2.0016 0.9765
-0.6105 5.5637 -2.0016 0.9765
-1.2050 5.4658 -2.0016 0.9765
-1.5940 5.3653 -2.0016 0.9765
-1.7856 5.3046 -2.0016 0.9765
-1.9748 5.2371 -2.0016 0.9765
-2.1615 5.1629 -2.0016 0.9765
-2.3455 5.0820 -2.0016 0.9765
-2.7040 4.9006 -2.0016 0.9765
-3.2151 4.5815 -2.0016 0.9765
-3.3775 4.4632 -2.0016 0.9765
-3.5355 4.3391 -2.0016 0.9765
-3.8377 4.0743 -2.0016 0.9765
-4.2534 3.6381 -2.0016 0.9765
-4.5035 3.3236 -2.0016 0.9765
-5.0245 2.4661 -2.0016 0.9765
-5.2605 1.9117 -2.0016 0.9765
-5.3257 1.7217 -2.0016 0.9765
-5.4799 1.1392 -2.0016 0.9765
-5.5173 0.9418 -2.0016 0.9765
-5.5706 0.5436 -2.0016 0.9765
-5.5953 0.1425 -2.0016 0.9765
-5.5911 -0.2592 -2.0016 0.9765
-5.5782 -0.4598 -2.0016 0.9765
-5.4964 -1.0567 -2.0016 0.9765
-4.7426 -2.2400 -1.8757 0.9780
-4.6128 -2.3848 -1.8570 0.9782
-4.4298 -2.7095 -1.8570 0.9782
-4.1129 -3.1700 -1.8570 0.9782
-3.9965 -3.3156 -1.8570 0.9782
-3.8749 -3.4569 -1.8570 0.9782
-3.7483 -3.5938 -1.8570 0.9782
-3.4808 -3.8534 -1.8570 0.9782
-3.1954 -4.0932 -1.8570 0.9782
-3.0464 -4.2053 -1.8570 0.9782
-2.5767 -4.5084 -1.8570 0.9782
-2.2467 -4.6816 -1.8570 0.9782
-2.0772 -4.7592 -1.8570 0.9782
-1.7304 -4.8960 -1.8570 0.9782
-1.5536 -4.9550 -1.8570 0.9782
-1.3747 -5.0075 -1.8570 0.9782
-1.1941 -5.0536 -1.8570 0.9782
-0.2726 -5.1856 -1.8570 0.9782
0.6576 -5.1510 -1.8570 0.9782
1.5667 -4.9508 -1.8570 0.9782
1.7434 -4.8914 -1.8570 0.9782
2.0898 -4.7537 -1.8570 0.9782
2.0463 -4.2353 -1.6821 0.9802
2.1420 -4.0548 -1.6399 0.9807
2.3267 -4.0459 -1.6690 0.9804
3.2063 -4.0847 -1.8570 0.9782
3.3508 -3.9670 -1.8570 0.9782
3.4911 -3.8442 -1.8570 0.9782
3.9092 -4.0057 -2.0016 0.9765
4.0504 -3.8628 -2.0016 0.9765
4.1865 -3.7150 -2.0016 0.9765
4.3171 -3.5623 -2.0016 0.9765
4.4422 -3.4050 -2.0016 0.9765
4.5616 -3.2434 -2.0016 0.9765
4.8838 -2.7343 -2.0016 0.9765
4.9788 -2.5572 -2.0016 0.9765
5.0673 -2.3769 -2.0016 0.9765
5.1494 -2.1935 -2.0016 0.9765
5.4992 -1.0421 -2.0016 0.9765
5.5331 -0.8441 -2.0016 0.9765
5.5598 -0.6449 -2.0016 0.9765
5.5794 -0.4449 -2.0016 0.9765
5.5918 -0.2444 -2.0016 0.9765
5.5969 -0.0435 -2.0016 0.9765
5.5949 0.1574 -2.0016 0.9765
5.5692 0.5584 -2.0016 0.9765
5.5455 0.7579 -2.0016 0.9765
5.4769 1.1538 -2.0016 0.9765
5.3211 1.7358 -2.0016 0.9765
5.2554 1.9257 -2.0016 0.9765
5.1829 2.1131 -2.0016 0.9765
5.1037 2.2978 -2.0016 0.9765
5.0179 2.4795 -2.0016 0.9765
4.8271 2.8331 -2.0016 0.9765
4.7223 3.0045 -2.0016 0.9765
4.6114 3.1721 -2.0016 0.9765
4.3720 3.4947 -2.0016 0.9765
4.2437 3.6494 -2.0016 0.9765
4.1100 3.7994 -2.0016 0.9765
3.8269 4.0844 -2.0016 0.9765
3.5240 4.3485 -2.0016 0.9765
3.3656 4.4721 -2.0016 0.9765
3.2029 4.5901 -2.0016 0.9765
3.0361 4.7021 -2.0016 0.9765
2.8654 4.8080 -2.0016 0.9765
2.1478 5.1686 -2.0016 0.9765
1.1905 5.4690 -2.0016 0.9765
0.9934 5.5082 -2.0016 0.9765
0.1949 5.5937 -2.0016 0.9765
-0.0060 5.5971 -2.0016 0.9765
-0.4075 5.5822 -2.0016 0.9765
-0.6076 5.5640 -2.0016 0.9765
-1.3976 5.4198 -2.0016 0.9765
-1.5913 5.3661 -2.0016 0.9765
-2.1589 5.1640 -2.0016 0.9765
-2.3428 5.0832 -2.0016 0.9765
-2.5238 4.9958 -2.0016 0.9765
-3.2127 4.5832 -2.0016 0.9765
-3.8356 4.0762 -2.0016 0.9765
-4.1181 3.7906 -2.0016 0.9765
-4.2515 3.6403 -2.0016 0.9765
-4.5017 3.3259 -2.0016 0.9765
-4.7287 2.9944 -2.0016 0.9765
-2.9799 -3.8212 -1.8570 0.9795
-2.2498 -4.2918 -1.8570 0.9795
-2.0943 -4.3698 -1.8570 0.9795
-1.7754 -4.5088 -1.8570 0.9795
-1.1118 -4.7165 -1.8570 0.9795
-0.7706 -4.7841 -1.8570 0.9795
-0.4254 -4.8270 -1.8570 0.9795
0.0959 -4.8448 -1.8570 0.9795
0.4433 -4.8254 -1.8570 0.9795
0.6162 -4.8064 -1.8570 0.9795
0.7883 -4.7812 -1.8570 0.9795
1.1293 -4.7123 -1.8570 0.9795
1.2977 -4.6688 -1.8570 0.9795
1.4644 -4.6192 -1.8570 0.9795
1.6293 -4.5636 -1.8570 0.9795
2.0013 -4.1365 -1.7610 0.9805
2.3034 -4.0005 -1.7690 0.9804
2.4999 -4.0024 -1.8084 0.9800
2.8553 -3.9152 -1.8570 0.9795
3.3862 -3.4663 -1.8570 0.9795
3.9085 -3.4647 -2.0016 0.9779
4.0303 -3.3221 -2.0016 0.9779
4.1470 -3.1753 -2.0016 0.9779
4.2583 -3.0244 -2.0016 0.9779
4.3641 -2.8697 -2.0016 0.9779
4.4643 -2.7112 -2.0016 0.9779
4.5587 -2.5492 -2.0016 0.9779
4.6473 -2.3839 -2.0016 0.9779
4.7298 -2.2156 -2.0016 0.9779
5.0494 -1.3355 -2.0016 0.9779
5.0941 -1.1534 -2.0016 0.9779
5.1637 -0.7850 -2.0016 0.9779
5.2067 -0.4125 -2.0016 0.9779
5.2182 -0.2253 -2.0016 0.9779
5.2229 -0.0379 -2.0016 0.9779
5.2209 0.1496 -2.0016 0.9779
5.2122 0.3369 -2.0016 0.9779
5.1967 0.5237 -2.0016 0.9779
5.1457 0.8952 -2.0016 0.9779
5.1103 1.0793 -2.0016 0.9779
5.0683 1.2621 -2.0016 0.9779
4.9647 1.6224 -2.0016 0.9779
4.9032 1.7996 -2.0016 0.9779
4.6814 2.3162 -2.0016 0.9779
4.5032 2.6461 -2.0016 0.9779
4.3017 2.9623 -2.0016 0.9779
4.1926 3.1148 -2.0016 0.9779
4.0781 3.2633 -2.0016 0.9779
3.8335 3.5474 -2.0016 0.9779
3.7037 3.6828 -2.0016 0.9779
3.1385 4.1749 -2.0016 0.9779
2.9867 4.2849 -2.0016 0.9779
2.8309 4.3893 -2.0016 0.9779
2.6716 4.4881 -2.0016 0.9779
2.5088 4.5811 -2.0016 0.9779
2.3427 4.6682 -2.0016 0.9779
2.1736 4.7492 -2.0016 0.9779
2.0018 4.8242 -2.0016 0.9779
1.1083 5.1041 -2.0016 0.9779
0.9244 5.1406 -2.0016 0.9779
0.7393 5.1705 -2.0016 0.9779
0.5532 5.1937 -2.0016 0.9779
0.3664 5.2102 -2.0016 0.9779
-0.3830 5.2090 -2.0016 0.9779
-0.7557 5.1681 -2.0016 0.9779
-1.1245 5.1005 -2.0016 0.9779
-1.3068 5.0569 -2.0016 0.9779
-1.8429 4.8871 -2.0016 0.9779
-2.0171 4.8178 -2.0016 0.9779
-2.6858 4.4796 -2.0016 0.9779
-3.1518 4.1649 -2.0016 0.9779
-3.2992 4.0491 -2.0016 0.9779
-3.7154 3.6710 -2.0016 0.9779
-3.8447 3.5353 -2.0016 0.9779
-3.9692 3.3950 -2.0016 0.9779
-4.0885 3.2503 -2.0016 0.9779
-4.2025 3.1015 -2.0016 0.9779
-4.3111 2.9486 -2.0016 0.9779
-4.6887 2.3013 -2.0016 0.9779
-4.7683 2.1315 -2.0016 0.9779
-4.8417 1.9590 -2.0016 0.9779
-4.9698 1.6066 -2.0016 0.9779
-5.1137 1.0631 -2.0016 0.9779
-5.1768 0.6935 -2.0016 0.9779
-5.1866 -0.6156 -2.0016 0.9779
-5.1291 -0.9861 -2.0016 0.9779
-5.0904 -1.1696 -2.0016 0.9779
-4.9934 -1.5317 -2.0016 0.9779
-4.9352 -1.7100 -2.0016 0.9779
-4.8706 -1.8860 -2.0016 0.9779
-4.1338 -2.5285 -1.8570 0.9795
-3.8380 -2.9582 -1.8570 0.9795
-3.6159 -3.2259 -1.8570 0.9795
-3.3752 -3.4770 -1.8570 0.9795
-3.2482 -3.5959 -1.8570 0.9795
-3.1170 -3.7102 -1.8570 0.9795
-2.0965 -4.3687 -1.8570 0.9795
-1.9384 -4.4412 -1.8570 0.9795
-1.6148 -4.5688 -1.8570 0.9795
-1.4497 -4.6238 -1.8570 0.9795
-1.2828 -4.6729 -1.8570 0.9795
-0.9443 -4.7529 -1.8570 0.9795
-0.6009 -4.8084 -1.8570 0.9795
-0.4279 -4.8268 -1.8570 0.9795
-0.2544 -4.8391 -1.8570 0.9795
-0.0805 -4.8451 -1.8570 0.9795
0.4408 -4.8257 -1.8570 0.9795
0.6137 -4.8067 -1.8570 0.9795
0.9569 -4.7503 -1.8570 0.9795
1.1268 -4.7129 -1.8570 0.9795
1.4620 -4.6199 -1.8570 0.9795
1.6269 -4.5645 -1.8570 0.9795
1.9502 -4.4360 -1.8570 0.9795
2.1130 -4.0000 -1.7336 0.9808
2.3006 -4.0005 -1.7685 0.9804
2.4965 -4.0015 -1.8074 0.9800
2.8533 -3.9167 -1.8570 0.9795
2.9920 -3.8117 -1.8570 0.9795
3.2578 -3.5872 -1.8570 0.9795
3.9067 -3.4667 -2.0016 0.9779
4.0286 -3.3242 -2.0016 0.9779
4.1453 -3.1775 -2.0016 0.9779
4.4629 -2.7135 -2.0016 0.9779
4.8756 -1.8731 -2.0016 0.9779
4.9397 -1.6969 -2.0016 0.9779
4.9974 -1.5185 -2.0016 0.9779
5.0487 -1.3381 -2.0016 0.9779
5.0935 -1.1560 -2.0016 0.9779
5.1633 -0.7876 -2.0016 0.9779
5.1882 -0.6018 -2.0016 0.9779
5.2210 0.1469 -2.0016 0.9779
5.1749 0.7073 -2.0016 0.9779
5.1462 0.8925 -2.0016 0.9779
4.9042 1.7970 -2.0016 0.9779
4.6826 2.3138 -2.0016 0.9779
4.5965 2.4804 -2.0016 0.9779
4.4067 2.8037 -2.0016 0.9779
4.3032 2.9601 -2.0016 0.9779
4.1942 3.1126 -2.0016 0.9779
4.0798 3.2612 -2.0016 0.9779
3.8353 3.5455 -2.0016 0.9779
3.5711 3.8115 -2.0016 0.9779
3.1407 4.1733 -2.0016 0.9779
2.9889 4.2833 -2.0016 0.9779
2.6739 4.4867 -2.0016 0.9779
2.5111 4.5798 -2.0016 0.9779
2.0043 4.8232 -2.0016 0.9779
1.8299 4.8920 -2.0016 0.9779
1.6531 4.9545 -2.0016 0.9779
1.2934 5.0604 -2.0016 0.9779
0.7420 5.1701 -2.0016 0.9779
0.3691 5.2100 -2.0016 0.9779
0.1819 5.2199 -2.0016 0.9779
-0.1931 5.2195 -2.0016 0.9779
-0.3803 5.2092 -2.0016 0.9779
-0.5670 5.1922 -2.0016 0.9779
-0.7530 5.1685 -2.0016 0.9779
-1.3042 5.0576 -2.0016 0.9779
-1.4849 5.0075 -2.0016 0.9779
-1.6637 4.9510 -2.0016 0.9779
-2.0146 4.8189 -2.0016 0.9779
-2.1862 4.7435 -2.0016 0.9779
-2.3551 4.6619 -2.0016 0.9779
-2.6835 4.4810 -2.0016 0.9779
-2.8426 4.3817 -2.0016 0.9779
-2.9980 4.2769 -2.0016 0.9779
-3.1496 4.1665 -2.0016 0.9779
-3.4404 3.9298 -2.0016 0.9779
-3.7135 3.6729 -2.0016 0.9779
-3.8429 3.5372 -2.0016 0.9779
-3.9674 3.3970 -2.0016 0.9779
-4.5102 2.6341 -2.0016 0.9779
-4.6018 2.4705 -2.0016 0.9779
-4.6875 2.3038 -2.0016 0.9779
-2.7902 -3.5779 -1.8570 0.9806
-2.6600 -3.6758 -1.8570 0.9806
-2.3894 -3.8571 -1.8570 0.9806
-1.9609 -4.0916 -1.8570 0.9806
-1.6623 -4.2218 -1.8570 0.9806
-1.3552 -4.3301 -1.8570 0.9806
-1.0411 -4.4162 -1.8570 0.9806
-0.8819 -4.4507 -1.8570 0.9806
-0.3983 -4.5197 -1.8570 0.9806
-0.0731 -4.5367 -1.8570 0.9806
0.0898 -4.5364 -1.8570 0.9806
0.2526 -4.5302 -1.8570 0.9806
0.4150 -4.5182 -1.8570 0.9806
0.5769 -4.5004 -1.8570 0.9806
0.7381 -4.4768 -1.8570 0.9806
1.6779 -4.2156 -1.8570 0.9806
1.8282 -4.1526 -1.8570 0.9806
2.4036 -3.8483 -1.8570 0.9806
2.5402 -3.7595 -1.8570 0.9806
2.6735 -3.6659 -1.8570 0.9806
2.8034 -3.5676 -1.8570 0.9806
2.9296 -3.4647 -1.8570 0.9806
3.0521 -3.3573 -1.8570 0.9806
3.1706 -3.2456 -1.8570 0.9806
3.6596 -3.2441 -2.0016 0.9791
3.7737 -3.1106 -2.0016 0.9791
3.8829 -2.9732 -2.0016 0.9791
3.9872 -2.8319 -2.0016 0.9791
4.1800 -2.5386 -2.0016 0.9791
4.2685 -2.3869 -2.0016 0.9791
4.5003 -1.9142 -2.0016 0.9791
4.6800 -1.4194 -2.0016 0.9791
4.7279 -1.2505 -2.0016 0.9791
4.7698 -1.0800 -2.0016 0.9791
4.8350 -0.7350 -2.0016 0.9791
4.8860 -0.2110 -2.0016 0.9791
4.8885 0.1401 -2.0016 0.9791
4.8659 0.4904 -2.0016 0.9791
4.8451 0.6647 -2.0016 0.9791
4.8181 0.8382 -2.0016 0.9791
4.7849 1.0106 -2.0016 0.9791
4.6486 1.5191 -2.0016 0.9791
4.4584 2.0100 -2.0016 0.9791
4.3833 2.1687 -2.0016 0.9791
4.2165 2.4776 -2.0016 0.9791
4.1248 2.6274 -2.0016 0.9791
4.0278 2.7737 -2.0016 0.9791
3.9257 2.9165 -2.0016 0.9791
3.8185 3.0555 -2.0016 0.9791
3.7063 3.1906 -2.0016 0.9791
3.5894 3.3216 -2.0016 0.9791
3.4679 3.4483 -2.0016 0.9791
3.2116 3.6882 -2.0016 0.9791
3.0771 3.8011 -2.0016 0.9791
2.9387 3.9091 -2.0016 0.9791
2.6507 4.1098 -2.0016 0.9791
2.5015 4.2023 -2.0016 0.9791
2.1936 4.3710 -2.0016 0.9791
1.8743 4.5171 -2.0016 0.9791
1.7110 4.5814 -2.0016 0.9791
1.5455 4.6399 -2.0016 0.9791
1.0377 4.7791 -2.0016 0.9791
0.5180 4.8630 -2.0016 0.9791
-0.1833 4.8871 -2.0016 0.9791
-0.5334 4.8613 -2.0016 0.9791
-1.0529 4.7758 -2.0016 0.9791
-1.3928 4.6880 -2.0016 0.9791
-1.7255 4.5760 -2.0016 0.9791
-1.8887 4.5111 -2.0016 0.9791
-2.2074 4.3640 -2.0016 0.9791
-2.5148 4.1944 -2.0016 0.9791
-2.9511 3.8997 -2.0016 0.9791
-3.0892 3.7913 -2.0016 0.9791
-3.4788 3.4373 -2.0016 0.9791
-3.9349 2.9040 -2.0016 0.9791
-4.0366 2.7609 -2.0016 0.9791
-4.1331 2.6142 -2.0016 0.9791
-4.3100 2.3110 -2.0016 0.9791
-4.3902 2.1548 -2.0016 0.9791
-4.4647 1.9958 -2.0016 0.9791
-4.5335 1.8343 -2.0016 0.9791
-4.5964 1.6704 -2.0016 0.9791
-4.7044 1.3364 -2.0016 0.9791
-4.7881 0.9954 -2.0016 0.9791
-2.1314 0.3638 -0.8850 0.9907
-1.9495 0.2612 -0.8050 0.9915
-1.9579 0.1910 -0.8051 0.9915
-1.9225 0.0490 -0.7871 0.9917
-1.9085 -0.0199 -0.7812 0.9918
-1.9385 -0.0899 -0.7942 0.9916
-1.9997 -0.3105 -0.8283 0.9913
-4.7663 -1.0951 -2.0016 0.9791
-4.6755 -1.4342 -2.0016 0.9791
-4.5605 -1.7659 -2.0016 0.9791
-4.4942 -1.9285 -2.0016 0.9791
-4.4221 -2.0886 -2.0016 0.9791
-4.2956 -2.2208 -1.9791 0.9793
-3.9783 -2.2412 -1.8688 0.9805
-3.7831 -2.5049 -1.8570 0.9806
-3.6908 -2.6391 -1.8570 0.9806
-3.5937 -2.7698 -1.8570 0.9806
-3.2751 -3.1401 -1.8570 0.9806
-2.9186 -3.4740 -1.8570 0.9806
-2.7920 -3.5765 -1.8570 0.9806
-2.6619 -3.6744 -1.8570 0.9806
-2.1086 -4.0175 -1.8570 0.9806
-1.9631 -4.0906 -1.8570 0.9806
-1.5120 -4.2779 -1.8570 0.9806
-1.0433 -4.4157 -1.8570 0.9806
-0.5626 -4.5022 -1.8570 0.9806
-0.2382 -4.5310 -1.8570 0.9806
0.4127 -4.5184 -1.8570 0.9806
0.7358 -4.4772 -1.8570 0.9806
0.8960 -4.4479 -1.8570 0.9806
1.2128 -4.3722 -1.8570 0.9806
1.5233 -4.2739 -1.8570 0.9806
2.1130 -4.0000 -1.8515 0.9806
2.6716 -3.6673 -1.8570 0.9806
2.8015 -3.5690 -1.8570 0.9806
3.1689 -3.2472 -1.8570 0.9806
3.2835 -3.1314 -1.8570 0.9806
3.6580 -3.2460 -2.0016 0.9791
3.8814 -2.9752 -2.0016 0.9791
4.0848 -2.6891 -2.0016 0.9791
4.1787 -2.5407 -2.0016 0.9791
4.4276 -2.0768 -2.0016 0.9791
4.4993 -1.9165 -2.0016 0.9791
4.6252 -1.5888 -2.0016 0.9791
4.7692 -1.0824 -2.0016 0.9791
4.8050 -0.9106 -2.0016 0.9791
4.8579 -0.5635 -2.0016 0.9791
4.8904 -0.0380 -2.0016 0.9791
4.8886 0.1375 -2.0016 0.9791
4.8805 0.3129 -2.0016 0.9791
4.8661 0.4879 -2.0016 0.9791
4.8455 0.6622 -2.0016 0.9791
4.7855 1.0081 -2.0016 0.9791
4.7462 1.1792 -2.0016 0.9791
4.7008 1.3489 -2.0016 0.9791
4.6494 1.5167 -2.0016 0.9791
4.5919 1.6826 -2.0016 0.9791
4.4594 2.0077 -2.0016 0.9791
4.3039 2.3224 -2.0016 0.9791
4.2177 2.4754 -2.0016 0.9791
4.1262 2.6252 -2.0016 0.9791
4.0293 2.7716 -2.0016 0.9791
3.7080 3.1887 -2.0016 0.9791
3.5912 3.3197 -2.0016 0.9791
3.2135 3.6865 -2.0016 0.9791
2.9407 3.9076 -2.0016 0.9791
2.7986 4.0106 -2.0016 0.9791
2.6528 4.1085 -2.0016 0.9791
2.5037 4.2010 -2.0016 0.9791
1.8767 4.5161 -2.0016 0.9791
1.5479 4.6391 -2.0016 0.9791
1.0402 4.7786 -2.0016 0.9791
0.6947 4.8409 -2.0016 0.9791
0.3456 4.8783 -2.0016 0.9791
0.1703 4.8875 -2.0016 0.9791
-0.0052 4.8905 -2.0016 0.9791
-0.1808 4.8872 -2.0016 0.9791
-0.3561 4.8775 -2.0016 0.9791
-0.5309 4.8616 -2.0016 0.9791
-0.8783 4.8110 -2.0016 0.9791
-1.2212 4.7356 -2.0016 0.9791
-1.3904 4.6887 -2.0016 0.9791
-1.5578 4.6358 -2.0016 0.9791
-1.7232 4.5769 -2.0016 0.9791
-1.8863 4.5121 -2.0016 0.9791
-2.0471 4.4415 -2.0016 0.9791
-2.2052 4.3651 -2.0016 0.9791
-2.5126 4.1957 -2.0016 0.9791
-2.9491 3.9013 -2.0016 0.9791
-3.4770 3.4391 -2.0016 0.9791
-3.7148 3.1808 -2.0016 0.9791
-3.8266 3.0454 -2.0016 0.9791
-4.2230 2.4664 -2.0016 0.9791
-4.3088 2.3132 -2.0016 0.9791
-2.6202 -3.3600 -1.8570 0.9816
-2.3724 -3.5393 -1.8570 0.9816
-1.7024 -3.9061 -1.8570 0.9816
-1.4178 -4.0181 -1.8570 0.9816
-1.2727 -4.0664 -1.8570 0.9816
-1.1259 -4.1095 -1.8570 0.9816
-0.8282 -4.1797 -1.8570 0.9816
-0.5262 -4.2283 -1.8570 0.9816
-0.3741 -4.2445 -1.8570 0.9816
-0.2215 -4.2552 -1.8570 0.9816
-0.0686 -4.2604 -1.8570 0.9816
0.2372 -4.2543 -1.8570 0.9816
0.3898 -4.2431 -1.8570 0.9816
0.5418 -4.2263 -1.8570 0.9816
1.4326 -4.0129 -1.8570 0.9816
1.5757 -3.9588 -1.8570 0.9816
1.8557 -3.8356 -1.8570 0.9816
2.5107 -3.4427 -1.8570 0.9816
2.8662 -3.1528 -1.8570 0.9816
3.0922 -2.9459 -1.8613 0.9815
3.4368 -3.0465 -2.0016 0.9802
3.7443 -2.6594 -2.0016 0.9802
3.9255 -2.3840 -2.0016 0.9802
4.0085 -2.2415 -2.0016 0.9802
4.2262 -1.7976 -2.0016 0.9802
4.2880 -1.6448 -2.0016 0.9802
4.3950 -1.3329 -2.0016 0.9802
4.5405 -0.6902 -2.0016 0.9802
4.5623 -0.5268 -2.0016 0.9802
4.5783 -0.3627 -2.0016 0.9802
4.5831 0.2962 -2.0016 0.9802
4.4935 0.9491 -2.0016 0.9802
4.3115 1.5824 -2.0016 0.9802
4.1868 1.8876 -2.0016 0.9802
4.1164 2.0367 -2.0016 0.9802
3.9597 2.3267 -2.0016 0.9802
3.6866 2.7389 -2.0016 0.9802
3.4806 2.9963 -2.0016 0.9802
3.3708 3.1193 -2.0016 0.9802
3.2567 3.2383 -2.0016 0.9802
3.0160 3.4636 -2.0016 0.9802
2.8897 3.5696 -2.0016 0.9802
2.7597 3.6710 -2.0016 0.9802
2.4893 3.8595 -2.0016 0.9802
2.2060 4.0282 -2.0016 0.9802
2.0600 4.1048 -2.0016 0.9802
1.9113 4.1761 -2.0016 0.9802
1.7602 4.2420 -2.0016 0.9802
1.6068 4.3024 -2.0016 0.9802
1.1350 4.4502 -2.0016 0.9802
0.6500 4.5464 -2.0016 0.9802
0.4864 4.5668 -2.0016 0.9802
0.3222 4.5813 -2.0016 0.9802
0.1576 4.5900 -2.0016 0.9802
-0.6645 4.5443 -2.0016 0.9802
-0.8272 4.5176 -2.0016 0.9802
-1.7736 4.2364 -2.0016 0.9802
-2.0730 4.0982 -2.0016 0.9802
-2.6381 3.7594 -2.0016 0.9802
-2.7714 3.6622 -2.0016 0.9802
-3.0270 3.4540 -2.0016 0.9802
-3.1490 3.3431 -2.0016 0.9802
-3.4901 2.9852 -2.0016 0.9802
-3.5950 2.8580 -2.0016 0.9802
-3.6953 2.7272 -2.0016 0.9802
-3.7908 2.5928 -2.0016 0.9802
-1.5840 0.5121 -0.7255 0.9928
-1.5421 0.3788 -0.6921 0.9931
-1.5136 0.3147 -0.6738 0.9933
-1.5183 0.2034 -0.6676 0.9933
-1.5245 -0.0159 -0.6644 0.9934
-1.5292 -0.0709 -0.6672 0.9933
-1.5224 -0.1807 -0.6682 0.9933
-1.5003 -0.2884 -0.6658 0.9934
-1.5308 -0.3517 -0.6845 0.9932
-1.5770 -0.4837 -0.7189 0.9928
-1.5919 -0.5516 -0.7343 0.9927
-4.2828 -1.6584 -2.0016 0.9802
-4.2205 -1.8110 -2.0016 0.9802
-3.5527 -2.3523 -1.8570 0.9816
-3.0757 -2.9489 -1.8570 0.9816
-2.9678 -3.0574 -1.8570 0.9816
-2.6220 -3.3587 -1.8570 0.9816
-2.3743 -3.5381 -1.8570 0.9816
-2.1143 -3.6993 -1.8570 0.9816
-1.5632 -3.9638 -1.8570 0.9816
-1.2748 -4.0658 -1.8570 0.9816
-0.8303 -4.1792 -1.8570 0.9816
-0.2237 -4.2550 -1.8570 0.9816
0.0821 -4.2601 -1.8570 0.9816
0.2350 -4.2544 -1.8570 0.9816
0.3876 -4.2433 -1.8570 0.9816
0.5396 -4.2266 -1.8570 0.9816
0.8414 -4.1770 -1.8570 0.9816
1.1389 -4.1059 -1.8570 0.9816
1.2856 -4.0624 -1.8570 0.9816
1.4305 -4.0136 -1.8570 0.9816
1.8537 -3.8366 -1.8570 0.9816
2.1242 -3.6937 -1.8570 0.9816
2.2554 -3.6151 -1.8570 0.9816
2.3837 -3.5318 -1.8570 0.9816
2.6309 -3.3517 -1.8570 0.9816
2.9759 -3.0495 -1.8570 0.9816
3.0934 -2.9501 -1.8630 0.9815
3.4352 -3.0483 -2.0016 0.9802
3.5424 -2.9230 -2.0016 0.9802
3.9242 -2.3860 -2.0016 0.9802
4.0853 -2.0983 -2.0016 0.9802
4.2253 -1.7998 -2.0016 0.9802
4.4788 -1.0165 -2.0016 0.9802
4.5124 -0.8551 -2.0016 0.9802
4.5621 -0.5292 -2.0016 0.9802
4.5781 -0.3651 -2.0016 0.9802
4.5833 0.2939 -2.0016 0.9802
4.5504 0.6219 -2.0016 0.9802
4.5251 0.7848 -2.0016 0.9802
4.4940 0.9467 -2.0016 0.9802
4.4145 1.2667 -2.0016 0.9802
4.3662 1.4243 -2.0016 0.9802
4.1878 1.8854 -2.0016 0.9802
4.0418 2.1810 -2.0016 0.9802
3.9609 2.3247 -2.0016 0.9802
3.7839 2.6028 -2.0016 0.9802
3.3724 3.1176 -2.0016 0.9802
3.2584 3.2366 -2.0016 0.9802
3.1401 3.3515 -2.0016 0.9802
3.0178 3.4620 -2.0016 0.9802
2.8916 3.5681 -2.0016 0.9802
2.7617 3.6696 -2.0016 0.9802
2.4913 3.8583 -2.0016 0.9802
2.2081 4.0270 -2.0016 0.9802
2.0621 4.1037 -2.0016 0.9802
1.7624 4.2411 -2.0016 0.9802
1.1373 4.4496 -2.0016 0.9802
0.9769 4.4876 -2.0016 0.9802
0.8152 4.5197 -2.0016 0.9802
0.6524 4.5461 -2.0016 0.9802
0.4888 4.5666 -2.0016 0.9802
0.1599 4.5899 -2.0016 0.9802
-0.0049 4.5927 -2.0016 0.9802
-0.3344 4.5805 -2.0016 0.9802
-0.4986 4.5655 -2.0016 0.9802
-0.6621 4.5447 -2.0016 0.9802
-0.8248 4.5180 -2.0016 0.9802
-0.9865 4.4855 -2.0016 0.9802
-1.1468 4.4472 -2.0016 0.9802
-1.3057 4.4031 -2.0016 0.9802
-1.6182 4.2981 -2.0016 0.9802
-1.7714 4.2378 -2.0016 0.9802
-2.0709 4.0993 -2.0016 0.9802
-2.2167 4.0223 -2.0016 0.9802
-2.3596 3.9401 -2.0016 0.9802
-2.4995 3.8529 -2.0016 0.9802
-2.6362 3.7607 -2.0016 0.9802
-2.7695 3.6637 -2.0016 0.9802
-3.0252 3.4555 -2.0016 0.9802
-3.1473 3.3447 -2.0016 0.9802
-3.2653 3.2296 -2.0016 0.9802
-3.3791 3.1103 -2.0016 0.9802
-4.0464 2.1724 -2.0016 0.9802
-4.1218 2.0257 -2.0016 0.9802
-2.4670 -3.1635 -1.8570 0.9825
-2.3519 -3.2500 -1.8570 0.9825
-2.2337 -3.3324 -1.8570 0.9825
-2.1127 -3.4104 -1.8570 0.9825
-1.8626 -3.5532 -1.8570 0.9825
-1.6029 -3.6776 -1.8570 0.9825
-1.4698 -3.7328 -1.8570 0.9825
-1.3349 -3.7832 -1.8570 0.9825
-1.1982 -3.8286 -1.8570 0.9825
-1.0600 -3.8692 -1.8570 0.9825
-0.9205 -3.9047 -1.8570 0.9825
-0.7797 -3.9352 -1.8570 0.9825
-0.6380 -3.9607 -1.8570 0.9825
-0.4954 -3.9810 -1.8570 0.9825
-0.3522 -3.9963 -1.8570 0.9825
-0.2085 -4.0063 -1.8570 0.9825
-0.0646 -4.0112 -1.8570 0.9825
0.2233 -4.0055 -1.8570 0.9825
0.3670 -3.9949 -1.8570 0.9825
1.0743 -3.8652 -1.8570 0.9825
1.4836 -3.7273 -1.8570 0.9825
1.7472 -3.6113 -1.8570 0.9825
1.8757 -3.5463 -1.8570 0.9825
2.0018 -3.4767 -1.8570 0.9825
2.1252 -3.4026 -1.8570 0.9825
2.4787 -3.1544 -1.8570 0.9825
2.9063 -2.7688 -1.8581 0.9825
3.4332 -2.6288 -2.0016 0.9811
3.5254 -2.5039 -2.0016 0.9811
3.6130 -2.3758 -2.0016 0.9811
3.6959 -2.2445 -2.0016 0.9811
3.7741 -2.1104 -2.0016 0.9811
3.9158 -1.8342 -2.0016 0.9811
4.0903 -1.4027 -2.0016 0.9811
4.1380 -1.2550 -2.0016 0.9811
4.2489 -0.8029 -2.0016 0.9811
4.2956 -0.4960 -2.0016 0.9811
4.3106 -0.3415 -2.0016 0.9811
4.3223 0.1238 -2.0016 0.9811
4.3151 0.2789 -2.0016 0.9811
4.3023 0.4336 -2.0016 0.9811
4.2840 0.5878 -2.0016 0.9811
4.2601 0.7411 -2.0016 0.9811
4.2308 0.8936 -2.0016 0.9811
4.1960 1.0448 -2.0016 0.9811
4.0033 1.6346 -2.0016 0.9811
3.9420 1.7772 -2.0016 0.9811
3.8043 2.0554 -2.0016 0.9811
3.7281 2.1907 -2.0016 0.9811
3.4710 2.5787 -2.0016 0.9811
3.3762 2.7016 -2.0016 0.9811
3.2771 2.8211 -2.0016 0.9811
3.1737 2.9369 -2.0016 0.9811
3.0663 3.0489 -2.0016 0.9811
2.9548 3.1570 -2.0016 0.9811
2.8396 3.2610 -2.0016 0.9811
2.7207 3.3609 -2.0016 0.9811
2.5984 3.4564 -2.0016 0.9811
2.4726 3.5474 -2.0016 0.9811
2.3437 3.6339 -2.0016 0.9811
2.2118 3.7156 -2.0016 0.9811
1.6573 3.9939 -2.0016 0.9811
1.5128 4.0508 -2.0016 0.9811
1.3665 4.1025 -2.0016 0.9811
1.2183 4.1489 -2.0016 0.9811
0.9175 4.2256 -2.0016 0.9811
0.6120 4.2806 -2.0016 0.9811
0.4580 4.2998 -2.0016 0.9811
-0.0069 4.3241 -2.0016 0.9811
-0.3171 4.3125 -2.0016 0.9811
-0.4716 4.2983 -2.0016 0.9811
-0.6256 4.2786 -2.0016 0.9811
-1.3795 4.0982 -2.0016 0.9811
-1.6699 3.9886 -2.0016 0.9811
-1.8120 3.9261 -2.0016 0.9811
-1.9518 3.8586 -2.0016 0.9811
-2.0890 3.7860 -2.0016 0.9811
-2.4839 3.5395 -2.0016 0.9811
-3.2860 2.8107 -2.0016 0.9811
-3.5691 2.4412 -2.0016 0.9811
-3.7350 2.1788 -2.0016 0.9811
-3.8108 2.0433 -2.0016 0.9811
-3.8817 1.9052 -2.0016 0.9811
-1.3180 0.5892 -0.6683 0.9937
-1.3331 0.4845 -0.6566 0.9938
-1.3213 0.3753 -0.6358 0.9940
-1.3297 0.1781 -0.6210 0.9941
-1.3366 0.1304 -0.6216 0.9941
-1.3385 0.0822 -0.6208 0.9941
-1.3367 0.0341 -0.6189 0.9941
-1.3349 -0.0139 -0.6179 0.9941
-1.3382 -0.0621 -0.6201 0.9941
-1.3380 -0.1103 -0.6214 0.9941
-1.3330 -0.1582 -0.6214 0.9941
-1.3116 -0.2522 -0.6183 0.9941
-1.3012 -0.2990 -0.6180 0.9941
-1.3162 -0.3526 -0.6307 0.9940
-1.3273 -0.4072 -0.6427 0.9939
-1.3336 -0.4621 -0.6533 0.9938
-1.3229 -0.5677 -0.6663 0.9937
-3.8411 -1.9858 -2.0016 0.9811
-3.7674 -2.1224 -2.0016 0.9811
-3.6331 -2.2222 -1.9714 0.9814
-3.3824 -2.2396 -1.8778 0.9823
-3.0875 -2.5615 -1.8570 0.9825
-2.7943 -2.8786 -1.8570 0.9825
-2.5806 -3.0716 -1.8570 0.9825
-2.2354 -3.3312 -1.8570 0.9825
-2.1144 -3.4093 -1.8570 0.9825
-1.9907 -3.4830 -1.8570 0.9825
-1.8644 -3.5522 -1.8570 0.9825
-1.7357 -3.6168 -1.8570 0.9825
-1.6048 -3.6768 -1.8570 0.9825
-1.3369 -3.7825 -1.8570 0.9825
-1.0620 -3.8686 -1.8570 0.9825
-0.7818 -3.9348 -1.8570 0.9825
-0.3543 -3.9961 -1.8570 0.9825
-0.2106 -4.0062 -1.8570 0.9825
-0.0667 -4.0112 -1.8570 0.9825
0.0773 -4.0110 -1.8570 0.9825
0.5081 -3.9795 -1.8570 0.9825
0.9329 -3.9018 -1.8570 0.9825
1.2104 -3.8248 -1.8570 0.9825
1.8738 -3.5472 -1.8570 0.9825
2.2443 -3.3253 -1.8570 0.9825
2.6971 -2.9699 -1.8570 0.9825
3.0007 -2.6627 -1.8570 0.9825
3.6117 -2.3776 -2.0016 0.9811
3.6948 -2.2465 -2.0016 0.9811
3.7730 -2.1124 -2.0016 0.9811
4.0895 -1.4048 -2.0016 0.9811
4.2953 -0.4982 -2.0016 0.9811
4.3200 -0.1888 -2.0016 0.9811
4.3224 0.1216 -2.0016 0.9811
4.3152 0.2767 -2.0016 0.9811
4.2843 0.5855 -2.0016 0.9811
4.2605 0.7389 -2.0016 0.9811
4.1564 1.1926 -2.0016 0.9811
4.0601 1.4877 -2.0016 0.9811
3.9429 1.7752 -2.0016 0.9811
3.8054 2.0535 -2.0016 0.9811
3.7292 2.1887 -2.0016 0.9811
3.5626 2.4506 -2.0016 0.9811
3.1752 2.9353 -2.0016 0.9811
3.0678 3.0473 -2.0016 0.9811
2.7225 3.3595 -2.0016 0.9811
2.4745 3.5461 -2.0016 0.9811
2.2137 3.7145 -2.0016 0.9811
2.0789 3.7916 -2.0016 0.9811
1.9415 3.8637 -2.0016 0.9811
1.6593 3.9931 -2.0016 0.9811
1.5149 4.0500 -2.0016 0.9811
1.3686 4.1018 -2.0016 0.9811
0.7675 4.2554 -2.0016 0.9811
0.4602 4.2995 -2.0016 0.9811
0.3056 4.3133 -2.0016 0.9811
-0.0046 4.3241 -2.0016 0.9811
-0.1598 4.3211 -2.0016 0.9811
-0.4694 4.2985 -2.0016 0.9811
-0.6234 4.2789 -2.0016 0.9811
-0.7766 4.2538 -2.0016 0.9811
-0.9288 4.2232 -2.0016 0.9811
-1.0798 4.1871 -2.0016 0.9811
-1.3774 4.0989 -2.0016 0.9811
-1.8100 3.9271 -2.0016 0.9811
-2.3533 3.6276 -2.0016 0.9811
-2.4820 3.5408 -2.0016 0.9811
-2.7297 3.3536 -2.0016 0.9811
-2.8483 3.2535 -2.0016 0.9811
-2.9632 3.1491 -2.0016 0.9811
-3.1815 2.9285 -2.0016 0.9811
-3.2846 2.8124 -2.0016 0.9811
-3.3834 2.6927 -2.0016 0.9811
-3.4779 2.5695 -2.0016 0.9811
-3.6532 2.3134 -2.0016 0.9811
-3.7339 2.1807 -2.0016 0.9811
-3.8098 2.0453 -2.0016 0.9811
-3.8807 1.9073 -2.0016 0.9811
-2.2194 -3.0669 -1.8570 0.9833
-1.9936 -3.2182 -1.8570 0.9833
-1.8768 -3.2877 -1.8570 0.9833
-1.7576 -3.3530 -1.8570 0.9833
-1.6361 -3.4139 -1.8570 0.9833
-1.5125 -3.4704 -1.8570 0.9833
-1.3870 -3.5225 -1.8570 0.9833
-1.2597 -3.5700 -1.8570 0.9833
-1.0003 -3.6512 -1.8570 0.9833
-0.7358 -3.7135 -1.8570 0.9833
-0.6020 -3.7375 -1.8570 0.9833
-0.3324 -3.7711 -1.8570 0.9833
-0.1968 -3.7806 -1.8570 0.9833
-0.0610 -3.7852 -1.8570 0.9833
0.3463 -3.7698 -1.8570 0.9833
0.4814 -3.7550 -1.8570 0.9833
0.6158 -3.7353 -1.8570 0.9833
0.7495 -3.7108 -1.8570 0.9833
1.1441 -3.6087 -1.8570 0.9833
1.2729 -3.5653 -1.8570 0.9833
1.4000 -3.5173 -1.8570 0.9833
1.8890 -3.2808 -1.8570 0.9833
2.1195 -3.1368 -1.8570 0.9833
2.5466 -2.8012 -1.8570 0.9833
2.6454 -2.7080 -1.8570 0.9833
2.7409 -2.6113 -1.8570 0.9833
2.8698 -2.5439 -1.8812 0.9831
3.1487 -2.5954 -2.0016 0.9820
3.4094 -2.2419 -2.0016 0.9820
3.4877 -2.1181 -2.0016 0.9820
3.5615 -1.9915 -2.0016 0.9820
3.6306 -1.8624 -2.0016 0.9820
3.6952 -1.7309 -2.0016 0.9820
3.7549 -1.5971 -2.0016 0.9820
3.8098 -1.4613 -2.0016 0.9820
3.9048 -1.1843 -2.0016 0.9820
3.9797 -0.9011 -2.0016 0.9820
4.0341 -0.6133 -2.0016 0.9820
4.0535 -0.4681 -2.0016 0.9820
4.0804 -0.0296 -2.0016 0.9820
4.0720 0.2632 -2.0016 0.9820
4.0426 0.5546 -2.0016 0.9820
3.9766 0.8399 -1.9937 0.9821
3.9351 0.9799 -1.9892 0.9821
3.7199 1.6771 -2.0016 0.9820
3.6573 1.8095 -2.0016 0.9820
3.5900 1.9396 -2.0016 0.9820
3.5181 2.0672 -2.0016 0.9820
3.4416 2.1922 -2.0016 0.9820
3.3607 2.3143 -2.0016 0.9820
3.2755 2.4334 -2.0016 0.9820
3.1860 2.5494 -2.0016 0.9820
3.0924 2.6621 -2.0016 0.9820
2.7884 2.9791 -2.0016 0.9820
2.4520 3.2616 -2.0016 0.9820
2.2117 3.4291 -2.0016 0.9820
1.8302 3.6470 -2.0016 0.9820
1.4276 3.8226 -2.0016 0.9820
1.2895 3.8714 -2.0016 0.9820
1.1497 3.9151 -2.0016 0.9820
0.8658 3.9875 -2.0016 0.9820
0.7222 4.0160 -2.0016 0.9820
0.5776 4.0394 -2.0016 0.9820
0.4322 4.0575 -2.0016 0.9820
0.2863 4.0704 -2.0016 0.9820
0.1400 4.0781 -2.0016 0.9820
-0.2992 4.0695 -2.0016 0.9820
-0.5904 4.0375 -2.0016 0.9820
-0.7349 4.0137 -2.0016 0.9820
-0.8785 3.9848 -2.0016 0.9820
-1.1621 3.9115 -2.0016 0.9820
-1.3018 3.8672 -2.0016 0.9820
-1.5758 3.7639 -2.0016 0.9820
-1.7099 3.7049 -2.0016 0.9820
-1.8418 3.6411 -2.0016 0.9820
-1.9713 3.5727 -2.0016 0.9820
-2.0983 3.4996 -2.0016 0.9820
-2.2225 3.4221 -2.0016 0.9820
-2.5775 3.1633 -2.0016 0.9820
-2.6894 3.0688 -2.0016 0.9820
-2.9026 2.8679 -2.0016 0.9820
-3.0037 2.7619 -2.0016 0.9820
-3.1009 2.6523 -2.0016 0.9820
-3.1941 2.5393 -2.0016 0.9820
-3.4485 2.1812 -2.0016 0.9820
-1.1157 0.5982 -0.6210 0.9944
-1.1421 0.5106 -0.6137 0.9944
-1.1500 0.4653 -0.6085 0.9945
-1.1583 0.3745 -0.5971 0.9946
-1.1607 0.2851 -0.5863 0.9947
-1.1722 0.2437 -0.5873 0.9947
-1.1813 0.2017 -0.5878 0.9947
-1.1932 0.1164 -0.5881 0.9947
-1.1964 0.0305 -0.5870 0.9947
-1.1959 -0.0125 -0.5867 0.9947
-1.1963 -0.0555 -0.5875 0.9947
-1.1946 -0.0985 -0.5880 0.9947
-1.1845 -0.1839 -0.5880 0.9947
-1.1763 -0.2261 -0.5875 0.9947
-1.1659 -0.2679 -0.5868 0.9947
-1.1569 -0.4009 -0.6006 0.9946
-1.1457 -0.4916 -0.6116 0.9945
-1.1364 -0.5367 -0.6165 0.9944
-3.5551 -2.0028 -2.0016 0.9820
-3.3555 -2.2217 -1.9740 0.9822
-3.1296 -2.2378 -1.8872 0.9830
-2.9136 -2.4172 -1.8570 0.9833
-2.8249 -2.5202 -1.8570 0.9833
-2.7326 -2.6200 -1.8570 0.9833
-2.6368 -2.7164 -1.8570 0.9833
-2.5376 -2.8093 -1.8570 0.9833
-2.3296 -2.9841 -1.8570 0.9833
-2.2210 -3.0658 -1.8570 0.9833
-2.1095 -3.1435 -1.8570 0.9833
-1.7594 -3.3521 -1.8570 0.9833
-1.3888 -3.5218 -1.8570 0.9833
-1.2615 -3.5693 -1.8570 0.9833
-1.1326 -3.6123 -1.8570 0.9833
-0.7377 -3.7131 -1.8570 0.9833
-0.6040 -3.7372 -1.8570 0.9833
-0.4694 -3.7565 -1.8570 0.9833
-0.3343 -3.7709 -1.8570 0.9833
0.0730 -3.7850 -1.8570 0.9833
0.2088 -3.7800 -1.8570 0.9833
0.3443 -3.7700 -1.8570 0.9833
0.4794 -3.7552 -1.8570 0.9833
0.7476 -3.7112 -1.8570 0.9833
0.8803 -3.6819 -1.8570 0.9833
1.1422 -3.6093 -1.8570 0.9833
1.3982 -3.5181 -1.8570 0.9833
1.5236 -3.4656 -1.8570 0.9833
1.7683 -3.3474 -1.8570 0.9833
1.8873 -3.2817 -1.8570 0.9833
2.0038 -3.2119 -1.8570 0.9833
2.1178 -3.1379 -1.8570 0.9833
2.2291 -3.0599 -1.8570 0.9833
2.4429 -2.8921 -1.8570 0.9833
2.7396 -2.6127 -1.8570 0.9833
3.1473 -2.5970 -2.0016 0.9820
3.3255 -2.3646 -2.0016 0.9820
3.6943 -1.7328 -2.0016 0.9820
3.7541 -1.5991 -2.0016 0.9820
4.0091 -0.7597 -2.0016 0.9820
4.0533 -0.4702 -2.0016 0.9820
4.0788 0.1147 -2.0016 0.9820
4.0721 0.2611 -2.0016 0.9820
4.0601 0.4071 -2.0016 0.9820
3.9769 0.8378 -1.9936 0.9821
3.9103 1.1220 -1.9955 0.9820
3.8793 1.2655 -2.0016 0.9820
3.7208 1.6752 -2.0016 0.9820
3.5191 2.0654 -2.0016 0.9820
3.3619 2.3125 -2.0016 0.9820
3.2767 2.4317 -2.0016 0.9820
3.1873 2.5478 -2.0016 0.9820
3.0938 2.6605 -2.0016 0.9820
2.8950 2.8756 -2.0016 0.9820
2.6812 3.0759 -2.0016 0.9820
2.3350 3.3463 -2.0016 0.9820
2.2134 3.4280 -2.0016 0.9820
1.7001 3.7094 -2.0016 0.9820
1.5658 3.7681 -2.0016 0.9820
1.1517 3.9146 -2.0016 0.9820
0.7242 4.0157 -2.0016 0.9820
0.2884 4.0703 -2.0016 0.9820
-0.1508 4.0777 -2.0016 0.9820
-0.4430 4.0563 -2.0016 0.9820
-0.5883 4.0378 -2.0016 0.9820
-0.7328 4.0141 -2.0016 0.9820
-1.1601 3.9121 -2.0016 0.9820
-1.2998 3.8679 -2.0016 0.9820
-1.5739 3.7647 -2.0016 0.9820
-1.7080 3.7058 -2.0016 0.9820
-2.0965 3.5007 -2.0016 0.9820
-2.5759 3.1647 -2.0016 0.9820
-2.7963 2.9717 -2.0016 0.9820
-2.9011 2.8694 -2.0016 0.9820
-3.0022 2.7634 -2.0016 0.9820
-3.2819 2.4247 -2.0016 0.9820
-3.3668 2.3054 -2.0016 0.9820
-3.5235 2.0579 -2.0016 0.9820
-1.1154 0.5988 -0.6210 0.9944
-1.1316 0.5561 -0.6185 0.9944
-2.2012 -2.8227 -1.8570 0.9840
-2.0985 -2.8999 -1.8570 0.9840
-1.7746 -3.1087 -1.8570 0.9840
-1.5470 -3.2280 -1.8570 0.9840
-1.3115 -3.3306 -1.8570 0.9840
-1.1911 -3.3755 -1.8570 0.9840
-0.8213 -3.4840 -1.8570 0.9840
-0.4420 -3.5521 -1.8570 0.9840
-0.0576 -3.5791 -1.8570 0.9840
0.0709 -3.5788 -1.8570 0.9840
0.1993 -3.5740 -1.8570 0.9840
0.3274 -3.5645 -1.8570 0.9840
0.4552 -3.5505 -1.8570 0.9840
0.7087 -3.5087 -1.8570 0.9840
0.8342 -3.4810 -1.8570 0.9840
0.9586 -3.4488 -1.8570 0.9840
1.0817 -3.4122 -1.8570 0.9840
1.2035 -3.3711 -1.8570 0.9840
1.3238 -3.3258 -1.8570 0.9840
1.5589 -3.2222 -1.8570 0.9840
1.6736 -3.1642 -1.8570 0.9840
1.8963 -3.0360 -1.8570 0.9840
2.0040 -2.9659 -1.8570 0.9840
2.1092 -2.8921 -1.8570 0.9840
2.3112 -2.7333 -1.8570 0.9840
2.4079 -2.6486 -1.8570 0.9840
2.5014 -2.5605 -1.8570 0.9840
2.9772 -2.4540 -2.0016 0.9828
3.0633 -2.3456 -2.0016 0.9828
3.5504 -1.5102 -2.0016 0.9828
3.6496 -1.2516 -2.0016 0.9828
3.7300 -0.9865 -2.0016 0.9828
3.7630 -0.8520 -2.0016 0.9828
3.7911 -0.7164 -2.0016 0.9828
3.8327 -0.4426 -2.0016 0.9828
3.8546 -0.1665 -2.0016 0.9828
3.8581 -0.0280 -2.0016 0.9828
3.6448 1.1911 -1.9892 0.9829
3.5173 1.5857 -2.0016 0.9828
3.3264 1.9546 -2.0016 0.9828
3.2541 2.0728 -2.0016 0.9828
3.0971 2.3009 -2.0016 0.9828
2.8318 2.6205 -2.0016 0.9828
2.7359 2.7204 -2.0016 0.9828
2.5337 2.9097 -2.0016 0.9828
2.4276 2.9988 -2.0016 0.9828
2.3184 3.0840 -2.0016 0.9828
2.0912 3.2423 -2.0016 0.9828
1.7305 3.4483 -2.0016 0.9828
1.6057 3.5082 -2.0016 0.9828
1.4787 3.5636 -2.0016 0.9828
1.2192 3.6605 -2.0016 0.9828
1.0871 3.7019 -2.0016 0.9828
0.9535 3.7385 -2.0016 0.9828
0.8187 3.7704 -2.0016 0.9828
0.6828 3.7973 -2.0016 0.9828
0.2707 3.8487 -2.0016 0.9828
0.1324 3.8559 -2.0016 0.9828
-0.0061 3.8582 -2.0016 0.9828
-0.2829 3.8478 -2.0016 0.9828
-0.4208 3.8352 -2.0016 0.9828
-0.6949 3.7951 -2.0016 0.9828
-0.8306 3.7677 -2.0016 0.9828
-0.9654 3.7355 -2.0016 0.9828
-1.2308 3.6566 -2.0016 0.9828
-1.3613 3.6101 -2.0016 0.9828
-1.4900 3.5589 -2.0016 0.9828
-1.7415 3.4428 -2.0016 0.9828
-1.8639 3.3781 -2.0016 0.9828
-2.1015 3.2357 -2.0016 0.9828
-2.5429 2.9016 -2.0016 0.9828
-2.7445 2.7117 -2.0016 0.9828
-2.8401 2.6115 -2.0016 0.9828
-2.9320 2.5078 -2.0016 0.9828
-3.0201 2.4010 -2.0016 0.9828
-0.9742 0.6162 -0.5980 0.9948
-0.9960 0.5810 -0.5982 0.9948
-1.0451 0.4672 -0.5939 0.9949
-1.0530 0.4261 -0.5893 0.9949
-1.0623 0.3434 -0.5792 0.9950
-1.0638 0.3022 -0.5737 0.9950
-1.0733 0.2637 -0.5734 0.9950
-1.0925 0.1865 -0.5750 0.9950
-1.1060 0.0680 -0.5749 0.9950
-1.1066 0.0282 -0.5742 0.9950
-1.1062 -0.0115 -0.5739 0.9950
-1.1065 -0.0513 -0.5746 0.9950
-1.1011 -0.1307 -0.5752 0.9950
-1.0955 -0.1701 -0.5751 0.9950
-1.0879 -0.2091 -0.5747 0.9950
-1.0780 -0.2477 -0.5738 0.9950
-1.0663 -0.2856 -0.5727 0.9950
-1.0605 -0.3675 -0.5823 0.9950
-1.0557 -0.4088 -0.5873 0.9949
-1.0235 -0.5291 -0.5977 0.9948
-1.0046 -0.5659 -0.5982 0.9948
-3.2170 -2.1300 -2.0016 0.9828
-2.6710 -2.3829 -1.8570 0.9840
-2.4932 -2.5684 -1.8570 0.9840
-2.3025 -2.7407 -1.8570 0.9840
-1.7762 -3.1077 -1.8570 0.9840
-1.6635 -3.1695 -1.8570 0.9840
-1.5487 -3.2272 -1.8570 0.9840
-1.1928 -3.3749 -1.8570 0.9840
-0.9476 -3.4518 -1.8570 0.9840
-0.6975 -3.5109 -1.8570 0.9840
-0.0595 -3.5790 -1.8570 0.9840
0.3256 -3.5647 -1.8570 0.9840
0.4533 -3.5507 -1.8570 0.9840
0.7069 -3.5090 -1.8570 0.9840
0.8324 -3.4814 -1.8570 0.9840
0.9568 -3.4493 -1.8570 0.9840
1.0800 -3.4127 -1.8570 0.9840
1.2018 -3.3717 -1.8570 0.9840
1.4406 -3.2768 -1.8570 0.9840
1.6719 -3.1651 -1.8570 0.9840
1.8947 -3.0370 -1.8570 0.9840
2.0025 -2.9670 -1.8570 0.9840
2.2102 -2.8157 -1.8570 0.9840
2.3098 -2.7345 -1.8570 0.9840
2.4065 -2.6499 -1.8570 0.9840
2.5000 -2.5618 -1.8570 0.9840
2.5904 -2.4704 -1.8570 0.9840
2.9759 -2.4556 -2.0016 0.9828
3.0621 -2.3472 -2.0016 0.9828
3.1444 -2.2358 -2.0016 0.9828
3.2967 -2.0044 -2.0016 0.9828
3.4930 -1.6384 -2.0016 0.9828
3.6489 -1.2535 -2.0016 0.9828
3.6916 -1.1217 -2.0016 0.9828
3.7908 -0.7184 -2.0016 0.9828
3.8325 -0.4446 -2.0016 0.9828
3.8460 -0.3067 -2.0016 0.9828
3.8581 -0.0300 -2.0016 0.9828
3.8503 0.2469 -2.0016 0.9828
3.7155 0.9232 -1.9861 0.9829
3.6455 1.1892 -1.9893 0.9829
3.6227 1.3274 -2.0016 0.9828
3.1788 2.1866 -2.0016 0.9828
2.9253 2.5156 -2.0016 0.9828
2.7373 2.7190 -2.0016 0.9828
2.6379 2.8155 -2.0016 0.9828
2.5352 2.9084 -2.0016 0.9828
2.4292 2.9975 -2.0016 0.9828
2.2079 3.1640 -2.0016 0.9828
2.0929 3.2413 -2.0016 0.9828
1.4805 3.5628 -2.0016 0.9828
1.0890 3.7013 -2.0016 0.9828
0.1344 3.8559 -2.0016 0.9828
-0.0041 3.8582 -2.0016 0.9828
-0.1426 3.8556 -2.0016 0.9828
-0.2809 3.8480 -2.0016 0.9828
-0.4188 3.8354 -2.0016 0.9828
-0.5562 3.8179 -2.0016 0.9828
-1.3594 3.6108 -2.0016 0.9828
-1.4882 3.5597 -2.0016 0.9828
-1.6150 3.5040 -2.0016 0.9828
-1.7397 3.4437 -2.0016 0.9828
-1.8622 3.3791 -2.0016 0.9828
-1.9823 3.3100 -2.0016 0.9828
-2.0998 3.2368 -2.0016 0.9828
-2.7431 2.7131 -2.0016 0.9828
-2.8387 2.6129 -2.0016 0.9828
-3.0189 2.4026 -2.0016 0.9828
-0.9738 0.6167 -0.5980 0.9948
-0.9957 0.5816 -0.5982 0.9948
-1.0332 0.5078 -0.5972 0.9948
-2.0850 -2.6736 -1.8570 0.9847
-1.8878 -2.8163 -1.8570 0.9847
-1.7855 -2.8823 -1.8570 0.9847
-1.5741 -3.0029 -1.8570 0.9847
-1.4653 -3.0575 -1.8570 0.9847
-1.3546 -3.1081 -1.8570 0.9847
-1.1282 -3.1973 -1.8570 0.9847
-1.0127 -3.2357 -1.8570 0.9847
-0.8959 -3.2700 -1.8570 0.9847
-0.7779 -3.3000 -1.8570 0.9847
-0.5392 -3.3473 -1.8570 0.9847
0.0671 -3.3898 -1.8570 0.9847
0.3101 -3.3763 -1.8570 0.9847
0.4311 -3.3630 -1.8570 0.9847
0.5516 -3.3453 -1.8570 0.9847
0.6713 -3.3234 -1.8570 0.9847
0.7901 -3.2971 -1.8570 0.9847
0.9080 -3.2666 -1.8570 0.9847
1.5852 -2.9971 -1.8570 0.9847
1.6918 -2.9383 -1.8570 0.9847
1.7961 -2.8756 -1.8570 0.9847
2.1892 -2.5890 -1.8570 0.9847
2.2807 -2.5087 -1.8570 0.9847
2.3693 -2.4253 -1.8570 0.9847
2.4849 -2.3673 -1.8797 0.9845
2.7347 -2.4242 -2.0016 0.9835
2.9015 -2.2217 -2.0016 0.9835
2.9794 -2.1161 -2.0016 0.9835
3.0535 -2.0078 -2.0016 0.9835
3.1236 -1.8970 -2.0016 0.9835
3.3629 -1.4304 -2.0016 0.9835
3.4121 -1.3088 -2.0016 0.9835
3.4568 -1.1855 -2.0016 0.9835
3.4972 -1.0606 -2.0016 0.9835
3.5330 -0.9344 -2.0016 0.9835
3.5642 -0.8070 -2.0016 0.9835
3.5909 -0.6786 -2.0016 0.9835
3.6303 -0.4192 -2.0016 0.9835
3.6511 -0.1577 -2.0016 0.9835
3.6530 0.1047 -2.0016 0.9835
3.6469 0.2357 -2.0016 0.9835
3.6360 0.3665 -2.0016 0.9835
3.5756 0.7552 -2.0016 0.9835
3.4859 1.0022 -1.9866 0.9836
3.3833 1.3814 -2.0016 0.9835
3.3315 1.5020 -2.0016 0.9835
3.2755 1.6206 -2.0016 0.9835
3.1508 1.8514 -2.0016 0.9835
3.0823 1.9633 -2.0016 0.9835
3.0098 2.0727 -2.0016 0.9835
2.9335 2.1794 -2.0016 0.9835
2.8534 2.2833 -2.0016 0.9835
2.6822 2.4821 -2.0016 0.9835
2.5914 2.5768 -2.0016 0.9835
2.4973 2.6681 -2.0016 0.9835
2.2994 2.8404 -2.0016 0.9835
2.0897 2.9980 -2.0016 0.9835
1.7553 3.2053 -2.0016 0.9835
1.6392 3.2662 -2.0016 0.9835
1.2785 3.4235 -2.0016 0.9835
0.9031 3.5411 -2.0016 0.9835
0.7754 3.5712 -2.0016 0.9835
0.5172 3.6177 -2.0016 0.9835
0.2564 3.6455 -2.0016 0.9835
-0.0058 3.6545 -2.0016 0.9835
-0.2680 3.6446 -2.0016 0.9835
-0.3986 3.6327 -2.0016 0.9835
-0.9144 3.5382 -2.0016 0.9835
-1.0408 3.5031 -2.0016 0.9835
-1.1658 3.4635 -2.0016 0.9835
-1.2894 3.4194 -2.0016 0.9835
-1.4113 3.3709 -2.0016 0.9835
-1.5314 3.3181 -2.0016 0.9835
-1.8792 3.1343 -2.0016 0.9835
-2.0992 2.9914 -2.0016 0.9835
-2.4086 2.7484 -2.0016 0.9835
-2.5996 2.5685 -2.0016 0.9835
-2.7771 2.3754 -2.0016 0.9835
-0.8471 0.6251 -0.5766 0.9952
-0.8924 0.5645 -0.5783 0.9952
-0.9124 0.5322 -0.5785 0.9952
-0.9306 0.4990 -0.5783 0.9952
-0.9468 0.4647 -0.5776 0.9952
-0.9694 0.3922 -0.5727 0.9952
-0.9753 0.3544 -0.5684 0.9953
-1.0143 0.1731 -0.5636 0.9953
-1.0204 0.1367 -0.5639 0.9953
-1.0246 0.1000 -0.5638 0.9953
-1.0270 0.0631 -0.5635 0.9953
-1.0273 -0.0107 -0.5627 0.9953
-1.0224 -0.1213 -0.5639 0.9953
-1.0171 -0.1579 -0.5638 0.9953
-1.0098 -0.1941 -0.5632 0.9953
-1.0008 -0.2299 -0.5624 0.9953
-0.9901 -0.2652 -0.5614 0.9953
-0.9530 -0.4501 -0.5772 0.9952
-0.9376 -0.4847 -0.5781 0.9952
-0.9202 -0.5184 -0.5785 0.9952
-0.9010 -0.5511 -0.5785 0.9952
-0.8571 -0.6129 -0.5771 0.9952
-2.8786 -2.2187 -1.9906 0.9836
-2.6911 -2.2326 -1.9151 0.9842
-2.4474 -2.3465 -1.8570 0.9847
-1.7870 -2.8813 -1.8570 0.9847
-1.5757 -3.0021 -1.8570 0.9847
-0.7796 -3.2996 -1.8570 0.9847
-0.6607 -3.3255 -1.8570 0.9847
-0.5409 -3.3471 -1.8570 0.9847
-0.4204 -3.3643 -1.8570 0.9847
-0.2994 -3.3772 -1.8570 0.9847
-0.1780 -3.3858 -1.8570 0.9847
-0.0564 -3.3900 -1.8570 0.9847
0.0654 -3.3899 -1.8570 0.9847
0.1870 -3.3853 -1.8570 0.9847
0.4294 -3.3632 -1.8570 0.9847
0.6695 -3.3237 -1.8570 0.9847
0.7884 -3.2975 -1.8570 0.9847
1.0229 -3.2325 -1.8570 0.9847
1.3645 -3.1038 -1.8570 0.9847
1.4750 -3.0528 -1.8570 0.9847
1.6902 -2.9391 -1.8570 0.9847
1.7946 -2.8766 -1.8570 0.9847
1.9964 -2.7404 -1.8570 0.9847
2.0935 -2.6670 -1.8570 0.9847
2.1878 -2.5901 -1.8570 0.9847
2.3680 -2.4265 -1.8570 0.9847
2.4814 -2.3665 -1.8780 0.9845
2.7334 -2.4256 -2.0016 0.9835
2.8187 -2.3259 -2.0016 0.9835
2.9783 -2.1177 -2.0016 0.9835
3.1226 -1.8986 -2.0016 0.9835
3.1887 -1.7853 -2.0016 0.9835
3.3086 -1.5519 -2.0016 0.9835
3.4966 -1.0624 -2.0016 0.9835
3.5325 -0.9363 -2.0016 0.9835
3.5638 -0.8089 -2.0016 0.9835
3.6127 -0.5511 -2.0016 0.9835
3.6301 -0.4211 -2.0016 0.9835
3.6429 -0.2905 -2.0016 0.9835
3.6510 -0.1596 -2.0016 0.9835
3.6543 -0.0284 -2.0016 0.9835
3.6362 0.3646 -2.0016 0.9835
3.6208 0.4949 -2.0016 0.9835
3.6007 0.6245 -2.0016 0.9835
3.5197 0.8745 -1.9864 0.9836
3.4865 1.0004 -1.9866 0.9836
3.4743 1.1334 -2.0016 0.9835
3.4314 1.2573 -2.0016 0.9835
3.3840 1.3797 -2.0016 0.9835
3.3323 1.5003 -2.0016 0.9835
3.0833 1.9617 -2.0016 0.9835
3.0109 2.0711 -2.0016 0.9835
2.9346 2.1779 -2.0016 0.9835
2.8546 2.2818 -2.0016 0.9835
2.5927 2.5754 -2.0016 0.9835
2.3009 2.8392 -2.0016 0.9835
2.1975 2.9200 -2.0016 0.9835
2.0913 2.9969 -2.0016 0.9835
1.9823 3.0701 -2.0016 0.9835
1.8709 3.1393 -2.0016 0.9835
1.7570 3.2044 -2.0016 0.9835
1.5226 3.3222 -2.0016 0.9835
1.1566 3.4666 -2.0016 0.9835
1.0315 3.5059 -2.0016 0.9835
0.9050 3.5406 -2.0016 0.9835
0.7773 3.5708 -2.0016 0.9835
0.6486 3.5964 -2.0016 0.9835
0.3889 3.6337 -2.0016 0.9835
-0.0039 3.6545 -2.0016 0.9835
-0.1351 3.6520 -2.0016 0.9835
-0.2661 3.6448 -2.0016 0.9835
-0.3967 3.6329 -2.0016 0.9835
-0.6563 3.5950 -2.0016 0.9835
-0.9125 3.5387 -2.0016 0.9835
-1.1641 3.4641 -2.0016 0.9835
-1.2876 3.4201 -2.0016 0.9835
-1.5297 3.3189 -2.0016 0.9835
-1.6478 3.2619 -2.0016 0.9835
-1.7638 3.2006 -2.0016 0.9835
-1.8776 3.1352 -2.0016 0.9835
-2.0977 2.9925 -2.0016 0.9835
-2.4072 2.7496 -2.0016 0.9835
-2.5982 2.5699 -2.0016 0.9835
-2.7759 2.3768 -2.0016 0.9835
-2.8594 2.2757 -2.0016 0.9835
-0.9465 0.4652 -0.5777 0.9952
-1.6938 -2.7343 -1.8570 0.9853
-1.5946 -2.7933 -1.8570 0.9853
-1.3901 -2.9005 -1.8570 0.9853
-1.0702 -3.0331 -1.8570 0.9853
-0.7380 -3.1306 -1.8570 0.9853
-0.6251 -3.1550 -1.8570 0.9853
-0.3972 -3.1918 -1.8570 0.9853
-0.2824 -3.2040 -1.8570 0.9853
-0.1672 -3.2120 -1.8570 0.9853
-0.0518 -3.2160 -1.8570 0.9853
0.0637 -3.2158 -1.8570 0.9853
0.2942 -3.2029 -1.8570 0.9853
0.5232 -3.1735 -1.8570 0.9853
0.8613 -3.0989 -1.8570 0.9853
0.9720 -3.0660 -1.8570 0.9853
1.1895 -2.9884 -1.8570 0.9853
1.4008 -2.8953 -1.8570 0.9853
1.7039 -2.7280 -1.8570 0.9853
2.0768 -2.4561 -1.8570 0.9853
