ply
format ascii 1.0
element vertex 1583
property float32 x
property float32 y
property float32 z
property float32 I
end_header
-3.7283 11.4335 -1.7040 0.9526
-4.6625 11.4397 -1.7503 0.9513
-5.1502 11.4429 -1.7780 0.9506
-5.6542 11.4462 -1.8089 0.9497
-6.1767 11.4496 -1.8433 0.9488
-6.6054 11.2574 -1.8494 0.9486
-7.0052 11.0131 -1.8494 0.9486
-8.1485 10.1962 -1.8494 0.9486
-8.5093 9.8971 -1.8494 0.9486
-8.8590 9.5853 -1.8494 0.9486
-12.1342 7.2330 -2.0016 0.9445
-12.6219 6.3438 -2.0016 0.9445
-12.8415 5.8866 -2.0016 0.9445
-13.3998 4.4721 -2.0016 0.9445
-13.5517 3.9882 -2.0016 0.9445
-13.6862 3.4992 -2.0016 0.9445
-13.8029 3.0057 -2.0016 0.9445
-13.9019 2.5083 -2.0016 0.9445
-14.0461 1.5044 -2.0016 0.9445
-14.1178 0.4928 -2.0016 0.9445
-14.1264 -0.0142 -2.0016 0.9445
-12.8003 -2.8144 -1.8570 0.9484
-12.4235 -4.1741 -1.8570 0.9484
-12.2657 -4.6173 -1.8570 0.9484
-11.9028 -5.4854 -1.8570 0.9484
-12.3723 -6.8177 -2.0016 0.9445
-11.8513 -7.6878 -2.0016 0.9445
-11.5677 -8.1082 -2.0016 0.9445
-11.2692 -8.5182 -2.0016 0.9445
-10.6290 -9.3048 -2.0016 0.9445
-9.5672 -10.3935 -2.0016 0.9445
-9.1879 -10.7302 -2.0016 0.9445
-8.3945 -11.3617 -2.0016 0.9445
-7.5577 -11.9347 -2.0016 0.9445
-6.6820 -12.4461 -2.0016 0.9445
-6.2309 -12.6780 -2.0016 0.9445
-4.3523 -13.4392 -2.0016 0.9445
-3.8671 -13.5868 -2.0016 0.9445
-3.3770 -13.7168 -2.0016 0.9445
-2.8824 -13.8292 -2.0016 0.9445
-1.3791 -14.0589 -2.0016 0.9445
-0.3669 -14.1216 -2.0016 0.9445
0.6472 -14.1116 -2.0016 0.9445
2.1605 -13.9602 -2.0016 0.9445
2.6602 -13.8737 -2.0016 0.9445
3.1564 -13.7692 -2.0016 0.9445
3.6487 -13.6471 -2.0016 0.9445
4.6183 -13.3501 -2.0016 0.9445
6.0267 -12.7763 -2.0016 0.9445
2.1915 -4.2440 -0.6768 0.9809
7.7932 -11.7823 -2.0016 0.9445
8.6184 -11.1928 -2.0016 0.9445
9.3992 -10.5456 -2.0016 0.9445
10.1316 -9.8441 -2.0016 0.9445
11.4361 -8.2928 -2.0016 0.9445
11.7264 -7.8769 -2.0016 0.9445
12.0016 -7.4509 -2.0016 0.9445
12.2613 -7.0153 -2.0016 0.9445
12.7330 -6.1176 -2.0016 0.9445
13.3169 -4.7133 -2.0016 0.9445
13.6207 -3.7458 -2.0016 0.9445
13.8544 -2.7589 -2.0016 0.9445
14.0166 -1.7578 -2.0016 0.9445
14.1066 -0.7477 -2.0016 0.9445
14.1244 -0.2409 -2.0016 0.9445
14.1239 0.2663 -2.0016 0.9445
14.0684 1.2789 -2.0016 0.9445
14.0134 1.7830 -2.0016 0.9445
13.8494 2.7838 -2.0016 0.9445
13.7405 3.2791 -2.0016 0.9445
13.6140 3.7703 -2.0016 0.9445
12.9343 5.6798 -2.0016 0.9445
12.7220 6.1404 -2.0016 0.9445
11.9882 7.4725 -2.0016 0.9445
11.4212 8.3133 -2.0016 0.9445
9.7533 10.2190 -2.0016 0.9445
8.5983 11.2083 -2.0016 0.9445
8.1904 11.5097 -2.0016 0.9445
7.7720 11.7962 -2.0016 0.9445
7.3330 12.0502 -1.9987 0.9446
5.9677 11.6080 -1.8494 0.9486
4.6853 12.1823 -1.8494 0.9486
4.2450 12.3426 -1.8494 0.9486
3.7992 12.4870 -1.8494 0.9486
3.3486 12.6154 -1.8494 0.9486
1.9269 12.6010 -1.8062 0.9498
1.4407 12.3818 -1.7662 0.9509
0.9750 12.1717 -1.7301 0.9519
0.5274 11.9698 -1.6976 0.9527
0.0957 11.7751 -1.6685 0.9535
-1.1406 11.4166 -1.6257 0.9547
-1.9769 11.4221 -1.6424 0.9542
-2.8352 11.4277 -1.6683 0.9535
-4.1862 11.4365 -1.7256 0.9520
-4.6595 11.4396 -1.7502 0.9513
-5.6510 11.4461 -1.8087 0.9497
-6.1735 11.4496 -1.8431 0.9488
-6.6029 11.2589 -1.8494 0.9486
-7.0028 11.0146 -1.8494 0.9486
-7.3937 10.7561 -1.8494 0.9486
-7.7750 10.4838 -1.8494 0.9486
-8.1463 10.1980 -1.8494 0.9486
-8.5071 9.8990 -1.8494 0.9486
-10.9456 8.2427 -1.9414 0.9461
-12.3845 6.7955 -2.0016 0.9445
-13.0433 5.4248 -2.0016 0.9445
-13.2296 4.9531 -2.0016 0.9445
-13.3989 4.4750 -2.0016 0.9445
-13.5508 3.9912 -2.0016 0.9445
-13.6854 3.5022 -2.0016 0.9445
-13.8023 3.0087 -2.0016 0.9445
-13.9014 2.5113 -2.0016 0.9445
-13.9826 2.0107 -2.0016 0.9445
-14.1169 -0.5182 -2.0016 0.9445
-14.0892 -1.0246 -2.0016 0.9445
-14.0433 -1.5297 -2.0016 0.9445
-13.9794 -2.0328 -2.0016 0.9445
-12.5662 -3.7226 -1.8570 0.9484
-12.4245 -4.1713 -1.8570 0.9484
-12.2667 -4.6146 -1.8570 0.9484
-12.6105 -6.3664 -2.0016 0.9445
-12.1212 -7.2548 -2.0016 0.9445
-11.2711 -8.5157 -2.0016 0.9445
-10.9582 -8.9148 -2.0016 0.9445
-10.6311 -9.3024 -2.0016 0.9445
-10.2903 -9.6780 -2.0016 0.9445
-9.9363 -10.0412 -2.0016 0.9445
-9.5695 -10.3914 -2.0016 0.9445
-9.1903 -10.7282 -2.0016 0.9445
-8.3970 -11.3599 -2.0016 0.9445
-7.9838 -11.6539 -2.0016 0.9445
-7.5603 -11.9330 -2.0016 0.9445
-7.1271 -12.1967 -2.0016 0.9445
-6.2337 -12.6766 -2.0016 0.9445
-5.7747 -12.8922 -2.0016 0.9445
-3.8701 -13.5859 -2.0016 0.9445
-3.3800 -13.7161 -2.0016 0.9445
-1.8859 -13.9999 -2.0016 0.9445
-0.3700 -14.1216 -2.0016 0.9445
0.1371 -14.1257 -2.0016 0.9445
0.6441 -14.1117 -2.0016 0.9445
1.1502 -14.0795 -2.0016 0.9445
1.6549 -14.0291 -2.0016 0.9445
2.1574 -13.9607 -2.0016 0.9445
3.6456 -13.6479 -2.0016 0.9445
4.6154 -13.3511 -2.0016 0.9445
5.0916 -13.1769 -2.0016 0.9445
5.5614 -12.9856 -2.0016 0.9445
7.3626 -12.0560 -2.0016 0.9445
12.0558 -1.5092 -2.0016 0.9519
12.1022 -1.0755 -2.0016 0.9519
12.1330 -0.6404 -2.0016 0.9519
12.1481 -0.2045 -2.0016 0.9519
12.1477 0.2317 -2.0016 0.9519
12.1315 0.6676 -2.0016 0.9519
12.0997 1.1026 -2.0016 0.9519
11.9895 1.9678 -2.0016 0.9519
11.9111 2.3969 -2.0016 0.9519
11.8174 2.8229 -2.0016 0.9519
11.5844 3.6635 -2.0016 0.9519
11.1234 4.8876 -2.0016 0.9519
10.9408 5.2837 -2.0016 0.9519
10.7441 5.6730 -2.0016 0.9519
10.0720 6.7951 -2.0016 0.9519
9.5586 7.5002 -2.0016 0.9519
8.9958 8.1667 -2.0016 0.9519
8.6969 8.4843 -2.0016 0.9519
8.3867 8.7910 -2.0016 0.9519
7.7344 9.3701 -2.0016 0.9519
7.3931 9.6416 -2.0016 0.9519
4.4010 10.3274 -1.8494 0.9555
3.2653 10.7406 -1.8494 0.9555
1.6945 11.0974 -1.8494 0.9555
0.0888 11.2256 -1.8494 0.9555
-0.3142 11.2216 -1.8494 0.9555
-0.7168 11.2031 -1.8494 0.9555
-1.1184 11.1701 -1.8494 0.9555
-1.1915 8.7262 -1.4509 0.9649
-1.9170 11.0611 -1.8494 0.9555
-2.3128 10.9852 -1.8494 0.9555
-3.0949 10.7909 -1.8494 0.9555
-4.2370 10.3957 -1.8494 0.9555
-4.6074 10.2369 -1.8494 0.9555
-5.3300 9.8800 -1.8494 0.9555
-6.0251 9.4721 -1.8494 0.9555
-6.3612 9.2498 -1.8494 0.9555
-6.6891 9.0155 -1.8494 0.9555
-7.3187 8.5123 -1.8494 0.9555
-8.7874 8.2349 -1.9839 0.9524
-9.1434 7.9717 -1.9984 0.9520
-9.4387 7.6505 -2.0016 0.9519
-9.7072 7.3068 -2.0016 0.9519
-9.9632 6.9537 -2.0016 0.9519
-10.2064 6.5916 -2.0016 0.9519
-11.0447 5.0630 -2.0016 0.9519
-11.5250 3.8463 -2.0016 0.9519
-11.8717 2.5851 -2.0016 0.9519
-11.9568 2.1573 -2.0016 0.9519
-12.0265 1.7267 -2.0016 0.9519
-12.0808 1.2939 -2.0016 0.9519
-12.1194 0.8595 -2.0016 0.9519
-12.0781 -1.3183 -2.0016 0.9519
-11.9524 -2.1814 -2.0016 0.9519
-11.0093 -2.4206 -1.8570 0.9553
-10.9153 -2.8142 -1.8570 0.9553
-10.8072 -3.2042 -1.8570 0.9553
-10.1931 -6.6121 -2.0016 0.9519
-9.9492 -6.9737 -2.0016 0.9519
-9.6925 -7.3264 -2.0016 0.9519
-9.4232 -7.6696 -2.0016 0.9519
-8.8487 -8.3259 -2.0016 0.9519
-8.2286 -8.9392 -2.0016 0.9519
-7.2199 -9.7720 -2.0016 0.9519
-6.8645 -10.0249 -2.0016 0.9519
-6.5002 -10.2648 -2.0016 0.9519
-5.7471 -10.7047 -2.0016 0.9519
-4.1559 -11.4170 -2.0016 0.9519
-3.7434 -11.5588 -2.0016 0.9519
-3.3261 -11.6857 -2.0016 0.9519
-2.9045 -11.7976 -2.0016 0.9519
-2.4791 -11.8943 -2.0016 0.9519
-1.1861 -12.0918 -2.0016 0.9519
-0.7513 -12.1266 -2.0016 0.9519
0.1206 -12.1493 -2.0016 0.9519
0.9920 -12.1093 -2.0016 0.9519
2.2880 -11.9325 -2.0016 0.9519
2.7148 -11.8427 -2.0016 0.9519
3.1381 -11.7376 -2.0016 0.9519
3.9722 -11.4822 -2.0016 0.9519
4.3817 -11.3322 -2.0016 0.9519
4.7857 -11.1677 -2.0016 0.9519
2.1915 -4.2440 -0.7869 0.9808
5.9585 -10.5885 -2.0016 0.9519
6.3347 -10.3678 -2.0016 0.9519
7.0622 -9.8866 -2.0016 0.9519
7.7533 -9.3544 -2.0016 0.9519
8.0841 -9.0701 -2.0016 0.9519
8.7140 -8.4667 -2.0016 0.9519
9.2990 -7.8198 -2.0016 0.9519
9.5737 -7.4809 -2.0016 0.9519
9.8360 -7.1325 -2.0016 0.9519
10.0857 -6.7748 -2.0016 0.9519
10.3224 -6.4084 -2.0016 0.9519
10.7556 -5.6513 -2.0016 0.9519
10.9515 -5.2616 -2.0016 0.9519
11.3007 -4.4624 -2.0016 0.9519
11.8230 -2.7991 -2.0016 0.9519
11.9159 -2.3729 -2.0016 0.9519
11.9934 -1.9437 -2.0016 0.9519
12.0554 -1.5119 -2.0016 0.9519
12.1019 -1.0782 -2.0016 0.9519
12.1477 0.2290 -2.0016 0.9519
12.1317 0.6649 -2.0016 0.9519
12.0527 1.5336 -2.0016 0.9519
11.8180 2.8203 -2.0016 0.9519
11.5852 3.6609 -2.0016 0.9519
11.2927 4.4827 -2.0016 0.9519
11.1245 4.8851 -2.0016 0.9519
10.3109 6.4270 -2.0016 0.9519
9.2849 7.8365 -2.0016 0.9519
8.9976 8.1647 -2.0016 0.9519
8.3887 8.7892 -2.0016 0.9519
8.0678 9.0846 -2.0016 0.9519
7.3952 9.6400 -2.0016 0.9519
7.0444 9.8993 -2.0016 0.9519
6.6846 10.1457 -2.0016 0.9519
6.3160 10.3790 -2.0015 0.9519
5.1327 9.9839 -1.8494 0.9555
4.7711 10.1617 -1.8494 0.9555
4.0297 10.4778 -1.8494 0.9555
2.4887 10.9467 -1.8494 0.9555
2.0942 11.0289 -1.8494 0.9555
1.6969 11.0970 -1.8494 0.9555
0.4942 11.2151 -1.8494 0.9555
0.0913 11.2256 -1.8494 0.9555
-1.1160 11.1704 -1.8494 0.9555
-1.1895 8.7262 -1.4508 0.9649
-2.3103 10.9857 -1.8494 0.9555
-2.7032 10.8957 -1.8494 0.9555
-3.0925 10.7916 -1.8494 0.9555
-3.4779 10.6737 -1.8494 0.9555
-3.8588 10.5419 -1.8494 0.9555
-4.2347 10.3966 -1.8494 0.9555
-5.3278 9.8812 -1.8494 0.9555
-5.6791 9.6836 -1.8494 0.9555
-6.3592 9.2512 -1.8494 0.9555
-6.6871 9.0169 -1.8494 0.9555
-7.6329 8.2623 -1.8531 0.9554
-9.4370 7.6526 -2.0016 0.9519
-9.7056 7.3090 -2.0016 0.9519
-9.9617 6.9559 -2.0016 0.9519
-10.2050 6.5938 -2.0016 0.9519
-10.4351 6.2233 -2.0016 0.9519
-10.6517 5.8447 -2.0016 0.9519
-10.8547 5.4586 -2.0016 0.9519
-11.5241 3.8489 -2.0016 0.9519
-11.7706 3.0122 -2.0016 0.9519
-11.9563 2.1600 -2.0016 0.9519
-12.0262 1.7294 -2.0016 0.9519
-12.0805 1.2966 -2.0016 0.9519
-12.1424 0.4266 -2.0016 0.9519
-12.1499 -0.0096 -2.0016 0.9519
-12.1417 -0.4457 -2.0016 0.9519
-12.0784 -1.3156 -2.0016 0.9519
-11.9529 -2.1788 -2.0016 0.9519
-11.0098 -2.4182 -1.8570 0.9553
-10.9159 -2.8118 -1.8570 0.9553
-10.8080 -3.2018 -1.8570 0.9553
-10.6861 -3.5877 -1.8570 0.9553
-10.5504 -3.9690 -1.8570 0.9553
-10.4011 -4.3451 -1.8570 0.9553
-10.2385 -4.7157 -1.8570 0.9553
-9.6941 -7.3242 -2.0016 0.9519
-8.5460 -8.6362 -2.0016 0.9519
-8.2306 -8.9374 -2.0016 0.9519
-7.5681 -9.5049 -2.0016 0.9519
-6.5025 -10.2634 -2.0016 0.9519
-6.1299 -10.4902 -2.0016 0.9519
-4.5655 -11.2595 -2.0016 0.9519
-4.1584 -11.4161 -2.0016 0.9519
-2.9071 -11.7970 -2.0016 0.9519
-2.4817 -11.8937 -2.0016 0.9519
-1.1888 -12.0916 -2.0016 0.9519
-0.7540 -12.1265 -2.0016 0.9519
0.9893 -12.1095 -2.0016 0.9519
1.8555 -12.0074 -2.0016 0.9519
2.7122 -11.8433 -2.0016 0.9519
3.5549 -11.6182 -2.0016 0.9519
4.3792 -11.3332 -2.0016 0.9519
5.1810 -10.9898 -2.0016 0.9519
5.9561 -10.5898 -2.0016 0.9519
6.3324 -10.3692 -2.0016 0.9519
10.4442 -2.0774 -2.0016 0.9576
10.5121 -1.7012 -2.0016 0.9576
10.6070 -0.9427 -2.0016 0.9576
10.6340 -0.5613 -2.0016 0.9576
10.6049 0.9664 -2.0016 0.9576
10.5634 1.3464 -2.0016 0.9576
10.4395 2.1008 -2.0016 0.9576
10.2619 2.8444 -2.0016 0.9576
9.7492 4.2837 -2.0016 0.9576
9.5892 4.6309 -2.0016 0.9576
9.2322 5.3070 -2.0016 0.9576
9.0358 5.6349 -2.0016 0.9576
8.8277 5.9556 -2.0016 0.9576
8.6082 6.2687 -2.0016 0.9576
8.1363 6.8701 -2.0016 0.9576
7.8844 7.1577 -2.0016 0.9576
7.3506 7.7049 -2.0016 0.9576
6.7789 8.2124 -2.0016 0.9576
6.4797 8.4505 -2.0016 0.9576
5.8568 8.8936 -2.0016 0.9576
5.2036 9.2908 -2.0016 0.9576
4.4036 9.3843 -1.9484 0.9587
3.5299 9.1841 -1.8494 0.9607
2.8619 9.4137 -1.8494 0.9607
1.4851 9.7263 -1.8494 0.9607
0.7835 9.8078 -1.8494 0.9607
0.4310 9.8296 -1.8494 0.9607
0.0778 9.8388 -1.8494 0.9607
-0.2754 9.8352 -1.8494 0.9607
-0.6282 9.8190 -1.8494 0.9607
-1.6801 9.6946 -1.8494 0.9607
-2.0270 9.6280 -1.8494 0.9607
-4.0382 8.9722 -1.8494 0.9607
-4.6715 8.6594 -1.8494 0.9607
-5.2807 8.3019 -1.8494 0.9607
-6.1174 8.2449 -1.9297 0.9591
-7.2257 7.8180 -2.0010 0.9576
-7.5038 7.5558 -2.0016 0.9576
-7.7702 7.2816 -2.0016 0.9576
-8.5079 6.4041 -2.0016 0.9576
-8.7323 6.0946 -2.0016 0.9576
-8.9455 5.7772 -2.0016 0.9576
-9.5147 4.7821 -2.0016 0.9576
-9.6802 4.4375 -2.0016 0.9576
-9.8332 4.0871 -2.0016 0.9576
-9.9736 3.7315 -2.0016 0.9576
-10.3170 2.6378 -2.0016 0.9576
-10.4050 2.2657 -2.0016 0.9576
-10.4796 1.8908 -2.0016 0.9576
-10.5883 1.1341 -2.0016 0.9576
-10.6221 0.7533 -2.0016 0.9576
-10.6423 0.3715 -2.0016 0.9576
-10.6416 -0.3930 -2.0016 0.9576
-10.5859 -1.1554 -2.0016 0.9576
-10.5377 -1.5347 -2.0016 0.9576
-10.4758 -1.9119 -2.0016 0.9576
-10.1261 -2.2264 -1.9488 0.9587
-9.5668 -2.4665 -1.8570 0.9606
-9.3652 -3.1465 -1.8570 0.9606
-9.2462 -3.4807 -1.8570 0.9606
-9.1153 -3.8103 -1.8570 0.9606
-8.9726 -4.1350 -1.8570 0.9606
-8.8184 -4.4544 -1.8570 0.9606
-8.6529 -4.7681 -1.8570 0.9606
-8.4761 -5.0756 -1.8570 0.9606
-8.2885 -5.3766 -1.8570 0.9606
-8.0901 -5.6707 -1.8570 0.9606
-7.7555 -7.2972 -2.0016 0.9576
-7.2120 -7.8348 -2.0016 0.9576
-6.6313 -8.3321 -2.0016 0.9576
-6.0164 -8.7863 -2.0016 0.9576
-5.3706 -9.1953 -2.0016 0.9576
-3.2809 -10.1308 -2.0016 0.9576
-2.9151 -10.2420 -2.0016 0.9576
-2.1728 -10.4248 -2.0016 0.9576
-1.7972 -10.4961 -2.0016 0.9576
-1.0396 -10.5980 -2.0016 0.9576
-0.6585 -10.6284 -2.0016 0.9576
-0.2766 -10.6452 -2.0016 0.9576
0.1057 -10.6483 -2.0016 0.9576
0.8694 -10.6133 -2.0016 0.9576
2.3794 -10.3796 -2.0016 0.9576
3.1179 -10.1821 -2.0016 0.9576
3.4814 -10.0637 -2.0016 0.9576
4.1944 -9.7879 -2.0016 0.9576
5.2223 -9.2803 -2.0016 0.9576
5.5521 -9.0869 -2.0016 0.9576
6.1897 -8.6651 -2.0016 0.9576
7.6374 -7.4207 -2.0016 0.9576
8.1501 -6.8537 -2.0016 0.9576
9.4268 -4.9531 -2.0016 0.9576
9.7578 -4.2641 -2.0016 0.9576
9.9046 -3.9111 -2.0016 0.9576
10.1597 -3.1904 -2.0016 0.9576
10.4437 -2.0798 -2.0016 0.9576
10.5117 -1.7035 -2.0016 0.9576
10.6068 -0.9450 -2.0016 0.9576
10.6339 -0.5636 -2.0016 0.9576
10.6469 0.2007 -2.0016 0.9576
10.6329 0.5828 -2.0016 0.9576
10.6051 0.9641 -2.0016 0.9576
10.5637 1.3441 -2.0016 0.9576
10.5086 1.7224 -2.0016 0.9576
10.3579 2.4719 -2.0016 0.9576
10.0322 3.5710 -2.0016 0.9576
9.8975 3.9288 -2.0016 0.9576
9.5902 4.6288 -2.0016 0.9576
9.4178 4.9701 -2.0016 0.9576
9.2334 5.3049 -2.0016 0.9576
9.0370 5.6329 -2.0016 0.9576
8.8290 5.9537 -2.0016 0.9576
8.6096 6.2668 -2.0016 0.9576
7.3523 7.7033 -2.0016 0.9576
6.7807 8.2109 -2.0016 0.9576
5.8587 8.8923 -2.0016 0.9576
3.8808 9.1011 -1.8597 0.9605
3.5319 9.1833 -1.8494 0.9607
3.2000 9.3042 -1.8494 0.9607
2.5242 9.5098 -1.8494 0.9607
2.1812 9.5942 -1.8494 0.9607
1.4873 9.7260 -1.8494 0.9607
0.4331 9.8295 -1.8494 0.9607
0.0800 9.8387 -1.8494 0.9607
-0.9781 9.7903 -1.8494 0.9607
-1.1867 8.7059 -1.6515 0.9649
-2.0249 9.6285 -1.8494 0.9607
-2.3692 9.5496 -1.8494 0.9607
-2.7105 9.4584 -1.8494 0.9607
-3.0482 9.3550 -1.8494 0.9607
-3.3821 9.2395 -1.8494 0.9607
-4.9774 8.4872 -1.8494 0.9607
-5.2789 8.3031 -1.8494 0.9607
-5.6735 8.2536 -1.8825 0.9601
-6.1146 8.2450 -1.9294 0.9591
-6.5785 8.2354 -1.9812 0.9580
-6.9245 8.0575 -1.9969 0.9577
-8.0250 6.9997 -2.0016 0.9576
-8.2711 6.7072 -2.0016 0.9576
-8.5065 6.4060 -2.0016 0.9576
-9.3358 5.1226 -2.0016 0.9576
-9.6792 4.4396 -2.0016 0.9576
-9.8323 4.0893 -2.0016 0.9576
-9.9728 3.7337 -2.0016 0.9576
-10.4792 1.8931 -2.0016 0.9576
-10.6220 0.7556 -2.0016 0.9576
-10.6488 -0.0084 -2.0016 0.9576
-10.6416 -0.3906 -2.0016 0.9576
-10.6208 -0.7724 -2.0016 0.9576
-10.5380 -1.5323 -2.0016 0.9576
-10.4762 -1.9096 -2.0016 0.9576
-10.1354 -2.2261 -1.9505 0.9586
-9.5673 -2.4644 -1.8570 0.9606
-9.4727 -2.8062 -1.8570 0.9606
-9.3659 -3.1445 -1.8570 0.9606
-9.1161 -3.8083 -1.8570 0.9606
-8.9736 -4.1331 -1.8570 0.9606
-8.6539 -4.7662 -1.8570 0.9606
-8.2896 -5.3748 -1.8570 0.9606
-8.2605 -6.7202 -2.0016 0.9576
-7.7571 -7.2955 -2.0016 0.9576
-7.4902 -7.5693 -2.0016 0.9576
-7.2137 -7.8332 -2.0016 0.9576
-6.3298 -8.5633 -2.0016 0.9576
-6.0184 -8.7850 -2.0016 0.9576
-5.3726 -9.1942 -2.0016 0.9576
-4.6991 -9.5559 -2.0016 0.9576
-4.3531 -9.7184 -2.0016 0.9576
-4.0014 -9.8684 -2.0016 0.9576
-3.6446 -10.0057 -2.0016 0.9576
-3.2831 -10.1301 -2.0016 0.9576
-2.1751 -10.4243 -2.0016 0.9576
-1.7995 -10.4957 -2.0016 0.9576
-1.4217 -10.5535 -2.0016 0.9576
-1.0419 -10.5977 -2.0016 0.9576
-0.6608 -10.6283 -2.0016 0.9576
-0.2789 -10.6452 -2.0016 0.9576
0.1034 -10.6483 -2.0016 0.9576
0.4855 -10.6377 -2.0016 0.9576
1.2475 -10.5755 -2.0016 0.9576
2.3771 -10.3801 -2.0016 0.9576
3.4792 -10.0644 -2.0016 0.9576
3.8382 -9.9330 -2.0016 0.9576
4.1923 -9.7889 -2.0016 0.9576
4.5409 -9.6321 -2.0016 0.9576
2.1912 -4.2456 -0.8980 0.9807
9.2871 -1.8473 -2.0016 0.9620
9.3474 -1.5127 -2.0016 0.9620
9.4559 -0.4991 -2.0016 0.9620
9.4677 -0.1594 -2.0016 0.9620
9.4673 0.1806 -2.0016 0.9620
9.4547 0.5203 -2.0016 0.9620
9.4300 0.8593 -2.0016 0.9620
9.3930 1.1973 -2.0016 0.9620
9.3440 1.5336 -2.0016 0.9620
9.2829 1.8681 -2.0016 0.9620
9.2099 2.2001 -2.0016 0.9620
9.1250 2.5292 -2.0016 0.9620
9.0283 2.8551 -2.0016 0.9620
8.3735 4.4213 -2.0016 0.9620
8.0347 5.0106 -2.0016 0.9620
7.8496 5.2958 -2.0016 0.9620
7.4495 5.8453 -2.0016 0.9620
7.2349 6.1089 -2.0016 0.9620
6.7779 6.6123 -2.0016 0.9620
6.2861 7.0815 -2.0016 0.9620
5.7618 7.5142 -2.0016 0.9620
5.4884 7.7162 -2.0016 0.9620
5.2079 7.9082 -2.0016 0.9620
4.9207 8.0901 -2.0016 0.9620
4.0225 8.5722 -2.0016 0.9620
3.7064 8.6975 -1.9985 0.9621
2.9899 8.6995 -1.9445 0.9631
2.2518 8.4912 -1.8569 0.9647
1.9377 8.5317 -1.8494 0.9649
1.3206 8.6487 -1.8494 0.9649
1.0093 8.6906 -1.8494 0.9649
0.6967 8.7212 -1.8494 0.9649
0.0692 8.7487 -1.8494 0.9649
-0.5586 8.7311 -1.8494 0.9649
-0.8717 8.7055 -1.8494 0.9649
-1.4940 8.6205 -1.8494 0.9649
-1.8025 8.5613 -1.8494 0.9649
-3.3638 8.2534 -1.8839 0.9642
-3.7123 8.2482 -1.9120 0.9637
-4.0716 8.2424 -1.9433 0.9631
-4.7775 8.1421 -1.9955 0.9621
-5.3648 7.8009 -2.0013 0.9620
-5.6422 7.6045 -2.0016 0.9620
-5.9115 7.3970 -2.0016 0.9620
-6.1732 7.1801 -2.0016 0.9620
-6.4270 6.9539 -2.0016 0.9620
-6.9093 6.4748 -2.0016 0.9620
-7.1373 6.2227 -2.0016 0.9620
-7.5653 5.6946 -2.0016 0.9620
-8.7438 3.6343 -2.0016 0.9620
-8.9820 2.9977 -2.0016 0.9620
-9.0838 2.6733 -2.0016 0.9620
-9.2522 2.0147 -2.0016 0.9620
-9.3186 1.6813 -2.0016 0.9620
-9.4152 1.0084 -2.0016 0.9620
-9.4633 0.3304 -2.0016 0.9620
-9.4690 -0.0095 -2.0016 0.9620
-9.4131 -1.0274 -2.0016 0.9620
-9.3151 -1.7001 -2.0016 0.9620
-9.2481 -2.0334 -2.0016 0.9620
-8.6750 -2.2366 -1.8937 0.9640
-8.3276 -2.7979 -1.8570 0.9647
-8.2218 -3.0950 -1.8570 0.9647
-8.1054 -3.3882 -1.8570 0.9647
-7.8414 -3.9609 -1.8570 0.9647
-7.1938 -5.0424 -1.8570 0.9647
-7.0082 -5.2974 -1.8570 0.9647
-7.1247 -6.2370 -2.0016 0.9620
-6.8962 -6.4888 -2.0016 0.9620
-6.6589 -6.7321 -2.0016 0.9620
-6.4129 -6.9668 -2.0016 0.9620
-5.3499 -7.8129 -2.0016 0.9620
-5.0660 -7.9999 -2.0016 0.9620
-3.8689 -8.6426 -2.0016 0.9620
-3.2389 -8.8979 -2.0016 0.9620
-2.5922 -9.1073 -2.0016 0.9620
-2.2636 -9.1945 -2.0016 0.9620
-1.5981 -9.3332 -2.0016 0.9620
0.7731 -9.4374 -2.0016 0.9620
2.4457 -9.1477 -2.0016 0.9620
3.0957 -8.9487 -2.0016 0.9620
3.4149 -8.8318 -2.0016 0.9620
3.7297 -8.7035 -2.0016 0.9620
4.9370 -8.0801 -2.0016 0.9620
5.2238 -7.8977 -2.0016 0.9620
5.7770 -7.5026 -2.0016 0.9620
6.0426 -7.2904 -2.0016 0.9620
6.5500 -6.8381 -2.0016 0.9620
6.7913 -6.5986 -2.0016 0.9620
7.2472 -6.0943 -2.0016 0.9620
7.4612 -5.8303 -2.0016 0.9620
7.8603 -5.2800 -2.0016 0.9620
8.0448 -4.9944 -2.0016 0.9620
8.2189 -4.7024 -2.0016 0.9620
8.3823 -4.4044 -2.0016 0.9620
9.0341 -2.8369 -2.0016 0.9620
9.3954 -1.1783 -2.0016 0.9620
9.4558 -0.5012 -2.0016 0.9620
9.4673 0.1785 -2.0016 0.9620
9.4548 0.5182 -2.0016 0.9620
9.4301 0.8572 -2.0016 0.9620
9.3933 1.1952 -2.0016 0.9620
9.3443 1.5316 -2.0016 0.9620
8.9207 3.1754 -2.0016 0.9620
8.6699 3.8072 -2.0016 0.9620
8.3744 4.4194 -2.0016 0.9620
8.2104 4.7172 -2.0016 0.9620
7.8508 5.2941 -2.0016 0.9620
7.4508 5.8437 -2.0016 0.9620
7.2362 6.1074 -2.0016 0.9620
6.7794 6.6108 -2.0016 0.9620
6.5377 6.8498 -2.0016 0.9620
6.0294 7.3012 -2.0016 0.9620
5.7635 7.5130 -2.0016 0.9620
5.4901 7.7150 -2.0016 0.9620
4.9224 8.0890 -2.0016 0.9620
4.6289 8.2605 -2.0016 0.9620
2.9923 8.7003 -1.9448 0.9631
2.6084 8.5731 -1.8942 0.9640
2.2540 8.4917 -1.8571 0.9647
1.9396 8.5313 -1.8494 0.9649
1.6321 8.5954 -1.8494 0.9649
1.0112 8.6904 -1.8494 0.9649
-0.5567 8.7313 -1.8494 0.9649
-0.8697 8.7057 -1.8494 0.9649
-1.4921 8.6208 -1.8494 0.9649
-1.8006 8.5617 -1.8494 0.9649
-2.1067 8.4916 -1.8494 0.9649
-3.0228 8.2580 -1.8588 0.9647
-3.3617 8.2534 -1.8838 0.9642
-5.3631 7.8020 -2.0012 0.9620
-5.6405 7.6057 -2.0016 0.9620
-6.1717 7.1814 -2.0016 0.9620
-6.4255 6.9553 -2.0016 0.9620
-6.6710 6.7202 -2.0016 0.9620
-7.1359 6.2242 -2.0016 0.9620
-7.3547 5.9641 -2.0016 0.9620
-7.9532 5.1389 -2.0016 0.9620
-8.3014 4.5551 -2.0016 0.9620
-8.4596 4.2541 -2.0016 0.9620
-8.6068 3.9477 -2.0016 0.9620
-8.8679 3.3201 -2.0016 0.9620
-8.9813 2.9996 -2.0016 0.9620
-9.0832 2.6753 -2.0016 0.9620
-9.3726 1.3478 -2.0016 0.9620
-9.4690 -0.0075 -2.0016 0.9620
-9.4626 -0.3474 -2.0016 0.9620
-9.3705 -1.3626 -2.0016 0.9620
-9.3155 -1.6980 -2.0016 0.9620
-8.6819 -2.2364 -1.8951 0.9640
-8.3282 -2.7961 -1.8570 0.9647
-8.1061 -3.3864 -1.8570 0.9647
-7.8423 -3.9592 -1.8570 0.9647
-7.1949 -5.0408 -1.8570 0.9647
-7.0094 -5.2958 -1.8570 0.9647
-6.8170 -5.5458 -1.8576 0.9647
-6.8977 -6.4872 -2.0016 0.9620
-6.4145 -6.9654 -2.0016 0.9620
-5.8982 -7.4076 -2.0016 0.9620
-5.6285 -7.6146 -2.0016 0.9620
-5.3516 -7.8117 -2.0016 0.9620
-5.0677 -7.9988 -2.0016 0.9620
-3.8708 -8.6417 -2.0016 0.9620
-3.2408 -8.8971 -2.0016 0.9620
-2.9194 -9.0077 -2.0016 0.9620
-2.5942 -9.1067 -2.0016 0.9620
-2.2656 -9.1940 -2.0016 0.9620
-1.9341 -9.2694 -2.0016 0.9620
-1.6002 -9.3328 -2.0016 0.9620
-0.5876 -9.4508 -2.0016 0.9620
-0.2480 -9.4658 -2.0016 0.9620
3.0937 -8.9494 -2.0016 0.9620
3.4130 -8.8326 -2.0016 0.9620
3.7278 -8.7044 -2.0016 0.9620
2.1911 -4.2456 -1.0099 0.9807
4.9352 -8.0812 -2.0016 0.9620
8.4071 -1.3606 -2.0016 0.9656
8.5046 -0.4489 -2.0016 0.9656
8.4040 1.3794 -2.0016 0.9656
8.2834 1.9787 -2.0016 0.9656
8.2070 2.2748 -2.0016 0.9656
7.9149 3.1439 -2.0016 0.9656
7.7970 3.4259 -2.0016 0.9656
7.6690 3.7036 -2.0016 0.9656
7.5311 3.9765 -2.0016 0.9656
7.3835 4.2443 -2.0016 0.9656
7.2264 4.5066 -2.0016 0.9656
7.0600 4.7630 -2.0016 0.9656
6.8845 5.0134 -2.0016 0.9656
6.5070 5.4944 -2.0016 0.9656
6.0961 5.9471 -2.0016 0.9656
5.8787 6.1621 -2.0016 0.9656
4.9363 6.9400 -2.0016 0.9656
4.6840 7.1127 -2.0016 0.9656
4.4256 7.2762 -2.0016 0.9656
3.3387 7.8347 -2.0016 0.9656
3.0554 7.9495 -2.0016 0.9656
2.7680 8.0541 -2.0016 0.9656
2.1789 8.2162 -1.9977 0.9657
1.8805 8.2799 -1.9955 0.9657
1.2654 8.2875 -1.9703 0.9661
0.6593 8.2528 -1.9458 0.9666
-0.2308 8.2433 -1.9381 0.9667
-0.5274 8.2428 -1.9412 0.9666
-0.8252 8.2418 -1.9467 0.9665
-1.1251 8.2403 -1.9546 0.9664
-1.4278 8.2384 -1.9651 0.9662
-1.7340 8.2359 -1.9781 0.9660
-2.0445 8.2331 -1.9937 0.9657
-2.3404 8.1603 -1.9952 0.9657
-3.4954 7.7661 -2.0016 0.9656
-4.0435 7.4953 -2.0016 0.9656
-4.5708 7.1859 -2.0016 0.9656
-4.8258 7.0172 -2.0016 0.9656
-5.5522 6.4578 -2.0016 0.9656
-5.7804 6.2543 -2.0016 0.9656
-6.2142 5.8235 -2.0016 0.9656
-6.4193 5.5967 -2.0016 0.9656
-6.8043 5.1217 -2.0016 0.9656
-6.9837 4.8742 -2.0016 0.9656
-7.8642 3.2687 -2.0016 0.9656
-8.0784 2.6961 -2.0016 0.9656
-8.1700 2.4044 -2.0016 0.9656
-8.3214 1.8120 -2.0016 0.9656
-8.3811 1.5122 -2.0016 0.9656
-8.4680 0.9070 -2.0016 0.9656
-8.5164 -0.0086 -2.0016 0.9656
-8.5106 -0.3143 -2.0016 0.9656
-8.4662 -0.9241 -2.0016 0.9656
-8.4275 -1.2274 -2.0016 0.9656
-8.3781 -1.5291 -2.0016 0.9656
-7.5821 -2.2480 -1.8586 0.9680
-7.4898 -2.5165 -1.8570 0.9681
-7.3947 -2.7837 -1.8570 0.9681
-6.9202 -3.8133 -1.8570 0.9681
-6.6287 -4.3000 -1.8570 0.9681
-6.3032 -4.7645 -1.8570 0.9681
-6.1281 -4.9876 -1.8570 0.9681
-5.9451 -5.2044 -1.8570 0.9681
-5.7678 -6.2660 -2.0016 0.9656
-5.3034 -6.6636 -2.0016 0.9656
-5.0608 -6.8497 -2.0016 0.9656
-4.8117 -7.0269 -2.0016 0.9656
-4.5563 -7.1951 -2.0016 0.9656
-4.0284 -7.5035 -2.0016 0.9656
-3.7565 -7.6432 -2.0016 0.9656
-2.3314 -8.1911 -2.0016 0.9656
-2.0359 -8.2695 -2.0016 0.9656
-1.4373 -8.3943 -2.0016 0.9656
-1.1351 -8.4405 -2.0016 0.9656
-0.8314 -8.4758 -2.0016 0.9656
-0.5266 -8.5001 -2.0016 0.9656
0.3902 -8.5075 -2.0016 0.9656
0.6953 -8.4880 -2.0016 0.9656
0.9995 -8.4576 -2.0016 0.9656
1.6037 -8.3641 -2.0016 0.9656
1.9029 -8.3011 -2.0016 0.9656
2.4936 -8.1432 -2.0016 0.9656
3.0714 -7.9433 -2.0016 0.9656
2.1731 -4.2083 -1.1131 0.9807
2.3414 -4.1608 -1.1221 0.9806
4.4403 -7.2673 -2.0016 0.9656
4.6983 -7.1032 -2.0016 0.9656
4.9502 -6.9300 -2.0016 0.9656
5.1958 -6.7478 -2.0016 0.9656
5.6665 -6.3577 -2.0016 0.9656
5.8911 -6.1502 -2.0016 0.9656
6.1081 -5.9348 -2.0016 0.9656
6.3172 -5.7117 -2.0016 0.9656
6.7107 -5.2438 -2.0016 0.9656
7.3920 -4.2294 -2.0016 0.9656
7.9212 -3.1279 -2.0016 0.9656
8.1252 -2.5515 -2.0016 0.9656
8.2116 -2.2582 -2.0016 0.9656
8.2874 -1.9620 -2.0016 0.9656
8.3524 -1.6633 -2.0016 0.9656
8.5045 -0.4508 -2.0016 0.9656
8.5152 -0.1452 -2.0016 0.9656
8.5149 0.1605 -2.0016 0.9656
8.4815 0.7710 -2.0016 0.9656
8.4483 1.0750 -2.0016 0.9656
7.9156 3.1421 -2.0016 0.9656
7.6698 3.7019 -2.0016 0.9656
7.5320 3.9748 -2.0016 0.9656
6.7012 5.2558 -2.0016 0.9656
6.5083 5.4930 -2.0016 0.9656
6.3069 5.7230 -2.0016 0.9656
5.8800 6.1608 -2.0016 0.9656
5.6551 6.3679 -2.0016 0.9656
5.1837 6.7572 -2.0016 0.9656
4.9378 6.9389 -2.0016 0.9656
4.6855 7.1116 -2.0016 0.9656
4.4273 7.2753 -2.0016 0.9656
3.6195 7.7090 -2.0016 0.9656
3.3405 7.8340 -2.0016 0.9656
3.0571 7.9488 -2.0016 0.9656
2.7698 8.0534 -2.0016 0.9656
2.4773 8.1421 -2.0002 0.9656
2.1807 8.2157 -1.9978 0.9657
1.8823 8.2795 -1.9955 0.9657
1.5817 8.3301 -1.9928 0.9658
0.3632 8.2432 -1.9392 0.9667
0.0670 8.2435 -1.9375 0.9667
-0.2290 8.2433 -1.9381 0.9667
-0.8234 8.2418 -1.9466 0.9665
-1.1233 8.2403 -1.9546 0.9664
-1.7321 8.2360 -1.9780 0.9660
-2.9225 7.9839 -1.9982 0.9657
-3.4936 7.7669 -2.0016 0.9656
-4.5693 7.1869 -2.0016 0.9656
-4.8243 7.0183 -2.0016 0.9656
-5.3154 6.6541 -2.0016 0.9656
-6.2130 5.8249 -2.0016 0.9656
-6.4180 5.5981 -2.0016 0.9656
-6.6149 5.3641 -2.0016 0.9656
-7.3145 4.3622 -2.0016 0.9656
-7.4663 4.0968 -2.0016 0.9656
-7.6086 3.8262 -2.0016 0.9656
-7.7410 3.5506 -2.0016 0.9656
-7.8635 3.2705 -2.0016 0.9656
-8.0778 2.6979 -2.0016 0.9656
-8.1695 2.4062 -2.0016 0.9656
-8.3210 1.8139 -2.0016 0.9656
-8.3808 1.5140 -2.0016 0.9656
-8.4297 1.2122 -2.0016 0.9656
-8.4678 0.9089 -2.0016 0.9656
-8.5112 0.2990 -2.0016 0.9656
-8.5164 -0.0067 -2.0016 0.9656
-8.4940 -0.6177 -2.0016 0.9656
-8.4278 -1.2255 -2.0016 0.9656
-8.3784 -1.5272 -2.0016 0.9656
-8.3182 -1.8270 -2.0016 0.9656
-7.5856 -2.2472 -1.8594 0.9680
-7.4904 -2.5148 -1.8570 0.9681
-7.3953 -2.7820 -1.8570 0.9681
-7.2907 -3.0457 -1.8570 0.9681
-7.1766 -3.3054 -1.8570 0.9681
-5.5576 -5.6163 -1.8570 0.9681
-5.7692 -6.2647 -2.0016 0.9656
-5.5406 -6.4677 -2.0016 0.9656
-5.3049 -6.6624 -2.0016 0.9656
-5.0623 -6.8486 -2.0016 0.9656
-4.8132 -7.0259 -2.0016 0.9656
-4.5579 -7.1941 -2.0016 0.9656
-4.0300 -7.5026 -2.0016 0.9656
-3.4814 -7.7724 -2.0016 0.9656
-2.9148 -8.0021 -2.0016 0.9656
-2.0377 -8.2691 -2.0016 0.9656
-0.8333 -8.4756 -2.0016 0.9656
-0.5285 -8.5000 -2.0016 0.9656
-0.2230 -8.5135 -2.0016 0.9656
0.0827 -8.5160 -2.0016 0.9656
0.6934 -8.4882 -2.0016 0.9656
0.9977 -8.4578 -2.0016 0.9656
2.1979 -8.2280 -2.0016 0.9656
2.7825 -8.0491 -2.0016 0.9656
3.0696 -7.9440 -2.0016 0.9656
3.3528 -7.8287 -2.0016 0.9656
3.6316 -7.7033 -2.0016 0.9656
2.1724 -4.2092 -1.1132 0.9807
2.3396 -4.1597 -1.1217 0.9806
4.4387 -7.2683 -2.0016 0.9656
7.6706 -0.9603 -2.0016 0.9686
7.7294 -0.1301 -2.0016 0.9686
7.7291 0.1474 -2.0016 0.9686
7.6986 0.7015 -2.0016 0.9686
7.2823 2.5940 -2.0016 0.9686
7.0774 3.1098 -2.0016 0.9686
6.9612 3.3618 -2.0016 0.9686
6.5595 4.0907 -2.0016 0.9686
6.2491 4.5507 -2.0016 0.9686
6.0817 4.7721 -2.0016 0.9686
5.1319 5.7813 -2.0016 0.9686
4.7039 6.1346 -2.0016 0.9686
4.4807 6.2995 -2.0016 0.9686
4.2517 6.4563 -2.0016 0.9686
3.7775 6.7447 -2.0016 0.9686
3.5330 6.8759 -2.0016 0.9686
3.2839 6.9983 -2.0016 0.9686
3.0306 7.1117 -2.0016 0.9686
2.5126 7.3108 -2.0016 0.9686
2.2485 7.3962 -2.0016 0.9686
1.9816 7.4722 -2.0016 0.9686
1.7121 7.5385 -2.0016 0.9686
1.4404 7.5951 -2.0016 0.9686
1.1669 7.6419 -2.0016 0.9686
0.6156 7.7059 -2.0016 0.9686
-0.2164 7.7275 -2.0016 0.9686
-0.4936 7.7147 -2.0016 0.9686
-0.7702 7.6920 -2.0016 0.9686
-1.0458 7.6594 -2.0016 0.9686
-1.5926 7.5647 -2.0016 0.9686
-2.6589 7.2588 -2.0016 0.9686
-3.4238 6.9310 -2.0016 0.9686
-4.6063 6.2083 -2.0016 0.9686
-5.2470 5.6771 -2.0016 0.9686
-5.8269 5.0802 -2.0016 0.9686
-6.0055 4.8677 -2.0016 0.9686
-6.1763 4.6490 -2.0016 0.9686
-6.4939 4.1939 -2.0016 0.9686
-6.6403 3.9581 -2.0016 0.9686
-6.7781 3.7172 -2.0016 0.9686
-7.0273 3.2214 -2.0016 0.9686
-7.1384 2.9671 -2.0016 0.9686
-7.2403 2.7089 -2.0016 0.9686
-7.4160 2.1825 -2.0016 0.9686
-7.6077 1.3726 -2.0016 0.9686
-7.6520 1.0987 -2.0016 0.9686
-7.6865 0.8233 -2.0016 0.9686
-7.7258 0.2697 -2.0016 0.9686
-7.7100 -0.5624 -2.0016 0.9686
-7.6848 -0.8388 -2.0016 0.9686
-7.4857 -1.9300 -2.0016 0.9686
-7.4116 -2.1974 -2.0016 0.9686
-6.7122 -2.5268 -1.8570 0.9708
-6.6172 -2.7661 -1.8570 0.9708
-6.1532 -3.6846 -1.8570 0.9708
-5.8730 -4.1166 -1.8570 0.9708
-5.7215 -4.3248 -1.8570 0.9708
-5.2234 -4.9148 -1.8570 0.9708
-4.1359 -6.5311 -2.0016 0.9686
-3.8988 -6.6753 -2.0016 0.9686
-3.6566 -6.8110 -2.0016 0.9686
-3.1585 -7.0558 -2.0016 0.9686
-2.9033 -7.1646 -2.0016 0.9686
-1.8480 -7.5064 -2.0016 0.9686
-1.5774 -7.5678 -2.0016 0.9686
-1.3047 -7.6196 -2.0016 0.9686
-1.0303 -7.6615 -2.0016 0.9686
-0.7547 -7.6936 -2.0016 0.9686
-0.2008 -7.7279 -2.0016 0.9686
0.0768 -7.7301 -2.0016 0.9686
0.3542 -7.7224 -2.0016 0.9686
0.9073 -7.6771 -2.0016 0.9686
1.7273 -7.5350 -2.0016 0.9686
1.9967 -7.4682 -2.0016 0.9686
2.5273 -7.3057 -2.0016 0.9686
2.7879 -7.2103 -2.0016 0.9686
3.0450 -7.1055 -2.0016 0.9686
3.2980 -6.9917 -2.0016 0.9686
2.3130 -4.1103 -1.2212 0.9807
4.4934 -6.2904 -2.0016 0.9686
4.9331 -5.9519 -2.0016 0.9686
5.1436 -5.7710 -2.0016 0.9686
5.3474 -5.5826 -2.0016 0.9686
5.7342 -5.1846 -2.0016 0.9686
6.2583 -4.5381 -2.0016 0.9686
6.4171 -4.3105 -2.0016 0.9686
6.5677 -4.0774 -2.0016 0.9686
6.9680 -3.3478 -2.0016 0.9686
7.0837 -3.0955 -2.0016 0.9686
7.5816 -1.5098 -2.0016 0.9686
7.6704 -0.9620 -2.0016 0.9686
7.7000 -0.6860 -2.0016 0.9686
7.7294 -0.1318 -2.0016 0.9686
7.7291 0.1457 -2.0016 0.9686
7.7189 0.4231 -2.0016 0.9686
7.5193 1.7945 -2.0016 0.9686
7.4501 2.0632 -2.0016 0.9686
7.3712 2.3293 -2.0016 0.9686
6.8369 3.6080 -2.0016 0.9686
6.2501 4.5493 -2.0016 0.9686
5.9076 4.9860 -2.0016 0.9686
5.5347 5.3970 -2.0016 0.9686
5.3374 5.5922 -2.0016 0.9686
4.4821 6.2985 -2.0016 0.9686
4.2531 6.4553 -2.0016 0.9686
3.7790 6.7438 -2.0016 0.9686
3.2855 6.9976 -2.0016 0.9686
2.7750 7.2153 -2.0016 0.9686
2.5142 7.3102 -2.0016 0.9686
2.2502 7.3957 -2.0016 0.9686
1.4421 7.5948 -2.0016 0.9686
1.1685 7.6417 -2.0016 0.9686
0.6173 7.7058 -2.0016 0.9686
0.3403 7.7230 -2.0016 0.9686
-0.4919 7.7148 -2.0016 0.9686
-1.3184 7.6172 -2.0016 0.9686
-1.8615 7.5030 -2.0016 0.9686
-2.1296 7.4314 -2.0016 0.9686
-2.3950 7.3501 -2.0016 0.9686
-2.9161 7.1594 -2.0016 0.9686
-3.1712 7.0501 -2.0016 0.9686
-3.4222 6.9317 -2.0016 0.9686
-4.1476 6.5237 -2.0016 0.9686
-4.3791 6.3706 -2.0016 0.9686
-4.6049 6.2093 -2.0016 0.9686
-5.0385 5.8629 -2.0016 0.9686
-5.2457 5.6783 -2.0016 0.9686
-5.6396 5.2873 -2.0016 0.9686
-5.8257 5.0815 -2.0016 0.9686
-6.1753 4.6504 -2.0016 0.9686
-6.3382 4.4257 -2.0016 0.9686
-6.6394 3.9596 -2.0016 0.9686
-6.7773 3.7187 -2.0016 0.9686
-6.9064 3.4731 -2.0016 0.9686
-7.1378 2.9686 -2.0016 0.9686
-7.2397 2.7105 -2.0016 0.9686
-7.6863 0.8250 -2.0016 0.9686
-7.7257 0.2714 -2.0016 0.9686
-7.7253 -0.2836 -2.0016 0.9686
-7.7101 -0.5607 -2.0016 0.9686
-7.6052 -1.3863 -2.0016 0.9686
-6.7128 -2.5253 -1.8570 0.9708
-6.5143 -3.0004 -1.8570 0.9708
-6.4024 -3.2323 -1.8570 0.9708
-6.2823 -3.4600 -1.8570 0.9708
-6.1540 -3.6833 -1.8570 0.9708
-6.0179 -3.9018 -1.8570 0.9708
-5.8739 -4.1153 -1.8570 0.9708
-5.5635 -4.5261 -1.8570 0.9708
-5.2245 -4.9136 -1.8570 0.9708
-5.0447 -5.0980 -1.8570 0.9708
-4.6660 -5.4468 -1.8570 0.9708
-4.4675 -5.6107 -1.8570 0.9708
-4.3690 -6.3775 -2.0016 0.9686
-3.9002 -6.6745 -2.0016 0.9686
-3.4113 -6.9371 -2.0016 0.9686
-2.6458 -7.2636 -2.0016 0.9686
-2.3834 -7.3539 -2.0016 0.9686
-2.1179 -7.4347 -2.0016 0.9686
-1.5790 -7.5675 -2.0016 0.9686
-1.0320 -7.6613 -2.0016 0.9686
-0.7564 -7.6934 -2.0016 0.9686
-0.2025 -7.7278 -2.0016 0.9686
0.0750 -7.7301 -2.0016 0.9686
0.3525 -7.7224 -2.0016 0.9686
0.6295 -7.7048 -2.0016 0.9686
0.9056 -7.6773 -2.0016 0.9686
1.1806 -7.6398 -2.0016 0.9686
1.4541 -7.5925 -2.0016 0.9686
2.5257 -7.3062 -2.0016 0.9686
3.0434 -7.1062 -2.0016 0.9686
2.1302 -4.1275 -1.2026 0.9810
7.0426 -0.6259 -2.0016 0.9710
7.0596 0.3885 -2.0016 0.9710
6.9314 1.3948 -2.0016 0.9710
6.8769 1.6427 -2.0016 0.9710
6.7413 2.1319 -2.0016 0.9710
6.4730 2.8442 -2.0016 0.9710
6.3668 3.0747 -2.0016 0.9710
6.2523 3.3013 -2.0016 0.9710
5.8612 3.9543 -2.0016 0.9710
5.7155 4.1621 -2.0016 0.9710
5.2349 4.7524 -2.0016 0.9710
5.0610 4.9372 -2.0016 0.9710
4.8805 5.1157 -2.0016 0.9710
4.6937 5.2876 -2.0016 0.9710
4.3022 5.6107 -2.0016 0.9710
4.0981 5.7615 -2.0016 0.9710
3.8886 5.9049 -2.0016 0.9710
3.6742 6.0407 -2.0016 0.9710
3.4550 6.1687 -2.0016 0.9710
3.2313 6.2887 -2.0016 0.9710
3.0035 6.4007 -2.0016 0.9710
2.7718 6.5044 -2.0016 0.9710
2.5366 6.5997 -2.0016 0.9710
2.2980 6.6865 -2.0016 0.9710
1.5659 6.8947 -2.0016 0.9710
1.3174 6.9465 -2.0016 0.9710
1.0672 6.9893 -2.0016 0.9710
0.8156 7.0231 -2.0016 0.9710
0.5630 7.0479 -2.0016 0.9710
-0.1979 7.0676 -2.0016 0.9710
-0.7044 7.0352 -2.0016 0.9710
-0.9565 7.0053 -2.0016 0.9710
-1.2073 6.9665 -2.0016 0.9710
-2.6685 6.5474 -2.0016 0.9710
-2.9018 6.4474 -2.0016 0.9710
-3.1314 6.3391 -2.0016 0.9710
-3.3569 6.2226 -2.0016 0.9710
-3.5781 6.0981 -2.0016 0.9710
-4.0064 5.8257 -2.0016 0.9710
-4.7989 5.1923 -2.0016 0.9710
-4.9822 5.0167 -2.0016 0.9710
-5.1591 4.8346 -2.0016 0.9710
-5.3293 4.6463 -2.0016 0.9710
-6.5288 2.7137 -2.0016 0.9710
-6.6220 2.4776 -2.0016 0.9710
-6.7067 2.2383 -2.0016 0.9710
-6.7827 1.9961 -2.0016 0.9710
-6.8500 1.7514 -2.0016 0.9710
-6.9084 1.5043 -2.0016 0.9710
-6.9580 1.2554 -2.0016 0.9710
-6.9986 1.0048 -2.0016 0.9710
-7.0526 0.5001 -2.0016 0.9710
-7.0660 0.2467 -2.0016 0.9710
-7.0703 -0.0071 -2.0016 0.9710
-7.0655 -0.2609 -2.0016 0.9710
-6.9554 -1.2694 -2.0016 0.9710
-6.8464 -1.7652 -2.0016 0.9710
-6.6123 -2.2216 -1.9747 0.9714
-5.8550 -2.9576 -1.8570 0.9731
-5.7451 -3.1658 -1.8570 0.9731
-5.3715 -3.7651 -1.8570 0.9731
-5.2329 -3.9554 -1.8570 0.9731
-4.9356 -4.3207 -1.8570 0.9731
-4.7773 -4.4951 -1.8570 0.9731
-4.6129 -4.6637 -1.8570 0.9731
-4.4425 -4.8262 -1.8570 0.9731
-4.2664 -4.9826 -1.8570 0.9731
-3.8980 -5.2758 -1.8570 0.9731
-3.7061 -5.4123 -1.8570 0.9731
-3.5116 -5.5453 -1.8581 0.9731
-3.3082 -5.6643 -1.8570 0.9731
-3.1186 -6.3454 -2.0016 0.9710
-2.8888 -6.4532 -2.0016 0.9710
-2.4184 -6.6439 -2.0016 0.9710
-1.4427 -6.9216 -2.0016 0.9710
-1.1933 -6.9689 -2.0016 0.9710
-0.9424 -7.0072 -2.0016 0.9710
-0.4372 -7.0568 -2.0016 0.9710
0.5772 -7.0467 -2.0016 0.9710
1.0813 -6.9871 -2.0016 0.9710
1.5798 -6.8916 -2.0016 0.9710
2.5499 -6.5945 -2.0016 0.9710
2.7849 -6.4988 -2.0016 0.9710
2.1223 -4.1100 -1.3095 0.9810
2.3049 -4.0959 -1.3305 0.9807
3.9005 -5.8971 -2.0016 0.9710
4.1097 -5.7533 -2.0016 0.9710
4.7044 -5.2781 -2.0016 0.9710
4.8908 -5.1059 -2.0016 0.9710
5.2445 -4.7418 -2.0016 0.9710
5.5712 -4.3533 -2.0016 0.9710
5.8691 -3.9424 -2.0016 0.9710
6.0069 -3.7292 -2.0016 0.9710
6.2589 -3.2887 -2.0016 0.9710
6.4787 -2.8311 -2.0016 0.9710
6.5762 -2.5968 -2.0016 0.9710
6.7456 -2.1183 -2.0016 0.9710
6.8172 -1.8748 -2.0016 0.9710
6.8801 -1.6289 -2.0016 0.9710
7.0604 -0.3742 -2.0016 0.9710
7.0691 0.1333 -2.0016 0.9710
7.0413 0.6401 -2.0016 0.9710
6.9772 1.1436 -2.0016 0.9710
6.8139 1.8870 -2.0016 0.9710
6.6609 2.3710 -2.0016 0.9710
6.5715 2.6086 -2.0016 0.9710
5.8620 3.9530 -2.0016 0.9710
5.7164 4.1608 -2.0016 0.9710
5.2360 4.7512 -2.0016 0.9710
5.0620 4.9361 -2.0016 0.9710
4.6949 5.2866 -2.0016 0.9710
4.5021 5.4517 -2.0016 0.9710
4.3035 5.6098 -2.0016 0.9710
3.8899 5.9041 -2.0016 0.9710
3.6755 6.0399 -2.0016 0.9710
2.7732 6.5038 -2.0016 0.9710
2.5380 6.5991 -2.0016 0.9710
2.2995 6.6859 -2.0016 0.9710
2.0580 6.7642 -2.0016 0.9710
1.5674 6.8944 -2.0016 0.9710
1.3189 6.9462 -2.0016 0.9710
0.8172 7.0229 -2.0016 0.9710
0.5646 7.0478 -2.0016 0.9710
0.3112 7.0635 -2.0016 0.9710
-0.4499 7.0560 -2.0016 0.9710
-0.9550 7.0055 -2.0016 0.9710
-1.2058 6.9668 -2.0016 0.9710
-1.4551 6.9190 -2.0016 0.9710
-2.1904 6.7225 -2.0016 0.9710
-2.4303 6.6395 -2.0016 0.9710
-2.6671 6.5480 -2.0016 0.9710
-3.1300 6.3398 -2.0016 0.9710
-4.0051 5.8265 -2.0016 0.9710
-4.6083 5.3622 -2.0016 0.9710
-4.7978 5.1934 -2.0016 0.9710
-5.1580 4.8358 -2.0016 0.9710
-5.3282 4.6475 -2.0016 0.9710
-5.4916 4.4533 -2.0016 0.9710
-5.6479 4.2533 -2.0016 0.9710
-6.0724 3.6215 -2.0016 0.9710
-6.1985 3.4012 -2.0016 0.9710
-6.3166 3.1765 -2.0016 0.9710
-6.6215 2.4790 -2.0016 0.9710
-6.7062 2.2398 -2.0016 0.9710
-6.7823 1.9976 -2.0016 0.9710
-6.8496 1.7529 -2.0016 0.9710
-6.9081 1.5059 -2.0016 0.9710
-6.9577 1.2569 -2.0016 0.9710
-7.0660 0.2482 -2.0016 0.9710
-7.0703 -0.0056 -2.0016 0.9710
-7.0656 -0.2594 -2.0016 0.9710
-6.9968 -1.0174 -2.0016 0.9710
-6.9057 -1.5168 -2.0016 0.9710
-6.6165 -2.2214 -1.9758 0.9714
-6.0527 -2.5285 -1.8570 0.9731
-5.8557 -2.9563 -1.8570 0.9731
-5.6285 -3.3688 -1.8570 0.9731
-4.7783 -4.4940 -1.8570 0.9731
-4.2675 -4.9816 -1.8570 0.9731
-4.0860 -5.1316 -1.8570 0.9731
-3.1200 -6.3447 -2.0016 0.9710
-2.8903 -6.4526 -2.0016 0.9710
-2.6568 -6.5522 -2.0016 0.9710
-2.4199 -6.6433 -2.0016 0.9710
-2.1799 -6.7259 -2.0016 0.9710
-1.6917 -6.8650 -2.0016 0.9710
-1.4442 -6.9213 -2.0016 0.9710
-0.9439 -7.0070 -2.0016 0.9710
-0.6918 -7.0364 -2.0016 0.9710
-0.4388 -7.0567 -2.0016 0.9710
0.0686 -7.0700 -2.0016 0.9710
0.3224 -7.0630 -2.0016 0.9710
1.5783 -6.8919 -2.0016 0.9710
2.3100 -6.6823 -2.0016 0.9710
2.5484 -6.5951 -2.0016 0.9710
2.7835 -6.4994 -2.0016 0.9710
3.0150 -6.3953 -2.0016 0.9710
2.3037 -4.0959 -1.3304 0.9807
3.6850 -6.0341 -2.0016 0.9710
6.3824 -1.2695 -2.0016 0.9731
6.4571 -0.8084 -2.0016 0.9731
6.4984 -0.3430 -2.0016 0.9731
6.5063 0.1241 -2.0016 0.9731
6.4976 0.3576 -2.0016 0.9731
6.4806 0.5906 -2.0016 0.9731
6.4553 0.8228 -2.0016 0.9731
6.3796 1.2838 -2.0016 0.9731
6.3294 1.5120 -2.0016 0.9731
6.2710 1.7382 -2.0016 0.9731
6.0479 2.4022 -2.0016 0.9731
5.7546 3.0385 -2.0016 0.9731
5.6418 3.2431 -2.0016 0.9731
5.3946 3.6395 -2.0016 0.9731
5.2605 3.8308 -2.0016 0.9731
5.1196 4.0171 -2.0016 0.9731
4.6581 4.5442 -2.0016 0.9731
3.3817 5.5598 -2.0016 0.9731
3.1799 5.6776 -2.0016 0.9731
2.9741 5.7881 -2.0016 0.9731
1.4413 6.3459 -2.0016 0.9731
1.2125 6.3935 -2.0016 0.9731
0.7507 6.4640 -2.0016 0.9731
0.2850 6.5012 -2.0016 0.9731
0.0515 6.5073 -2.0016 0.9731
-0.6483 6.4751 -2.0016 0.9731
-1.3407 6.3679 -2.0016 0.9731
-1.7941 6.2553 -2.0016 0.9731
-2.0174 6.1869 -2.0016 0.9731
-2.2382 6.1105 -2.0016 0.9731
-2.4561 6.0262 -2.0016 0.9731
-2.6708 5.9341 -2.0016 0.9731
-2.8821 5.8344 -2.0016 0.9731
-3.2933 5.6126 -2.0016 0.9731
-3.4926 5.4908 -2.0016 0.9731
-3.8776 5.2261 -2.0016 0.9731
-4.4169 4.7790 -2.0016 0.9731
-4.5856 4.6173 -2.0016 0.9731
-4.7483 4.4498 -2.0016 0.9731
-5.0554 4.0976 -2.0016 0.9731
-5.4666 3.5304 -2.0016 0.9731
-5.8144 2.9223 -2.0016 0.9731
-6.0091 2.4976 -2.0016 0.9731
-6.1728 2.0601 -2.0016 0.9731
-6.2428 1.8372 -2.0016 0.9731
-6.3047 1.6119 -2.0016 0.9731
-6.4041 1.1555 -2.0016 0.9731
-6.4912 0.4603 -2.0016 0.9731
-6.5075 -0.0066 -2.0016 0.9731
-6.5030 -0.2401 -2.0016 0.9731
-6.4691 -0.7061 -2.0016 0.9731
-6.4395 -0.9378 -2.0016 0.9731
-6.4017 -1.1684 -2.0016 0.9731
-6.1686 -2.0725 -2.0016 0.9731
-5.9165 -2.2272 -1.9445 0.9739
-5.5703 -2.3285 -1.8570 0.9751
-5.4832 -2.5269 -1.8570 0.9751
-5.1797 -3.1017 -1.8570 0.9751
-4.8163 -3.6406 -1.8570 0.9751
-4.6825 -3.8111 -1.8570 0.9751
-4.5427 -3.9767 -1.8570 0.9751
-4.3970 -4.1372 -1.8570 0.9751
-4.2457 -4.2924 -1.8570 0.9751
-4.0889 -4.4420 -1.8570 0.9751
-3.7597 -4.7239 -1.8570 0.9751
-3.0449 -5.2134 -1.8570 0.9751
-2.8558 -5.3193 -1.8570 0.9751
-2.6630 -5.4184 -1.8570 0.9751
-2.2674 -5.5955 -1.8570 0.9751
-2.0050 -6.1909 -2.0016 0.9731
-1.0983 -6.4141 -2.0016 0.9731
-0.8673 -6.4494 -2.0016 0.9731
-0.6353 -6.4764 -2.0016 0.9731
-0.4024 -6.4950 -2.0016 0.9731
0.5313 -6.4858 -2.0016 0.9731
0.7637 -6.4625 -2.0016 0.9731
1.2254 -6.3911 -2.0016 0.9731
1.4541 -6.3429 -2.0016 0.9731
1.6808 -6.2867 -2.0016 0.9731
1.9054 -6.2223 -2.0016 0.9731
2.1275 -6.1499 -2.0016 0.9731
2.3781 -5.5493 -1.8570 0.9751
2.0743 -4.3974 -1.4955 0.9799
3.7825 -5.2953 -2.0016 0.9731
3.9702 -5.1561 -2.0016 0.9731
4.3299 -4.8580 -2.0016 0.9731
4.6672 -4.5348 -2.0016 0.9731
4.9805 -4.1883 -2.0016 0.9731
5.1277 -4.0068 -2.0016 0.9731
5.4019 -3.6286 -2.0016 0.9731
5.6483 -3.2317 -2.0016 0.9731
5.7607 -3.0269 -2.0016 0.9731
5.9630 -2.6058 -2.0016 0.9731
6.2745 -1.7255 -2.0016 0.9731
6.3324 -1.4992 -2.0016 0.9731
6.3822 -1.2709 -2.0016 0.9731
6.4237 -1.0410 -2.0016 0.9731
6.4569 -0.8098 -2.0016 0.9731
6.5065 -0.1110 -2.0016 0.9731
6.4808 0.5891 -2.0016 0.9731
6.3799 1.2824 -2.0016 0.9731
6.2714 1.7368 -2.0016 0.9731
6.2050 1.9608 -2.0016 0.9731
6.0484 2.4009 -2.0016 0.9731
5.9583 2.6165 -2.0016 0.9731
5.8605 2.8287 -2.0016 0.9731
5.5225 3.4423 -2.0016 0.9731
5.3954 3.6383 -2.0016 0.9731
5.1204 4.0160 -2.0016 0.9731
3.9609 5.1632 -2.0016 0.9731
3.3829 5.5591 -2.0016 0.9731
3.1812 5.6769 -2.0016 0.9731
2.9754 5.7875 -2.0016 0.9731
2.7657 5.8905 -2.0016 0.9731
2.1164 6.1537 -2.0016 0.9731
1.8942 6.2257 -2.0016 0.9731
1.2139 6.3932 -2.0016 0.9731
0.9837 6.4327 -2.0016 0.9731
0.2865 6.5012 -2.0016 0.9731
0.0529 6.5073 -2.0016 0.9731
-0.1807 6.5050 -2.0016 0.9731
-0.4141 6.4943 -2.0016 0.9731
-1.7927 6.2557 -2.0016 0.9731
-2.0161 6.1873 -2.0016 0.9731
-2.8808 5.8351 -2.0016 0.9731
-3.0884 5.7279 -2.0016 0.9731
-3.2920 5.6134 -2.0016 0.9731
-3.4914 5.4916 -2.0016 0.9731
-4.4158 4.7799 -2.0016 0.9731
-4.5846 4.6183 -2.0016 0.9731
-5.1983 3.9147 -2.0016 0.9731
-5.5890 3.3332 -2.0016 0.9731
-5.7051 3.1304 -2.0016 0.9731
-5.8138 2.9236 -2.0016 0.9731
-5.9149 2.7130 -2.0016 0.9731
-6.0085 2.4990 -2.0016 0.9731
-6.3043 1.6133 -2.0016 0.9731
-6.3582 1.3860 -2.0016 0.9731
-6.4038 1.1569 -2.0016 0.9731
-6.5035 0.2285 -2.0016 0.9731
-6.4903 -0.4720 -2.0016 0.9731
-6.4692 -0.7047 -2.0016 0.9731
-6.4398 -0.9364 -2.0016 0.9731
-6.4020 -1.1670 -2.0016 0.9731
-6.3560 -1.3960 -2.0016 0.9731
-6.3018 -1.6233 -2.0016 0.9731
-6.2394 -1.8484 -2.0016 0.9731
-6.1691 -2.0712 -2.0016 0.9731
-5.4837 -2.5257 -1.8570 0.9751
-5.3895 -2.7209 -1.8570 0.9751
-5.1804 -3.1006 -1.8570 0.9751
-5.0658 -3.2845 -1.8570 0.9751
-4.3979 -4.1363 -1.8570 0.9751
-4.2466 -4.2915 -1.8570 0.9751
-3.5887 -4.8550 -1.8570 0.9751
-3.2312 -5.1000 -1.8570 0.9751
-2.8570 -5.3187 -1.8570 0.9751
-2.6642 -5.4178 -1.8570 0.9751
-2.0663 -5.6728 -1.8570 0.9751
-2.0063 -6.1905 -2.0016 0.9731
-1.5570 -6.3185 -2.0016 0.9731
-1.3292 -6.3703 -2.0016 0.9731
-1.0997 -6.4139 -2.0016 0.9731
-0.8688 -6.4492 -2.0016 0.9731
-0.1704 -6.5052 -2.0016 0.9731
0.0632 -6.5072 -2.0016 0.9731
0.5299 -6.4859 -2.0016 0.9731
1.2240 -6.3913 -2.0016 0.9731
1.4527 -6.3433 -2.0016 0.9731
2.1261 -6.1504 -2.0016 0.9731
2.1761 -5.6316 -1.8570 0.9751
2.0742 -4.3997 -1.4961 0.9798
2.1129 -4.0939 -1.4170 0.9809
2.2956 -4.0815 -1.4403 0.9806
3.3916 -5.5537 -2.0016 0.9731
5.9057 -1.1747 -2.0016 0.9749
5.9748 -0.7480 -2.0016 0.9749
6.0206 -0.1014 -2.0016 0.9749
6.0203 0.1148 -2.0016 0.9749
6.0123 0.3308 -2.0016 0.9749
5.9966 0.5464 -2.0016 0.9749
5.9731 0.7613 -2.0016 0.9749
5.8567 1.3990 -2.0016 0.9749
5.7412 1.8156 -2.0016 0.9749
5.2204 3.0009 -2.0016 0.9749
4.8676 3.5447 -2.0016 0.9749
4.4583 4.0474 -2.0016 0.9749
4.3102 4.2048 -2.0016 0.9749
3.9974 4.5032 -2.0016 0.9749
3.8332 4.6438 -2.0016 0.9749
3.3117 5.0289 -2.0016 0.9749
2.7519 5.3558 -2.0016 0.9749
2.3606 5.5394 -2.0016 0.9749
2.1603 5.6206 -2.0016 0.9749
1.9571 5.6945 -2.0016 0.9749
1.5435 5.8202 -2.0016 0.9749
0.9089 5.9525 -2.0016 0.9749
0.4795 6.0023 -2.0016 0.9749
0.0476 6.0213 -2.0016 0.9749
-0.1685 6.0191 -2.0016 0.9749
-0.5999 5.9915 -2.0016 0.9749
-1.4512 5.8439 -2.0016 0.9749
-1.6601 5.7881 -2.0016 0.9749
-1.8667 5.7248 -2.0016 0.9749
-2.0710 5.6541 -2.0016 0.9749
-2.2727 5.5761 -2.0016 0.9749
-2.4713 5.4909 -2.0016 0.9749
-2.8589 5.2995 -2.0016 0.9749
-3.2317 5.0807 -2.0016 0.9749
-3.4120 4.9614 -2.0016 0.9749
-3.9256 4.5659 -2.0016 0.9749
-4.0870 4.4220 -2.0016 0.9749
-4.3937 4.1174 -2.0016 0.9749
-4.5387 3.9570 -2.0016 0.9749
-4.8109 3.6212 -2.0016 0.9749
-5.0583 3.2668 -2.0016 0.9749
-5.7117 1.9062 -2.0016 0.9749
-5.7765 1.7000 -2.0016 0.9749
-5.8338 1.4915 -2.0016 0.9749
-5.9603 0.8558 -2.0016 0.9749
-5.9872 0.6413 -2.0016 0.9749
-6.0064 0.4259 -2.0016 0.9749
-6.0178 0.2101 -2.0016 0.9749
-6.0214 -0.0061 -2.0016 0.9749
-6.0173 -0.2222 -2.0016 0.9749
-6.0055 -0.4381 -2.0016 0.9749
-5.9586 -0.8678 -2.0016 0.9749
-5.9236 -1.0811 -2.0016 0.9749
-5.7079 -1.9177 -2.0016 0.9749
-5.0736 -2.3382 -1.8570 0.9767
-4.9864 -2.5188 -1.8570 0.9767
-4.7929 -2.8701 -1.8570 0.9767
-4.4566 -3.3687 -1.8570 0.9767
-4.3328 -3.5265 -1.8570 0.9767
-4.0686 -3.8282 -1.8570 0.9767
-3.9286 -3.9718 -1.8570 0.9767
-3.7835 -4.1102 -1.8570 0.9767
-3.6335 -4.2434 -1.8570 0.9767
-3.4788 -4.3711 -1.8570 0.9767
-2.8175 -4.8240 -1.8570 0.9767
-2.4641 -5.0137 -1.8570 0.9767
-2.2825 -5.0989 -1.8570 0.9767
-1.9109 -5.2495 -1.8570 0.9767
-1.1399 -5.4690 -1.8570 0.9767
-0.9429 -5.5064 -1.8570 0.9767
0.0555 -5.5862 -1.8570 0.9767
0.2560 -5.5806 -1.8570 0.9767
0.4561 -5.5678 -1.8570 0.9767
0.6557 -5.5479 -1.8570 0.9767
1.2483 -5.4452 -1.8570 0.9767
1.4429 -5.3969 -1.8570 0.9767
1.6357 -5.3417 -1.8570 0.9767
1.8264 -5.2795 -1.8570 0.9767
2.0147 -5.2105 -1.8570 0.9767
2.2005 -5.1349 -1.8570 0.9767
2.2886 -4.0669 -1.5512 0.9805
3.0819 -4.6595 -1.8570 0.9767
3.2472 -4.5458 -1.8570 0.9767
3.4083 -4.4263 -1.8570 0.9767
4.6085 -3.8754 -2.0016 0.9749
4.8747 -3.5348 -2.0016 0.9749
5.2264 -2.9903 -2.0016 0.9749
5.5176 -2.4111 -2.0016 0.9749
5.7448 -1.8040 -2.0016 0.9749
5.8059 -1.5967 -2.0016 0.9749
6.0206 -0.1027 -2.0016 0.9749
6.0204 0.1135 -2.0016 0.9749
6.0124 0.3295 -2.0016 0.9749
5.9967 0.5451 -2.0016 0.9749
5.9733 0.7600 -2.0016 0.9749
5.9422 0.9740 -2.0016 0.9749
5.9034 1.1866 -2.0016 0.9749
5.8030 1.6071 -2.0016 0.9749
5.6728 2.0193 -2.0016 0.9749
5.5966 2.2216 -2.0016 0.9749
5.2211 2.9997 -2.0016 0.9749
5.1100 3.1852 -2.0016 0.9749
4.7380 3.7160 -2.0016 0.9749
4.4592 4.0464 -2.0016 0.9749
4.3111 4.2038 -2.0016 0.9749
4.1574 4.3559 -2.0016 0.9749
3.1302 5.1439 -2.0016 0.9749
2.7531 5.3552 -2.0016 0.9749
2.1615 5.6201 -2.0016 0.9749
1.9584 5.6941 -2.0016 0.9749
1.5448 5.8199 -2.0016 0.9749
1.1233 5.9157 -2.0016 0.9749
0.9102 5.9523 -2.0016 0.9749
0.6960 5.9811 -2.0016 0.9749
0.4808 6.0022 -2.0016 0.9749
0.2651 6.0156 -2.0016 0.9749
0.0490 6.0212 -2.0016 0.9749
-0.3831 6.0092 -2.0016 0.9749
-0.5986 5.9916 -2.0016 0.9749
-0.8133 5.9663 -2.0016 0.9749
-1.4499 5.8443 -2.0016 0.9749
-1.6588 5.7885 -2.0016 0.9749
-2.2714 5.5766 -2.0016 0.9749
-3.5869 4.8365 -2.0016 0.9749
-3.7582 4.7047 -2.0016 0.9749
-3.9246 4.5667 -2.0016 0.9749
-4.0860 4.4229 -2.0016 0.9749
-4.3928 4.1184 -2.0016 0.9749
-4.9370 3.4473 -2.0016 0.9749
-5.0575 3.2679 -2.0016 0.9749
-5.2790 2.8966 -2.0016 0.9749
-5.3795 2.7052 -2.0016 0.9749
-5.7761 1.7013 -2.0016 0.9749
-5.8335 1.4928 -2.0016 0.9749
-6.0063 0.4273 -2.0016 0.9749
-6.0174 -0.2209 -2.0016 0.9749
-6.0056 -0.4367 -2.0016 0.9749
-5.9860 -0.6520 -2.0016 0.9749
-5.9588 -0.8665 -2.0016 0.9749
-5.8812 -1.2917 -2.0016 0.9749
-5.8311 -1.5020 -2.0016 0.9749
-5.7734 -1.7104 -2.0016 0.9749
-5.7083 -1.9165 -2.0016 0.9749
-4.7935 -2.8690 -1.8570 0.9767
-4.5753 -3.2055 -1.8570 0.9767
-4.2042 -3.6788 -1.8570 0.9767
-4.0695 -3.8273 -1.8570 0.9767
-3.3207 -4.4924 -1.8570 0.9767
-2.6436 -4.9214 -1.8570 0.9767
-2.2837 -5.0984 -1.8570 0.9767
-1.9120 -5.2491 -1.8570 0.9767
-1.7224 -5.3143 -1.8570 0.9767
-1.5305 -5.3727 -1.8570 0.9767
-1.3367 -5.4242 -1.8570 0.9767
-0.7468 -5.5439 -1.8595 0.9767
-0.5466 -5.5597 -1.8570 0.9767
-0.3467 -5.5757 -1.8570 0.9767
0.2547 -5.5807 -1.8570 0.9767
0.4549 -5.5679 -1.8570 0.9767
0.6544 -5.5480 -1.8570 0.9767
0.8532 -5.5210 -1.8570 0.9767
1.2471 -5.4455 -1.8570 0.9767
1.6345 -5.3420 -1.8570 0.9767
1.8252 -5.2799 -1.8570 0.9767
2.1993 -5.1354 -1.8570 0.9767
2.0599 -4.3694 -1.6057 0.9798
2.2874 -4.0669 -1.5510 0.9805
2.9116 -4.7677 -1.8570 0.9767
5.4896 -1.0919 -2.0016 0.9765
5.5751 -0.4955 -2.0016 0.9765
5.5522 0.7077 -2.0016 0.9765
5.5232 0.9065 -2.0016 0.9765
5.4439 1.3004 -2.0016 0.9765
5.3937 1.4950 -2.0016 0.9765
5.3366 1.6877 -2.0016 0.9765
5.2726 1.8781 -2.0016 0.9765
5.1242 2.2516 -2.0016 0.9765
4.8525 2.7894 -2.0016 0.9765
