ply
format ascii 1.0
element vertex 1592
property float32 x
property float32 y
property float32 z
property float32 I
end_header
-6.4282 4.2940 -2.0016 0.9686
-6.5782 4.0606 -2.0016 0.9686
-6.7196 3.8219 -2.0016 0.9686
-6.8524 3.5783 -2.0016 0.9686
-6.9764 3.3302 -2.0016 0.9686
-7.0914 3.0777 -2.0016 0.9686
-7.2939 2.5612 -2.0016 0.9686
-7.4588 2.0315 -2.0016 0.9686
-7.6727 0.9434 -2.0016 0.9686
-7.7016 0.6675 -2.0016 0.9686
-7.7206 0.3907 -2.0016 0.9686
-7.7297 0.1134 -2.0016 0.9686
-7.7179 -0.4412 -2.0016 0.9686
-7.6971 -0.7179 -2.0016 0.9686
-7.6258 -1.2681 -2.0016 0.9686
-7.5754 -1.5409 -2.0016 0.9686
-7.0150 -2.2343 -1.9062 0.9700
-6.7513 -2.4204 -1.8570 0.9708
-6.6601 -2.6611 -1.8570 0.9708
-6.5604 -2.8984 -1.8570 0.9708
-6.4521 -3.1319 -1.8570 0.9708
-6.3356 -3.3614 -1.8570 0.9708
-5.9377 -4.0228 -1.8570 0.9708
-5.7895 -4.2333 -1.8570 0.9708
-5.6339 -4.4383 -1.8570 0.9708
-5.4710 -4.6376 -1.8570 0.9708
-5.1243 -5.0180 -1.8570 0.9708
-4.9409 -5.1987 -1.8570 0.9708
-4.7512 -5.3726 -1.8570 0.9708
-4.2399 -6.4640 -2.0016 0.9686
-4.0053 -6.6120 -2.0016 0.9686
-3.7654 -6.7514 -2.0016 0.9686
-3.5207 -6.8822 -2.0016 0.9686
-3.0181 -7.1170 -2.0016 0.9686
-2.7608 -7.2207 -2.0016 0.9686
-2.2358 -7.4001 -2.0016 0.9686
-1.9688 -7.4756 -2.0016 0.9686
-1.6993 -7.5414 -2.0016 0.9686
-1.4276 -7.5975 -2.0016 0.9686
-1.1541 -7.6439 -2.0016 0.9686
-0.0486 -7.7303 -2.0016 0.9686
0.2288 -7.7271 -2.0016 0.9686
0.5060 -7.7139 -2.0016 0.9686
1.3320 -7.6149 -2.0016 0.9686
1.6044 -7.5622 -2.0016 0.9686
2.1426 -7.4276 -2.0016 0.9686
2.6698 -7.2548 -2.0016 0.9686
2.9284 -7.1544 -2.0016 0.9686
3.1832 -7.0447 -2.0016 0.9686
2.1096 -4.2548 -1.2296 0.9806
2.2258 -4.1115 -1.2105 0.9809
4.6150 -6.2018 -2.0016 0.9686
5.0479 -5.8548 -2.0016 0.9686
5.2548 -5.6699 -2.0016 0.9686
5.4548 -5.4777 -2.0016 0.9686
5.6479 -5.2784 -2.0016 0.9686
5.8336 -5.0724 -2.0016 0.9686
6.4993 -4.1856 -2.0016 0.9686
6.6454 -3.9497 -2.0016 0.9686
7.3358 -2.4384 -2.0016 0.9686
7.4918 -1.9060 -2.0016 0.9686
7.5554 -1.6360 -2.0016 0.9686
7.6092 -1.3638 -2.0016 0.9686
7.6875 -0.8146 -2.0016 0.9686
7.7117 -0.5382 -2.0016 0.9686
7.6486 1.1221 -2.0016 0.9686
7.6034 1.3958 -2.0016 0.9686
7.5484 1.6677 -2.0016 0.9686
7.3255 2.4693 -2.0016 0.9686
7.1296 2.9883 -2.0016 0.9686
7.0177 3.2422 -2.0016 0.9686
6.8969 3.4919 -2.0016 0.9686
6.6287 3.9776 -2.0016 0.9686
6.4817 4.2129 -2.0016 0.9686
6.3263 4.4427 -2.0016 0.9686
5.9914 4.8850 -2.0016 0.9686
5.4317 5.5006 -2.0016 0.9686
5.2309 5.6920 -2.0016 0.9686
5.0233 5.8760 -2.0016 0.9686
4.1309 6.5342 -2.0016 0.9686
-0.1072 7.0695 -2.0016 0.9710
-0.3608 7.0611 -2.0016 0.9710
-0.6140 7.0436 -2.0016 0.9710
-1.1176 6.9815 -2.0016 0.9710
-1.3673 6.9369 -2.0016 0.9710
-2.1049 6.7497 -2.0016 0.9710
-2.3457 6.6699 -2.0016 0.9710
-3.0489 6.3792 -2.0016 0.9710
-3.4986 6.1441 -2.0016 0.9710
-3.7168 6.0146 -2.0016 0.9710
-4.5390 5.4209 -2.0016 0.9710
-4.9162 5.0814 -2.0016 0.9710
-5.0953 4.9018 -2.0016 0.9710
-5.5926 4.3258 -2.0016 0.9710
-5.7442 4.1223 -2.0016 0.9710
-5.8884 3.9136 -2.0016 0.9710
-6.0251 3.6998 -2.0016 0.9710
-6.1539 3.4812 -2.0016 0.9710
-6.4924 2.7997 -2.0016 0.9710
-6.5887 2.5649 -2.0016 0.9710
-6.7557 2.0858 -2.0016 0.9710
-6.8879 1.5959 -2.0016 0.9710
-7.0195 0.8465 -2.0016 0.9710
-7.0621 0.3409 -2.0016 0.9710
-7.0578 -0.4201 -2.0016 0.9710
-6.9718 -1.1761 -2.0016 0.9710
-6.8695 -1.6731 -2.0016 0.9710
-6.2063 -2.2414 -1.8680 0.9729
-6.0857 -2.4481 -1.8570 0.9731
-5.9939 -2.6649 -1.8570 0.9731
-5.8944 -2.8782 -1.8570 0.9731
-5.7874 -3.0879 -1.8570 0.9731
-5.4220 -3.6919 -1.8570 0.9731
-4.8380 -4.4297 -1.8570 0.9731
-4.6760 -4.6004 -1.8570 0.9731
-4.3340 -4.9239 -1.8570 0.9731
-3.9697 -5.2221 -1.8570 0.9731
-3.7797 -5.3612 -1.8570 0.9731
-3.5849 -5.4933 -1.8570 0.9731
-3.3855 -5.6184 -1.8570 0.9731
-3.2054 -6.3020 -2.0016 0.9710
-2.9772 -6.4130 -2.0016 0.9710
-2.5096 -6.6100 -2.0016 0.9710
-2.2708 -6.6958 -2.0016 0.9710
-1.7847 -6.8414 -2.0016 0.9710
-1.0392 -6.9935 -2.0016 0.9710
-0.7875 -7.0263 -2.0016 0.9710
-0.5349 -7.0501 -2.0016 0.9710
0.2258 -7.0667 -2.0016 0.9710
0.4792 -7.0541 -2.0016 0.9710
0.7321 -7.0323 -2.0016 0.9710
1.2345 -6.9617 -2.0016 0.9710
1.4835 -6.9129 -2.0016 0.9710
1.9755 -6.7887 -2.0016 0.9710
2.4573 -6.6296 -2.0016 0.9710
2.0966 -4.2039 -1.3299 0.9807
3.8172 -5.9514 -2.0016 0.9710
4.2342 -5.6623 -2.0016 0.9710
4.6294 -5.3440 -2.0016 0.9710
4.8181 -5.1745 -2.0016 0.9710
5.1768 -4.8156 -2.0016 0.9710
5.8126 -4.0254 -2.0016 0.9710
6.2115 -3.3774 -2.0016 0.9710
6.3287 -3.1524 -2.0016 0.9710
6.4377 -2.9233 -2.0016 0.9710
6.5385 -2.6904 -2.0016 0.9710
6.6308 -2.4540 -2.0016 0.9710
6.7897 -1.9722 -2.0016 0.9710
7.0327 -0.7286 -2.0016 0.9710
7.0543 -0.4758 -2.0016 0.9710
7.0703 0.0314 -2.0016 0.9710
6.9002 1.5415 -2.0016 0.9710
6.7719 2.0324 -2.0016 0.9710
6.6946 2.2741 -2.0016 0.9710
6.6087 2.5128 -2.0016 0.9710
6.5143 2.7483 -2.0016 0.9710
6.0541 3.6521 -2.0016 0.9710
5.4693 4.4807 -2.0016 0.9710
5.3050 4.6740 -2.0016 0.9710
4.9561 5.0425 -2.0016 0.9710
4.3855 5.5459 -2.0016 0.9710
3.9765 5.8461 -2.0016 0.9710
3.0992 6.3549 -2.0016 0.9710
2.6354 6.5608 -2.0016 0.9710
2.3983 6.6511 -2.0016 0.9710
2.1581 6.7329 -2.0016 0.9710
1.9151 6.8060 -2.0016 0.9710
1.4221 6.9258 -2.0016 0.9710
1.1726 6.9724 -2.0016 0.9710
0.9217 7.0100 -2.0016 0.9710
0.6696 7.0386 -2.0016 0.9710
-0.3443 7.0619 -2.0016 0.9710
-0.5975 7.0450 -2.0016 0.9710
-1.1012 6.9840 -2.0016 0.9710
-1.3511 6.9400 -2.0016 0.9710
-1.5993 6.8871 -2.0016 0.9710
-1.8454 6.8253 -2.0016 0.9710
-2.0891 6.7546 -2.0016 0.9710
-2.3301 6.6753 -2.0016 0.9710
-2.5682 6.5874 -2.0016 0.9710
-2.8029 6.4910 -2.0016 0.9710
-3.0340 6.3863 -2.0016 0.9710
-3.2612 6.2733 -2.0016 0.9710
-3.4842 6.1522 -2.0016 0.9710
-4.5264 5.4315 -2.0016 0.9710
-4.9043 5.0929 -2.0016 0.9710
-5.0839 4.9137 -2.0016 0.9710
-5.5825 4.3389 -2.0016 0.9710
-5.7346 4.1358 -2.0016 0.9710
-5.8793 3.9273 -2.0016 0.9710
-6.0164 3.7138 -2.0016 0.9710
-6.1458 3.4956 -2.0016 0.9710
-6.5827 2.5803 -2.0016 0.9710
-6.6710 2.3425 -2.0016 0.9710
-6.7508 2.1016 -2.0016 0.9710
-6.8841 1.6120 -2.0016 0.9710
-6.9375 1.3639 -2.0016 0.9710
-6.9820 1.1141 -2.0016 0.9710
-7.0175 0.8629 -2.0016 0.9710
-7.0439 0.6105 -2.0016 0.9710
-7.0588 -0.4036 -2.0016 0.9710
-7.0117 -0.9088 -2.0016 0.9710
-6.9746 -1.1598 -2.0016 0.9710
-6.0914 -2.4339 -1.8570 0.9731
-6.0001 -2.6508 -1.8570 0.9731
-5.6805 -3.2803 -1.8570 0.9731
-5.5591 -3.4820 -1.8570 0.9731
-5.2951 -3.8718 -1.8570 0.9731
-5.1528 -4.0593 -1.8570 0.9731
-4.8484 -4.4184 -1.8570 0.9731
-4.1664 -5.0666 -1.8570 0.9731
-3.3986 -5.6105 -1.8570 0.9731
-2.7603 -6.5092 -2.0016 0.9710
-2.2864 -6.6904 -2.0016 0.9710
-2.0449 -6.7682 -2.0016 0.9710
-1.5542 -6.8974 -2.0016 0.9710
-1.0555 -6.9911 -2.0016 0.9710
-0.8040 -7.0245 -2.0016 0.9710
-0.5514 -7.0488 -2.0016 0.9710
-0.0444 -7.0702 -2.0016 0.9710
0.2093 -7.0672 -2.0016 0.9710
0.4628 -7.0552 -2.0016 0.9710
0.9676 -7.0038 -2.0016 0.9710
1.2182 -6.9646 -2.0016 0.9710
1.7146 -6.8593 -2.0016 0.9710
2.2021 -6.7186 -2.0016 0.9710
2.6783 -6.5434 -2.0016 0.9710
2.0958 -4.2269 -1.3356 0.9806
2.4104 -4.0943 -1.3450 0.9804
4.0147 -5.8200 -2.0016 0.9710
4.4217 -5.5170 -2.0016 0.9710
4.6169 -5.3548 -2.0016 0.9710
4.8060 -5.1857 -2.0016 0.9710
5.1656 -4.8277 -2.0016 0.9710
5.9443 -3.8281 -2.0016 0.9710
6.3213 -3.1672 -2.0016 0.9710
6.6250 -2.4695 -2.0016 0.9710
6.9594 -1.2474 -2.0016 0.9710
6.9997 -0.9968 -2.0016 0.9710
7.0532 -0.4922 -2.0016 0.9710
7.0703 0.0149 -2.0016 0.9710
7.0510 0.5219 -2.0016 0.9710
6.9955 1.0263 -2.0016 0.9710
6.9541 1.2766 -2.0016 0.9710
6.9038 1.5253 -2.0016 0.9710
6.8447 1.7721 -2.0016 0.9710
6.7767 2.0166 -2.0016 0.9710
6.6146 2.4974 -2.0016 0.9710
6.5207 2.7331 -2.0016 0.9710
6.1892 3.4180 -2.0016 0.9710
5.6366 4.2684 -2.0016 0.9710
5.4798 4.4679 -2.0016 0.9710
4.3985 5.5356 -2.0016 0.9710
4.1970 5.6899 -2.0016 0.9710
3.9902 5.8368 -2.0016 0.9710
3.7781 5.9762 -2.0016 0.9710
0.1348 6.5061 -2.0016 0.9731
-0.3321 6.4990 -2.0016 0.9731
-0.5651 6.4829 -2.0016 0.9731
-0.7974 6.4584 -2.0016 0.9731
-1.0286 6.4257 -2.0016 0.9731
-1.4868 6.3354 -2.0016 0.9731
-3.4209 5.5358 -2.0016 0.9731
-3.6173 5.4094 -2.0016 0.9731
-3.8091 5.2762 -2.0016 0.9731
-4.3541 4.8363 -2.0016 0.9731
-4.5248 4.6769 -2.0016 0.9731
-4.6897 4.5115 -2.0016 0.9731
-5.0012 4.1636 -2.0016 0.9731
-5.2869 3.7942 -2.0016 0.9731
-5.4197 3.6020 -2.0016 0.9731
-5.5454 3.4052 -2.0016 0.9731
-5.7754 2.9987 -2.0016 0.9731
-5.8792 2.7896 -2.0016 0.9731
-5.9756 2.5768 -2.0016 0.9731
-6.0642 2.3607 -2.0016 0.9731
-6.1450 2.1416 -2.0016 0.9731
-6.2827 1.6954 -2.0016 0.9731
-6.3395 1.4689 -2.0016 0.9731
-6.3882 1.2404 -2.0016 0.9731
-6.4285 1.0104 -2.0016 0.9731
-6.4607 0.7791 -2.0016 0.9731
-6.4845 0.5468 -2.0016 0.9731
-6.5057 -0.1533 -2.0016 0.9731
-6.4779 -0.6195 -2.0016 0.9731
-6.4168 -1.0825 -2.0016 0.9731
-6.3738 -1.3120 -2.0016 0.9731
-5.6012 -2.2532 -1.8570 0.9751
-5.3266 -2.8421 -1.8570 0.9751
-5.2212 -3.0314 -1.8570 0.9751
-5.1091 -3.2168 -1.8570 0.9751
-4.9904 -3.3980 -1.8570 0.9751
-4.7338 -3.7472 -1.8570 0.9751
-4.5963 -3.9146 -1.8570 0.9751
-4.4529 -4.0770 -1.8570 0.9751
-4.3037 -4.2342 -1.8570 0.9751
-4.1490 -4.3859 -1.8570 0.9751
-3.9890 -4.5320 -1.8570 0.9751
-3.2995 -5.0560 -1.8570 0.9751
-3.1160 -5.1712 -1.8570 0.9751
-2.9284 -5.2797 -1.8570 0.9751
-2.7371 -5.3813 -1.8570 0.9751
-2.5422 -5.4761 -1.8570 0.9751
-2.3441 -5.5638 -1.8570 0.9751
-2.0900 -6.1627 -2.0016 0.9731
-1.8675 -6.2338 -2.0016 0.9731
-1.6426 -6.2967 -2.0016 0.9731
-1.4156 -6.3516 -2.0016 0.9731
-1.1868 -6.3983 -2.0016 0.9731
-0.9564 -6.4368 -2.0016 0.9731
0.2078 -6.5042 -2.0016 0.9731
0.4411 -6.4925 -2.0016 0.9731
0.9056 -6.4442 -2.0016 0.9731
1.3654 -6.3626 -2.0016 0.9731
1.5929 -6.3095 -2.0016 0.9731
1.8182 -6.2483 -2.0016 0.9731
2.0413 -6.1790 -2.0016 0.9731
2.2617 -6.1018 -2.0016 0.9731
2.0828 -4.1762 -1.4354 0.9807
2.2225 -4.0827 -1.4298 0.9807
4.2608 -4.9186 -2.0016 0.9731
4.4346 -4.7625 -2.0016 0.9731
4.9207 -4.2584 -2.0016 0.9731
5.0703 -4.0791 -2.0016 0.9731
5.2134 -3.8945 -2.0016 0.9731
5.3498 -3.7049 -2.0016 0.9731
6.0179 -2.4762 -2.0016 0.9731
6.1029 -2.2587 -2.0016 0.9731
6.4081 -1.1331 -2.0016 0.9731
6.4728 -0.6706 -2.0016 0.9731
6.4927 -0.4379 -2.0016 0.9731
6.5043 -0.2046 -2.0016 0.9731
6.5022 0.2624 -2.0016 0.9731
6.4886 0.4955 -2.0016 0.9731
6.3978 1.1900 -2.0016 0.9731
6.3509 1.4188 -2.0016 0.9731
6.2959 1.6457 -2.0016 0.9731
6.2328 1.8706 -2.0016 0.9731
6.1617 2.0930 -2.0016 0.9731
5.9957 2.5296 -2.0016 0.9731
5.7989 2.9531 -2.0016 0.9731
5.5721 3.3613 -2.0016 0.9731
5.4479 3.5591 -2.0016 0.9731
5.3167 3.7523 -2.0016 0.9731
4.8827 4.3019 -2.0016 0.9731
4.3921 4.8017 -2.0016 0.9731
4.2170 4.9562 -2.0016 0.9731
3.8507 5.2459 -2.0016 0.9731
3.6599 5.3807 -2.0016 0.9731
3.2646 5.6294 -2.0016 0.9731
2.8525 5.8490 -2.0016 0.9731
2.6408 5.9476 -2.0016 0.9731
1.9863 6.1969 -2.0016 0.9731
1.7627 6.2642 -2.0016 0.9731
1.3089 6.3745 -2.0016 0.9731
1.0793 6.4174 -2.0016 0.9731
0.8483 6.4519 -2.0016 0.9731
0.3834 6.4962 -2.0016 0.9731
0.1500 6.5057 -2.0016 0.9731
-0.5499 6.4842 -2.0016 0.9731
-1.0136 6.4281 -2.0016 0.9731
-1.2436 6.3876 -2.0016 0.9731
-1.4720 6.3388 -2.0016 0.9731
-2.1446 6.1439 -2.0016 0.9731
-2.3637 6.0630 -2.0016 0.9731
-3.0016 5.7739 -2.0016 0.9731
-3.2068 5.6625 -2.0016 0.9731
-3.7968 5.2851 -2.0016 0.9731
-4.1660 4.9991 -2.0016 0.9731
-4.3427 4.8464 -2.0016 0.9731
-4.8384 4.3517 -2.0016 0.9731
-4.9915 4.1753 -2.0016 0.9731
-5.1381 3.9935 -2.0016 0.9731
-5.2780 3.8065 -2.0016 0.9731
-5.7683 3.0122 -2.0016 0.9731
-5.9695 2.5908 -2.0016 0.9731
-6.0586 2.3749 -2.0016 0.9731
-6.3852 1.2553 -2.0016 0.9731
-6.4832 0.5619 -2.0016 0.9731
-6.4992 0.3289 -2.0016 0.9731
-6.5068 0.0955 -2.0016 0.9731
-6.5060 -0.1381 -2.0016 0.9731
-6.4969 -0.3714 -2.0016 0.9731
-6.4794 -0.6043 -2.0016 0.9731
-6.4535 -0.8364 -2.0016 0.9731
-6.4193 -1.0675 -2.0016 0.9731
-6.3769 -1.2971 -2.0016 0.9731
-6.3262 -1.5251 -2.0016 0.9731
-5.2283 -3.0192 -1.8570 0.9751
-4.9983 -3.3864 -1.8570 0.9751
-4.6054 -3.9039 -1.8570 0.9751
-4.1592 -4.3762 -1.8570 0.9751
-3.9995 -4.5226 -1.8570 0.9751
-3.6649 -4.7978 -1.8570 0.9751
-2.5550 -5.4701 -1.8570 0.9751
-2.1044 -6.1578 -2.0016 0.9731
-1.6573 -6.2929 -2.0016 0.9731
-1.4305 -6.3483 -2.0016 0.9731
-0.9715 -6.4346 -2.0016 0.9731
-0.2744 -6.5017 -2.0016 0.9731
0.1926 -6.5046 -2.0016 0.9731
0.8905 -6.4463 -2.0016 0.9731
1.3506 -6.3658 -2.0016 0.9731
2.2474 -6.1071 -2.0016 0.9731
2.4861 -5.5018 -1.8570 0.9751
2.2103 -4.0829 -1.4280 0.9808
3.5005 -5.4858 -2.0016 0.9731
3.8849 -5.2206 -2.0016 0.9731
4.4234 -4.7729 -2.0016 0.9731
4.9107 -4.2699 -2.0016 0.9731
5.2043 -3.9067 -2.0016 0.9731
5.7097 -3.1219 -2.0016 0.9731
6.0121 -2.4903 -2.0016 0.9731
6.3066 -1.6045 -2.0016 0.9731
6.3601 -1.3772 -2.0016 0.9731
6.4054 -1.1481 -2.0016 0.9731
6.4425 -0.9175 -2.0016 0.9731
6.5038 -0.2198 -2.0016 0.9731
6.4897 0.4804 -2.0016 0.9731
6.4683 0.7129 -2.0016 0.9731
6.4386 0.9446 -2.0016 0.9731
6.4005 1.1750 -2.0016 0.9731
6.2998 1.6310 -2.0016 0.9731
6.1666 2.0786 -2.0016 0.9731
6.0880 2.2986 -2.0016 0.9731
6.0016 2.5155 -2.0016 0.9731
5.8057 2.9395 -2.0016 0.9731
5.6965 3.1459 -2.0016 0.9731
5.5800 3.3483 -2.0016 0.9731
5.3255 3.7399 -2.0016 0.9731
5.0435 4.1122 -2.0016 0.9731
4.8927 4.2905 -2.0016 0.9731
4.7356 4.4633 -2.0016 0.9731
4.5724 4.6304 -2.0016 0.9731
4.4033 4.7915 -2.0016 0.9731
4.2285 4.9464 -2.0016 0.9731
3.8629 5.2369 -2.0016 0.9731
3.4774 5.5005 -2.0016 0.9731
-0.3073 6.0136 -2.0016 0.9749
-0.5229 5.9987 -2.0016 0.9749
-0.7378 5.9761 -2.0016 0.9749
-1.9977 5.6804 -2.0016 0.9749
-2.2003 5.6050 -2.0016 0.9749
-3.1654 5.1223 -2.0016 0.9749
-3.5246 4.8821 -2.0016 0.9749
-3.8657 4.6167 -2.0016 0.9749
-4.0289 4.4750 -2.0016 0.9749
-4.3394 4.1746 -2.0016 0.9749
-4.4864 4.0162 -2.0016 0.9749
-4.7629 3.6841 -2.0016 0.9749
-4.8920 3.5108 -2.0016 0.9749
-5.4401 2.5812 -2.0016 0.9749
-5.6112 2.1844 -2.0016 0.9749
-5.6860 1.9817 -2.0016 0.9749
-5.8135 1.5688 -2.0016 0.9749
-5.8660 1.3592 -2.0016 0.9749
-5.9484 0.9349 -2.0016 0.9749
-5.9781 0.7209 -2.0016 0.9749
-6.0002 0.5059 -2.0016 0.9749
-6.0144 0.2903 -2.0016 0.9749
-6.0210 0.0743 -2.0016 0.9749
-6.0198 -0.1418 -2.0016 0.9749
-5.9376 -1.0016 -2.0016 0.9749
-5.8504 -1.4249 -2.0016 0.9749
-5.7955 -1.6339 -2.0016 0.9749
-5.7332 -1.8408 -2.0016 0.9749
-5.1047 -2.2695 -1.8570 0.9767
-4.7275 -2.9765 -1.8570 0.9767
-4.3803 -3.4673 -1.8570 0.9767
-4.2530 -3.6223 -1.8570 0.9767
-4.1203 -3.7725 -1.8570 0.9767
-3.5382 -4.3232 -1.8570 0.9767
-3.3808 -4.4474 -1.8570 0.9767
-3.2190 -4.5658 -1.8570 0.9767
-3.0531 -4.6784 -1.8570 0.9767
-2.8833 -4.7849 -1.8570 0.9767
-2.7097 -4.8853 -1.8570 0.9767
-2.5327 -4.9794 -1.8570 0.9767
-1.7942 -5.2905 -1.8570 0.9767
-1.6032 -5.3515 -1.8570 0.9767
-1.0188 -5.4928 -1.8570 0.9767
-0.8211 -5.5258 -1.8570 0.9767
-0.4227 -5.5705 -1.8570 0.9767
0.1784 -5.5836 -1.8570 0.9767
0.3787 -5.5736 -1.8570 0.9767
0.9754 -5.5007 -1.8570 0.9767
1.7524 -5.3045 -1.8570 0.9767
2.2147 -4.0682 -1.5397 0.9807
2.4058 -4.0647 -1.5701 0.9803
3.1829 -4.5911 -1.8570 0.9767
3.7767 -4.6898 -2.0016 0.9749
3.9426 -4.5512 -2.0016 0.9749
4.1034 -4.4068 -2.0016 0.9749
4.4089 -4.1012 -2.0016 0.9749
4.5532 -3.9403 -2.0016 0.9749
4.6916 -3.7744 -2.0016 0.9749
4.8241 -3.6036 -2.0016 0.9749
5.0701 -3.2484 -2.0016 0.9749
5.1834 -3.0644 -2.0016 0.9749
5.2900 -2.8764 -2.0016 0.9749
5.3898 -2.6847 -2.0016 0.9749
5.7185 -1.8860 -2.0016 0.9749
5.8390 -1.4710 -2.0016 0.9749
5.8880 -1.2605 -2.0016 0.9749
5.9633 -0.8350 -2.0016 0.9749
5.9894 -0.6205 -2.0016 0.9749
6.0214 0.0267 -2.0016 0.9749
6.0165 0.2428 -2.0016 0.9749
5.9836 0.6737 -2.0016 0.9749
5.8766 1.3128 -2.0016 0.9749
5.8257 1.5228 -2.0016 0.9749
5.7673 1.7309 -2.0016 0.9749
5.7015 1.9367 -2.0016 0.9749
5.5479 2.3406 -2.0016 0.9749
5.4603 2.5382 -2.0016 0.9749
5.3657 2.7325 -2.0016 0.9749
5.2642 2.9233 -2.0016 0.9749
5.0410 3.2933 -2.0016 0.9749
4.9196 3.4721 -2.0016 0.9749
4.7919 3.6464 -2.0016 0.9749
4.6579 3.8159 -2.0016 0.9749
4.5180 3.9806 -2.0016 0.9749
4.3723 4.1402 -2.0016 0.9749
4.0641 4.4431 -2.0016 0.9749
3.9020 4.5861 -2.0016 0.9749
3.7349 4.7231 -2.0016 0.9749
2.4435 5.5034 -2.0016 0.9749
2.2445 5.5875 -2.0016 0.9749
1.4220 5.8511 -2.0016 0.9749
0.9987 5.9380 -2.0016 0.9749
0.5702 5.9944 -2.0016 0.9749
0.1389 6.0198 -2.0016 0.9749
-0.0773 6.0209 -2.0016 0.9749
-0.2932 6.0143 -2.0016 0.9749
-0.7238 5.9778 -2.0016 0.9749
-1.1507 5.9105 -2.0016 0.9749
-1.5716 5.8127 -2.0016 0.9749
-1.9845 5.6850 -2.0016 0.9749
-2.1872 5.6102 -2.0016 0.9749
-4.0184 4.4844 -2.0016 0.9749
-4.4770 4.0267 -2.0016 0.9749
-4.6186 3.8634 -2.0016 0.9749
-4.7543 3.6952 -2.0016 0.9749
-4.8838 3.5222 -2.0016 0.9749
-5.3375 2.7873 -2.0016 0.9749
-5.4341 2.5939 -2.0016 0.9749
-5.6061 2.1975 -2.0016 0.9749
-5.7493 1.7898 -2.0016 0.9749
-5.9764 0.7349 -2.0016 0.9749
-5.9989 0.5199 -2.0016 0.9749
-5.9006 -1.2002 -2.0016 0.9749
-5.8537 -1.4112 -2.0016 0.9749
-5.7993 -1.6203 -2.0016 0.9749
-5.7375 -1.8274 -2.0016 0.9749
-5.6682 -2.0321 -2.0016 0.9749
-5.5540 -2.2191 -1.9881 0.9751
-5.1100 -2.2576 -1.8570 0.9767
-5.0257 -2.4395 -1.8570 0.9767
-4.9349 -2.6183 -1.8570 0.9767
-4.8378 -2.7937 -1.8570 0.9767
-4.3883 -3.4571 -1.8570 0.9767
-4.2615 -3.6123 -1.8570 0.9767
-4.1291 -3.7629 -1.8570 0.9767
-3.9914 -3.9086 -1.8570 0.9767
-3.7008 -4.1848 -1.8570 0.9767
-3.5483 -4.3149 -1.8570 0.9767
-3.3912 -4.4395 -1.8570 0.9767
-3.2297 -4.5583 -1.8570 0.9767
-2.8944 -4.7782 -1.8570 0.9767
-1.9951 -5.2181 -1.8570 0.9767
-1.6157 -5.3477 -1.8570 0.9767
-1.0317 -5.4904 -1.8570 0.9767
-0.6352 -5.5503 -1.8570 0.9767
-0.2355 -5.5815 -1.8570 0.9767
0.1654 -5.5840 -1.8570 0.9767
0.3656 -5.5745 -1.8570 0.9767
0.7658 -5.5433 -1.8601 0.9767
1.1594 -5.4649 -1.8570 0.9767
1.5484 -5.3676 -1.8570 0.9767
1.7400 -5.3086 -1.8570 0.9767
2.1162 -5.1701 -1.8570 0.9767
2.0681 -4.1711 -1.5476 0.9806
2.3931 -4.0650 -1.5680 0.9803
3.0051 -4.7094 -1.8570 0.9767
3.1721 -4.5985 -1.8570 0.9767
3.9319 -4.5604 -2.0016 0.9749
4.5440 -3.9510 -2.0016 0.9749
4.6828 -3.7854 -2.0016 0.9749
4.8156 -3.6149 -2.0016 0.9749
4.9422 -3.4398 -2.0016 0.9749
5.2833 -2.8888 -2.0016 0.9749
5.4768 -2.5024 -2.0016 0.9749
5.5631 -2.3043 -2.0016 0.9749
5.7140 -1.8994 -2.0016 0.9749
5.8355 -1.4846 -2.0016 0.9749
5.9270 -1.0623 -2.0016 0.9749
5.9613 -0.8489 -2.0016 0.9749
6.0068 -0.4192 -2.0016 0.9749
6.0180 -0.2034 -2.0016 0.9749
6.0214 0.0127 -2.0016 0.9749
6.0171 0.2287 -2.0016 0.9749
6.0050 0.4445 -2.0016 0.9749
5.9225 1.0872 -2.0016 0.9749
5.8292 1.5092 -2.0016 0.9749
5.7713 1.7174 -2.0016 0.9749
5.4663 2.5254 -2.0016 0.9749
5.3721 2.7199 -2.0016 0.9749
5.2711 2.9110 -2.0016 0.9749
5.1632 3.0982 -2.0016 0.9749
5.0487 3.2815 -2.0016 0.9749
4.9277 3.4606 -2.0016 0.9749
4.8004 3.6351 -2.0016 0.9749
4.5273 3.9701 -2.0016 0.9749
4.3819 4.1300 -2.0016 0.9749
4.0744 4.4336 -2.0016 0.9749
3.9127 4.5769 -2.0016 0.9749
3.5744 4.8458 -2.0016 0.9749
3.3982 4.9709 -2.0016 0.9749
3.2176 5.0896 -2.0016 0.9749
0.1160 5.5959 -2.0016 0.9765
-0.6858 5.5549 -2.0016 0.9765
-1.0824 5.4914 -2.0016 0.9765
-1.2788 5.4490 -2.0016 0.9765
-1.6663 5.3433 -2.0016 0.9765
-1.8569 5.2801 -2.0016 0.9765
-2.2309 5.1333 -2.0016 0.9765
-2.4136 5.0499 -2.0016 0.9765
-2.5933 4.9601 -2.0016 0.9765
-2.9423 4.7613 -2.0016 0.9765
-3.1113 4.6527 -2.0016 0.9765
-3.2762 4.5380 -2.0016 0.9765
-3.4370 4.4176 -2.0016 0.9765
-3.5933 4.2914 -2.0016 0.9765
-3.7449 4.1597 -2.0016 0.9765
-3.8918 4.0226 -2.0016 0.9765
-4.0336 3.8804 -2.0016 0.9765
-4.1703 3.7331 -2.0016 0.9765
-4.3015 3.5811 -2.0016 0.9765
-4.4273 3.4244 -2.0016 0.9765
-4.5473 3.2634 -2.0016 0.9765
-4.7696 2.9288 -2.0016 0.9765
-4.8716 2.7558 -2.0016 0.9765
-4.9674 2.5792 -2.0016 0.9765
-5.2158 2.0305 -2.0016 0.9765
-5.2853 1.8420 -2.0016 0.9765
-5.3480 1.6512 -2.0016 0.9765
-5.4038 1.4582 -2.0016 0.9765
-5.4527 1.2634 -2.0016 0.9765
-5.5292 0.8690 -2.0016 0.9765
-5.5568 0.6701 -2.0016 0.9765
-5.5773 0.4703 -2.0016 0.9765
-5.5906 0.2698 -2.0016 0.9765
-5.5967 0.0690 -2.0016 0.9765
-5.5955 -0.1318 -2.0016 0.9765
-5.5872 -0.3325 -2.0016 0.9765
-5.5717 -0.5328 -2.0016 0.9765
-5.5490 -0.7324 -2.0016 0.9765
-5.3871 -1.5187 -2.0016 0.9765
-5.2643 -1.9012 -2.0016 0.9765
-4.6662 -2.2785 -1.8570 0.9782
-4.4908 -2.6073 -1.8570 0.9782
-4.3943 -2.7668 -1.8570 0.9782
-4.2922 -2.9227 -1.8570 0.9782
-4.0716 -3.2230 -1.8570 0.9782
-3.9533 -3.3670 -1.8570 0.9782
-3.8299 -3.5067 -1.8570 0.9782
-3.5686 -3.7723 -1.8570 0.9782
-3.4309 -3.8979 -1.8570 0.9782
-3.2888 -4.0185 -1.8570 0.9782
-2.9922 -4.2441 -1.8570 0.9782
-2.8379 -4.3487 -1.8570 0.9782
-2.6801 -4.4477 -1.8570 0.9782
-2.5187 -4.5410 -1.8570 0.9782
-2.3542 -4.6285 -1.8570 0.9782
-2.0162 -4.7854 -1.8570 0.9782
-1.4902 -4.9744 -1.8570 0.9782
-1.3108 -5.0246 -1.8570 0.9782
-1.1296 -5.0684 -1.8570 0.9782
-0.9470 -5.1057 -1.8570 0.9782
-0.5784 -5.1605 -1.8570 0.9782
-0.0205 -5.1928 -1.8570 0.9782
0.5377 -5.1649 -1.8570 0.9782
0.9067 -5.1130 -1.8570 0.9782
1.0896 -5.0772 -1.8570 0.9782
1.4509 -4.9860 -1.8570 0.9782
1.6289 -4.9307 -1.8570 0.9782
1.9783 -4.8012 -1.8570 0.9782
2.0555 -4.1214 -1.6470 0.9806
2.8035 -4.3710 -1.8570 0.9782
3.2570 -4.0444 -1.8570 0.9782
3.8142 -4.0963 -2.0016 0.9765
3.9587 -3.9568 -2.0016 0.9765
4.0981 -3.8122 -2.0016 0.9765
4.3610 -3.5084 -2.0016 0.9765
4.4841 -3.3497 -2.0016 0.9765
4.7128 -3.0195 -2.0016 0.9765
4.8181 -2.8484 -2.0016 0.9765
4.9172 -2.6737 -2.0016 0.9765
5.1760 -2.1298 -2.0016 0.9765
5.3749 -1.5612 -2.0016 0.9765
5.4275 -1.3673 -2.0016 0.9765
5.5116 -0.9746 -2.0016 0.9765
5.5844 -0.3766 -2.0016 0.9765
5.5943 -0.1760 -2.0016 0.9765
5.5808 0.4262 -2.0016 0.9765
5.5620 0.6262 -2.0016 0.9765
5.5027 1.0235 -2.0016 0.9765
5.4625 1.2203 -2.0016 0.9765
5.4152 1.4155 -2.0016 0.9765
5.3609 1.6089 -2.0016 0.9765
5.2317 1.9892 -2.0016 0.9765
4.7926 2.8911 -2.0016 0.9765
4.1996 3.7001 -2.0016 0.9765
4.0641 3.8484 -2.0016 0.9765
3.7777 4.1300 -2.0016 0.9765
3.4717 4.3903 -2.0016 0.9765
3.3120 4.5120 -2.0016 0.9765
3.1479 4.6280 -2.0016 0.9765
2.9798 4.7379 -2.0016 0.9765
2.8079 4.8418 -2.0016 0.9765
2.6323 4.9395 -2.0016 0.9765
2.2713 5.1155 -2.0016 0.9765
1.7084 5.3300 -2.0016 0.9765
1.5161 5.3879 -2.0016 0.9765
1.3218 5.4388 -2.0016 0.9765
1.1258 5.4827 -2.0016 0.9765
0.7296 5.5493 -2.0016 0.9765
-0.6728 5.5565 -2.0016 0.9765
-0.8718 5.5288 -2.0016 0.9765
-1.0696 5.4939 -2.0016 0.9765
-1.2661 5.4520 -2.0016 0.9765
-1.4609 5.4031 -2.0016 0.9765
-1.6538 5.3472 -2.0016 0.9765
-1.8446 5.2844 -2.0016 0.9765
-2.0330 5.2148 -2.0016 0.9765
-2.2189 5.1385 -2.0016 0.9765
-2.4018 5.0556 -2.0016 0.9765
-2.5817 4.9661 -2.0016 0.9765
-2.7582 4.8703 -2.0016 0.9765
-3.1004 4.6599 -2.0016 0.9765
-3.2656 4.5457 -2.0016 0.9765
-3.4266 4.4256 -2.0016 0.9765
-3.5832 4.2998 -2.0016 0.9765
-3.8824 4.0317 -2.0016 0.9765
-4.0245 3.8898 -2.0016 0.9765
-4.1615 3.7429 -2.0016 0.9765
-4.4192 3.4348 -2.0016 0.9765
-4.5397 3.2740 -2.0016 0.9765
-4.7628 2.9400 -2.0016 0.9765
-4.8652 2.7672 -2.0016 0.9765
-5.0511 2.4111 -2.0016 0.9765
-5.2810 1.8544 -2.0016 0.9765
-5.5272 0.8820 -2.0016 0.9765
-5.5762 0.4833 -2.0016 0.9765
-5.5899 0.2829 -2.0016 0.9765
-5.5965 0.0821 -2.0016 0.9765
-5.5729 -0.5198 -2.0016 0.9765
-5.5507 -0.7194 -2.0016 0.9765
-5.5213 -0.9181 -2.0016 0.9765
-5.4412 -1.3117 -2.0016 0.9765
-5.3906 -1.5061 -2.0016 0.9765
-5.3331 -1.6986 -2.0016 0.9765
-5.1976 -2.0767 -2.0016 0.9765
-5.0317 -2.2230 -1.9672 0.9769
-4.6715 -2.2676 -1.8570 0.9782
-4.5871 -2.4338 -1.8570 0.9782
-4.2990 -2.9126 -1.8570 0.9782
-4.1918 -3.0650 -1.8570 0.9782
-3.9612 -3.3577 -1.8570 0.9782
-3.8381 -3.4977 -1.8570 0.9782
-3.5774 -3.7640 -1.8570 0.9782
-3.4400 -3.8899 -1.8570 0.9782
-3.1522 -4.1266 -1.8570 0.9782
-3.0021 -4.2371 -1.8570 0.9782
-2.8481 -4.3421 -1.8570 0.9782
-2.6904 -4.4415 -1.8570 0.9782
-2.5293 -4.5351 -1.8570 0.9782
-2.1976 -4.7049 -1.8570 0.9782
-1.6792 -4.9138 -1.8570 0.9782
-1.5019 -4.9709 -1.8570 0.9782
-0.9590 -5.1035 -1.8570 0.9782
-0.4050 -5.1770 -1.8570 0.9782
-0.2189 -5.1882 -1.8570 0.9782
-0.0326 -5.1927 -1.8570 0.9782
0.5256 -5.1661 -1.8570 0.9782
1.0777 -5.0797 -1.8570 0.9782
1.6174 -4.9345 -1.8570 0.9782
1.7934 -4.8733 -1.8570 0.9782
2.0005 -4.4272 -1.7373 0.9796
2.0542 -4.1431 -1.6537 0.9805
2.3820 -4.0461 -1.6790 0.9803
2.7933 -4.3775 -1.8570 0.9782
3.3908 -3.9328 -1.8570 0.9782
3.9495 -3.9660 -2.0016 0.9765
4.4762 -3.3602 -2.0016 0.9765
4.8114 -2.8597 -2.0016 0.9765
4.9109 -2.6852 -2.0016 0.9765
5.0041 -2.5072 -2.0016 0.9765
5.0909 -2.3260 -2.0016 0.9765
5.2446 -1.9549 -2.0016 0.9765
5.4243 -1.3800 -2.0016 0.9765
5.5835 -0.3897 -2.0016 0.9765
5.5939 -0.1891 -2.0016 0.9765
5.5818 0.4132 -2.0016 0.9765
5.4653 1.2075 -2.0016 0.9765
5.4184 1.4028 -2.0016 0.9765
5.3646 1.5964 -2.0016 0.9765
5.3039 1.7878 -2.0016 0.9765
5.2363 1.9770 -2.0016 0.9765
5.1620 2.1636 -2.0016 0.9765
4.9935 2.5283 -2.0016 0.9765
4.7993 2.8799 -2.0016 0.9765
4.4621 3.3790 -2.0016 0.9765
4.2082 3.6903 -2.0016 0.9765
4.0731 3.8389 -2.0016 0.9765
3.1587 4.6206 -2.0016 0.9765
0.1082 5.2219 -2.0016 0.9779
-0.0792 5.2224 -2.0016 0.9779
-0.2666 5.2162 -2.0016 0.9779
-0.4536 5.2033 -2.0016 0.9779
-0.6400 5.1837 -2.0016 0.9779
-0.8256 5.1574 -2.0016 0.9779
-1.0101 5.1244 -2.0016 0.9779
-1.1933 5.0849 -2.0016 0.9779
-1.3750 5.0388 -2.0016 0.9779
-1.7329 4.9272 -2.0016 0.9779
-2.0818 4.7902 -2.0016 0.9779
-2.2523 4.7124 -2.0016 0.9779
-2.5845 4.5388 -2.0016 0.9779
-2.7457 4.4431 -2.0016 0.9779
-2.9034 4.3417 -2.0016 0.9779
-3.0573 4.2348 -2.0016 0.9779
-3.3531 4.0046 -2.0016 0.9779
-3.4947 3.8817 -2.0016 0.9779
-3.7640 3.6211 -2.0016 0.9779
-4.0141 3.3418 -2.0016 0.9779
-4.1314 3.1956 -2.0016 0.9779
-4.2434 3.0453 -2.0016 0.9779
-4.3499 2.8911 -2.0016 0.9779
-4.9321 1.7189 -2.0016 0.9779
-4.9906 1.5408 -2.0016 0.9779
-5.0882 1.1789 -2.0016 0.9779
-5.1597 0.8110 -2.0016 0.9779
-5.1855 0.6253 -2.0016 0.9779
-5.2170 0.2518 -2.0016 0.9779
-5.2226 0.0644 -2.0016 0.9779
-5.1781 -0.6834 -2.0016 0.9779
-5.1503 -0.8688 -2.0016 0.9779
-5.1158 -1.0530 -2.0016 0.9779
-5.0747 -1.2359 -2.0016 0.9779
-5.0271 -1.4172 -2.0016 0.9779
-4.9730 -1.5967 -2.0016 0.9779
-4.8457 -1.9493 -2.0016 0.9779
-4.1907 -2.4330 -1.8570 0.9795
-3.7995 -3.0076 -1.8570 0.9795
-3.6891 -3.1420 -1.8570 0.9795
-3.2016 -3.6374 -1.8570 0.9795
-2.9325 -3.8577 -1.8570 0.9795
-2.6483 -4.0581 -1.8570 0.9795
-2.5010 -4.1505 -1.8570 0.9795
-2.3504 -4.2376 -1.8570 0.9795
-2.1968 -4.3192 -1.8570 0.9795
-1.5563 -4.5890 -1.8570 0.9795
-1.3906 -4.6419 -1.8570 0.9795
-1.2232 -4.6888 -1.8570 0.9795
-1.0541 -4.7297 -1.8570 0.9795
-0.8837 -4.7645 -1.8570 0.9795
-0.7122 -4.7931 -1.8570 0.9795
-0.5398 -4.8156 -1.8570 0.9795
-0.1930 -4.8419 -1.8570 0.9795
-0.0191 -4.8457 -1.8570 0.9795
0.8461 -4.7713 -1.8570 0.9795
1.0168 -4.7379 -1.8570 0.9795
1.1861 -4.6983 -1.8570 0.9795
1.3539 -4.6528 -1.8570 0.9795
2.0112 -4.0325 -1.7269 0.9809
2.1776 -4.0002 -1.7454 0.9807
2.3678 -4.0007 -1.7815 0.9803
2.6162 -4.0789 -1.8570 0.9795
2.7608 -3.9824 -1.8570 0.9795
2.9020 -3.8807 -1.8570 0.9795
3.0393 -3.7741 -1.8570 0.9795
3.1728 -3.6626 -1.8570 0.9795
3.3022 -3.5464 -1.8570 0.9795
3.4273 -3.4256 -1.8570 0.9795
3.8243 -3.5574 -2.0016 0.9779
3.9495 -3.4179 -2.0016 0.9779
4.1844 -3.1258 -2.0016 0.9779
4.3978 -2.8177 -2.0016 0.9779
4.8301 -1.9875 -2.0016 0.9779
5.0157 -1.4569 -2.0016 0.9779
5.0648 -1.2760 -2.0016 0.9779
5.1433 -0.9094 -2.0016 0.9779
5.2112 -0.3515 -2.0016 0.9779
5.2205 -0.1642 -2.0016 0.9779
5.2188 0.2106 -2.0016 0.9779
5.0974 1.1387 -2.0016 0.9779
5.0533 1.3209 -2.0016 0.9779
5.0026 1.5014 -2.0016 0.9779
4.7363 2.2016 -2.0016 0.9779
4.5662 2.5357 -2.0016 0.9779
4.4723 2.6979 -2.0016 0.9779
4.2673 3.0117 -2.0016 0.9779
4.1565 3.1629 -2.0016 0.9779
3.9189 3.4528 -2.0016 0.9779
3.6612 3.7250 -2.0016 0.9779
3.2397 4.0969 -2.0016 0.9779
2.6202 4.5182 -2.0016 0.9779
2.4564 4.6093 -2.0016 0.9779
1.7717 4.9134 -2.0016 0.9779
1.5943 4.9738 -2.0016 0.9779
1.4148 5.0278 -2.0016 0.9779
0.3077 5.2140 -2.0016 0.9779
0.1204 5.2216 -2.0016 0.9779
-0.0670 5.2226 -2.0016 0.9779
-0.2544 5.2168 -2.0016 0.9779
-0.4414 5.2044 -2.0016 0.9779
-0.6279 5.1852 -2.0016 0.9779
-0.8135 5.1593 -2.0016 0.9779
-0.9981 5.1268 -2.0016 0.9779
-1.5433 4.9898 -2.0016 0.9779
-1.7213 4.9312 -2.0016 0.9779
-2.2413 4.7177 -2.0016 0.9779
-2.4091 4.6342 -2.0016 0.9779
-2.7353 4.4495 -2.0016 0.9779
-2.8932 4.3485 -2.0016 0.9779
-3.1976 4.1298 -2.0016 0.9779
-3.6229 3.7623 -2.0016 0.9779
-3.7556 3.6298 -2.0016 0.9779
-4.0062 3.3511 -2.0016 0.9779
-4.3432 2.9012 -2.0016 0.9779
-4.4445 2.7435 -2.0016 0.9779
-4.5400 2.5823 -2.0016 0.9779
-4.7136 2.2500 -2.0016 0.9779
-4.7912 2.0794 -2.0016 0.9779
-4.9281 1.7304 -2.0016 0.9779
-4.9870 1.5525 -2.0016 0.9779
-5.0395 1.3725 -2.0016 0.9779
-5.0855 1.1908 -2.0016 0.9779
-5.1249 1.0076 -2.0016 0.9779
-5.1578 0.8230 -2.0016 0.9779
-5.2164 0.2640 -2.0016 0.9779
-5.2219 -0.1108 -2.0016 0.9779
-5.2145 -0.2981 -2.0016 0.9779
-5.1523 -0.8568 -2.0016 0.9779
-5.0776 -1.2241 -2.0016 0.9779
-5.0304 -1.4055 -2.0016 0.9779
-4.9767 -1.5851 -2.0016 0.9779
-4.9166 -1.7626 -2.0016 0.9779
-4.5851 -2.2256 -1.9531 0.9784
-4.1963 -2.4232 -1.8570 0.9795
-4.1067 -2.5723 -1.8570 0.9795
-4.0117 -2.7180 -1.8570 0.9795
-3.9116 -2.8602 -1.8570 0.9795
-3.6964 -3.1333 -1.8570 0.9795
-3.5816 -3.2640 -1.8570 0.9795
-3.3383 -3.5124 -1.8570 0.9795
-3.2101 -3.6299 -1.8570 0.9795
-3.0778 -3.7428 -1.8570 0.9795
-2.9415 -3.8508 -1.8570 0.9795
-2.3603 -4.2321 -1.8570 0.9795
-2.2069 -4.3140 -1.8570 0.9795
-2.0507 -4.3904 -1.8570 0.9795
-1.8918 -4.4612 -1.8570 0.9795
-1.5670 -4.5854 -1.8570 0.9795
-1.0652 -4.7272 -1.8570 0.9795
-0.7234 -4.7915 -1.8570 0.9795
-0.5510 -4.8143 -1.8570 0.9795
-0.3779 -4.8310 -1.8570 0.9795
0.3172 -4.8354 -1.8570 0.9795
0.8349 -4.7733 -1.8570 0.9795
1.1751 -4.7011 -1.8570 0.9795
1.3431 -4.6559 -1.8570 0.9795
1.8356 -4.4846 -1.8570 0.9795
1.9954 -4.4159 -1.8570 0.9795
2.3552 -4.0007 -1.7791 0.9803
2.6066 -4.0850 -1.8570 0.9795
2.8929 -3.8875 -1.8570 0.9795
3.0305 -3.7812 -1.8570 0.9795
3.8159 -3.5663 -2.0016 0.9779
3.9415 -3.4271 -2.0016 0.9779
4.1771 -3.1356 -2.0016 0.9779
4.2869 -2.9837 -2.0016 0.9779
4.4899 -2.6685 -2.0016 0.9779
4.8941 -1.8243 -2.0016 0.9779
4.9564 -1.6475 -2.0016 0.9779
5.1411 -0.9215 -2.0016 0.9779
5.1940 -0.5504 -2.0016 0.9779
5.2201 -0.1764 -2.0016 0.9779
5.2230 0.0110 -2.0016 0.9779
5.2193 0.1984 -2.0016 0.9779
5.2088 0.3856 -2.0016 0.9779
5.1677 0.7581 -2.0016 0.9779
5.1372 0.9431 -2.0016 0.9779
5.1000 1.1268 -2.0016 0.9779
4.9494 1.6684 -2.0016 0.9779
4.8170 2.0190 -2.0016 0.9779
4.6598 2.3593 -2.0016 0.9779
4.5721 2.5250 -2.0016 0.9779
4.3793 2.8464 -2.0016 0.9779
4.1639 3.1531 -2.0016 0.9779
4.0480 3.3005 -2.0016 0.9779
3.8009 3.5824 -2.0016 0.9779
3.6699 3.7164 -2.0016 0.9779
3.5342 3.8457 -2.0016 0.9779
3.1004 4.2033 -2.0016 0.9779
-0.0742 4.8899 -2.0016 0.9791
-0.2496 4.8841 -2.0016 0.9791
-0.5992 4.8537 -2.0016 0.9791
-0.7730 4.8290 -2.0016 0.9791
-0.9458 4.7982 -2.0016 0.9791
-1.2875 4.7180 -2.0016 0.9791
-1.4559 4.6688 -2.0016 0.9791
-1.6225 4.6135 -2.0016 0.9791
-2.4199 4.2498 -2.0016 0.9791
-2.5709 4.1602 -2.0016 0.9791
-2.8626 3.9651 -2.0016 0.9791
-3.0031 3.8599 -2.0016 0.9791
-3.1396 3.7496 -2.0016 0.9791
-3.2722 3.6346 -2.0016 0.9791
-3.7585 3.1290 -2.0016 0.9791
-3.8684 2.9921 -2.0016 0.9791
-4.1675 2.5591 -2.0016 0.9791
-4.2566 2.4079 -2.0016 0.9791
-4.4184 2.0964 -2.0016 0.9791
-4.5573 1.7741 -2.0016 0.9791
-4.6181 1.6095 -2.0016 0.9791
-4.6728 1.4427 -2.0016 0.9791
-4.7216 1.2741 -2.0016 0.9791
-1.9572 0.1650 -0.8039 0.9915
-1.9104 0.0236 -0.7819 0.9918
-1.9579 -0.1872 -0.8050 0.9915
-1.9503 -0.2574 -0.8051 0.9915
-4.7901 -0.9860 -2.0016 0.9791
-4.7070 -1.3270 -2.0016 0.9791
-4.6564 -1.4951 -2.0016 0.9791
-4.5372 -1.8252 -2.0016 0.9791
-4.4687 -1.9868 -2.0016 0.9791
-3.9239 -2.2781 -1.8570 0.9806
-3.7504 -2.5537 -1.8570 0.9806
-3.6563 -2.6866 -1.8570 0.9806
-3.5576 -2.8161 -1.8570 0.9806
-3.4542 -2.9419 -1.8570 0.9806
-3.3464 -3.0640 -1.8570 0.9806
-2.8736 -3.5112 -1.8570 0.9806
-2.7458 -3.6121 -1.8570 0.9806
-2.6144 -3.7083 -1.8570 0.9806
-2.3417 -3.8862 -1.8570 0.9806
-2.2008 -3.9678 -1.8570 0.9806
-1.9105 -4.1154 -1.8570 0.9806
-1.3021 -4.3464 -1.8570 0.9806
-1.1453 -4.3903 -1.8570 0.9806
-0.9870 -4.4286 -1.8570 0.9806
-0.6669 -4.4880 -1.8570 0.9806
-0.5054 -4.5090 -1.8570 0.9806
-0.1807 -4.5336 -1.8570 0.9806
-0.0179 -4.5372 -1.8570 0.9806
0.1449 -4.5349 -1.8570 0.9806
0.4698 -4.5129 -1.8570 0.9806
0.6314 -4.4931 -1.8570 0.9806
0.7922 -4.4675 -1.8570 0.9806
1.1106 -4.3992 -1.8570 0.9806
1.2677 -4.3565 -1.8570 0.9806
1.4232 -4.3082 -1.8570 0.9806
1.5769 -4.2544 -1.8570 0.9806
1.7286 -4.1951 -1.8570 0.9806
1.8780 -4.1303 -1.8570 0.9806
2.3110 -3.9046 -1.8570 0.9806
2.4496 -3.8192 -1.8570 0.9806
2.7172 -3.6337 -1.8570 0.9806
2.9708 -3.4294 -1.8570 0.9806
3.0919 -3.3206 -1.8570 0.9806
3.6980 -3.2003 -2.0016 0.9791
4.0205 -2.7843 -2.0016 0.9791
4.1178 -2.6383 -2.0016 0.9791
4.2964 -2.3362 -2.0016 0.9791
4.3775 -2.1805 -2.0016 0.9791
4.4529 -2.0220 -2.0016 0.9791
4.5865 -1.6974 -2.0016 0.9791
4.6444 -1.5318 -2.0016 0.9791
4.7821 -1.0238 -2.0016 0.9791
4.8158 -0.8515 -2.0016 0.9791
4.8794 -0.3291 -2.0016 0.9791
4.8881 -0.1538 -2.0016 0.9791
4.8905 0.0217 -2.0016 0.9791
4.8865 0.1972 -2.0016 0.9791
4.8763 0.3724 -2.0016 0.9791
4.8370 0.7212 -2.0016 0.9791
4.2755 2.3742 -2.0016 0.9791
3.8919 2.9615 -2.0016 0.9791
3.6694 3.2330 -2.0016 0.9791
3.4281 3.4878 -2.0016 0.9791
3.3008 3.6086 -2.0016 0.9791
3.0335 3.8360 -2.0016 0.9791
2.8938 3.9424 -2.0016 0.9791
2.7505 4.0437 -2.0016 0.9791
2.6037 4.1398 -2.0016 0.9791
2.4534 4.2306 -2.0016 0.9791
2.1437 4.3956 -2.0016 0.9791
1.8229 4.5381 -2.0016 0.9791
1.4928 4.6571 -2.0016 0.9791
0.9836 4.7906 -2.0016 0.9791
0.6375 4.8488 -2.0016 0.9791
0.4631 4.8685 -2.0016 0.9791
0.1128 4.8892 -2.0016 0.9791
-0.2382 4.8847 -2.0016 0.9791
-0.7617 4.8308 -2.0016 0.9791
-0.9346 4.8004 -2.0016 0.9791
-1.1062 4.7638 -2.0016 0.9791
-1.6117 4.6173 -2.0016 0.9791
-2.2558 4.3392 -2.0016 0.9791
-2.4100 4.2555 -2.0016 0.9791
-2.8534 3.9718 -2.0016 0.9791
-2.9940 3.8669 -2.0016 0.9791
-3.1309 3.7569 -2.0016 0.9791
-3.3923 3.5227 -2.0016 0.9791
-3.6362 3.2704 -2.0016 0.9791
-3.7512 3.1378 -2.0016 0.9791
-3.8614 3.0012 -2.0016 0.9791
-3.9666 2.8607 -2.0016 0.9791
-4.3350 2.2638 -2.0016 0.9791
-4.4135 2.1067 -2.0016 0.9791
-4.4862 1.9470 -2.0016 0.9791
-4.5532 1.7848 -2.0016 0.9791
-4.7617 1.1150 -2.0016 0.9791
-2.0339 0.3245 -0.8429 0.9911
-1.9535 0.2402 -0.8055 0.9915
-1.9577 0.1697 -0.8042 0.9915
-1.9413 0.0982 -0.7955 0.9916
-1.9512 -0.2529 -0.8053 0.9915
-4.7543 -1.1461 -2.0016 0.9791
-4.6036 -1.6504 -2.0016 0.9791
-4.5414 -1.8145 -2.0016 0.9791
-4.3996 -2.1356 -2.0016 0.9791
-4.1977 -2.2271 -1.9449 0.9797
-3.9292 -2.2690 -1.8570 0.9806
-3.7563 -2.5449 -1.8570 0.9806
-3.5641 -2.8078 -1.8570 0.9806
-3.4611 -2.9339 -1.8570 0.9806
-3.3536 -3.0562 -1.8570 0.9806
-3.2418 -3.1745 -1.8570 0.9806
-3.1258 -3.2888 -1.8570 0.9806
-3.0057 -3.3988 -1.8570 0.9806
-2.8818 -3.5045 -1.8570 0.9806
-2.6231 -3.7022 -1.8570 0.9806
-2.4885 -3.7939 -1.8570 0.9806
-2.2100 -3.9626 -1.8570 0.9806
-2.0664 -4.0394 -1.8570 0.9806
-1.9201 -4.1109 -1.8570 0.9806
-1.7714 -4.1772 -1.8570 0.9806
-1.6204 -4.2380 -1.8570 0.9806
-1.3123 -4.3433 -1.8570 0.9806
-0.8379 -4.4592 -1.8570 0.9806
-0.6773 -4.4864 -1.8570 0.9806
-0.0285 -4.5372 -1.8570 0.9806
0.9417 -4.4385 -1.8570 0.9806
1.4132 -4.3116 -1.8570 0.9806
1.7188 -4.1991 -1.8570 0.9806
1.8683 -4.1347 -1.8570 0.9806
2.0067 -4.0473 -1.8489 0.9807
2.1601 -3.9901 -1.8570 0.9806
2.4407 -3.8249 -1.8570 0.9806
2.5763 -3.7348 -1.8570 0.9806
2.7087 -3.6400 -1.8570 0.9806
2.9628 -3.4364 -1.8570 0.9806
3.0842 -3.3278 -1.8570 0.9806
3.3149 -3.0981 -1.8570 0.9806
3.6905 -3.2089 -2.0016 0.9791
4.0140 -2.7937 -2.0016 0.9791
4.1116 -2.6479 -2.0016 0.9791
4.2040 -2.4987 -2.0016 0.9791
4.2910 -2.3462 -2.0016 0.9791
4.4482 -2.0324 -2.0016 0.9791
4.6932 -1.3751 -2.0016 0.9791
4.7395 -1.2058 -2.0016 0.9791
4.7797 -1.0350 -2.0016 0.9791
4.8786 -0.3405 -2.0016 0.9791
4.8877 -0.1652 -2.0016 0.9791
4.8905 0.0103 -2.0016 0.9791
4.8772 0.3610 -2.0016 0.9791
4.8387 0.7099 -2.0016 0.9791
4.8101 0.8830 -2.0016 0.9791
4.7344 1.2257 -2.0016 0.9791
4.5103 1.8905 -2.0016 0.9791
4.1005 2.6652 -2.0016 0.9791
3.7903 3.0904 -2.0016 0.9791
3.6770 3.2244 -2.0016 0.9791
3.5589 3.3543 -2.0016 0.9791
3.3092 3.6009 -2.0016 0.9791
2.7600 4.0373 -2.0016 0.9791
2.6133 4.1337 -2.0016 0.9791
-0.2344 4.5867 -2.0016 0.9802
-1.0493 4.4712 -2.0016 0.9802
-1.2091 4.4307 -2.0016 0.9802
-1.6782 4.2751 -2.0016 0.9802
-1.9805 4.1437 -2.0016 0.9802
-2.2726 3.9910 -2.0016 0.9802
-2.4143 3.9069 -2.0016 0.9802
-2.5529 3.8177 -2.0016 0.9802
-2.6883 3.7237 -2.0016 0.9802
-2.8202 3.6248 -2.0016 0.9802
-2.9484 3.5213 -2.0016 0.9802
-3.0729 3.4132 -2.0016 0.9802
-3.1934 3.3007 -2.0016 0.9802
-3.3098 3.1840 -2.0016 0.9802
-3.4219 3.0632 -2.0016 0.9802
-4.0760 2.1164 -2.0016 0.9802
-4.2173 1.8186 -2.0016 0.9802
-4.2798 1.6661 -2.0016 0.9802
-1.5020 0.2917 -0.6668 0.9933
-1.5102 0.2374 -0.6663 0.9934
-1.5220 0.1835 -0.6681 0.9933
-1.5284 0.1289 -0.6684 0.9933
-1.5249 0.0188 -0.6646 0.9934
-1.5269 -0.0360 -0.6656 0.9934
-1.5296 -0.0910 -0.6678 0.9933
-1.5269 -0.1460 -0.6685 0.9933
-1.5189 -0.2005 -0.6677 0.9933
-1.5119 -0.3112 -0.6727 0.9933
-1.5645 -0.4411 -0.7084 0.9929
-4.2608 -1.7140 -2.0016 0.9802
-4.1966 -1.8658 -2.0016 0.9802
-4.1269 -2.0152 -2.0016 0.9802
-3.6057 -2.2702 -1.8570 0.9816
-3.5220 -2.3982 -1.8570 0.9816
-3.2438 -2.7628 -1.8570 0.9816
-2.9282 -3.0954 -1.8570 0.9816
-2.8152 -3.1984 -1.8570 0.9816
-2.5786 -3.3921 -1.8570 0.9816
-2.3287 -3.5683 -1.8570 0.9816
-2.0667 -3.7261 -1.8570 0.9816
-1.2228 -4.0817 -1.8570 0.9816
0.1361 -4.2587 -1.8570 0.9816
0.2888 -4.2511 -1.8570 0.9816
0.4412 -4.2380 -1.8570 0.9816
0.5930 -4.2195 -1.8570 0.9816
0.7440 -4.1955 -1.8570 0.9816
0.8940 -4.1661 -1.8570 0.9816
1.3366 -4.0459 -1.8570 0.9816
1.4809 -3.9953 -1.8570 0.9816
1.7636 -3.8788 -1.8570 0.9816
2.0373 -3.7423 -1.8570 0.9816
2.3004 -3.5866 -1.8570 0.9816
2.5517 -3.4124 -1.8570 0.9816
2.6725 -3.3186 -1.8570 0.9816
2.7899 -3.2206 -1.8570 0.9816
3.0137 -3.0122 -1.8570 0.9816
3.5784 -2.8788 -2.0016 0.9802
3.8670 -2.4776 -2.0016 0.9802
3.9535 -2.3373 -2.0016 0.9802
4.0348 -2.1939 -2.0016 0.9802
4.1109 -2.0477 -2.0016 0.9802
4.1817 -1.8989 -2.0016 0.9802
4.4104 -1.2811 -2.0016 0.9802
4.4535 -1.1220 -2.0016 0.9802
4.5682 -0.4733 -2.0016 0.9802
4.5904 -0.1444 -2.0016 0.9802
4.5889 0.1852 -2.0016 0.9802
4.5793 0.3497 -2.0016 0.9802
4.5638 0.5138 -2.0016 0.9802
4.5152 0.8398 -2.0016 0.9802
4.3988 1.3202 -2.0016 0.9802
4.3486 1.4772 -2.0016 0.9802
4.0925 2.0841 -2.0016 0.9802
4.0151 2.2296 -2.0016 0.9802
3.8449 2.5119 -2.0016 0.9802
3.6548 2.7811 -2.0016 0.9802
3.5527 2.9105 -2.0016 0.9802
3.4460 3.0361 -2.0016 0.9802
3.3348 3.1578 -2.0016 0.9802
3.2193 3.2754 -2.0016 0.9802
2.7176 3.7023 -2.0016 0.9802
2.3040 3.9729 -2.0016 0.9802
1.8637 4.1975 -2.0016 0.9802
1.5579 4.3204 -2.0016 0.9802
1.4018 4.3735 -2.0016 0.9802
1.0846 4.4628 -2.0016 0.9802
0.9237 4.4988 -2.0016 0.9802
0.7617 4.5291 -2.0016 0.9802
0.5987 4.5535 -2.0016 0.9802
0.4349 4.5720 -2.0016 0.9802
0.1059 4.5914 -2.0016 0.9802
-0.2237 4.5872 -2.0016 0.9802
-0.7153 4.5366 -2.0016 0.9802
-1.5136 4.3361 -2.0016 0.9802
-1.8207 4.2164 -2.0016 0.9802
-1.9708 4.1483 -2.0016 0.9802
-2.1184 4.0749 -2.0016 0.9802
-2.2632 3.9963 -2.0016 0.9802
-2.4052 3.9125 -2.0016 0.9802
-2.9402 3.5281 -2.0016 0.9802
-3.0649 3.4204 -2.0016 0.9802
-3.3023 3.1918 -2.0016 0.9802
-3.4147 3.0712 -2.0016 0.9802
-3.5227 2.9467 -2.0016 0.9802
-3.8190 2.5511 -2.0016 0.9802
-3.9081 2.4124 -2.0016 0.9802
-3.9921 2.2706 -2.0016 0.9802
-4.0710 2.1259 -2.0016 0.9802
-4.1447 1.9784 -2.0016 0.9802
-4.2130 1.8284 -2.0016 0.9802
-1.5093 0.2408 -0.6661 0.9934
-1.5214 0.1871 -0.6680 0.9933
-1.5273 -0.1424 -0.6685 0.9933
-1.5196 -0.1969 -0.6678 0.9933
-1.5065 -0.2505 -0.6656 0.9934
-1.5821 -0.5039 -0.7236 0.9928
-4.1316 -2.0055 -2.0016 0.9802
-3.8578 -2.2278 -1.9415 0.9807
-3.6110 -2.2618 -1.8570 0.9816
-3.4395 -2.5150 -1.8570 0.9816
-3.2503 -2.7552 -1.8570 0.9816
-3.1493 -2.8700 -1.8570 0.9816
-3.0443 -2.9812 -1.8570 0.9816
-2.8227 -3.1919 -1.8570 0.9816
-2.7063 -3.2911 -1.8570 0.9816
-2.4633 -3.4767 -1.8570 0.9816
-2.3370 -3.5629 -1.8570 0.9816
-2.2076 -3.6444 -1.8570 0.9816
-2.0754 -3.7213 -1.8570 0.9816
-1.9406 -3.7934 -1.8570 0.9816
-1.8032 -3.8606 -1.8570 0.9816
-1.0852 -4.1204 -1.8570 0.9816
-0.9366 -4.1567 -1.8570 0.9816
-0.7869 -4.1876 -1.8570 0.9816
-0.3323 -4.2479 -1.8570 0.9816
0.4313 -4.2390 -1.8570 0.9816
0.5831 -4.2208 -1.8570 0.9816
0.7342 -4.1972 -1.8570 0.9816
0.8843 -4.1681 -1.8570 0.9816
1.0333 -4.1337 -1.8570 0.9816
1.6141 -3.9434 -1.8570 0.9816
1.8928 -3.8175 -1.8570 0.9816
2.0285 -3.7471 -1.8570 0.9816
2.1617 -3.6719 -1.8570 0.9816
2.2920 -3.5919 -1.8570 0.9816
2.4194 -3.5074 -1.8570 0.9816
2.7823 -3.2271 -1.8570 0.9816
3.0066 -3.0192 -1.8570 0.9816
3.5717 -2.8872 -2.0016 0.9802
3.6730 -2.7572 -2.0016 0.9802
3.7695 -2.6236 -2.0016 0.9802
3.8612 -2.4866 -2.0016 0.9802
3.9480 -2.3465 -2.0016 0.9802
4.1773 -1.9086 -2.0016 0.9802
4.2431 -1.7575 -2.0016 0.9802
4.3582 -1.4487 -2.0016 0.9802
4.4074 -1.2914 -2.0016 0.9802
4.4886 -0.9719 -2.0016 0.9802
4.5206 -0.8102 -2.0016 0.9802
4.5468 -0.6475 -2.0016 0.9802
4.5671 -0.4839 -2.0016 0.9802
4.5815 -0.3197 -2.0016 0.9802
4.5900 -0.1551 -2.0016 0.9802
4.5894 0.1745 -2.0016 0.9802
4.4461 1.1511 -2.0016 0.9802
4.2966 1.6222 -2.0016 0.9802
4.1692 1.9262 -2.0016 0.9802
4.0974 2.0746 -2.0016 0.9802
3.9381 2.3631 -2.0016 0.9802
3.8507 2.5029 -2.0016 0.9802
3.6613 2.7726 -2.0016 0.9802
3.5595 2.9022 -2.0016 0.9802
3.1077 3.3816 -2.0016 0.9802
2.7262 3.6960 -2.0016 0.9802
2.4542 3.8820 -2.0016 0.9802
0.0896 4.3232 -2.0016 0.9811
-0.5298 4.2915 -2.0016 0.9811
-0.8362 4.2425 -2.0016 0.9811
-0.9879 4.2097 -2.0016 0.9811
-1.4346 4.0792 -2.0016 0.9811
-1.5801 4.0251 -2.0016 0.9811
-1.7235 3.9658 -2.0016 0.9811
-2.4037 3.5945 -2.0016 0.9811
-2.5311 3.5059 -2.0016 0.9811
-2.7760 3.3154 -2.0016 0.9811
-3.0066 3.1077 -2.0016 0.9811
-3.7636 2.1290 -2.0016 0.9811
-1.3224 0.5702 -0.6666 0.9937
-1.3306 0.5180 -0.6609 0.9937
-1.3336 0.4648 -0.6537 0.9938
-1.3020 0.3017 -0.6187 0.9941
-1.3235 0.2080 -0.6202 0.9941
-1.3379 0.1128 -0.6215 0.9941
-1.3365 -0.0315 -0.6188 0.9941
-1.3302 -0.1756 -0.6211 0.9941
-1.3200 -0.2227 -0.6196 0.9941
-1.3071 -0.3183 -0.6227 0.9941
-1.3304 -0.4272 -0.6468 0.9939
-1.3332 -0.4815 -0.6561 0.9938
-1.3286 -0.5344 -0.6629 0.9937
-1.3187 -0.5863 -0.6680 0.9937
-3.8856 -1.8973 -2.0016 0.9811
-3.7395 -2.1711 -2.0016 0.9811
-3.3160 -2.2579 -1.8570 0.9825
-3.2329 -2.3755 -1.8570 0.9825
-3.1455 -2.4899 -1.8570 0.9825
-2.7569 -2.9144 -1.8570 0.9825
-2.4278 -3.1938 -1.8570 0.9825
-2.1925 -3.3596 -1.8570 0.9825
-2.0705 -3.4361 -1.8570 0.9825
-1.9459 -3.5082 -1.8570 0.9825
-1.8187 -3.5758 -1.8570 0.9825
-1.6893 -3.6388 -1.8570 0.9825
-1.4239 -3.7505 -1.8570 0.9825
-1.1513 -3.8430 -1.8570 0.9825
-0.8727 -3.9157 -1.8570 0.9825
-0.4469 -3.9868 -1.8570 0.9825
-0.0158 -4.0117 -1.8570 0.9825
0.1281 -4.0097 -1.8570 0.9825
0.4154 -3.9902 -1.8570 0.9825
0.7005 -3.9501 -1.8570 0.9825
1.2584 -3.8093 -1.8570 0.9825
1.5284 -3.7092 -1.8570 0.9825
1.6605 -3.6520 -1.8570 0.9825
1.7905 -3.5900 -1.8570 0.9825
1.9181 -3.5235 -1.8570 0.9825
2.1659 -3.3768 -1.8570 0.9825
2.5162 -3.1245 -1.8570 0.9825
2.6267 -3.0322 -1.8570 0.9825
2.7338 -2.9360 -1.8570 0.9825
2.9374 -2.7324 -1.8570 0.9825
3.2697 -2.8296 -2.0016 0.9811
3.3691 -2.7105 -2.0016 0.9811
3.7988 -2.0656 -2.0016 0.9811
3.8705 -1.9279 -2.0016 0.9811
3.9372 -1.7878 -2.0016 0.9811
3.9988 -1.6454 -2.0016 0.9811
4.0553 -1.5008 -2.0016 0.9811
4.1065 -1.3544 -2.0016 0.9811
4.1525 -1.2061 -2.0016 0.9811
4.2283 -0.9052 -2.0016 0.9811
4.2581 -0.7529 -2.0016 0.9811
4.2823 -0.5996 -2.0016 0.9811
4.3143 -0.2910 -2.0016 0.9811
4.3220 -0.1360 -2.0016 0.9811
4.3241 0.0192 -2.0016 0.9811
4.3115 0.3293 -2.0016 0.9811
4.2970 0.4838 -2.0016 0.9811
4.1835 1.0936 -2.0016 0.9811
4.0943 1.3908 -2.0016 0.9811
3.8532 1.9622 -2.0016 0.9811
3.7803 2.0993 -2.0016 0.9811
3.6200 2.3650 -2.0016 0.9811
3.5329 2.4933 -2.0016 0.9811
3.4411 2.6185 -2.0016 0.9811
3.2445 2.8586 -2.0016 0.9811
3.0311 3.0839 -2.0016 0.9811
2.9185 3.1907 -2.0016 0.9811
2.6821 3.3918 -2.0016 0.9811
2.5587 3.4858 -2.0016 0.9811
2.3021 3.6604 -2.0016 0.9811
2.1693 3.7406 -2.0016 0.9811
1.7547 3.9521 -2.0016 0.9811
1.6118 4.0125 -2.0016 0.9811
1.4668 4.0677 -2.0016 0.9811
1.3199 4.1177 -2.0016 0.9811
1.1713 4.1625 -2.0016 0.9811
0.7172 4.2642 -2.0016 0.9811
0.5637 4.2872 -2.0016 0.9811
0.4095 4.3047 -2.0016 0.9811
-0.0555 4.3237 -2.0016 0.9811
-0.5198 4.2927 -2.0016 0.9811
-1.1286 4.1742 -2.0016 0.9811
-1.2777 4.1310 -2.0016 0.9811
-1.4251 4.0825 -2.0016 0.9811
-1.5707 4.0288 -2.0016 0.9811
-1.7142 3.9698 -2.0016 0.9811
-1.8555 3.9057 -2.0016 0.9811
-1.9945 3.8366 -2.0016 0.9811
-2.2645 3.6837 -2.0016 0.9811
-2.3952 3.6001 -2.0016 0.9811
-2.5229 3.5118 -2.0016 0.9811
-2.8857 3.2204 -2.0016 0.9811
-2.9994 3.1147 -2.0016 0.9811
-3.2150 2.8916 -2.0016 0.9811
-3.3167 2.7744 -2.0016 0.9811
-3.4141 2.6536 -2.0016 0.9811
-3.5957 2.4019 -2.0016 0.9811
-3.7587 2.1378 -2.0016 0.9811
-3.8329 2.0016 -2.0016 0.9811
-1.3217 0.5736 -0.6669 0.9937
-1.3336 0.4683 -0.6542 0.9938
-1.3177 0.3589 -0.6322 0.9940
-1.3031 0.3051 -0.6195 0.9941
-1.3100 0.2575 -0.6180 0.9941
-1.3322 0.1638 -0.6213 0.9941
-1.3363 -0.0284 -0.6187 0.9941
-1.3385 -0.0765 -0.6206 0.9941
-1.3372 -0.1247 -0.6216 0.9941
-1.3307 -0.1725 -0.6211 0.9941
-1.3207 -0.2196 -0.6197 0.9941
-1.3072 -0.2659 -0.6175 0.9941
-1.3299 -0.4236 -0.6460 0.9939
-1.3333 -0.4780 -0.6556 0.9938
-1.3290 -0.5310 -0.6625 0.9937
-3.8900 -1.8882 -2.0016 0.9811
-3.8198 -2.0266 -2.0016 0.9811
-2.9652 -2.7022 -1.8570 0.9825
-2.8663 -2.8069 -1.8570 0.9825
-2.7637 -2.9079 -1.8570 0.9825
-2.5481 -3.0986 -1.8570 0.9825
-2.4352 -3.1881 -1.8570 0.9825
-2.3193 -3.2734 -1.8570 0.9825
-2.0785 -3.4313 -1.8570 0.9825
-1.6978 -3.6348 -1.8570 0.9825
-1.5662 -3.6934 -1.8570 0.9825
-1.1603 -3.8403 -1.8570 0.9825
-1.0217 -3.8795 -1.8570 0.9825
-0.5989 -3.9668 -1.8570 0.9825
-0.4562 -3.9857 -1.8570 0.9825
-0.1691 -4.0082 -1.8570 0.9825
-0.0252 -4.0117 -1.8570 0.9825
0.2626 -4.0032 -1.8570 0.9825
0.4060 -3.9911 -1.8570 0.9825
0.6912 -3.9518 -1.8570 0.9825
1.3855 -3.7649 -1.8570 0.9825
1.7821 -3.5942 -1.8570 0.9825
1.9099 -3.5280 -1.8570 0.9825
2.0352 -3.4572 -1.8570 0.9825
2.2780 -3.3023 -1.8570 0.9825
2.3950 -3.2184 -1.8570 0.9825
2.6196 -3.0384 -1.8570 0.9825
2.7270 -2.9424 -1.8570 0.9825
2.8308 -2.8427 -1.8570 0.9825
3.3628 -2.7183 -2.0016 0.9811
3.4582 -2.5959 -2.0016 0.9811
3.5491 -2.4702 -2.0016 0.9811
3.6355 -2.3412 -2.0016 0.9811
3.7171 -2.2093 -2.0016 0.9811
3.8660 -1.9370 -2.0016 0.9811
4.0518 -1.5103 -2.0016 0.9811
4.1033 -1.3640 -2.0016 0.9811
4.1906 -1.0662 -2.0016 0.9811
4.2262 -0.9151 -2.0016 0.9811
4.2563 -0.7629 -2.0016 0.9811
4.3216 -0.1461 -2.0016 0.9811
4.3241 0.0091 -2.0016 0.9811
4.2981 0.4737 -2.0016 0.9811
4.1445 1.2333 -2.0016 0.9811
4.0976 1.3812 -2.0016 0.9811
4.0454 1.5274 -2.0016 0.9811
3.9254 1.8136 -2.0016 0.9811
3.6256 2.3565 -2.0016 0.9811
3.5387 2.4851 -2.0016 0.9811
3.4472 2.6105 -2.0016 0.9811
3.1467 2.9658 -2.0016 0.9811
2.9259 3.1838 -2.0016 0.9811
2.8098 3.2868 -2.0016 0.9811
2.4403 3.5697 -2.0016 0.9811
2.3106 3.6550 -2.0016 0.9811
-0.0619 4.0800 -2.0016 0.9820
-0.3543 4.0650 -2.0016 0.9820
-0.7891 4.0034 -2.0016 0.9820
-0.9323 3.9725 -2.0016 0.9820
-1.0742 3.9365 -2.0016 0.9820
-1.2148 3.8954 -2.0016 0.9820
-1.6264 3.7423 -2.0016 0.9820
-1.7596 3.6816 -2.0016 0.9820
-2.1450 3.4712 -2.0016 0.9820
-2.2682 3.3919 -2.0016 0.9820
-2.3885 3.3084 -2.0016 0.9820
-2.5056 3.2205 -2.0016 0.9820
-2.7302 3.0325 -2.0016 0.9820
-2.8372 2.9326 -2.0016 0.9820
-3.0402 2.7216 -2.0016 0.9820
-3.2276 2.4965 -2.0016 0.9820
-3.3151 2.3791 -2.0016 0.9820
-1.1231 0.5831 -0.6207 0.9944
-1.1588 0.3578 -0.5949 0.9946
-1.1585 0.3126 -0.5886 0.9947
-1.1963 0.0577 -0.5875 0.9947
-1.1817 -0.1993 -0.5879 0.9947
-1.1727 -0.2414 -0.5873 0.9947
-1.1556 -0.4173 -0.6027 0.9945
-1.1426 -0.5080 -0.6134 0.9944
-1.1324 -0.5529 -0.6182 0.9944
-3.2717 -2.2278 -1.9416 0.9825
-3.0567 -2.2460 -1.8606 0.9832
-2.9683 -2.3496 -1.8570 0.9833
-2.8821 -2.4546 -1.8570 0.9833
-2.7921 -2.5565 -1.8570 0.9833
-2.6016 -2.7501 -1.8570 0.9833
-2.2910 -3.0138 -1.8570 0.9833
-2.0689 -3.1703 -1.8570 0.9833
-1.7163 -3.3743 -1.8570 0.9833
-1.5941 -3.4337 -1.8570 0.9833
-1.3437 -3.5392 -1.8570 0.9833
-1.2158 -3.5852 -1.8570 0.9833
-0.9556 -3.6631 -1.8570 0.9833
-0.6904 -3.7222 -1.8570 0.9833
-0.4217 -3.7622 -1.8570 0.9833
