ply
format ascii 1.0
element vertex 1538
property float32 x
property float32 y
property float32 z
property float32 I
end_header
2.2403 -4.1938 0.0803 0.9812
32.9971 -36.0173 0.8251 0.8225
34.0980 -29.9996 0.7672 0.8339
33.4841 -25.4451 0.7104 0.8451
39.0232 -25.4606 0.7871 0.8299
45.9820 13.3526 0.8088 0.8257
40.6915 13.4159 0.7237 0.8425
36.0501 16.3619 0.6687 0.8535
35.2975 17.5729 0.6660 0.8541
35.3793 19.2264 0.6802 0.8512
35.3939 24.4948 0.7271 0.8418
2.9475 13.6746 0.2363 0.9456
0.5234 15.8629 0.2681 0.9385
-1.1860 15.8677 0.2688 0.9383
-2.2680 12.3102 0.2114 0.9512
-3.6718 12.3145 0.2171 0.9499
-4.0829 12.0917 0.2156 0.9502
-6.0486 14.4119 0.2640 0.9394
-6.1336 12.1021 0.2292 0.9472
-10.6493 17.7327 0.3494 0.9206
-8.6838 12.3575 0.2551 0.9414
-13.1267 17.3245 0.3671 0.9167
-17.2956 15.8903 0.3967 0.9103
-33.2633 22.7383 0.6806 0.8511
-27.2119 -22.5247 0.5967 0.8682
-18.8457 -22.3724 0.4941 0.8896
-13.6109 -21.8749 0.4352 0.9021
-11.8888 -22.5673 0.4309 0.9030
-10.7904 -22.3948 0.4199 0.9053
-8.8763 -22.4001 0.4070 0.9081
-5.3366 -22.4049 0.3890 0.9120
-4.5157 -22.5115 0.3878 0.9122
-2.8444 -22.4119 0.3816 0.9136
-1.2233 -22.4164 0.3792 0.9141
-0.4182 -22.4186 0.3788 0.9142
1.1912 -22.4231 0.3793 0.9141
2.2119 -4.2134 0.0804 0.9811
32.8965 -27.3103 0.7222 0.8428
32.9866 -25.4438 0.7037 0.8465
37.1948 -26.6185 0.7726 0.8328
38.4135 -25.4589 0.7784 0.8316
4.3680 15.3737 -0.0900 0.9381
3.3049 13.4487 -0.0780 0.9461
2.8232 13.5713 -0.0780 0.9461
1.7288 12.8848 -0.0732 0.9493
1.2532 12.8110 -0.0725 0.9498
0.3183 12.3398 -0.0695 0.9518
-2.7280 11.9054 -0.0688 0.9523
-3.2638 12.2140 -0.0712 0.9507
-4.1013 11.8637 -0.0707 0.9510
-5.1442 12.0140 -0.0736 0.9491
-5.6985 12.0910 -0.0753 0.9479
-6.7341 11.9783 -0.0774 0.9465
-7.3391 12.0239 -0.0793 0.9452
-8.4550 11.8496 -0.0820 0.9434
-9.1606 11.9110 -0.0846 0.9417
-10.6245 11.9360 -0.0900 0.9381
-11.6147 12.1423 -0.0946 0.9350
-24.6971 11.8988 -0.1543 0.8961
-24.8766 -22.4648 -0.1887 0.8745
-23.0436 -22.3607 -0.1808 0.8795
-17.1055 -19.1638 -0.1446 0.9024
-17.0090 -22.0528 -0.1568 0.8946
-16.1408 -22.5555 -0.1562 0.8950
-14.6819 -22.1542 -0.1496 0.8991
-11.6824 -22.5679 -0.1431 0.9033
-10.5928 -22.3953 -0.1395 0.9057
-7.7777 -22.3981 -0.1335 0.9095
-6.0196 -22.4030 -0.1306 0.9114
-5.1430 -22.3032 -0.1289 0.9125
-2.6807 -22.4123 -0.1271 0.9137
0.4245 -17.3868 -0.0979 0.9328
1.3531 -22.4235 -0.1265 0.9141
32.9990 -36.0194 -0.2750 0.8225
32.7817 -30.9961 -0.2540 0.8349
34.1001 -30.0014 -0.2557 0.8339
33.4841 -25.4451 -0.2368 0.8452
39.0232 -25.4606 -0.2623 0.8300
40.6915 13.4159 -0.2412 0.8425
36.1522 13.3746 -0.2170 0.8571
35.9958 14.8047 -0.2191 0.8558
36.0148 16.3459 -0.2227 0.8537
35.2975 17.5729 -0.2220 0.8541
34.1335 18.5494 -0.2187 0.8561
29.8197 17.6185 -0.1950 0.8706
34.4729 22.0725 -0.2305 0.8490
35.1935 24.3562 -0.2410 0.8427
7.6196 16.7254 -0.1035 0.9291
4.6172 15.8167 -0.0928 0.9362
2.9078 13.4904 -0.0777 0.9463
1.8951 13.3926 -0.0762 0.9473
1.3354 12.7062 -0.0719 0.9502
0.8699 12.6145 -0.0712 0.9507
-0.0360 12.5031 -0.0704 0.9512
-0.8968 11.9984 -0.0677 0.9530
-1.3456 12.1312 -0.0687 0.9523
-1.7919 12.1579 -0.0692 0.9520
-2.2369 12.1416 -0.0695 0.9518
-3.6067 12.0962 -0.0711 0.9508
-7.3909 12.3071 -0.0808 0.9442
-7.7651 11.9382 -0.0802 0.9446
-8.3534 11.8873 -0.0818 0.9435
-9.1279 12.0469 -0.0851 0.9413
-11.4771 12.1727 -0.0942 0.9353
-12.3051 12.1471 -0.0973 0.9332
-14.1355 12.0815 -0.1047 0.9283
-16.4541 12.1357 -0.1151 0.9215
-17.3405 11.8537 -0.1183 0.9194
-22.2313 11.9161 -0.1420 0.9040
-23.3770 -22.3598 -0.1821 0.8786
-21.8977 -22.5028 -0.1768 0.8820
-18.8457 -22.3724 -0.1647 0.8896
-17.2630 -22.0521 -0.1577 0.8940
-13.6109 -21.8749 -0.1451 0.9021
-12.8409 -22.3891 -0.1453 0.9019
-9.8760 -22.5288 -0.1385 0.9063
-8.8763 -22.4001 -0.1357 0.9081
-7.1211 -22.5756 -0.1333 0.9097
-5.3366 -22.4049 -0.1297 0.9120
-4.5157 -22.5115 -0.1293 0.9122
-3.6649 -22.4096 -0.1278 0.9132
-2.0472 -22.5897 -0.1277 0.9133
-1.2233 -22.4164 -0.1264 0.9141
-0.4182 -22.4186 -0.1262 0.9142
0.2981 -17.3189 -0.0975 0.9331
1.1912 -22.4231 -0.1264 0.9141
32.8719 -36.4033 -0.2762 0.8219
32.9866 -25.4438 -0.2345 0.8465
37.1965 -26.6198 -0.2575 0.8328
3.3300 13.5509 -0.3929 0.9457
2.2198 12.9909 -0.3711 0.9486
1.2130 12.4000 -0.3508 0.9514
0.7742 12.5419 -0.3538 0.9510
0.3116 12.0819 -0.3403 0.9528
-0.1220 12.1071 -0.3409 0.9527
-0.5459 11.8747 -0.3347 0.9535
-1.3918 11.7736 -0.3338 0.9537
-2.2802 11.8953 -0.3410 0.9527
-3.2183 12.0437 -0.3510 0.9513
-4.1146 11.9021 -0.3546 0.9509
-5.5966 11.8748 -0.3696 0.9488
-7.3179 11.9892 -0.3955 0.9453
-7.8336 11.8561 -0.4001 0.9447
-8.4356 11.8226 -0.4090 0.9435
-9.0616 11.7823 -0.4185 0.9423
-11.4488 11.9688 -0.4664 0.9359
-14.0747 11.8553 -0.5182 0.9290
-15.2573 11.9431 -0.5456 0.9254
-16.5025 11.9890 -0.5744 0.9216
-17.6771 11.8980 -0.6000 0.9183
-18.9753 11.8059 -0.6293 0.9145
-20.6484 11.8417 -0.6702 0.9091
-24.5869 11.8457 -0.7685 0.8965
-24.6816 -22.2887 -0.9364 0.8754
-14.6819 -22.1542 -0.7484 0.8991
-12.5333 -22.2219 -0.7184 0.9029
-11.5047 -22.2248 -0.7047 0.9047
-10.5233 -22.2484 -0.6930 0.9062
-7.7470 -22.3098 -0.6650 0.9098
-6.8665 -22.3275 -0.6578 0.9108
-6.0035 -22.3431 -0.6514 0.9116
-5.1553 -22.3568 -0.6460 0.9123
-2.6777 -22.3871 -0.6349 0.9137
-1.0607 -22.3988 -0.6314 0.9142
1.3520 -22.4043 -0.6320 0.9141
2.2403 -4.1938 -0.1339 0.9812
32.9469 -35.9625 -1.3733 0.8227
34.0413 -29.9497 -1.2767 0.8341
32.8424 -26.8684 -1.1948 0.8438
37.1464 -26.1817 -1.2797 0.8337
39.0232 -25.4606 -1.3120 0.8299
35.6159 13.1762 -1.0693 0.8590
35.9958 14.8047 -1.0959 0.8558
36.0501 16.3619 -1.1147 0.8535
35.0472 17.4483 -1.1024 0.8550
29.8758 17.6517 -0.9771 0.8704
33.6610 21.5527 -1.1255 0.8522
28.0602 22.5571 -1.0138 0.8658
34.7040 34.6551 -1.3809 0.8218
7.6187 16.7235 -0.5175 0.9291
3.4135 13.4715 -0.3913 0.9459
2.8781 13.3524 -0.3846 0.9468
2.3143 12.9805 -0.3713 0.9486
1.3362 12.7137 -0.3600 0.9501
-0.9103 12.1798 -0.3439 0.9523
-1.7327 11.7562 -0.3346 0.9536
-2.1973 11.9264 -0.3415 0.9526
-2.6819 12.1036 -0.3491 0.9516
-4.0670 12.0446 -0.3580 0.9504
-4.4986 11.8971 -0.3581 0.9504
-5.5349 11.9665 -0.3712 0.9486
-7.2309 12.0406 -0.3955 0.9453
-7.7545 11.9220 -0.4005 0.9447
-8.2713 11.7705 -0.4051 0.9441
-12.1155 11.9599 -0.4794 0.9341
-12.9873 11.9320 -0.4966 0.9319
-16.1501 11.9115 -0.5651 0.9228
-17.3666 11.8715 -0.5923 0.9193
-18.7079 11.8272 -0.6232 0.9152
-20.4704 11.9362 -0.6672 0.9095
-22.2650 11.9341 -0.7113 0.9039
-25.0463 -22.2929 -0.9441 0.8744
-21.6570 -22.2555 -0.8744 0.8831
-20.1407 -22.2398 -0.8449 0.8869
-15.1844 -22.5582 -0.7657 0.8969
-11.7081 -22.2242 -0.7073 0.9044
-7.0418 -22.3241 -0.6591 0.9106
-6.1754 -22.3401 -0.6526 0.9114
-4.5157 -22.5115 -0.6465 0.9122
1.1902 -22.4044 -0.6317 0.9141
28.0716 -38.7545 -1.3474 0.8257
32.8109 -36.3357 -1.3785 0.8221
32.6133 -31.2845 -1.2725 0.8346
32.8349 -27.2592 -1.2016 0.8430
37.1425 -26.5811 -1.2861 0.8330
38.4135 -25.4589 -1.2976 0.8316
18.6441 34.7861 -2.0016 0.8538
16.1033 36.0328 -2.0016 0.8538
13.4796 37.0942 -2.0016 0.8538
4.0574 14.2803 -0.7529 0.9423
3.2722 13.3159 -0.6954 0.9466
2.7527 13.2323 -0.6854 0.9473
2.2004 12.8771 -0.6625 0.9490
1.7269 12.8709 -0.6586 0.9493
-0.5584 12.1472 -0.6167 0.9525
-0.9772 11.9195 -0.6065 0.9532
-1.8701 12.0851 -0.6202 0.9522
-3.6166 11.8180 -0.6268 0.9517
-4.1875 12.1131 -0.6500 0.9500
-4.5509 11.7785 -0.6404 0.9507
-5.6087 11.9003 -0.6672 0.9487
-8.5012 11.9145 -0.7423 0.9431
-9.1232 11.8624 -0.7589 0.9418
-10.5414 11.8427 -0.8041 0.9385
-11.4558 11.9762 -0.8405 0.9358
-12.3157 11.9838 -0.8715 0.9335
-13.0723 11.8377 -0.8944 0.9318
-15.1678 11.8731 -0.9769 0.9258
-17.6418 11.8742 -1.0785 0.9184
-19.0713 11.8656 -1.1391 0.9140
-22.8017 12.0114 -1.3070 0.9019
-33.3986 14.6398 -1.8494 0.8641
-36.6921 14.5384 -2.0016 0.8538
-37.6397 11.8715 -2.0016 0.8538
-38.0411 10.5143 -2.0016 0.8538
-38.3936 9.1436 -2.0016 0.8538
-38.9502 6.3686 -2.0016 0.8538
-39.3064 3.5609 -2.0016 0.8538
-39.1603 -4.9139 -2.0016 0.8538
-38.7075 -7.7077 -2.0016 0.8538
-38.4062 -9.0906 -2.0016 0.8538
-38.0556 -10.4618 -2.0016 0.8538
-37.6560 -11.8196 -2.0016 0.8538
-37.2080 -13.1621 -2.0016 0.8538
-36.7121 -14.4878 -2.0016 0.8538
-36.1691 -15.7947 -2.0016 0.8538
-35.5795 -17.0814 -2.0016 0.8538
-34.9442 -18.3462 -2.0016 0.8538
-34.2639 -19.5873 -2.0016 0.8538
-30.2801 -20.3201 -1.8494 0.8641
-22.7706 -16.4948 -1.4259 0.8935
-28.7460 -22.4379 -1.8494 0.8641
-26.6095 -22.3508 -1.7624 0.8701
-24.7560 -22.3560 -1.6916 0.8749
-21.4525 -22.3651 -1.5717 0.8833
-17.1055 -19.1638 -1.3027 0.9022
-16.9572 -21.9857 -1.4081 0.8948
-16.1408 -22.5555 -1.4066 0.8949
-14.6819 -22.1542 -1.3479 0.8990
-13.3939 -21.8755 -1.3008 0.9024
-11.5916 -22.3925 -1.2788 0.9039
-10.5928 -22.3953 -1.2564 0.9055
-8.6905 -22.4006 -1.2185 0.9083
-6.0196 -22.4030 -1.1765 0.9113
-2.6807 -22.4123 -1.1447 0.9136
-1.0615 -22.4168 -1.1381 0.9140
-0.2568 -22.4191 -1.1370 0.9141
1.3531 -22.4235 -1.1393 0.9140
9.3656 -38.3401 -2.0016 0.8538
10.7343 -37.9796 -2.0016 0.8538
12.0891 -37.5703 -2.0016 0.8538
13.4284 -37.1127 -2.0016 0.8538
14.7505 -36.6074 -2.0016 0.8538
22.2267 -32.6136 -2.0016 0.8538
26.9623 -27.3902 -1.9492 0.8573
27.3784 -24.0876 -1.8494 0.8641
29.0342 -22.0636 -1.8494 0.8641
31.8902 -17.6863 -1.8494 0.8641
32.6133 -16.5872 -1.8556 0.8637
34.8617 -16.1846 -1.9492 0.8573
36.8967 -14.0110 -2.0016 0.8538
37.3754 -12.6791 -2.0016 0.8538
38.1879 -9.9680 -2.0016 0.8538
38.5207 -8.5924 -2.0016 0.8538
36.2176 -5.3901 -1.8570 0.8636
34.5521 -2.6315 -1.7574 0.8704
39.4356 -1.5843 -2.0016 0.8538
39.4670 -0.1693 -2.0016 0.8538
39.4477 1.2460 -2.0016 0.8538
39.3777 2.6594 -2.0016 0.8538
38.8644 6.8726 -2.0016 0.8538
35.3617 8.9071 -1.8494 0.8641
35.0196 10.1692 -1.8494 0.8641
33.7252 13.8709 -1.8494 0.8641
33.2062 15.0712 -1.8494 0.8641
29.6403 17.5125 -1.7460 0.8712
29.9857 20.7520 -1.8494 0.8641
29.2224 21.8138 -1.8494 0.8641
27.2686 25.3438 -1.8880 0.8615
25.8570 29.8176 -2.0016 0.8538
24.7712 30.7256 -2.0016 0.8538
23.6536 31.5940 -2.0016 0.8538
22.5056 32.4218 -2.0016 0.8538
15.0639 36.4795 -2.0016 0.8538
12.4109 37.4653 -2.0016 0.8538
4.4831 15.3573 -0.8113 0.9379
3.4479 13.6075 -0.7119 0.9453
2.8317 13.1371 -0.6815 0.9476
2.3755 13.3239 -0.6864 0.9472
0.8488 12.3096 -0.6258 0.9518
-0.0343 11.9245 -0.6047 0.9534
-0.4628 11.9396 -0.6060 0.9533
-0.8849 11.8399 -0.6021 0.9536
-2.6318 11.8777 -0.6170 0.9524
-4.0293 11.9329 -0.6387 0.9508
-7.7468 11.9101 -0.7205 0.9447
-11.2228 11.9029 -0.8297 0.9366
-13.8912 11.8727 -0.9267 0.9294
-14.9301 11.8612 -0.9670 0.9265
-16.0653 11.8490 -1.0124 0.9232
-17.2480 11.7905 -1.0596 0.9197
-18.8076 11.8902 -1.1284 0.9147
-20.5260 11.9686 -1.2050 0.9092
-23.5659 11.5635 -1.3313 0.9002
-29.8830 13.3560 -1.6600 0.8771
-21.2761 8.6079 -1.1640 0.9122
-37.0937 13.4808 -2.0016 0.8538
-37.5532 12.1421 -2.0016 0.8538
-38.6399 8.0395 -2.0016 0.8538
-39.1167 5.2497 -2.0016 0.8538
-39.3923 2.4329 -2.0016 0.8538
-39.4543 1.0189 -2.0016 0.8538
-39.4258 -1.8112 -2.0016 0.8538
-39.1946 -4.6320 -2.0016 0.8538
-39.0034 -6.0343 -2.0016 0.8538
-38.4706 -8.8139 -2.0016 0.8538
-37.3018 -12.8940 -2.0016 0.8538
-36.2818 -15.5340 -2.0016 0.8538
-35.7015 -16.8249 -2.0016 0.8538
-35.0753 -18.0942 -2.0016 0.8538
-31.1268 -18.9977 -1.8494 0.8641
-29.6852 -21.1796 -1.8494 0.8641
-23.3770 -22.3598 -1.6405 0.8785
-21.7629 -22.3643 -1.5826 0.8825
-18.8457 -22.3724 -1.4835 0.8894
-15.1844 -22.5582 -1.3790 0.8968
-13.6109 -21.8749 -1.3066 0.9020
-12.8409 -22.3891 -1.3089 0.9018
-11.7964 -22.3920 -1.2835 0.9036
-10.7904 -22.3948 -1.2607 0.9052
-8.8763 -22.4001 -1.2219 0.9080
-7.9586 -22.3976 -1.2055 0.9092
-7.0658 -22.4001 -1.1912 0.9102
-5.3366 -22.4049 -1.1680 0.9119
-4.5157 -22.5115 -1.1644 0.9121
-3.6649 -22.4096 -1.1516 0.9131
-2.8444 -22.4119 -1.1457 0.9135
-1.2233 -22.4164 -1.1385 0.9140
0.2981 -17.3187 -0.8784 0.9330
3.2389 -36.3222 -1.8494 0.8641
5.8335 -35.9967 -1.8494 0.8641
7.1205 -35.7643 -1.8494 0.8641
9.0894 -38.4065 -2.0016 0.8538
17.0803 -35.5800 -2.0016 0.8538
20.8022 -33.5402 -2.0016 0.8538
21.9914 -32.7728 -2.0016 0.8538
23.1523 -31.9632 -2.0016 0.8538
24.2835 -31.1125 -2.0016 0.8538
26.9806 -25.8813 -1.8961 0.8609
27.2043 -24.2841 -1.8494 0.8641
28.0575 -23.2930 -1.8494 0.8641
28.8747 -22.2721 -1.8494 0.8641
29.6547 -21.2224 -1.8494 0.8641
30.1591 -18.4670 -1.7935 0.8679
32.3840 -16.7650 -1.8494 0.8641
34.3004 -16.2251 -1.9243 0.8590
36.7949 -14.2762 -2.0016 0.8538
38.1151 -10.2426 -2.0016 0.8538
13.7498 23.5825 -2.0016 0.8963
12.8955 24.0603 -2.0016 0.8963
7.4939 16.7683 -1.3467 0.9290
10.2373 25.3059 -2.0016 0.8963
7.7589 23.9994 -1.8494 0.9038
2.2103 12.9354 -0.9622 0.9487
1.6986 12.6601 -0.9366 0.9501
0.7649 12.3906 -0.9102 0.9514
-0.1211 12.0210 -0.8814 0.9529
-1.4024 11.8638 -0.8759 0.9532
-1.8560 11.9937 -0.8899 0.9525
-2.2776 11.8817 -0.8871 0.9526
-4.0773 11.7942 -0.9150 0.9512
-4.6017 11.9101 -0.9362 0.9501
-5.1003 11.9114 -0.9501 0.9494
-5.5510 11.7781 -0.9547 0.9491
-6.6720 11.8678 -0.9983 0.9469
-7.2246 11.8363 -1.0168 0.9459
-7.8567 11.8909 -1.0450 0.9444
-8.4871 11.8947 -1.0714 0.9431
-9.1078 11.8424 -1.0954 0.9418
-10.6981 12.0187 -1.1798 0.9375
-11.4599 11.9804 -1.2156 0.9357
-12.3919 12.0579 -1.2678 0.9330
-13.7166 11.5537 -1.3150 0.9306
-17.1174 11.5213 -1.5129 0.9206
-18.5327 11.5306 -1.6004 0.9162
-20.1241 11.5410 -1.7010 0.9112
-22.7227 10.9476 -1.8494 0.9038
-23.1006 10.1258 -1.8494 0.9038
-23.4488 9.2910 -1.8494 0.9038
-23.7669 8.4443 -1.8494 0.9038
-25.9458 8.1833 -1.9948 0.8966
-26.7652 5.3681 -2.0016 0.8963
-27.0811 3.4362 -2.0016 0.8963
-27.1868 2.4630 -2.0016 0.8963
-27.2934 0.5083 -2.0016 0.8963
-27.2597 -1.4490 -2.0016 0.8963
-25.8254 -2.3037 -1.9011 0.9012
-25.1293 -3.1533 -1.8570 0.9034
-26.5642 -6.2876 -2.0016 0.8963
-26.3216 -7.2361 -2.0016 0.8963
-23.6991 -13.5478 -2.0016 0.8963
-23.1981 -14.3889 -2.0016 0.8963
-22.6673 -15.2114 -2.0016 0.8963
-20.7269 -16.1785 -1.9279 0.8999
-19.3133 -16.2224 -1.8494 0.9038
-18.1011 -17.5647 -1.8494 0.9038
-17.4597 -18.2025 -1.8494 0.9038
-16.7958 -18.8168 -1.8494 0.9038
-16.1103 -19.4069 -1.8494 0.9038
-15.4041 -19.9720 -1.8494 0.9038
-11.5916 -22.3925 -1.8488 0.9038
-10.5928 -22.3953 -1.8165 0.9054
-9.6271 -22.3980 -1.7875 0.9068
-8.6905 -22.4006 -1.7617 0.9081
-2.6807 -22.4123 -1.6550 0.9134
-1.8688 -22.4146 -1.6492 0.9137
-1.0615 -22.4168 -1.6455 0.9139
0.4207 -17.2331 -1.2639 0.9332
1.3531 -22.4235 -1.6471 0.9138
2.4210 -25.1059 -1.8494 0.9038
4.2143 -24.8678 -1.8494 0.9038
6.8599 -24.2716 -1.8494 0.9038
7.7258 -24.0100 -1.8494 0.9038
13.7173 -23.6014 -2.0016 0.8963
14.5547 -23.0944 -2.0016 0.8963
15.3734 -22.5577 -2.0016 0.8963
16.1723 -21.9920 -2.0016 0.8963
16.9505 -21.3979 -2.0016 0.8963
20.4951 -18.0317 -2.0016 0.8963
22.3129 -15.7266 -2.0016 0.8963
22.8624 -14.9165 -2.0016 0.8963
23.3825 -14.0872 -2.0016 0.8963
24.3319 -12.3752 -2.0016 0.8963
24.7600 -11.4949 -2.0016 0.8963
25.1562 -10.5997 -2.0016 0.8963
25.5201 -9.6909 -2.0016 0.8963
25.8512 -8.7696 -2.0016 0.8963
26.1490 -7.8371 -2.0016 0.8963
26.4132 -6.8945 -2.0016 0.8963
26.8394 -4.9839 -2.0016 0.8963
27.1275 -3.0477 -2.0016 0.8963
27.2762 -1.0958 -2.0016 0.8963
27.2979 -0.1171 -2.0016 0.8963
26.8811 4.7535 -2.0016 0.8963
26.6934 5.7143 -2.0016 0.8963
24.4372 12.1661 -2.0016 0.8963
23.9853 13.0345 -2.0016 0.8963
21.8755 16.3295 -2.0016 0.8963
21.2759 17.1034 -2.0016 0.8963
15.5663 22.4250 -2.0016 0.8963
14.7523 22.9687 -2.0016 0.8963
13.0683 23.9668 -2.0016 0.8963
12.2006 24.4200 -2.0016 0.8963
7.5847 16.6488 -1.3414 0.9293
10.4191 25.2316 -2.0016 0.8963
9.5078 25.5889 -2.0016 0.8963
7.9315 23.9429 -1.8494 0.9038
3.4116 13.4640 -1.0184 0.9458
2.3192 13.0077 -0.9688 0.9484
1.8466 13.0494 -0.9663 0.9485
1.3310 12.6651 -0.9337 0.9502
0.4025 12.1970 -0.8948 0.9522
-0.0344 11.9576 -0.8768 0.9532
-0.4619 11.9170 -0.8744 0.9533
-0.8896 11.9029 -0.8752 0.9533
-2.2089 11.9896 -0.8939 0.9523
-2.6282 11.8615 -0.8908 0.9524
-3.0771 11.8569 -0.8982 0.9521
-4.0605 12.0253 -0.9306 0.9504
-5.0238 11.9701 -0.9518 0.9493
-6.0378 11.9129 -0.9793 0.9478
-6.5778 11.9000 -0.9970 0.9469
-7.6937 11.8285 -1.0346 0.9450
-10.4544 11.9165 -1.1623 0.9384
-12.0358 11.8813 -1.2400 0.9344
-15.6076 11.5114 -1.4220 0.9252
-18.2356 11.5286 -1.5819 0.9171
-19.7888 11.5388 -1.6796 0.9122
-21.5489 11.5503 -1.7927 0.9066
-22.6433 11.1108 -1.8494 0.9038
-23.0271 10.2918 -1.8494 0.9038
-21.0720 8.5253 -1.6667 0.9129
-23.7054 8.6152 -1.8494 0.9038
-25.4815 8.2389 -1.9636 0.8982
-26.2586 7.4616 -2.0016 0.8963
-26.5093 6.5153 -2.0016 0.8963
-26.7258 5.5606 -2.0016 0.8963
-27.0556 3.6310 -2.0016 0.8963
-27.1684 2.6585 -2.0016 0.8963
-27.2463 1.6828 -2.0016 0.8963
-27.2891 0.7047 -2.0016 0.8963
-27.2968 -0.2742 -2.0016 0.8963
-27.2694 -1.2527 -2.0016 0.8963
-25.0286 -3.8722 -1.8570 0.9034
-24.8746 -4.7673 -1.8571 0.9034
-26.6087 -6.0963 -2.0016 0.8963
-26.1034 -7.9875 -2.0016 0.8963
-25.8003 -8.9183 -2.0016 0.8963
-25.4639 -9.8375 -2.0016 0.8963
-25.0948 -10.7443 -2.0016 0.8963
-23.3011 -14.2215 -2.0016 0.8963
-22.1991 -15.8384 -1.9995 0.8964
-21.0330 -16.1752 -1.9455 0.8990
-19.5598 -16.1907 -1.8618 0.9032
-18.2271 -17.4340 -1.8494 0.9038
-17.5903 -18.0763 -1.8494 0.9038
-16.9308 -18.6954 -1.8494 0.9038
-16.2496 -19.2904 -1.8494 0.9038
-14.0842 -20.9238 -1.8494 0.9038
-10.7904 -22.3948 -1.8227 0.9051
-7.9586 -22.3976 -1.7428 0.9091
-5.2284 -16.5754 -1.2744 0.9327
-5.3366 -22.4049 -1.6887 0.9118
-4.4276 -22.0723 -1.6506 0.9137
-1.2233 -22.4164 -1.6461 0.9139
-0.4182 -22.4186 -1.6441 0.9140
2.2402 -25.1227 -1.8494 0.9038
4.9250 -24.7369 -1.8494 0.9038
10.0199 -25.3928 -2.0016 0.8963
13.5471 -23.6995 -2.0016 0.8963
15.2106 -22.6677 -2.0016 0.8963
16.0136 -22.1078 -2.0016 0.8963
16.7960 -21.5194 -2.0016 0.8963
17.5568 -20.9034 -2.0016 0.8963
18.2950 -20.2604 -2.0016 0.8963
19.6999 -18.8972 -2.0016 0.8963
21.0035 -17.4369 -2.0016 0.8963
21.6152 -16.6726 -2.0016 0.8963
22.1991 -15.8868 -2.0016 0.8963
23.2805 -14.2551 -2.0016 0.8963
24.2422 -12.5501 -2.0016 0.8963
25.0793 -10.7805 -2.0016 0.8963
25.4497 -9.8743 -2.0016 0.8963
25.7874 -8.9555 -2.0016 0.8963
10.5012 18.0107 -2.0016 0.9196
7.2240 17.8573 -1.8494 0.9255
6.5791 18.1048 -1.8494 0.9255
5.9257 18.3291 -1.8494 0.9255
3.8232 13.4564 -1.3430 0.9453
2.7485 13.2123 -1.2956 0.9472
1.7077 12.7277 -1.2329 0.9497
-0.5530 12.0304 -1.1562 0.9528
-1.4140 11.9616 -1.1564 0.9528
-1.8464 11.9319 -1.1592 0.9526
-2.2941 11.9677 -1.1699 0.9522
-4.5864 11.8704 -1.2217 0.9501
-5.1622 12.0559 -1.2591 0.9487
-6.2151 12.0470 -1.3014 0.9470
-7.1360 11.6911 -1.3150 0.9464
-8.1789 11.4627 -1.3519 0.9450
-9.4960 11.4713 -1.4297 0.9419
-10.9822 11.4811 -1.5253 0.9382
-11.8046 11.4865 -1.5813 0.9360
-12.6908 11.4923 -1.6437 0.9335
-13.6512 11.4986 -1.7136 0.9308
-14.6982 11.5054 -1.7920 0.9277
-15.5846 11.3221 -1.8494 0.9255
-15.9805 10.7561 -1.8494 0.9255
-16.7102 9.5832 -1.8494 0.9255
-17.0431 8.9779 -1.8494 0.9255
-19.3825 7.6799 -2.0016 0.9196
-20.0951 5.5542 -2.0016 0.9196
-20.2813 4.8301 -2.0016 0.9196
-20.4414 4.0998 -2.0016 0.9196
-20.5753 3.3642 -2.0016 0.9196
-20.6827 2.6243 -2.0016 0.9196
-20.7635 1.8810 -2.0016 0.9196
-20.8176 1.1354 -2.0016 0.9196
-20.8454 -0.3594 -2.0016 0.9196
-20.8191 -1.1066 -2.0016 0.9196
-20.5799 -3.3358 -2.0016 0.9196
-20.4471 -4.0716 -2.0016 0.9196
-19.6550 -6.9528 -2.0016 0.9196
-19.3931 -7.6531 -2.0016 0.9196
-19.1062 -8.3435 -2.0016 0.9196
-18.4591 -9.6913 -2.0016 0.9196
-18.0996 -10.3471 -2.0016 0.9196
-17.3117 -11.6174 -2.0016 0.9196
-16.8841 -12.2307 -2.0016 0.9196
-16.4347 -12.8282 -2.0016 0.9196
-15.9642 -13.4092 -2.0016 0.9196
-15.4731 -13.9730 -2.0016 0.9196
-14.9621 -14.5188 -2.0016 0.9196
-14.4319 -15.0459 -2.0016 0.9196
-13.8832 -15.5537 -2.0016 0.9196
-13.2843 -16.0026 -1.9967 0.9198
-11.5797 -16.1817 -1.9103 0.9232
-10.7294 -16.1902 -1.8647 0.9249
-10.0587 -16.4284 -1.8494 0.9255
-9.4632 -16.7785 -1.8494 0.9255
-8.8555 -17.1070 -1.8494 0.9255
-5.6624 -18.4121 -1.8494 0.9255
-4.3284 -18.7706 -1.8494 0.9255
1.1603 -19.2282 -1.8494 0.9255
1.8490 -19.1742 -1.8494 0.9255
2.5353 -19.0956 -1.8494 0.9255
3.2183 -18.9924 -1.8494 0.9255
5.4245 -19.1926 -1.9148 0.9230
6.3792 -19.8251 -1.9994 0.9197
7.0935 -19.6046 -2.0016 0.9196
7.7919 -19.3377 -2.0016 0.9196
2.2402 -4.1937 -0.4565 0.9811
10.4764 -18.0251 -2.0016 0.9196
11.1159 -17.6379 -2.0016 0.9196
11.7412 -17.2280 -2.0016 0.9196
12.3513 -16.7960 -2.0016 0.9196
14.0835 -15.3725 -2.0016 0.9196
15.1489 -14.3237 -2.0016 0.9196
15.6528 -13.7714 -2.0016 0.9196
16.1365 -13.2013 -2.0016 0.9196
17.0410 -12.0109 -2.0016 0.9196
17.4607 -11.3922 -2.0016 0.9196
18.2323 -10.1116 -2.0016 0.9196
18.5831 -9.4514 -2.0016 0.9196
19.4905 -7.4013 -2.0016 0.9196
19.7434 -6.6977 -2.0016 0.9196
19.9708 -5.9855 -2.0016 0.9196
20.1726 -5.2656 -2.0016 0.9196
20.4981 -3.8064 -2.0016 0.9196
20.6214 -3.0690 -2.0016 0.9196
20.8483 -0.0894 -2.0016 0.9196
20.8011 1.4049 -2.0016 0.9196
20.7374 2.1498 -2.0016 0.9196
20.3866 4.3642 -2.0016 0.9196
19.8001 6.5281 -2.0016 0.9196
19.5533 7.2338 -2.0016 0.9196
19.2814 7.9303 -2.0016 0.9196
18.9846 8.6165 -2.0016 0.9196
17.1434 11.8643 -2.0016 0.9196
16.7070 12.4714 -2.0016 0.9196
15.2712 14.1933 -2.0016 0.9196
13.6588 15.7511 -2.0016 0.9196
13.0853 16.2307 -2.0016 0.9196
12.4949 16.6894 -2.0016 0.9196
11.8885 17.1267 -2.0016 0.9196
9.9807 18.3042 -2.0016 0.9196
7.3523 17.8048 -1.8494 0.9255
6.7093 18.0570 -1.8494 0.9255
4.2586 14.5882 -1.4590 0.9408
3.3632 13.2729 -1.3145 0.9465
2.8383 13.1679 -1.2932 0.9473
2.2855 12.8192 -1.2501 0.9490
1.2988 12.3584 -1.1930 0.9513
0.8492 12.3150 -1.1851 0.9516
-0.9052 12.1111 -1.1660 0.9524
-1.3221 11.9193 -1.1513 0.9530
-2.2161 12.0289 -1.1743 0.9520
-2.6604 12.0067 -1.1807 0.9518
-3.5469 11.8955 -1.1917 0.9513
-4.1207 12.2036 -1.2366 0.9496
-4.4891 11.8722 -1.2186 0.9503
-5.4752 11.8373 -1.2521 0.9489
-7.4682 11.4818 -1.3150 0.9464
-8.6877 11.4660 -1.3811 0.9438
-10.0671 11.4751 -1.4655 0.9405
-13.4519 11.4973 -1.6989 0.9314
-14.4804 11.5040 -1.7755 0.9284
-15.5027 11.4340 -1.8494 0.9255
-16.9780 9.1003 -1.8494 0.9255
-17.2934 8.4857 -1.8494 0.9255
-19.3212 7.8169 -2.0010 0.9197
-19.8374 6.4140 -2.0016 0.9196
-20.5505 3.5122 -2.0016 0.9196
-20.7494 2.0304 -2.0016 0.9196
-20.8088 1.2852 -2.0016 0.9196
-20.7789 -1.7029 -2.0016 0.9196
-20.7044 -2.4468 -2.0016 0.9196
-20.4759 -3.9243 -2.0016 0.9196
-20.1420 -5.3816 -2.0016 0.9196
-19.4476 -7.5133 -2.0016 0.9196
-19.1657 -8.2058 -2.0016 0.9196
-18.8592 -8.8877 -2.0016 0.9196
-18.1737 -10.2164 -2.0016 0.9196
-17.7958 -10.8614 -2.0016 0.9196
-16.5266 -12.7096 -2.0016 0.9196
-16.0602 -13.2939 -2.0016 0.9196
-15.5732 -13.8612 -2.0016 0.9196
-15.0662 -14.4107 -2.0016 0.9196
-13.9948 -15.4534 -2.0016 0.9196
-12.6586 -16.1704 -1.9715 0.9208
-10.1767 -16.3556 -1.8494 0.9255
-9.5837 -16.7099 -1.8494 0.9255
-7.7340 -17.6424 -1.8494 0.9255
-7.0964 -17.9084 -1.8494 0.9255
-5.2089 -16.5134 -1.6624 0.9328
-5.1324 -18.5669 -1.8494 0.9255
-3.1090 -19.0106 -1.8494 0.9255
-2.4254 -19.1099 -1.8494 0.9255
0.2957 -17.1821 -1.6498 0.9333
2.3978 -19.1133 -1.8494 0.9255
3.0816 -19.0151 -1.8494 0.9255
4.4363 -18.7454 -1.8494 0.9255
5.2155 -18.9739 -1.8892 0.9240
6.9522 -19.6552 -2.0016 0.9196
8.3429 -19.1064 -2.0016 0.9196
9.0226 -18.7950 -2.0016 0.9196
10.3463 -18.1001 -2.0016 0.9196
12.2301 -16.8844 -2.0016 0.9196
13.9725 -15.4735 -2.0016 0.9196
14.5183 -14.9626 -2.0016 0.9196
15.0454 -14.4324 -2.0016 0.9196
16.0411 -13.3171 -2.0016 0.9196
16.5082 -12.7334 -2.0016 0.9196
16.9542 -12.1333 -2.0016 0.9196
17.3783 -11.5176 -2.0016 0.9196
17.7801 -10.8871 -2.0016 0.9196
18.8463 -8.9149 -2.0016 0.9196
19.4368 -7.5414 -2.0016 0.9196
19.6947 -6.8396 -2.0016 0.9196
20.1342 -5.4106 -2.0016 0.9196
7.3546 13.7222 -1.8494 0.9392
6.8579 13.9771 -1.8494 0.9392
6.3523 14.2140 -1.8494 0.9392
5.8386 14.4326 -1.8494 0.9392
5.3173 14.6327 -1.8494 0.9392
4.7893 14.8139 -1.8494 0.9392
3.8232 13.4564 -1.6617 0.9452
3.2423 13.1944 -1.6139 0.9467
2.1720 12.7116 -1.5318 0.9494
-0.5246 11.4125 -1.3571 0.9550
-0.9359 11.4152 -1.3605 0.9549
-1.3497 11.4179 -1.3657 0.9547
-1.7673 11.4207 -1.3728 0.9545
-2.1897 11.4234 -1.3816 0.9542
-2.6182 11.4263 -1.3925 0.9539
-3.0540 11.4291 -1.4053 0.9535
-3.9531 11.4350 -1.4372 0.9524
-5.3938 11.4444 -1.5029 0.9503
-5.9060 11.4478 -1.5301 0.9494
-7.5731 11.4617 -1.6318 0.9462
-8.8190 11.4669 -1.7184 0.9434
-9.4960 11.4713 -1.7689 0.9418
-10.2151 11.4760 -1.8250 0.9400
-11.5403 10.4504 -1.8494 0.9392
-11.9076 10.0299 -1.8494 0.9392
-12.2596 9.5965 -1.8494 0.9392
-12.9158 8.6933 -1.8494 0.9392
-13.2735 8.2584 -1.8570 0.9390
-15.1802 7.3137 -2.0016 0.9344
-15.4327 6.7647 -2.0016 0.9344
-15.6653 6.2070 -2.0016 0.9344
-16.2412 4.4890 -2.0016 0.9344
-16.3917 3.9037 -2.0016 0.9344
-16.6293 2.7190 -2.0016 0.9344
-16.7814 1.5203 -2.0016 0.9344
-16.8251 0.9176 -2.0016 0.9344
-16.8472 0.3138 -2.0016 0.9344
-16.8477 -0.2905 -2.0016 0.9344
-16.8264 -0.8944 -2.0016 0.9344
-16.7190 -2.0980 -2.0016 0.9344
-16.5257 -3.2907 -2.0016 0.9344
-16.3971 -3.8811 -2.0016 0.9344
-16.2474 -4.4666 -2.0016 0.9344
-15.4420 -6.7434 -2.0016 0.9344
-15.1903 -7.2927 -2.0016 0.9344
-14.9190 -7.8327 -2.0016 0.9344
-14.6286 -8.3626 -2.0016 0.9344
-14.3193 -8.8817 -2.0016 0.9344
-13.9917 -9.3894 -2.0016 0.9344
-12.9025 -10.8376 -2.0016 0.9344
-9.8059 -13.7030 -2.0016 0.9344
-8.7987 -14.3705 -2.0016 0.9344
-7.2047 -15.2322 -2.0016 0.9344
-6.6539 -15.4807 -2.0016 0.9344
-5.5191 -15.8939 -1.9986 0.9345
-4.3440 -16.1672 -1.9886 0.9348
-3.7288 -16.1704 -1.9712 0.9353
-3.1233 -16.1731 -1.9566 0.9358
-0.1863 -16.2636 -1.9320 0.9366
2.8152 -16.6133 -2.0016 0.9344
3.4091 -16.5017 -2.0016 0.9344
4.5829 -16.2150 -2.0016 0.9344
5.7331 -15.8448 -2.0016 0.9344
6.2975 -15.6291 -2.0016 0.9344
6.8539 -15.3933 -2.0016 0.9344
7.4014 -15.1376 -2.0016 0.9344
8.4672 -14.5683 -2.0016 0.9344
8.9841 -14.2553 -2.0016 0.9344
9.4894 -13.9240 -2.0016 0.9344
10.4629 -13.2082 -2.0016 0.9344
11.8207 -12.0083 -2.0016 0.9344
13.7729 -9.7075 -2.0016 0.9344
14.1121 -9.2074 -2.0016 0.9344
15.2834 -7.0954 -2.0016 0.9344
15.5280 -6.5428 -2.0016 0.9344
15.7526 -5.9818 -2.0016 0.9344
15.9570 -5.4132 -2.0016 0.9344
16.1408 -4.8376 -2.0016 0.9344
16.3039 -4.2557 -2.0016 0.9344
16.5669 -3.0764 -2.0016 0.9344
16.6666 -2.4804 -2.0016 0.9344
16.8015 -1.2796 -2.0016 0.9344
16.8366 -0.6764 -2.0016 0.9344
16.6873 2.3373 -2.0016 0.9344
16.4768 3.5272 -2.0016 0.9344
16.1817 4.6989 -2.0016 0.9344
16.0028 5.2761 -2.0016 0.9344
15.8034 5.8465 -2.0016 0.9344
15.5836 6.4094 -2.0016 0.9344
15.3437 6.9640 -2.0016 0.9344
14.8052 8.0457 -2.0016 0.9344
14.5072 8.5714 -2.0016 0.9344
14.1906 9.0860 -2.0016 0.9344
13.5029 10.0796 -2.0016 0.9344
13.1328 10.5573 -2.0016 0.9344
12.7459 11.0214 -2.0016 0.9344
11.4887 12.3263 -2.0016 0.9344
11.0393 12.7303 -2.0016 0.9344
10.0987 13.4887 -2.0016 0.9344
9.6085 13.8421 -2.0016 0.9344
8.5918 14.4951 -2.0016 0.9344
7.4532 13.6689 -1.8494 0.9392
6.4544 14.1679 -1.8494 0.9392
4.8958 14.7791 -1.8494 0.9392
4.2585 14.5881 -1.8052 0.9406
3.3563 13.2458 -1.6231 0.9464
1.7733 12.5318 -1.5034 0.9503
1.2943 12.3157 -1.4710 0.9513
-0.8531 11.4147 -1.3597 0.9549
-2.1045 11.4229 -1.3797 0.9543
-2.5317 11.4257 -1.3901 0.9540
-2.9659 11.4285 -1.4025 0.9536
-3.4085 11.4314 -1.4170 0.9531
-4.8015 11.4406 -1.4738 0.9513
-5.8017 11.4471 -1.5244 0.9496
-7.4527 11.4579 -1.6236 0.9464
-8.0544 11.4619 -1.6641 0.9451
-9.3570 11.4704 -1.7584 0.9421
-10.6804 11.3277 -1.8494 0.9392
-11.4648 10.5332 -1.8494 0.9392
-11.8351 10.1154 -1.8494 0.9392
-12.1902 9.6845 -1.8494 0.9392
-12.5296 9.2412 -1.8494 0.9392
-12.8528 8.7860 -1.8494 0.9392
-13.1596 8.3195 -1.8494 0.9392
-15.1271 7.4227 -2.0016 0.9344
-15.3836 6.8756 -2.0016 0.9344
-15.8367 5.7555 -2.0016 0.9344
-16.0329 5.1839 -2.0016 0.9344
-16.3632 4.0216 -2.0016 0.9344
-16.4969 3.4324 -2.0016 0.9344
-16.7701 1.6410 -2.0016 0.9344
-16.8181 1.0387 -2.0016 0.9344
-16.8445 0.4350 -2.0016 0.9344
-16.7939 -1.3763 -2.0016 0.9344
-16.7337 -1.9776 -2.0016 0.9344
-16.6520 -2.5763 -2.0016 0.9344
-16.4246 -3.7630 -2.0016 0.9344
-16.1127 -4.9304 -2.0016 0.9344
-15.9256 -5.5049 -2.0016 0.9344
-15.4901 -6.6321 -2.0016 0.9344
-14.9750 -7.7251 -2.0016 0.9344
-14.3829 -8.7784 -2.0016 0.9344
-12.9802 -10.7444 -2.0016 0.9344
-12.5866 -11.2029 -2.0016 0.9344
-12.1768 -11.6470 -2.0016 0.9344
-11.3108 -12.4897 -2.0016 0.9344
-10.3867 -13.2682 -2.0016 0.9344
-9.9043 -13.6320 -2.0016 0.9344
-7.8537 -14.9079 -2.0016 0.9344
-6.2075 -15.6651 -2.0016 0.9344
-4.4689 -16.1665 -1.9924 0.9347
-3.2441 -16.1726 -1.9593 0.9357
-2.6452 -16.1749 -1.9469 0.9361
-1.4661 -16.1781 -1.9296 0.9367
-0.3031 -16.2476 -1.9303 0.9366
0.8746 -16.4641 -1.9585 0.9357
1.4834 -16.6357 -1.9839 0.9349
2.0924 -16.6788 -1.9967 0.9345
5.0457 -16.0769 -2.0016 0.9344
5.6189 -15.8857 -2.0016 0.9344
6.1849 -15.6740 -2.0016 0.9344
6.7429 -15.4422 -2.0016 0.9344
7.2922 -15.1905 -2.0016 0.9344
2.2119 -4.2133 -0.5653 0.9810
8.3621 -14.6288 -2.0016 0.9344
8.8813 -14.3196 -2.0016 0.9344
9.3890 -13.9920 -2.0016 0.9344
10.3675 -13.2831 -2.0016 0.9344
11.7340 -12.0930 -2.0016 0.9344
12.1600 -11.6646 -2.0016 0.9344
14.0455 -9.3087 -2.0016 0.9344
14.9638 -7.7467 -2.0016 0.9344
15.2320 -7.2052 -2.0016 0.9344
15.4805 -6.6544 -2.0016 0.9344
15.9176 -5.5279 -2.0016 0.9344
16.1056 -4.9536 -2.0016 0.9344
16.2728 -4.3730 -2.0016 0.9344
7.0891 12.1585 -1.9942 0.9447
5.7493 11.7178 -1.8494 0.9486
5.3255 11.9164 -1.8494 0.9486
4.8948 12.0996 -1.8494 0.9486
4.4578 12.2674 -1.8494 0.9486
2.6583 12.7786 -1.8494 0.9486
1.6755 12.4876 -1.7852 0.9504
1.2006 12.2734 -1.7473 0.9514
0.7449 12.0679 -1.7131 0.9523
-0.1177 11.6788 -1.6548 0.9539
-1.3497 11.4179 -1.6291 0.9546
-2.1897 11.4234 -1.6480 0.9541
-2.6182 11.4263 -1.6609 0.9537
-3.0540 11.4291 -1.6762 0.9533
-3.4985 11.4320 -1.6939 0.9528
-3.9531 11.4350 -1.7143 0.9523
-4.8990 11.4412 -1.7635 0.9510
-5.3938 11.4444 -1.7926 0.9502
-5.9060 11.4478 -1.8252 0.9493
-6.3963 11.3775 -1.8494 0.9486
-7.9571 10.3462 -1.8494 0.9486
-8.3230 10.0543 -1.8494 0.9486
-8.6781 9.7494 -1.8494 0.9486
-9.3545 9.1024 -1.8494 0.9486
-9.6749 8.7611 -1.8494 0.9486
-10.5407 8.2510 -1.8967 0.9474
-12.2542 7.0277 -2.0016 0.9445
-12.4983 6.5838 -2.0016 0.9445
-13.3112 4.7294 -2.0016 0.9445
-13.6159 3.7633 -2.0016 0.9445
-13.7421 3.2727 -2.0016 0.9445
-14.0140 1.7782 -2.0016 0.9445
-14.0688 1.2745 -2.0016 0.9445
-14.1054 0.7693 -2.0016 0.9445
-14.1243 -0.2436 -2.0016 0.9445
-14.1065 -0.7498 -2.0016 0.9445
-14.0165 -1.7588 -2.0016 0.9445
-13.8544 -2.7588 -2.0016 0.9445
-12.7536 -3.0187 -1.8570 0.9484
-12.6372 -3.4741 -1.8570 0.9484
-12.3557 -4.3708 -1.8570 0.9484
-12.1911 -4.8110 -1.8570 0.9484
-12.0107 -5.2450 -1.8570 0.9484
-12.7348 -6.1139 -2.0016 0.9445
-12.2639 -7.0108 -2.0016 0.9445
-11.7300 -7.8717 -2.0016 0.9445
-10.8169 -9.0857 -2.0016 0.9445
-10.1380 -9.8375 -2.0016 0.9445
-9.7787 -10.1947 -2.0016 0.9445
-9.0230 -10.8693 -2.0016 0.9445
-8.6274 -11.1858 -2.0016 0.9445
-8.2208 -11.4880 -2.0016 0.9445
-6.4941 -12.5452 -2.0016 0.9445
-6.0401 -12.7700 -2.0016 0.9445
-5.5783 -12.9783 -2.0016 0.9445
-4.6339 -13.3447 -2.0016 0.9445
-3.1742 -13.7652 -2.0016 0.9445
-2.6786 -13.8701 -2.0016 0.9445
-1.6777 -14.0264 -2.0016 0.9445
-1.1737 -14.0776 -2.0016 0.9445
-0.6682 -14.1106 -2.0016 0.9445
-0.1618 -14.1255 -2.0016 0.9445
0.3448 -14.1222 -2.0016 0.9445
0.8509 -14.1008 -2.0016 0.9445
1.8592 -14.0035 -2.0016 0.9445
2.3601 -13.9278 -2.0016 0.9445
2.8580 -13.8343 -2.0016 0.9445
3.8421 -13.5939 -2.0016 0.9445
4.3270 -13.4474 -2.0016 0.9445
4.8064 -13.2836 -2.0016 0.9445
5.2796 -13.1027 -2.0016 0.9445
6.2050 -12.6907 -2.0016 0.9445
7.0985 -12.2134 -2.0016 0.9445
7.5319 -11.9510 -2.0016 0.9445
7.9555 -11.6733 -2.0016 0.9445
8.3689 -11.3805 -2.0016 0.9445
8.7716 -11.0731 -2.0016 0.9445
10.6059 -9.3311 -2.0016 0.9445
10.9337 -8.9448 -2.0016 0.9445
11.5466 -8.1383 -2.0016 0.9445
12.3537 -6.8514 -2.0016 0.9445
12.5914 -6.4040 -2.0016 0.9445
12.8129 -5.9484 -2.0016 0.9445
13.2063 -5.0149 -2.0016 0.9445
13.3776 -4.5382 -2.0016 0.9445
13.5317 -4.0556 -2.0016 0.9445
13.7876 -3.0754 -2.0016 0.9445
13.8890 -2.5791 -2.0016 0.9445
13.9725 -2.0794 -2.0016 0.9445
14.0856 -1.0728 -2.0016 0.9445
14.1263 -0.0606 -2.0016 0.9445
13.9106 2.4599 -2.0016 0.9445
13.8134 2.9571 -2.0016 0.9445
13.6985 3.4505 -2.0016 0.9445
12.8635 5.8383 -2.0016 0.9445
12.6459 6.2958 -2.0016 0.9445
11.0100 8.8507 -2.0016 0.9445
10.3474 9.6170 -2.0016 0.9445
9.9959 9.9818 -2.0016 0.9445
9.6316 10.3338 -2.0016 0.9445
8.0554 11.6046 -2.0016 0.9445
7.6341 11.8860 -2.0016 0.9445
5.8335 11.6761 -1.8494 0.9486
4.5460 12.2350 -1.8494 0.9486
4.1044 12.3901 -1.8494 0.9486
3.6575 12.5293 -1.8494 0.9486
3.2059 12.6524 -1.8494 0.9486
2.7502 12.7592 -1.8494 0.9486
0.8349 12.1085 -1.7197 0.9521
0.3929 11.9091 -1.6883 0.9530
-0.0338 11.7167 -1.6601 0.9538
-0.8531 11.4147 -1.6219 0.9548
-1.2876 8.7364 -1.2512 0.9650
-2.1045 11.4229 -1.6457 0.9542
-2.9659 11.4285 -1.6729 0.9534
-4.8015 11.4406 -1.7580 0.9511
-6.3143 11.4232 -1.8494 0.9486
-6.7198 11.1895 -1.8494 0.9486
-7.1167 10.9414 -1.8494 0.9486
-7.5044 10.6792 -1.8494 0.9486
-7.8825 10.4032 -1.8494 0.9486
-8.2504 10.1139 -1.8494 0.9486
-9.2888 9.1695 -1.8494 0.9486
-9.6115 8.8306 -1.8494 0.9486
-9.9220 8.4803 -1.8494 0.9486
-11.1695 8.2381 -1.9665 0.9455
-11.6446 7.9601 -1.9986 0.9446
-12.4506 6.6736 -2.0016 0.9445
-12.6819 6.2229 -2.0016 0.9445
-12.8969 5.7642 -2.0016 0.9445
-13.4413 4.3460 -2.0016 0.9445
-13.7181 3.3716 -2.0016 0.9445
-13.9245 2.3798 -2.0016 0.9445
-14.0592 1.3758 -2.0016 0.9445
-14.0995 0.8708 -2.0016 0.9445
-14.0792 -1.1538 -2.0016 0.9445
-14.0288 -1.6579 -2.0016 0.9445
-13.9603 -2.1598 -2.0016 0.9445
-13.8739 -2.6590 -2.0016 0.9445
-12.7750 -2.9269 -1.8570 0.9484
-12.6618 -3.3830 -1.8570 0.9484
-12.3869 -4.2817 -1.8570 0.9484
-12.2254 -4.7231 -1.8570 0.9484
-11.8555 -5.5871 -1.8570 0.9484
-11.4996 -8.2046 -2.0016 0.9445
-10.8820 -9.0076 -2.0016 0.9445
-9.4825 -10.4708 -2.0016 0.9445
-9.1010 -10.8041 -2.0016 0.9445
-7.4629 -11.9941 -2.0016 0.9445
-6.5842 -12.4981 -2.0016 0.9445
-5.6716 -12.9379 -2.0016 0.9445
-5.2041 -13.1329 -2.0016 0.9445
-4.7298 -13.3110 -2.0016 0.9445
-4.2496 -13.4721 -2.0016 0.9445
-3.7638 -13.6158 -2.0016 0.9445
-1.2750 -14.0687 -2.0016 0.9445
-0.2635 -14.1239 -2.0016 0.9445
1.2547 -14.0706 -2.0016 0.9445
2.7584 -13.8545 -2.0016 0.9445
4.7106 -13.3179 -2.0016 0.9445
2.2118 -4.2132 -0.6742 0.9810
7.0104 -12.2642 -2.0016 0.9445
7.8713 -11.7302 -2.0016 0.9445
8.6917 -11.1360 -2.0016 0.9445
9.0854 -10.8172 -2.0016 0.9445
10.5385 -9.4072 -2.0016 0.9445
11.1855 -8.6278 -2.0016 0.9445
11.4877 -8.2212 -2.0016 0.9445
12.3041 -6.9401 -2.0016 0.9445
13.3446 -4.6343 -2.0016 0.9445
6.1084 10.4766 -1.9978 0.9520
5.4651 10.1968 -1.9059 0.9542
4.9449 10.0782 -1.8494 0.9555
4.5804 10.2491 -1.8494 0.9555
3.4533 10.6816 -1.8494 0.9555
1.8908 11.0656 -1.8494 0.9555
1.4928 11.1263 -1.8494 0.9555
0.6916 11.2047 -1.8494 0.9555
0.2895 11.2223 -1.8494 0.9555
-0.5155 11.2141 -1.8494 0.9555
-2.1134 11.0253 -1.8494 0.9555
-2.5074 10.9424 -1.8494 0.9555
-2.8981 10.8455 -1.8494 0.9555
-3.2851 10.7346 -1.8494 0.9555
-4.0459 10.4716 -1.8494 0.9555
-4.4188 10.3198 -1.8494 0.9555
-4.7859 10.1547 -1.8494 0.9555
-5.5014 9.7856 -1.8494 0.9555
-6.5203 9.1383 -1.8494 0.9555
-6.8438 8.8986 -1.8494 0.9555
-8.4700 8.2417 -1.9469 0.9532
-10.0794 6.7842 -2.0016 0.9519
-11.2955 4.4756 -2.0016 0.9519
-11.4487 4.0677 -2.0016 0.9519
-11.5872 3.6546 -2.0016 0.9519
-11.7108 3.2368 -2.0016 0.9519
-11.9126 2.3892 -2.0016 0.9519
-11.9906 1.9606 -2.0016 0.9519
-12.1003 1.0962 -2.0016 0.9519
-12.1318 0.6616 -2.0016 0.9519
-12.1478 0.2262 -2.0016 0.9519
-12.1481 -0.2095 -2.0016 0.9519
-12.1018 -1.0795 -2.0016 0.9519
-12.0553 -1.5127 -2.0016 0.9519
-11.9933 -1.9440 -2.0016 0.9519
-11.2377 -2.2377 -1.8876 0.9546
-10.9692 -2.5964 -1.8570 0.9553
-10.7549 -3.3758 -1.8570 0.9553
-10.4853 -4.1378 -1.8570 0.9553
-10.3302 -4.5111 -1.8570 0.9553
-10.1618 -4.8786 -1.8570 0.9553
-9.7861 -5.5943 -1.8570 0.9553
-10.0887 -6.7703 -2.0016 0.9519
-9.8395 -7.1277 -2.0016 0.9519
-9.5776 -7.4759 -2.0016 0.9519
-9.3034 -7.8145 -2.0016 0.9519
-9.0172 -8.1430 -2.0016 0.9519
-8.7195 -8.4611 -2.0016 0.9519
-8.4105 -8.7683 -2.0016 0.9519
-8.0907 -9.0642 -2.0016 0.9519
-7.4203 -9.6207 -2.0016 0.9519
-6.7118 -10.1278 -2.0016 0.9519
-6.3443 -10.3619 -2.0016 0.9519
-5.9687 -10.5827 -2.0016 0.9519
-5.5854 -10.7899 -2.0016 0.9519
-4.7978 -11.1624 -2.0016 0.9519
-4.3945 -11.3273 -2.0016 0.9519
-3.5715 -11.6131 -2.0016 0.9519
-0.5747 -12.1363 -2.0016 0.9519
-0.1392 -12.1491 -2.0016 0.9519
0.7318 -12.1278 -2.0016 0.9519
1.5991 -12.0442 -2.0016 0.9519
2.4581 -11.8986 -2.0016 0.9519
2.8832 -11.8028 -2.0016 0.9519
3.3045 -11.6919 -2.0016 0.9519
4.1339 -11.4250 -2.0016 0.9519
4.5409 -11.2694 -2.0016 0.9519
5.3368 -10.9150 -2.0016 0.9519
7.1980 -9.7882 -2.0016 0.9519
7.5443 -9.5238 -2.0016 0.9519
8.2074 -8.9587 -2.0016 0.9519
8.5234 -8.6586 -2.0016 0.9519
10.8297 -5.5080 -2.0016 0.9519
11.0202 -5.1161 -2.0016 0.9519
11.5058 -3.9032 -2.0016 0.9519
11.7560 -3.0686 -2.0016 0.9519
11.9457 -2.2182 -2.0016 0.9519
12.0175 -1.7885 -2.0016 0.9519
12.1148 -0.9227 -2.0016 0.9519
12.1223 0.8187 -2.0016 0.9519
12.0851 1.2528 -2.0016 0.9519
12.0324 1.6854 -2.0016 0.9519
11.9643 2.1157 -2.0016 0.9519
11.8807 2.5433 -2.0016 0.9519
11.7819 2.9677 -2.0016 0.9519
11.6679 3.3882 -2.0016 0.9519
11.5389 3.8044 -2.0016 0.9519
11.3951 4.2156 -2.0016 0.9519
11.2366 4.6215 -2.0016 0.9519
11.0637 5.0214 -2.0016 0.9519
9.4695 7.6124 -2.0016 0.9519
8.5973 8.5852 -2.0016 0.9519
7.6257 9.4587 -2.0016 0.9519
6.5659 10.2229 -2.0016 0.9519
5.0173 10.0424 -1.8494 0.9555
4.6540 10.2158 -1.8494 0.9555
3.9099 10.5231 -1.8494 0.9555
3.1458 10.7762 -1.8494 0.9555
2.7574 10.8821 -1.8494 0.9555
2.3654 10.9740 -1.8494 0.9555
1.9704 11.0517 -1.8494 0.9555
1.5729 11.1153 -1.8494 0.9555
0.7723 11.1994 -1.8494 0.9555
-0.0323 11.2259 -1.8494 0.9555
-0.4348 11.2176 -1.8494 0.9555
-0.8367 11.1948 -1.8494 0.9555
-1.2376 11.1576 -1.8494 0.9555
-2.0340 11.0402 -1.8494 0.9555
-3.2077 10.7579 -1.8494 0.9555
-3.5914 10.6360 -1.8494 0.9555
-5.7796 9.6239 -1.8494 0.9555
-6.1209 9.4105 -1.8494 0.9555
-6.7796 8.9476 -1.8494 0.9555
-7.0960 8.6988 -1.8494 0.9555
-7.7843 8.2561 -1.8693 0.9550
-8.3515 8.2443 -1.9332 0.9535
-8.9161 8.1917 -1.9946 0.9521
-9.2279 7.8871 -1.9998 0.9520
-9.5131 7.5577 -2.0016 0.9519
-10.0303 6.8566 -2.0016 0.9519
-10.4959 6.1201 -2.0016 0.9519
-10.9075 5.3522 -2.0016 0.9519
-11.0924 4.9577 -2.0016 0.9519
-11.2630 4.5568 -2.0016 0.9519
-11.5606 3.7379 -2.0016 0.9519
-11.7988 2.8998 -2.0016 0.9519
-11.8951 2.4749 -2.0016 0.9519
-11.9762 2.0468 -2.0016 0.9519
-12.1458 0.3137 -2.0016 0.9519
-12.1093 -0.9924 -2.0016 0.9519
-10.3624 -4.4366 -1.8570 0.9553
-10.0178 -5.1679 -1.8570 0.9553
-10.3708 -6.3297 -2.0016 0.9519
-10.1372 -6.6975 -2.0016 0.9519
-9.8906 -7.0567 -2.0016 0.9519
-8.7802 -8.3981 -2.0016 0.9519
-8.4734 -8.7075 -2.0016 0.9519
-7.1415 -9.8294 -2.0016 0.9519
-6.7845 -10.0792 -2.0016 0.9519
-6.4188 -10.3160 -2.0016 0.9519
-6.0448 -10.5395 -2.0016 0.9519
-5.6630 -10.7494 -2.0016 0.9519
-5.2739 -10.9456 -2.0016 0.9519
-4.4759 -11.2954 -2.0016 0.9519
-4.0681 -11.4486 -2.0016 0.9519
-3.2371 -11.7107 -2.0016 0.9519
-2.8152 -11.8192 -2.0016 0.9519
-2.3896 -11.9126 -2.0016 0.9519
-1.9609 -11.9906 -2.0016 0.9519
-0.6620 -12.1318 -2.0016 0.9519
-0.2266 -12.1478 -2.0016 0.9519
0.2091 -12.1481 -2.0016 0.9519
0.6445 -12.1328 -2.0016 0.9519
1.0791 -12.1019 -2.0016 0.9519
1.5123 -12.0554 -2.0016 0.9519
2.7981 -11.8233 -2.0016 0.9519
3.2203 -11.7153 -2.0016 0.9519
3.6382 -11.5924 -2.0016 0.9519
5.2581 -10.9532 -2.0016 0.9519
6.0295 -10.5482 -2.0016 0.9519
6.7700 -10.0890 -2.0016 0.9519
8.4608 -8.7197 -2.0016 0.9519
8.7680 -8.4108 -2.0016 0.9519
9.0640 -8.0910 -2.0016 0.9519
9.8804 -7.0709 -2.0016 0.9519
10.3617 -6.3447 -2.0016 0.9519
10.7897 -5.5858 -2.0016 0.9519
10.9831 -5.1953 -2.0016 0.9519
11.1623 -4.7982 -2.0016 0.9519
11.4775 -3.9859 -2.0016 0.9519
11.7336 -3.1531 -2.0016 0.9519
5.3637 9.1993 -2.0016 0.9576
4.6735 9.5250 -1.9942 0.9577
4.1240 9.2278 -1.8998 0.9597
2.0039 9.6329 -1.8494 0.9607
1.6572 9.6985 -1.8494 0.9607
0.6062 9.8204 -1.8494 0.9607
-0.4518 9.8287 -1.8494 0.9607
-0.8039 9.8062 -1.8494 0.9607
-1.8523 9.6631 -1.8494 0.9607
-2.5400 9.5056 -1.8494 0.9607
-2.8792 9.4084 -1.8494 0.9607
-3.2147 9.2991 -1.8494 0.9607
-3.5461 9.1778 -1.8494 0.9607
-5.1261 8.3982 -1.8494 0.9607
-5.4561 8.2578 -1.8603 0.9605
-6.3376 8.2404 -1.9540 0.9586
-7.0706 7.9434 -1.9988 0.9576
-7.3608 7.6952 -2.0016 0.9576
-7.8934 7.1479 -2.0016 0.9576
-8.3853 6.5638 -2.0016 0.9576
-8.6153 6.2590 -2.0016 0.9576
-9.0416 5.6255 -2.0016 0.9576
-10.1557 3.2031 -2.0016 0.9576
-10.6054 0.9608 -2.0016 0.9576
-10.6330 0.5799 -2.0016 0.9576
-10.6470 0.1983 -2.0016 0.9576
-10.6472 -0.1836 -2.0016 0.9576
-10.6338 -0.5652 -2.0016 0.9576
-10.5660 -1.3258 -2.0016 0.9576
-10.5116 -1.7038 -2.0016 0.9576
-10.4438 -2.0796 -2.0016 0.9576
-9.5262 -2.6188 -1.8570 0.9606
-9.4262 -2.9587 -1.8570 0.9606
-9.3140 -3.2948 -1.8570 0.9606
-9.1899 -3.6266 -1.8570 0.9606
-8.9064 -4.2759 -1.8570 0.9606
-8.7473 -4.5925 -1.8570 0.9606
-8.3957 -5.2075 -1.8570 0.9606
-8.6239 -6.2471 -2.0016 0.9576
-8.1540 -6.8490 -2.0016 0.9576
-7.3714 -7.6850 -2.0016 0.9576
-7.0911 -7.9444 -2.0016 0.9576
-6.8017 -8.1935 -2.0016 0.9576
-6.5036 -8.4321 -2.0016 0.9576
-5.5605 -9.0817 -2.0016 0.9576
-5.2313 -9.2753 -2.0016 0.9576
-4.8954 -9.4569 -2.0016 0.9576
-3.8516 -9.9279 -2.0016 0.9576
-3.1302 -10.1784 -2.0016 0.9576
-2.7633 -10.2841 -2.0016 0.9576
-2.3928 -10.3765 -2.0016 0.9576
0.2599 -10.6456 -2.0016 0.9576
1.0221 -10.5996 -2.0016 0.9576
1.4015 -10.5562 -2.0016 0.9576
2.5270 -10.3447 -2.0016 0.9576
4.3314 -9.7281 -2.0016 0.9576
5.3510 -9.2067 -2.0016 0.9576
5.6777 -9.0089 -2.0016 0.9576
6.3087 -8.5789 -2.0016 0.9576
7.4703 -7.5890 -2.0016 0.9576
7.7376 -7.3162 -2.0016 0.9576
8.2421 -6.7428 -2.0016 0.9576
8.4785 -6.4430 -2.0016 0.9576
8.7041 -6.1348 -2.0016 0.9576
9.1213 -5.4953 -2.0016 0.9576
9.4917 -4.8275 -2.0016 0.9576
9.6587 -4.4841 -2.0016 0.9576
9.8133 -4.1349 -2.0016 0.9576
10.3036 -2.6895 -2.0016 0.9576
10.3934 -2.3183 -2.0016 0.9576
10.5328 -1.5675 -2.0016 0.9576
10.5822 -1.1889 -2.0016 0.9576
10.6181 -0.8087 -2.0016 0.9576
10.6435 0.3362 -2.0016 0.9576
10.5459 1.4771 -2.0016 0.9576
10.4861 1.8543 -2.0016 0.9576
10.2264 2.9696 -2.0016 0.9576
9.8484 4.0505 -2.0016 0.9576
9.3565 5.0847 -2.0016 0.9576
9.1681 5.4169 -2.0016 0.9576
8.5335 6.3700 -2.0016 0.9576
8.2996 6.6719 -2.0016 0.9576
7.8001 7.2495 -2.0016 0.9576
7.5352 7.5245 -2.0016 0.9576
7.2605 7.7899 -2.0016 0.9576
6.9765 8.0452 -2.0016 0.9576
6.3821 8.5245 -2.0016 0.9576
5.7547 8.9599 -2.0016 0.9576
5.4298 9.1605 -2.0016 0.9576
5.0962 9.3463 -2.0009 0.9576
3.0940 9.3399 -1.8494 0.9607
2.4167 9.5377 -1.8494 0.9607
2.0732 9.6182 -1.8494 0.9607
1.3786 9.7420 -1.8494 0.9607
1.0284 9.7852 -1.8494 0.9607
0.3245 9.8337 -1.8494 0.9607
-0.3811 9.8317 -1.8494 0.9607
-1.0847 9.7791 -1.8494 0.9607
-1.2831 8.7060 -1.6541 0.9648
-1.7827 9.6762 -1.8494 0.9607
-2.4715 9.5236 -1.8494 0.9607
-2.8114 9.4289 -1.8494 0.9607
-3.4799 9.2031 -1.8494 0.9607
-3.8077 9.0724 -1.8494 0.9607
-4.4480 8.7762 -1.8494 0.9607
-4.7598 8.6111 -1.8494 0.9607
-6.2451 8.2423 -1.9437 0.9588
-6.7063 8.2210 -1.9941 0.9577
-7.0104 7.9908 -1.9980 0.9577
-7.3052 7.7480 -2.0016 0.9576
-7.5783 7.4810 -2.0016 0.9576
-8.3378 6.6240 -2.0016 0.9576
-8.7911 6.0095 -2.0016 0.9576
-9.0009 5.6904 -2.0016 0.9576
-9.5599 4.6910 -2.0016 0.9576
-9.7220 4.3452 -2.0016 0.9576
-9.8715 3.9938 -2.0016 0.9576
-10.1323 3.2761 -2.0016 0.9576
-10.4966 1.7939 -2.0016 0.9576
-10.6453 0.2749 -2.0016 0.9576
-10.6376 -0.4887 -2.0016 0.9576
-10.6132 -0.8698 -2.0016 0.9576
-10.5752 -1.2498 -2.0016 0.9576
-10.5236 -1.6281 -2.0016 0.9576
-10.4585 -2.0044 -2.0016 0.9576
-9.7701 -2.2384 -1.8840 0.9600
-9.2158 -3.5604 -1.8570 0.9606
-9.0822 -3.8885 -1.8570 0.9606
-8.9369 -4.2117 -1.8570 0.9606
-8.6121 -4.8413 -1.8570 0.9606
-8.4330 -5.1470 -1.8570 0.9606
-8.4413 -6.4917 -2.0016 0.9576
-8.2031 -6.7902 -2.0016 0.9576
-7.9544 -7.0799 -2.0016 0.9576
-7.6954 -7.3606 -2.0016 0.9576
-7.4265 -7.6318 -2.0016 0.9576
-6.8605 -8.1444 -2.0016 0.9576
-5.9463 -8.8339 -2.0016 0.9576
-3.9230 -9.8999 -2.0016 0.9576
-3.5655 -10.0342 -2.0016 0.9576
-2.8372 -10.2639 -2.0016 0.9576
-2.4674 -10.3590 -2.0016 0.9576
-2.0944 -10.4408 -2.0016 0.9576
-1.7187 -10.5092 -2.0016 0.9576
-0.9611 -10.6054 -2.0016 0.9576
-0.1986 -10.6470 -2.0016 0.9576
0.1833 -10.6472 -2.0016 0.9576
0.5649 -10.6338 -2.0016 0.9576
1.3255 -10.5660 -2.0016 0.9576
1.7035 -10.5117 -2.0016 0.9576
2.0793 -10.4438 -2.0016 0.9576
3.5510 -10.0393 -2.0016 0.9576
3.9087 -9.9055 -2.0016 0.9576
4.2613 -9.7590 -2.0016 0.9576
4.6085 -9.6000 -2.0016 0.9576
5.2846 -9.2450 -2.0016 0.9576
5.6127 -9.0496 -2.0016 0.9576
5.9336 -8.8425 -2.0016 0.9576
6.2468 -8.6241 -2.0016 0.9576
6.5520 -8.3946 -2.0016 0.9576
7.1367 -7.9034 -2.0016 0.9576
7.4155 -7.6425 -2.0016 0.9576
7.6848 -7.3717 -2.0016 0.9576
8.1933 -6.8020 -2.0016 0.9576
8.4319 -6.5038 -2.0016 0.9576
8.6597 -6.1973 -2.0016 0.9576
8.8763 -5.8829 -2.0016 0.9576
9.0816 -5.5608 -2.0016 0.9576
9.4567 -4.8957 -2.0016 0.9576
9.6262 -4.5535 -2.0016 0.9576
9.7832 -4.2054 -2.0016 0.9576
9.9277 -3.8519 -2.0016 0.9576
10.0595 -3.4935 -2.0016 0.9576
4.4731 8.3459 -2.0016 0.9620
4.1710 8.5009 -2.0016 0.9620
3.5418 8.7552 -1.9964 0.9621
3.1847 8.7638 -1.9710 0.9626
2.4238 8.5307 -1.8746 0.9644
1.7819 8.5656 -1.8494 0.9649
1.4736 8.6240 -1.8494 0.9649
1.1634 8.6713 -1.8494 0.9649
0.8518 8.7074 -1.8494 0.9649
0.5390 8.7324 -1.8494 0.9649
-0.0881 8.7485 -1.8494 0.9649
-0.7149 8.7197 -1.8494 0.9649
-1.0271 8.6885 -1.8494 0.9649
-1.9541 8.5280 -1.8494 0.9649
-2.5602 8.3660 -1.8494 0.9649
-2.8585 8.2688 -1.8494 0.9649
-3.1898 8.2558 -1.8708 0.9645
-3.8861 8.2454 -1.9268 0.9634
-4.9216 8.0632 -1.9968 0.9621
-5.7727 7.5059 -2.0016 0.9620
-6.0381 7.2941 -2.0016 0.9620
-6.5453 6.8426 -2.0016 0.9620
-6.7864 6.6035 -2.0016 0.9620
-7.2422 6.1002 -2.0016 0.9620
-7.4563 5.8366 -2.0016 0.9620
-8.3777 4.4132 -2.0016 0.9620
-8.5306 4.1099 -2.0016 0.9620
-8.9226 3.1702 -2.0016 0.9620
-9.0305 2.8482 -2.0016 0.9620
-9.2841 1.8620 -2.0016 0.9620
-9.3449 1.5280 -2.0016 0.9620
-9.3937 1.1919 -2.0016 0.9620
-9.4304 0.8543 -2.0016 0.9620
-9.4550 0.5157 -2.0016 0.9620
-9.4674 0.1763 -2.0016 0.9620
-9.4316 -0.8413 -2.0016 0.9620
-9.3953 -1.1790 -2.0016 0.9620
-9.2867 -1.8492 -2.0016 0.9620
-9.2144 -2.1810 -2.0016 0.9620
-8.3818 -2.6309 -1.8570 0.9647
-7.4656 -4.6306 -1.8570 0.9647
-7.1145 -5.1537 -1.8570 0.9647
-6.9252 -5.4055 -1.8570 0.9647
-6.0481 -7.2858 -2.0016 0.9620
-5.7830 -7.4979 -2.0016 0.9620
-5.5105 -7.7005 -2.0016 0.9620
-5.2308 -7.8931 -2.0016 0.9620
-4.9445 -8.0756 -2.0016 0.9620
-4.6517 -8.2476 -2.0016 0.9620
-3.7392 -8.6995 -2.0016 0.9620
-3.4249 -8.8279 -2.0016 0.9620
-3.1061 -8.9451 -2.0016 0.9620
-2.7834 -9.0507 -2.0016 0.9620
-2.1277 -9.2269 -2.0016 0.9620
-1.4610 -9.3556 -2.0016 0.9620
-0.4479 -9.4584 -2.0016 0.9620
-0.1085 -9.4684 -2.0016 0.9620
0.2311 -9.4662 -2.0016 0.9620
0.9089 -9.4253 -2.0016 0.9620
1.2463 -9.3867 -2.0016 0.9620
1.5820 -9.3359 -2.0016 0.9620
2.2470 -9.1986 -2.0016 0.9620
2.9004 -9.0139 -2.0016 0.9620
3.2217 -8.9041 -2.0016 0.9620
2.2402 -4.1936 -1.0050 0.9807
4.7582 -8.1867 -2.0016 0.9620
5.8797 -7.4224 -2.0016 0.9620
6.3965 -6.9819 -2.0016 0.9620
6.6427 -6.7481 -2.0016 0.9620
7.1092 -6.2547 -2.0016 0.9620
7.5392 -5.7292 -2.0016 0.9620
7.7397 -5.4552 -2.0016 0.9620
7.9304 -5.1741 -2.0016 0.9620
8.1108 -4.8865 -2.0016 0.9620
8.5886 -3.9873 -2.0016 0.9620
8.7260 -3.6768 -2.0016 0.9620
8.8523 -3.3615 -2.0016 0.9620
9.1620 -2.3915 -2.0016 0.9620
9.2419 -2.0615 -2.0016 0.9620
9.4417 -0.7191 -2.0016 0.9620
9.4643 0.2989 -2.0016 0.9620
9.4185 0.9764 -2.0016 0.9620
9.3775 1.3135 -2.0016 0.9620
9.0934 2.6406 -2.0016 0.9620
8.9929 2.9649 -2.0016 0.9620
8.7573 3.6018 -2.0016 0.9620
8.4766 4.2201 -2.0016 0.9620
8.1524 4.8167 -2.0016 0.9620
7.7862 5.3886 -2.0016 0.9620
7.3801 5.9327 -2.0016 0.9620
6.7003 6.6909 -2.0016 0.9620
6.4561 6.9268 -2.0016 0.9620
5.6750 7.5800 -2.0016 0.9620
5.3996 7.7786 -2.0016 0.9620
4.5331 8.3135 -2.0016 0.9620
3.9251 8.6158 -2.0013 0.9620
3.6062 8.7330 -1.9972 0.9621
2.8686 8.6594 -1.9282 0.9634
2.1489 8.4810 -1.8494 0.9649
1.8435 8.5526 -1.8494 0.9649
1.5356 8.6132 -1.8494 0.9649
1.2258 8.6627 -1.8494 0.9649
0.9144 8.7011 -1.8494 0.9649
0.6019 8.7283 -1.8494 0.9649
-0.0252 8.7490 -1.8494 0.9649
-0.3389 8.7424 -1.8494 0.9649
