ply
format ascii 1.0
element vertex 1596
property float32 x
property float32 y
property float32 z
property float32 I
end_header
4.2229 6.4751 -2.0016 0.9686
3.9880 6.6224 -2.0016 0.9686
3.0001 7.1246 -2.0016 0.9686
2.2176 7.4056 -2.0016 0.9686
1.9506 7.4804 -2.0016 0.9686
1.6811 7.5455 -2.0016 0.9686
1.1359 7.6466 -2.0016 0.9686
-0.2464 7.7266 -2.0016 0.9686
-0.7996 7.6890 -2.0016 0.9686
-1.3486 7.6119 -2.0016 0.9686
-1.6208 7.5587 -2.0016 0.9686
-1.8908 7.4957 -2.0016 0.9686
-2.1584 7.4231 -2.0016 0.9686
-2.6849 7.2493 -2.0016 0.9686
-3.1976 7.0382 -2.0016 0.9686
-3.6938 6.7909 -2.0016 0.9686
-3.9350 6.6540 -2.0016 0.9686
-4.1711 6.5087 -2.0016 0.9686
-4.6269 6.1929 -2.0016 0.9686
-4.8460 6.0230 -2.0016 0.9686
-5.0589 5.8454 -2.0016 0.9686
-5.4648 5.4677 -2.0016 0.9686
-5.8427 5.0620 -2.0016 0.9686
-6.1905 4.6302 -2.0016 0.9686
-6.3525 4.4052 -2.0016 0.9686
-6.7889 3.6974 -2.0016 0.9686
-6.9171 3.4516 -2.0016 0.9686
-7.0365 3.2013 -2.0016 0.9686
-7.1468 2.9469 -2.0016 0.9686
-7.2478 2.6887 -2.0016 0.9686
-7.3396 2.4271 -2.0016 0.9686
-7.5578 1.6248 -2.0016 0.9686
-7.6112 1.3527 -2.0016 0.9686
-7.7304 -0.0268 -2.0016 0.9686
-7.7245 -0.3040 -2.0016 0.9686
-7.7086 -0.5808 -2.0016 0.9686
-7.6472 -1.1318 -2.0016 0.9686
-7.5464 -1.6770 -2.0016 0.9686
-7.4814 -1.9466 -2.0016 0.9686
-6.7937 -2.2988 -1.8570 0.9708
-6.7069 -2.5410 -1.8570 0.9708
-6.6114 -2.7799 -1.8570 0.9708
-6.5075 -3.0152 -1.8570 0.9708
-6.0095 -3.9147 -1.8570 0.9708
-5.7134 -4.3354 -1.8570 0.9708
-5.2148 -4.9239 -1.8570 0.9708
-5.0348 -5.1078 -1.8570 0.9708
-4.6558 -5.4555 -1.8570 0.9708
-4.4571 -5.6190 -1.8570 0.9708
-4.3577 -6.3852 -2.0016 0.9686
-3.6467 -6.8163 -2.0016 0.9686
-2.6346 -7.2677 -2.0016 0.9686
-1.8388 -7.5086 -2.0016 0.9686
-1.5684 -7.5697 -2.0016 0.9686
-1.2959 -7.6211 -2.0016 0.9686
-0.7463 -7.6944 -2.0016 0.9686
-0.4699 -7.7162 -2.0016 0.9686
-0.1929 -7.7281 -2.0016 0.9686
0.0844 -7.7300 -2.0016 0.9686
0.3615 -7.7220 -2.0016 0.9686
1.1888 -7.6385 -2.0016 0.9686
1.4620 -7.5910 -2.0016 0.9686
2.5323 -7.3039 -2.0016 0.9686
2.7926 -7.2084 -2.0016 0.9686
2.1329 -4.1249 -1.2023 0.9810
2.3158 -4.1103 -1.2215 0.9807
4.2676 -6.4457 -2.0016 0.9686
4.7187 -6.1233 -2.0016 0.9686
5.3490 -5.5811 -2.0016 0.9686
5.9175 -4.9743 -2.0016 0.9686
6.8433 -3.5958 -2.0016 0.9686
7.1899 -2.8400 -2.0016 0.9686
7.2871 -2.5804 -2.0016 0.9686
7.3750 -2.3174 -2.0016 0.9686
7.4533 -2.0514 -2.0016 0.9686
7.5221 -1.7828 -2.0016 0.9686
7.6305 -1.2391 -2.0016 0.9686
7.6701 -0.9646 -2.0016 0.9686
7.7191 0.4191 -2.0016 0.9686
7.6295 1.2457 -2.0016 0.9686
7.5205 1.7894 -2.0016 0.9686
7.4515 2.0579 -2.0016 0.9686
7.3729 2.3238 -2.0016 0.9686
7.0807 3.1022 -2.0016 0.9686
6.9649 3.3541 -2.0016 0.9686
6.8402 3.6018 -2.0016 0.9686
6.7066 3.8448 -2.0016 0.9686
6.5644 4.0828 -2.0016 0.9686
6.2549 4.5428 -2.0016 0.9686
5.9132 4.9794 -2.0016 0.9686
5.3442 5.5857 -2.0016 0.9686
4.9301 5.9544 -2.0016 0.9686
4.4906 6.2925 -2.0016 0.9686
4.2620 6.4495 -2.0016 0.9686
4.0280 6.5982 -2.0016 0.9686
3.7888 6.7384 -2.0016 0.9686
3.2961 6.9926 -2.0016 0.9686
2.5260 7.3061 -2.0016 0.9686
2.2623 7.3920 -2.0016 0.9686
1.9958 7.4684 -2.0016 0.9686
1.7267 7.5352 -2.0016 0.9686
1.4554 7.5923 -2.0016 0.9686
-0.7530 7.6937 -2.0016 0.9686
-1.5750 7.5684 -2.0016 0.9686
-2.1134 7.4360 -2.0016 0.9686
-2.3787 7.3554 -2.0016 0.9686
-2.6409 7.2654 -2.0016 0.9686
-3.1549 7.0574 -2.0016 0.9686
-4.8094 6.0523 -2.0016 0.9686
-5.0234 5.8759 -2.0016 0.9686
-5.6254 5.3024 -2.0016 0.9686
-6.1623 4.6675 -2.0016 0.9686
-6.4810 4.2138 -2.0016 0.9686
-6.8961 3.4934 -2.0016 0.9686
-7.1288 2.9901 -2.0016 0.9686
-7.2314 2.7326 -2.0016 0.9686
-7.3248 2.4715 -2.0016 0.9686
-7.4831 1.9401 -2.0016 0.9686
-7.6482 1.1252 -2.0016 0.9686
-7.7305 0.0200 -2.0016 0.9686
-7.6879 -0.8103 -2.0016 0.9686
-7.6100 -1.3593 -2.0016 0.9686
-7.5564 -1.6313 -2.0016 0.9686
-7.4930 -1.9013 -2.0016 0.9686
-6.7221 -2.5003 -1.8570 0.9708
-6.6281 -2.7398 -1.8570 0.9708
-6.5256 -2.9757 -1.8570 0.9708
-6.4147 -3.2078 -1.8570 0.9708
-6.1683 -3.6594 -1.8570 0.9708
-6.0331 -3.8782 -1.8570 0.9708
-5.8901 -4.0921 -1.8570 0.9708
-5.2445 -4.8923 -1.8570 0.9708
-5.0657 -5.0772 -1.8570 0.9708
-4.8803 -5.2556 -1.8570 0.9708
-4.6887 -5.4272 -1.8570 0.9708
-4.1654 -6.5123 -2.0016 0.9686
-2.6786 -7.2516 -2.0016 0.9686
-1.8842 -7.4973 -2.0016 0.9686
-1.6142 -7.5601 -2.0016 0.9686
6.8895 -1.5889 -2.0016 0.9710
6.9856 -1.0910 -2.0016 0.9710
7.0459 -0.5875 -2.0016 0.9710
7.0624 -0.3344 -2.0016 0.9710
7.0575 0.4260 -2.0016 0.9710
7.0377 0.6788 -2.0016 0.9710
6.8683 1.6782 -2.0016 0.9710
6.7303 2.1661 -2.0016 0.9710
6.5578 2.6430 -2.0016 0.9710
5.9811 3.7704 -2.0016 0.9710
5.8420 3.9825 -2.0016 0.9710
5.6955 4.1894 -2.0016 0.9710
5.5416 4.3910 -2.0016 0.9710
5.3805 4.5869 -2.0016 0.9710
5.2126 4.7769 -2.0016 0.9710
4.8568 5.1382 -2.0016 0.9710
4.0722 5.7799 -2.0016 0.9710
3.8623 5.9222 -2.0016 0.9710
3.6474 6.0569 -2.0016 0.9710
2.9758 6.4136 -2.0016 0.9710
2.7439 6.5162 -2.0016 0.9710
2.5085 6.6104 -2.0016 0.9710
0.5349 7.0501 -2.0016 0.9710
0.2818 7.0647 -2.0016 0.9710
-0.2253 7.0667 -2.0016 0.9710
-0.4786 7.0541 -2.0016 0.9710
-0.9830 7.0017 -2.0016 0.9710
-1.2335 6.9619 -2.0016 0.9710
-1.7293 6.8556 -2.0016 0.9710
-2.4556 6.6302 -2.0016 0.9710
-2.6918 6.5379 -2.0016 0.9710
-3.3784 6.2110 -2.0016 0.9710
-3.8149 5.9528 -2.0016 0.9710
-4.2317 5.6641 -2.0016 0.9710
-4.6268 5.3462 -2.0016 0.9710
-4.8156 5.1768 -2.0016 0.9710
-4.9981 5.0008 -2.0016 0.9710
-5.1743 4.8184 -2.0016 0.9710
-5.3437 4.6297 -2.0016 0.9710
-5.5063 4.4351 -2.0016 0.9710
-5.8100 4.0290 -2.0016 0.9710
-5.9508 3.8180 -2.0016 0.9710
-6.0839 3.6022 -2.0016 0.9710
-6.3265 3.1568 -2.0016 0.9710
-6.4356 2.9279 -2.0016 0.9710
-6.7881 1.9777 -2.0016 0.9710
-6.8547 1.7330 -2.0016 0.9710
-6.9124 1.4860 -2.0016 0.9710
-6.9612 1.2372 -2.0016 0.9710
-7.0011 0.9867 -2.0016 0.9710
-7.0320 0.7350 -2.0016 0.9710
-7.0539 0.4824 -2.0016 0.9710
-7.0666 0.2291 -2.0016 0.9710
-7.0649 -0.2780 -2.0016 0.9710
-6.9941 -1.0352 -2.0016 0.9710
-6.9020 -1.5338 -2.0016 0.9710
-5.8490 -2.9694 -1.8570 0.9731
-5.7388 -3.1772 -1.8570 0.9731
-5.6212 -3.3810 -1.8570 0.9731
-5.0800 -4.1500 -1.8570 0.9731
-4.7695 -4.5034 -1.8570 0.9731
-4.2582 -4.9896 -1.8570 0.9731
-4.0765 -5.1391 -1.8570 0.9731
-3.8896 -5.2820 -1.8570 0.9731
-3.5010 -5.5472 -1.8570 0.9731
-3.3353 -6.2342 -2.0016 0.9710
-2.8799 -6.4572 -2.0016 0.9710
-2.6465 -6.5564 -2.0016 0.9710
-2.1697 -6.7292 -2.0016 0.9710
-1.9270 -6.8027 -2.0016 0.9710
-1.6818 -6.8674 -2.0016 0.9710
-0.9345 -7.0083 -2.0016 0.9710
-0.1764 -7.0681 -2.0016 0.9710
0.0772 -7.0699 -2.0016 0.9710
0.3307 -7.0626 -2.0016 0.9710
0.8360 -7.0207 -2.0016 0.9710
1.3371 -6.9427 -2.0016 0.9710
1.5852 -6.8903 -2.0016 0.9710
2.5542 -6.5929 -2.0016 0.9710
2.7889 -6.4970 -2.0016 0.9710
2.1242 -4.1081 -1.3093 0.9810
2.3077 -4.0959 -1.3309 0.9806
3.9032 -5.8953 -2.0016 0.9710
4.1121 -5.7515 -2.0016 0.9710
4.3157 -5.6004 -2.0016 0.9710
4.5138 -5.4420 -2.0016 0.9710
4.7060 -5.2766 -2.0016 0.9710
4.8922 -5.1045 -2.0016 0.9710
5.0721 -4.9257 -2.0016 0.9710
5.4122 -4.5495 -2.0016 0.9710
5.5718 -4.3525 -2.0016 0.9710
5.8695 -3.9419 -2.0016 0.9710
6.3728 -3.0622 -2.0016 0.9710
6.5759 -2.5975 -2.0016 0.9710
6.7452 -2.1195 -2.0016 0.9710
6.8797 -1.6306 -2.0016 0.9710
6.9338 -1.3828 -2.0016 0.9710
7.0422 -0.6301 -2.0016 0.9710
7.0691 0.1299 -2.0016 0.9710
7.0143 0.8883 -2.0016 0.9710
6.9326 1.3888 -2.0016 0.9710
6.8152 1.8822 -2.0016 0.9710
6.6628 2.3658 -2.0016 0.9710
6.4761 2.8373 -2.0016 0.9710
6.3701 3.0677 -2.0016 0.9710
6.1339 3.5164 -2.0016 0.9710
6.0038 3.7341 -2.0016 0.9710
5.8660 3.9470 -2.0016 0.9710
5.4082 4.5542 -2.0016 0.9710
5.2414 4.7452 -2.0016 0.9710
5.0679 4.9301 -2.0016 0.9710
4.7014 5.2807 -2.0016 0.9710
4.1071 5.7551 -2.0016 0.9710
3.8981 5.8987 -2.0016 0.9710
3.6840 6.0347 -2.0016 0.9710
3.4652 6.1629 -2.0016 0.9710
3.0146 6.3955 -2.0016 0.9710
2.3103 6.6822 -2.0016 0.9710
2.0692 6.7608 -2.0016 0.9710
1.8254 6.8306 -2.0016 0.9710
1.0812 6.9872 -2.0016 0.9710
0.3245 7.0629 -2.0016 0.9710
0.0710 7.0700 -2.0016 0.9710
-0.1826 7.0680 -2.0016 0.9710
-0.4359 7.0569 -2.0016 0.9710
-0.6887 7.0367 -2.0016 0.9710
-1.6878 6.8659 -2.0016 0.9710
-1.9329 6.8010 -2.0016 0.9710
-2.4154 6.6450 -2.0016 0.9710
-2.6522 6.5541 -2.0016 0.9710
-2.8855 6.4547 -2.0016 0.9710
-3.3407 6.2313 -2.0016 0.9710
-3.7788 5.9758 -2.0016 0.9710
-4.3987 5.5354 -2.0016 0.9710
-4.5944 5.3741 -2.0016 0.9710
-4.7842 5.2059 -2.0016 0.9710
-5.4794 4.4683 -2.0016 0.9710
-5.9276 3.8540 -2.0016 0.9710
-6.1886 3.4192 -2.0016 0.9710
-6.5200 2.7348 -2.0016 0.9710
-6.6993 2.2604 -2.0016 0.9710
-6.7760 2.0187 -2.0016 0.9710
-6.8440 1.7744 -2.0016 0.9710
-6.9033 1.5278 -2.0016 0.9710
-7.0274 0.7776 -2.0016 0.9710
-7.0651 0.2719 -2.0016 0.9710
-7.0534 -0.4885 -2.0016 0.9710
-7.0314 -0.7411 -2.0016 0.9710
-6.9602 -1.2432 -2.0016 0.9710
-6.8532 -1.7389 -2.0016 0.9710
-5.8669 -2.9339 -1.8570 0.9731
-5.7579 -3.1424 -1.8570 0.9731
-5.5179 -3.5471 -1.8570 0.9731
-4.9540 -4.2996 -1.8570 0.9731
-4.7966 -4.4745 -1.8570 0.9731
-4.6331 -4.6436 -1.8570 0.9731
-4.4636 -4.8068 -1.8570 0.9731
-4.2883 -4.9637 -1.8570 0.9731
-4.1076 -5.1143 -1.8570 0.9731
-3.9215 -5.2584 -1.8570 0.9731
-3.3730 -6.2139 -2.0016 0.9710
-3.1480 -6.3309 -2.0016 0.9710
-2.4498 -6.6323 -2.0016 0.9710
-1.9681 -6.7909 -2.0016 0.9710
-1.7233 -6.8571 -2.0016 0.9710
-1.4763 -6.9145 -2.0016 0.9710
-1.2274 -6.9630 -2.0016 0.9710
-0.9769 -7.0025 -2.0016 0.9710
6.3894 -1.2341 -2.0016 0.9731
6.4614 -0.7729 -2.0016 0.9731
6.5055 0.1589 -2.0016 0.9731
6.4774 0.6248 -2.0016 0.9731
6.4160 1.0875 -2.0016 0.9731
6.3728 1.3169 -2.0016 0.9731
6.3215 1.5446 -2.0016 0.9731
6.1191 2.2146 -2.0016 0.9731
5.7395 3.0667 -2.0016 0.9731
5.6259 3.2706 -2.0016 0.9731
5.5050 3.4703 -2.0016 0.9731
5.3770 3.6654 -2.0016 0.9731
5.1004 4.0414 -2.0016 0.9731
4.4702 4.7292 -2.0016 0.9731
3.9364 5.1819 -2.0016 0.9731
3.1550 5.6915 -2.0016 0.9731
2.9489 5.8010 -2.0016 0.9731
2.7389 5.9030 -2.0016 0.9731
2.0891 6.1630 -2.0016 0.9731
1.8667 6.2340 -2.0016 0.9731
1.6420 6.2969 -2.0016 0.9731
0.2593 6.5023 -2.0016 0.9731
-0.2074 6.5042 -2.0016 0.9731
-0.6731 6.4726 -2.0016 0.9731
-1.1353 6.4077 -2.0016 0.9731
-1.3643 6.3628 -2.0016 0.9731
-2.0398 6.1795 -2.0016 0.9731
-2.2601 6.1024 -2.0016 0.9731
-2.4775 6.0174 -2.0016 0.9731
-2.6917 5.9247 -2.0016 0.9731
-2.9024 5.8244 -2.0016 0.9731
-3.3124 5.6013 -2.0016 0.9731
-3.5112 5.4789 -2.0016 0.9731
-3.8949 5.2132 -2.0016 0.9731
-4.2585 4.9206 -2.0016 0.9731
-4.6003 4.6027 -2.0016 0.9731
-4.9183 4.2612 -2.0016 0.9731
-5.0680 4.0820 -2.0016 0.9731
-5.2111 3.8976 -2.0016 0.9731
-5.4771 3.5141 -2.0016 0.9731
-6.0161 2.4807 -2.0016 0.9731
-6.1012 2.2634 -2.0016 0.9731
-6.1784 2.0431 -2.0016 0.9731
-6.4438 0.9082 -2.0016 0.9731
-6.5041 0.2109 -2.0016 0.9731
-6.5024 -0.2559 -2.0016 0.9731
-6.4891 -0.4889 -2.0016 0.9731
-6.4674 -0.7213 -2.0016 0.9731
-6.3990 -1.1830 -2.0016 0.9731
-6.3525 -1.4117 -2.0016 0.9731
-6.2978 -1.6386 -2.0016 0.9731
-6.2350 -1.8634 -2.0016 0.9731
-5.8832 -2.2290 -1.9351 0.9740
-5.4780 -2.5382 -1.8570 0.9751
-5.3834 -2.7330 -1.8570 0.9751
-5.2819 -2.9243 -1.8570 0.9751
-5.1737 -3.1118 -1.8570 0.9751
-5.0588 -3.2954 -1.8570 0.9751
-4.9373 -3.4747 -1.8570 0.9751
-4.8095 -3.6495 -1.8570 0.9751
-4.6756 -3.8196 -1.8570 0.9751
-4.5356 -3.9848 -1.8570 0.9751
-4.3898 -4.1449 -1.8570 0.9751
-4.2383 -4.2997 -1.8570 0.9751
-4.0814 -4.4489 -1.8570 0.9751
-3.9192 -4.5924 -1.8570 0.9751
-3.4033 -4.9868 -1.8570 0.9751
-3.2223 -5.1056 -1.8570 0.9751
-2.8481 -5.3234 -1.8570 0.9751
-2.4592 -5.5139 -1.8570 0.9751
-2.2598 -5.5985 -1.8570 0.9751
-1.9970 -6.1935 -2.0016 0.9731
-1.5479 -6.3207 -2.0016 0.9731
-0.8601 -6.4504 -2.0016 0.9731
-0.3956 -6.4954 -2.0016 0.9731
0.0710 -6.5071 -2.0016 0.9731
1.6855 -6.2854 -2.0016 0.9731
2.1810 -5.6297 -1.8570 0.9751
2.3815 -5.5479 -1.8570 0.9751
2.0745 -4.3912 -1.4938 0.9799
2.2995 -4.0814 -1.4409 0.9806
3.3956 -5.5513 -2.0016 0.9731
3.5925 -5.4260 -2.0016 0.9731
3.7848 -5.2937 -2.0016 0.9731
3.9721 -5.1545 -2.0016 0.9731
4.3314 -4.8566 -2.0016 0.9731
4.6684 -4.5336 -2.0016 0.9731
4.9813 -4.1873 -2.0016 0.9731
5.5289 -3.4321 -2.0016 0.9731
5.6484 -3.2316 -2.0016 0.9731
5.8655 -2.8184 -2.0016 0.9731
5.9628 -2.6062 -2.0016 0.9731
6.0524 -2.3907 -2.0016 0.9731
6.2082 -1.9508 -2.0016 0.9731
6.3321 -1.5008 -2.0016 0.9731
6.3818 -1.2727 -2.0016 0.9731
6.4233 -1.0430 -2.0016 0.9731
6.4566 -0.8120 -2.0016 0.9731
6.4816 -0.5799 -2.0016 0.9731
6.4982 -0.3471 -2.0016 0.9731
6.5065 -0.1139 -2.0016 0.9731
6.5064 0.1195 -2.0016 0.9731
6.4979 0.3528 -2.0016 0.9731
6.4224 1.0486 -2.0016 0.9731
6.3807 1.2783 -2.0016 0.9731
6.3308 1.5063 -2.0016 0.9731
6.2065 1.9562 -2.0016 0.9731
6.1324 2.1775 -2.0016 0.9731
6.0503 2.3960 -2.0016 0.9731
5.9605 2.6114 -2.0016 0.9731
5.8630 2.8235 -2.0016 0.9731
5.3991 3.6328 -2.0016 0.9731
5.1248 4.0105 -2.0016 0.9731
4.9777 4.1917 -2.0016 0.9731
4.1501 5.0124 -2.0016 0.9731
3.9677 5.1580 -2.0016 0.9731
3.3908 5.5543 -2.0016 0.9731
3.1894 5.6723 -2.0016 0.9731
2.9839 5.7830 -2.0016 0.9731
2.7746 5.8863 -2.0016 0.9731
2.5617 5.9820 -2.0016 0.9731
2.1264 6.1503 -2.0016 0.9731
1.9044 6.2226 -2.0016 0.9731
1.4535 6.3431 -2.0016 0.9731
0.7639 6.4625 -2.0016 0.9731
0.5316 6.4857 -2.0016 0.9731
0.0654 6.5072 -2.0016 0.9731
-0.1680 6.5053 -2.0016 0.9731
-0.4012 6.4951 -2.0016 0.9731
-0.6339 6.4765 -2.0016 0.9731
-1.0965 6.4144 -2.0016 0.9731
-1.3258 6.3710 -2.0016 0.9731
-1.5534 6.3194 -2.0016 0.9731
-2.4410 6.0323 -2.0016 0.9731
-2.6558 5.9409 -2.0016 0.9731
-2.8671 5.8418 -2.0016 0.9731
-4.0485 5.0948 -2.0016 0.9731
-4.2287 4.9463 -2.0016 0.9731
-4.4033 4.7915 -2.0016 0.9731
-4.5723 4.6305 -2.0016 0.9731
-5.8051 2.9407 -2.0016 0.9731
-5.9068 2.7306 -2.0016 0.9731
-6.0874 2.3002 -2.0016 0.9731
-6.2366 1.8580 -2.0016 0.9731
-6.2992 1.6332 -2.0016 0.9731
-6.3537 1.4062 -2.0016 0.9731
-6.4001 1.1774 -2.0016 0.9731
-6.4382 0.9472 -2.0016 0.9731
-6.4680 0.7157 -2.0016 0.9731
-6.4895 0.4833 -2.0016 0.9731
-6.5027 0.2502 -2.0016 0.9731
-6.5039 -0.2165 -2.0016 0.9731
-6.4919 -0.4496 -2.0016 0.9731
-6.4716 -0.6821 -2.0016 0.9731
-6.4430 -0.9138 -2.0016 0.9731
-6.1767 -2.0485 -2.0016 0.9731
-5.9790 -2.2239 -1.9621 0.9737
-5.5795 -2.3064 -1.8570 0.9751
-5.4932 -2.5050 -1.8570 0.9751
-4.8315 -3.6203 -1.8570 0.9751
-4.1082 -4.4241 -1.8570 0.9751
-3.2531 -5.0860 -1.8570 0.9751
-3.0687 -5.1994 -1.8570 0.9751
-2.8802 -5.3061 -1.8570 0.9751
-2.6881 -5.4060 -1.8570 0.9751
-2.4925 -5.4989 -1.8570 0.9751
-2.2937 -5.5848 -1.8570 0.9751
-2.0919 -5.6634 -1.8570 0.9751
-2.0344 -6.1813 -2.0016 0.9731
-1.8115 -6.2503 -2.0016 0.9731
-0.8992 -6.4451 -2.0016 0.9731
5.8674 -1.3532 -2.0016 0.9749
5.9493 -0.9291 -2.0016 0.9749
5.9788 -0.7152 -2.0016 0.9749
6.0147 -0.2848 -2.0016 0.9749
6.0196 0.1470 -2.0016 0.9749
6.0105 0.3628 -2.0016 0.9749
5.9936 0.5781 -2.0016 0.9749
5.9368 1.0063 -2.0016 0.9749
5.8969 1.2185 -2.0016 0.9749
5.7944 1.6380 -2.0016 0.9749
5.7319 1.8448 -2.0016 0.9749
5.6620 2.0492 -2.0016 0.9749
5.5849 2.2509 -2.0016 0.9749
5.5006 2.4497 -2.0016 0.9749
5.3109 2.8377 -2.0016 0.9749
5.2057 3.0263 -2.0016 0.9749
4.8505 3.5679 -2.0016 0.9749
4.7195 3.7396 -2.0016 0.9749
4.5823 3.9064 -2.0016 0.9749
4.2905 4.2248 -2.0016 0.9749
4.1363 4.3760 -2.0016 0.9749
3.9767 4.5215 -2.0016 0.9749
3.8120 4.6612 -2.0016 0.9749
3.2893 5.0436 -2.0016 0.9749
2.9193 5.2664 -2.0016 0.9749
2.7286 5.3677 -2.0016 0.9749
2.5344 5.4621 -2.0016 0.9749
2.1363 5.6297 -2.0016 0.9749
1.9331 5.7027 -2.0016 0.9749
1.7273 5.7684 -2.0016 0.9749
1.3094 5.8774 -2.0016 0.9749
1.0978 5.9205 -2.0016 0.9749
0.8848 5.9561 -2.0016 0.9749
0.4556 6.0042 -2.0016 0.9749
0.0240 6.0214 -2.0016 0.9749
-0.1919 6.0184 -2.0016 0.9749
-0.4076 6.0076 -2.0016 0.9749
-0.6228 5.9891 -2.0016 0.9749
-0.8372 5.9630 -2.0016 0.9749
-1.0505 5.9291 -2.0016 0.9749
-1.4728 5.8386 -2.0016 0.9749
-1.6812 5.7820 -2.0016 0.9749
-1.8875 5.7180 -2.0016 0.9749
-2.4906 5.4822 -2.0016 0.9749
-2.6856 5.3893 -2.0016 0.9749
-2.8772 5.2896 -2.0016 0.9749
-3.0650 5.1830 -2.0016 0.9749
-3.2489 5.0697 -2.0016 0.9749
-3.7746 4.6915 -2.0016 0.9749
-4.1012 4.4088 -2.0016 0.9749
-4.6895 3.7771 -2.0016 0.9749
-5.0680 3.2516 -2.0016 0.9749
-5.1814 3.0678 -2.0016 0.9749
-5.3879 2.6885 -2.0016 0.9749
-5.4809 2.4936 -2.0016 0.9749
-5.6455 2.0943 -2.0016 0.9749
-5.7170 1.8905 -2.0016 0.9749
-6.0074 0.4108 -2.0016 0.9749
-6.0183 0.1951 -2.0016 0.9749
-6.0168 -0.2368 -2.0016 0.9749
-5.9843 -0.6674 -2.0016 0.9749
-5.9565 -0.8816 -2.0016 0.9749
-5.8274 -1.5162 -2.0016 0.9749
-5.7693 -1.7242 -2.0016 0.9749
-5.7037 -1.9300 -2.0016 0.9749
-5.3101 -2.2327 -1.9148 0.9760
-5.0688 -2.3486 -1.8570 0.9767
-4.5686 -3.2151 -1.8570 0.9767
-4.4503 -3.3769 -1.8570 0.9767
-4.3264 -3.5343 -1.8570 0.9767
-4.1968 -3.6872 -1.8570 0.9767
-4.0619 -3.8353 -1.8570 0.9767
-3.7765 -4.1166 -1.8570 0.9767
-3.6265 -4.2494 -1.8570 0.9767
-2.9816 -4.7243 -1.8570 0.9767
-2.4570 -5.0172 -1.8570 0.9767
-2.2755 -5.1021 -1.8570 0.9767
-2.0910 -5.1804 -1.8570 0.9767
-1.7144 -5.3169 -1.8570 0.9767
-0.7393 -5.5442 -1.8592 0.9767
-0.3396 -5.5762 -1.8570 0.9767
0.0610 -5.5862 -1.8570 0.9767
0.4612 -5.5674 -1.8570 0.9767
0.8591 -5.5200 -1.8570 0.9767
1.2525 -5.4443 -1.8570 0.9767
1.6396 -5.3405 -1.8570 0.9767
1.8300 -5.2782 -1.8570 0.9767
2.0602 -4.3610 -1.6032 0.9799
2.2913 -4.0668 -1.5516 0.9805
3.0840 -4.6581 -1.8570 0.9767
3.2491 -4.5445 -1.8570 0.9767
4.0079 -4.4938 -2.0016 0.9749
4.1665 -4.3472 -2.0016 0.9749
4.3197 -4.1950 -2.0016 0.9749
4.4674 -4.0374 -2.0016 0.9749
4.6093 -3.8746 -2.0016 0.9749
4.9987 -3.3571 -2.0016 0.9749
5.1159 -3.1757 -2.0016 0.9749
5.2265 -2.9902 -2.0016 0.9749
5.6004 -2.2122 -2.0016 0.9749
5.7445 -1.8051 -2.0016 0.9749
5.8056 -1.5979 -2.0016 0.9749
5.9052 -1.1777 -2.0016 0.9749
5.9436 -0.9651 -2.0016 0.9749
5.9744 -0.7514 -2.0016 0.9749
5.9975 -0.5366 -2.0016 0.9749
6.0129 -0.3212 -2.0016 0.9749
5.9970 0.5418 -2.0016 0.9749
5.7429 1.8101 -2.0016 0.9749
5.6743 2.0148 -2.0016 0.9749
5.3279 2.8055 -2.0016 0.9749
5.2239 2.9948 -2.0016 0.9749
4.9958 3.3615 -2.0016 0.9749
4.8721 3.5385 -2.0016 0.9749
4.7420 3.7109 -2.0016 0.9749
4.3160 4.1988 -2.0016 0.9749
4.1627 4.3508 -2.0016 0.9749
4.0040 4.4973 -2.0016 0.9749
3.4978 4.9013 -2.0016 0.9749
2.7610 5.3511 -2.0016 0.9749
2.1704 5.6167 -2.0016 0.9749
1.3450 5.8693 -2.0016 0.9749
1.1336 5.9138 -2.0016 0.9749
0.4919 6.0013 -2.0016 0.9749
0.2764 6.0151 -2.0016 0.9749
0.0605 6.0211 -2.0016 0.9749
-0.1555 6.0194 -2.0016 0.9749
-0.8011 5.9679 -2.0016 0.9749
-1.0146 5.9354 -2.0016 0.9749
-1.6462 5.7921 -2.0016 0.9749
-1.8528 5.7293 -2.0016 0.9749
-2.0571 5.6592 -2.0016 0.9749
-3.2182 5.0893 -2.0016 0.9749
-3.5747 4.8455 -2.0016 0.9749
-3.7462 4.7142 -2.0016 0.9749
-4.3817 4.1301 -2.0016 0.9749
-4.6665 3.8054 -2.0016 0.9749
-4.9273 3.4612 -2.0016 0.9749
-5.4657 2.5267 -2.0016 0.9749
-5.5528 2.3291 -2.0016 0.9749
-5.6327 2.1284 -2.0016 0.9749
-5.7054 1.9251 -2.0016 0.9749
-5.7708 1.7192 -2.0016 0.9749
-5.8792 1.3012 -2.0016 0.9749
-5.9220 1.0895 -2.0016 0.9749
-5.9573 0.8764 -2.0016 0.9749
-5.9849 0.6622 -2.0016 0.9749
-6.0170 0.2315 -2.0016 0.9749
-6.0214 0.0156 -2.0016 0.9749
-6.0071 -0.4160 -2.0016 0.9749
-5.9883 -0.6312 -2.0016 0.9749
-5.8365 -1.4809 -2.0016 0.9749
-5.7796 -1.6893 -2.0016 0.9749
-5.7153 -1.8955 -2.0016 0.9749
-5.6437 -2.0992 -2.0016 0.9749
-5.3906 -2.2282 -1.9389 0.9757
-5.0829 -2.3179 -1.8570 0.9767
-4.9966 -2.4987 -1.8570 0.9767
-4.9037 -2.6762 -1.8570 0.9767
-4.8046 -2.8504 -1.8570 0.9767
-4.6993 -3.0208 -1.8570 0.9767
-4.4707 -3.3499 -1.8570 0.9767
-4.3477 -3.5081 -1.8570 0.9767
-4.2191 -3.6617 -1.8570 0.9767
-3.9458 -3.9547 -1.8570 0.9767
-3.8014 -4.0937 -1.8570 0.9767
-3.3397 -4.4783 -1.8570 0.9767
-3.0102 -4.7061 -1.8570 0.9767
-2.8395 -4.8111 -1.8570 0.9767
-2.6651 -4.9098 -1.8570 0.9767
-2.1224 -5.1676 -1.8570 0.9767
-1.9357 -5.2404 -1.8570 0.9767
-1.5551 -5.3657 -1.8570 0.9767
-1.3617 -5.4180 -1.8570 0.9767
-1.1665 -5.4633 -1.8570 0.9767
-0.9698 -5.5017 -1.8570 0.9767
5.4539 -1.2578 -2.0016 0.9765
5.5301 -0.8637 -2.0016 0.9765
5.5954 0.1367 -2.0016 0.9765
5.5712 0.5374 -2.0016 0.9765
5.5484 0.7368 -2.0016 0.9765
5.3279 1.7148 -2.0016 0.9765
5.2630 1.9047 -2.0016 0.9765
5.1913 2.0923 -2.0016 0.9765
5.1130 2.2771 -2.0016 0.9765
5.0280 2.4590 -2.0016 0.9765
4.9366 2.6377 -2.0016 0.9765
4.8388 2.8130 -2.0016 0.9765
4.5087 3.3165 -2.0016 0.9765
4.1264 3.7815 -2.0016 0.9765
3.6964 4.2028 -2.0016 0.9765
3.3857 4.4570 -2.0016 0.9765
3.2237 4.5755 -2.0016 0.9765
3.0575 4.6882 -2.0016 0.9765
2.3557 5.0772 -2.0016 0.9765
2.1722 5.1584 -2.0016 0.9765
1.0204 5.5033 -2.0016 0.9765
0.6233 5.5623 -2.0016 0.9765
-0.1784 5.5942 -2.0016 0.9765
-0.7782 5.5427 -2.0016 0.9765
-0.9765 5.5113 -2.0016 0.9765
-1.3690 5.4271 -2.0016 0.9765
-1.9439 5.2487 -2.0016 0.9765
-2.3151 5.0958 -2.0016 0.9765
-2.6744 4.9168 -2.0016 0.9765
-3.1870 4.6011 -2.0016 0.9765
-3.3500 4.4839 -2.0016 0.9765
-3.6628 4.2322 -2.0016 0.9765
-3.9567 3.9588 -2.0016 0.9765
-4.2303 3.6650 -2.0016 0.9765
-4.3590 3.5109 -2.0016 0.9765
-4.7108 3.0225 -2.0016 0.9765
-5.1745 2.1336 -2.0016 0.9765
-5.3141 1.7573 -2.0016 0.9765
-5.4264 1.3719 -2.0016 0.9765
-5.5423 0.7811 -2.0016 0.9765
-5.5668 0.5819 -2.0016 0.9765
-5.5841 0.3819 -2.0016 0.9765
-5.5928 -0.2201 -2.0016 0.9765
-5.5626 -0.6204 -2.0016 0.9765
-5.5368 -0.8195 -2.0016 0.9765
-5.5038 -1.0175 -2.0016 0.9765
-5.4638 -1.2142 -2.0016 0.9765
-5.3627 -1.6027 -2.0016 0.9765
-4.8241 -2.2352 -1.9013 0.9777
-4.6303 -2.3506 -1.8570 0.9782
-4.5430 -2.5152 -1.8570 0.9782
-4.4499 -2.6765 -1.8570 0.9782
-4.3510 -2.8343 -1.8570 0.9782
-4.2466 -2.9886 -1.8570 0.9782
-4.1367 -3.1389 -1.8570 0.9782
-4.0215 -3.2853 -1.8570 0.9782
-3.9011 -3.4274 -1.8570 0.9782
-3.5104 -3.8265 -1.8570 0.9782
-3.3709 -3.9499 -1.8570 0.9782
-3.2271 -4.0683 -1.8570 0.9782
-3.0791 -4.1814 -1.8570 0.9782
-2.9272 -4.2891 -1.8570 0.9782
-2.7715 -4.3913 -1.8570 0.9782
-2.4496 -4.5787 -1.8570 0.9782
-2.2838 -4.6636 -1.8570 0.9782
-1.9437 -4.8153 -1.8570 0.9782
-1.7698 -4.8819 -1.8570 0.9782
-1.2352 -5.0437 -1.8570 0.9782
-0.8705 -5.1193 -1.8570 0.9782
-0.6863 -5.1472 -1.8570 0.9782
-0.3156 -5.1832 -1.8570 0.9782
-0.1296 -5.1912 -1.8570 0.9782
0.0567 -5.1925 -1.8570 0.9782
0.4287 -5.1751 -1.8570 0.9782
0.7985 -5.1310 -1.8570 0.9782
0.9820 -5.0991 -1.8570 0.9782
1.1643 -5.0606 -1.8570 0.9782
1.3450 -5.0156 -1.8570 0.9782
1.7010 -4.9063 -1.8570 0.9782
2.0483 -4.7717 -1.8570 0.9782
2.2831 -4.0522 -1.6633 0.9804
3.1697 -4.1132 -1.8570 0.9782
3.3151 -3.9969 -1.8570 0.9782
3.4563 -3.8754 -1.8570 0.9782
3.8728 -4.0409 -2.0016 0.9765
4.4108 -3.4456 -2.0016 0.9765
4.8582 -2.7795 -2.0016 0.9765
4.9547 -2.6035 -2.0016 0.9765
5.0449 -2.4241 -2.0016 0.9765
5.2057 -2.0563 -2.0016 0.9765
5.2761 -1.8683 -2.0016 0.9765
5.3397 -1.6779 -2.0016 0.9765
5.3964 -1.4853 -2.0016 0.9765
5.4890 -1.0947 -2.0016 0.9765
5.5247 -0.8971 -2.0016 0.9765
5.5891 -0.2986 -2.0016 0.9765
5.5961 0.1028 -2.0016 0.9765
5.5744 0.5037 -2.0016 0.9765
5.4451 1.2955 -2.0016 0.9765
5.2745 1.8729 -2.0016 0.9765
5.0428 2.4285 -2.0016 0.9765
4.8558 2.7837 -2.0016 0.9765
4.6437 3.1246 -2.0016 0.9765
4.5287 3.2891 -2.0016 0.9765
4.4078 3.4494 -2.0016 0.9765
4.1493 3.7565 -2.0016 0.9765
4.0119 3.9029 -2.0016 0.9765
3.8693 4.0442 -2.0016 0.9765
3.7218 4.1804 -2.0016 0.9765
3.5695 4.3112 -2.0016 0.9765
3.2513 4.5559 -2.0016 0.9765
2.2033 5.1452 -2.0016 0.9765
1.4450 5.4073 -2.0016 0.9765
1.2502 5.4557 -2.0016 0.9765
0.8559 5.5313 -2.0016 0.9765
0.6570 5.5584 -2.0016 0.9765
0.2569 5.5912 -2.0016 0.9765
0.0562 5.5968 -2.0016 0.9765
-0.1445 5.5952 -2.0016 0.9765
-0.5452 5.5705 -2.0016 0.9765
-0.7446 5.5473 -2.0016 0.9765
-1.1403 5.4797 -2.0016 0.9765
-1.5302 5.3839 -2.0016 0.9765
-1.7222 5.3255 -2.0016 0.9765
-1.9121 5.2603 -2.0016 0.9765
-2.2842 5.1098 -2.0016 0.9765
-2.8198 4.8349 -2.0016 0.9765
-3.3228 4.5041 -2.0016 0.9765
-3.4822 4.3820 -2.0016 0.9765
-3.6371 4.2543 -2.0016 0.9765
-3.7873 4.1211 -2.0016 0.9765
-3.9327 3.9827 -2.0016 0.9765
-4.2080 3.6905 -2.0016 0.9765
-4.3376 3.5373 -2.0016 0.9765
-4.5800 3.2173 -2.0016 0.9765
-4.6925 3.0509 -2.0016 0.9765
-4.7988 2.8807 -2.0016 0.9765
-5.0805 2.3486 -2.0016 0.9765
-5.2358 1.9784 -2.0016 0.9765
-5.3033 1.7894 -2.0016 0.9765
-5.4180 1.4047 -2.0016 0.9765
-5.4648 1.2095 -2.0016 0.9765
-5.5047 1.0127 -2.0016 0.9765
-5.5375 0.8147 -2.0016 0.9765
-5.5631 0.6156 -2.0016 0.9765
-5.5816 0.4157 -2.0016 0.9765
-5.5929 0.2152 -2.0016 0.9765
-5.5416 -0.7859 -2.0016 0.9765
-5.4252 -1.3766 -2.0016 0.9765
-5.3126 -1.7619 -2.0016 0.9765
-5.1726 -2.1381 -2.0016 0.9765
-4.8928 -2.2312 -1.9231 0.9774
-4.6444 -2.3226 -1.8570 0.9782
-4.5581 -2.4876 -1.8570 0.9782
-4.3681 -2.8080 -1.8570 0.9782
-3.9217 -3.4037 -1.8570 0.9782
-3.7972 -3.5421 -1.8570 0.9782
-2.7980 -4.3745 -1.8570 0.9782
-2.6394 -4.4720 -1.8570 0.9782
-2.4773 -4.5638 -1.8570 0.9782
-2.3120 -4.6497 -1.8570 0.9782
-1.6234 -4.9325 -1.8570 0.9782
-1.4455 -4.9875 -1.8570 0.9782
-0.9015 -5.1139 -1.8570 0.9782
-0.7175 -5.1430 -1.8570 0.9782
5.1283 -0.9905 -2.0016 0.9779
5.1605 -0.8059 -2.0016 0.9779
5.2050 -0.4340 -2.0016 0.9779
5.2172 -0.2470 -2.0016 0.9779
5.2227 -0.0598 -2.0016 0.9779
5.0261 1.4209 -2.0016 0.9779
4.6920 2.2946 -2.0016 0.9779
4.5154 2.6251 -2.0016 0.9779
4.4184 2.7853 -2.0016 0.9779
4.3157 2.9420 -2.0016 0.9779
4.2074 3.0948 -2.0016 0.9779
3.9747 3.3884 -2.0016 0.9779
3.5878 3.7957 -2.0016 0.9779
3.4494 3.9220 -2.0016 0.9779
3.3065 4.0431 -2.0016 0.9779
3.1594 4.1591 -2.0016 0.9779
2.8532 4.3749 -2.0016 0.9779
2.6944 4.4744 -2.0016 0.9779
2.5323 4.5681 -2.0016 0.9779
2.1983 4.7379 -2.0016 0.9779
2.0270 4.8137 -2.0016 0.9779
1.6768 4.9466 -2.0016 0.9779
1.4983 5.0035 -2.0016 0.9779
1.3179 5.0540 -2.0016 0.9779
1.1358 5.0980 -2.0016 0.9779
0.9522 5.1355 -2.0016 0.9779
0.3952 5.2081 -2.0016 0.9779
0.2081 5.2189 -2.0016 0.9779
0.0209 5.2230 -2.0016 0.9779
-0.3536 5.2111 -2.0016 0.9779
-0.7262 5.1723 -2.0016 0.9779
-1.2775 5.0644 -2.0016 0.9779
-1.4583 5.0153 -2.0016 0.9779
-1.8140 4.8979 -2.0016 0.9779
-2.4957 4.5882 -2.0016 0.9779
-2.6586 4.4957 -2.0016 0.9779
-2.8181 4.3975 -2.0016 0.9779
-2.9740 4.2936 -2.0016 0.9779
-3.1261 4.1842 -2.0016 0.9779
-3.2741 4.0694 -2.0016 0.9779
-3.4180 3.9494 -2.0016 0.9779
-3.6923 3.6942 -2.0016 0.9779
-3.8224 3.5594 -2.0016 0.9779
-4.0677 3.2763 -2.0016 0.9779
-4.5869 2.4981 -2.0016 0.9779
-4.6735 2.3320 -2.0016 0.9779
-4.7541 2.1629 -2.0016 0.9779
-4.8969 1.8166 -2.0016 0.9779
-5.1424 0.9139 -2.0016 0.9779
-5.1719 0.7289 -2.0016 0.9779
-5.2083 -0.3924 -2.0016 0.9779
-5.1360 -0.9495 -2.0016 0.9779
-5.0986 -1.1331 -2.0016 0.9779
-5.0043 -1.4956 -2.0016 0.9779
-4.9475 -1.6741 -2.0016 0.9779
-4.8842 -1.8505 -2.0016 0.9779
-4.8147 -2.0244 -2.0016 0.9779
-4.7390 -2.1958 -2.0016 0.9779
-4.4058 -2.2367 -1.8935 0.9791
-4.0603 -2.6449 -1.8570 0.9795
-3.9628 -2.7888 -1.8570 0.9795
-3.8602 -2.9291 -1.8570 0.9795
-3.6404 -3.1983 -1.8570 0.9795
-3.5233 -3.3268 -1.8570 0.9795
-3.2758 -3.5708 -1.8570 0.9795
-3.1456 -3.6860 -1.8570 0.9795
-3.0114 -3.7964 -1.8570 0.9795
-2.8733 -3.9020 -1.8570 0.9795
-2.7316 -4.0025 -1.8570 0.9795
-2.5863 -4.0979 -1.8570 0.9795
-2.4377 -4.1880 -1.8570 0.9795
-2.2859 -4.2727 -1.8570 0.9795
-1.4870 -4.6119 -1.8570 0.9795
-1.3207 -4.6623 -1.8570 0.9795
-1.1526 -4.7067 -1.8570 0.9795
-0.8123 -4.7772 -1.8570 0.9795
-0.4678 -4.8231 -1.8570 0.9795
-0.2946 -4.8368 -1.8570 0.9795
-0.1209 -4.8442 -1.8570 0.9795
0.0529 -4.8455 -1.8570 0.9795
0.2266 -4.8405 -1.8570 0.9795
0.7452 -4.7881 -1.8570 0.9795
0.9164 -4.7583 -1.8570 0.9795
1.0865 -4.7224 -1.8570 0.9795
1.7505 -4.5185 -1.8570 0.9795
1.9114 -4.4528 -1.8570 0.9795
2.0683 -3.9999 -1.7256 0.9809
2.2539 -4.0004 -1.7596 0.9805
2.8183 -3.9419 -1.8570 0.9795
3.2254 -3.6164 -1.8570 0.9795
3.7469 -3.6388 -2.0016 0.9779
4.1161 -3.2153 -2.0016 0.9779
4.4376 -2.7546 -2.0016 0.9779
4.7077 -2.2621 -2.0016 0.9779
4.7858 -2.0918 -2.0016 0.9779
4.8578 -1.9188 -2.0016 0.9779
4.9235 -1.7434 -2.0016 0.9779
5.0822 -1.2045 -2.0016 0.9779
5.1555 -0.8372 -2.0016 0.9779
5.1822 -0.6517 -2.0016 0.9779
5.2221 0.0959 -2.0016 0.9779
5.2018 0.4700 -2.0016 0.9779
5.1548 0.8416 -2.0016 0.9779
5.1213 1.0260 -2.0016 0.9779
4.9815 1.5701 -2.0016 0.9779
4.9220 1.7477 -2.0016 0.9779
4.8561 1.9231 -2.0016 0.9779
4.7840 2.0960 -2.0016 0.9779
4.7058 2.2662 -2.0016 0.9779
4.5312 2.5977 -2.0016 0.9779
4.4352 2.7585 -2.0016 0.9779
4.2260 3.0693 -2.0016 0.9779
3.9952 3.3643 -2.0016 0.9779
3.8720 3.5054 -2.0016 0.9779
3.6107 3.7739 -2.0016 0.9779
3.4731 3.9010 -2.0016 0.9779
3.3310 4.0230 -2.0016 0.9779
2.8796 4.3575 -2.0016 0.9779
2.7215 4.4580 -2.0016 0.9779
2.5599 4.5527 -2.0016 0.9779
1.5285 4.9944 -2.0016 0.9779
1.3485 5.0460 -2.0016 0.9779
1.1666 5.0911 -2.0016 0.9779
0.9833 5.1296 -2.0016 0.9779
0.4267 5.2056 -2.0016 0.9779
0.0525 5.2228 -2.0016 0.9779
-0.6948 5.1766 -2.0016 0.9779
-1.0641 5.1135 -2.0016 0.9779
-1.4279 5.0241 -2.0016 0.9779
-1.6071 4.9696 -2.0016 0.9779
-1.9592 4.8416 -2.0016 0.9779
-2.3012 4.6888 -2.0016 0.9779
-2.4679 4.6032 -2.0016 0.9779
-2.7915 4.4145 -2.0016 0.9779
-2.9480 4.3115 -2.0016 0.9779
-3.3940 3.9700 -2.0016 0.9779
-3.6698 3.7165 -2.0016 0.9779
-3.8007 3.5825 -2.0016 0.9779
-3.9268 3.4439 -2.0016 0.9779
-4.1635 3.1536 -2.0016 0.9779
-4.5717 2.5259 -2.0016 0.9779
-4.6593 2.3603 -2.0016 0.9779
-4.9489 1.6698 -2.0016 0.9779
-5.0056 1.4913 -2.0016 0.9779
-5.0559 1.3108 -2.0016 0.9779
-5.1674 0.7602 -2.0016 0.9779
-5.1914 0.5744 -2.0016 0.9779
-5.2230 0.0135 -2.0016 0.9779
-5.1417 -0.9184 -2.0016 0.9779
-5.1054 -1.1022 -2.0016 0.9779
-5.0133 -1.4653 -2.0016 0.9779
-4.8269 -1.9953 -2.0016 0.9779
-4.7523 -2.1671 -2.0016 0.9779
-4.4653 -2.2330 -1.9132 0.9788
-4.2535 -2.3214 -1.8570 0.9795
-4.0762 -2.6203 -1.8570 0.9795
-3.8779 -2.9057 -1.8570 0.9795
-3.7712 -3.0429 -1.8570 0.9795
-3.5434 -3.3054 -1.8570 0.9795
-3.4226 -3.4304 -1.8570 0.9795
-3.2974 -3.5509 -1.8570 0.9795
-3.0344 -3.7781 -1.8570 0.9795
-2.8969 -3.8845 -1.8570 0.9795
-2.7557 -3.9859 -1.8570 0.9795
-2.6110 -4.0821 -1.8570 0.9795
-2.4630 -4.1731 -1.8570 0.9795
-2.1575 -4.3389 -1.8570 0.9795
-1.8410 -4.4824 -1.8570 0.9795
-1.5149 -4.6029 -1.8570 0.9795
-1.3489 -4.6542 -1.8570 0.9795
-0.8412 -4.7722 -1.8570 0.9795
4.7654 -1.0990 -2.0016 0.9791
4.8319 -0.7546 -2.0016 0.9791
4.8559 -0.5809 -2.0016 0.9791
4.8902 -0.0560 -2.0016 0.9791
4.8890 0.1194 -2.0016 0.9791
4.8816 0.2947 -2.0016 0.9791
4.8679 0.4696 -2.0016 0.9791
4.8217 0.8173 -2.0016 0.9791
4.7893 0.9897 -2.0016 0.9791
4.7508 1.1608 -2.0016 0.9791
4.7061 1.3304 -2.0016 0.9791
4.6553 1.4983 -2.0016 0.9791
4.5986 1.6643 -2.0016 0.9791
4.5360 1.8281 -2.0016 0.9791
4.4675 1.9896 -2.0016 0.9791
4.3933 2.1485 -2.0016 0.9791
4.0409 2.7547 -2.0016 0.9791
3.9395 2.8978 -2.0016 0.9791
3.8331 3.0372 -2.0016 0.9791
3.7217 3.1727 -2.0016 0.9791
3.6055 3.3041 -2.0016 0.9791
3.4847 3.4313 -2.0016 0.9791
3.3594 3.5541 -2.0016 0.9791
2.9583 3.8943 -2.0016 0.9791
2.8167 3.9979 -2.0016 0.9791
2.6715 4.0963 -2.0016 0.9791
2.5229 4.1895 -2.0016 0.9791
1.8979 4.5072 -2.0016 0.9791
1.7351 4.5724 -2.0016 0.9791
1.5700 4.6316 -2.0016 0.9791
1.4029 4.6850 -2.0016 0.9791
1.2340 4.7323 -2.0016 0.9791
0.8916 4.8085 -2.0016 0.9791
0.7186 4.8374 -2.0016 0.9791
0.5447 4.8601 -2.0016 0.9791
0.3700 4.8765 -2.0016 0.9791
0.1949 4.8866 -2.0016 0.9791
-0.1559 4.8880 -2.0016 0.9791
-0.3311 4.8793 -2.0016 0.9791
-1.0253 4.7818 -2.0016 0.9791
-1.3654 4.6960 -2.0016 0.9791
-1.6985 4.5861 -2.0016 0.9791
-1.8619 4.5222 -2.0016 0.9791
-2.0229 4.4525 -2.0016 0.9791
-2.1812 4.3771 -2.0016 0.9791
-2.3368 4.2961 -2.0016 0.9791
-2.4894 4.2095 -2.0016 0.9791
-2.6387 4.1175 -2.0016 0.9791
-2.7847 4.0203 -2.0016 0.9791
-2.9271 3.9178 -2.0016 0.9791
-3.0657 3.8103 -2.0016 0.9791
-3.2004 3.6979 -2.0016 0.9791
-3.3309 3.5808 -2.0016 0.9791
-3.5790 3.3328 -2.0016 0.9791
-3.8087 3.0677 -2.0016 0.9791
-3.9163 2.9292 -2.0016 0.9791
-4.0188 2.7868 -2.0016 0.9791
-4.1161 2.6409 -2.0016 0.9791
-4.2082 2.4916 -2.0016 0.9791
-4.3760 2.1836 -2.0016 0.9791
-4.4515 2.0252 -2.0016 0.9791
-4.5212 1.8643 -2.0016 0.9791
-4.5852 1.7010 -2.0016 0.9791
-4.6432 1.5354 -2.0016 0.9791
-4.6953 1.3679 -2.0016 0.9791
-2.1595 0.3838 -0.8977 0.9906
-1.9510 0.1334 -0.8004 0.9916
-1.9336 -0.0761 -0.7920 0.9917
-1.9540 -0.1472 -0.8020 0.9916
-1.9563 -0.2182 -0.8056 0.9915
-2.1883 -0.4046 -0.9108 0.9904
-4.7740 -1.0609 -2.0016 0.9791
-4.5733 -1.7327 -2.0016 0.9791
-4.4373 -2.0560 -2.0016 0.9791
-4.3607 -2.2138 -2.0016 0.9791
-4.0410 -2.2372 -1.8904 0.9802
-3.8018 -2.4765 -1.8570 0.9806
-3.6145 -2.7427 -1.8570 0.9806
-3.4086 -2.9947 -1.8570 0.9806
-3.2990 -3.1150 -1.8570 0.9806
-3.1852 -3.2313 -1.8570 0.9806
-3.0672 -3.3434 -1.8570 0.9806
-2.8197 -3.5547 -1.8570 0.9806
-2.6904 -3.6535 -1.8570 0.9806
-2.4216 -3.8370 -1.8570 0.9806
-2.2825 -3.9213 -1.8570 0.9806
-1.9955 -4.0749 -1.8570 0.9806
-1.8481 -4.1438 -1.8570 0.9806
-1.6983 -4.2074 -1.8570 0.9806
-0.4380 -4.5161 -1.8570 0.9806
-0.2758 -4.5289 -1.8570 0.9806
0.0495 -4.5370 -1.8570 0.9806
0.2122 -4.5323 -1.8570 0.9806
0.3746 -4.5218 -1.8570 0.9806
0.8581 -4.4554 -1.8570 0.9806
1.0173 -4.4217 -1.8570 0.9806
1.3316 -4.3374 -1.8570 0.9806
1.6391 -4.2308 -1.8570 0.9806
1.7898 -4.1693 -1.8570 0.9806
1.9381 -4.1025 -1.8570 0.9806
2.2272 -3.9530 -1.8570 0.9806
2.5048 -3.7832 -1.8570 0.9806
2.7695 -3.5939 -1.8570 0.9806
2.8966 -3.4923 -1.8570 0.9806
3.0200 -3.3862 -1.8570 0.9806
3.2549 -3.1610 -1.8570 0.9806
3.6283 -3.2791 -2.0016 0.9791
3.8540 -3.0106 -2.0016 0.9791
4.1551 -2.5793 -2.0016 0.9791
4.3292 -2.2748 -2.0016 0.9791
4.5485 -1.7967 -2.0016 0.9791
4.6656 -1.4660 -2.0016 0.9791
4.7152 -1.2978 -2.0016 0.9791
4.7961 -0.9565 -2.0016 0.9791
4.8523 -0.6102 -2.0016 0.9791
4.8835 -0.2609 -2.0016 0.9791
4.8898 -0.0856 -2.0016 0.9791
4.8517 0.6145 -2.0016 0.9791
4.8266 0.7881 -2.0016 0.9791
4.7577 1.1320 -2.0016 0.9791
4.7140 1.3019 -2.0016 0.9791
4.6643 1.4701 -2.0016 0.9791
4.6086 1.6364 -2.0016 0.9791
4.5469 1.8006 -2.0016 0.9791
4.4062 2.1219 -2.0016 0.9791
4.3273 2.2786 -2.0016 0.9791
4.1528 2.5829 -2.0016 0.9791
3.9570 2.8739 -2.0016 0.9791
3.7408 3.1501 -2.0016 0.9791
3.3809 3.5337 -2.0016 0.9791
2.9818 3.8763 -2.0016 0.9791
2.5482 4.1742 -2.0016 0.9791
1.9252 4.4956 -2.0016 0.9791
1.2626 4.7247 -2.0016 0.9791
0.9207 4.8031 -2.0016 0.9791
0.5741 4.8567 -2.0016 0.9791
-0.1263 4.8889 -2.0016 0.9791
-0.3015 4.8812 -2.0016 0.9791
-0.6506 4.8470 -2.0016 0.9791
-0.8240 4.8206 -2.0016 0.9791
-1.1674 4.7491 -2.0016 0.9791
-1.5048 4.6532 -2.0016 0.9791
-1.8345 4.5334 -2.0016 0.9791
-2.1547 4.3902 -2.0016 0.9791
-2.3108 4.3102 -2.0016 0.9791
-2.6138 4.1334 -2.0016 0.9791
-2.9033 3.9355 -2.0016 0.9791
-3.0426 3.8288 -2.0016 0.9791
-3.1779 3.7172 -2.0016 0.9791
-3.6768 3.2246 -2.0016 0.9791
-3.7901 3.0907 -2.0016 0.9791
-4.0018 2.8111 -2.0016 0.9791
-4.1001 2.6658 -2.0016 0.9791
-4.5099 1.8916 -2.0016 0.9791
-4.5748 1.7287 -2.0016 0.9791
-4.6338 1.5635 -2.0016 0.9791
-4.6869 1.3963 -2.0016 0.9791
-2.1846 0.4019 -0.9091 0.9904
-1.9431 0.2859 -0.8038 0.9915
-1.9564 0.2165 -0.8056 0.9915
-1.9329 0.0744 -0.7917 0.9917
-1.9572 -0.2063 -0.8055 0.9915
-1.9459 -0.2760 -0.8044 0.9915
-2.1631 -0.3864 -0.8993 0.9905
-4.6941 -1.3720 -2.0016 0.9791
-4.6419 -1.5395 -2.0016 0.9791
-4.5837 -1.7049 -2.0016 0.9791
-4.5196 -1.8682 -2.0016 0.9791
-4.4497 -2.0291 -2.0016 0.9791
-4.3741 -2.1874 -2.0016 0.9791
-3.8167 -2.4535 -1.8570 0.9806
-3.7262 -2.5888 -1.8570 0.9806
-3.6310 -2.7207 -1.8570 0.9806
-3.5311 -2.8492 -1.8570 0.9806
-3.4267 -2.9740 -1.8570 0.9806
-3.0874 -3.3248 -1.8570 0.9806
-2.8412 -3.5376 -1.8570 0.9806
-2.7125 -3.6372 -1.8570 0.9806
-2.5803 -3.7321 -1.8570 0.9806
-2.3062 -3.9075 -1.8570 0.9806
-2.1645 -3.9876 -1.8570 0.9806
-2.0201 -4.0627 -1.8570 0.9806
-1.1059 -4.4004 -1.8570 0.9806
-0.9474 -4.4372 -1.8570 0.9806
4.5093 -0.8709 -2.0016 0.9802
4.5602 -0.5455 -2.0016 0.9802
4.5875 -0.2172 -2.0016 0.9802
4.5843 0.2767 -2.0016 0.9802
4.5527 0.6046 -2.0016 0.9802
4.5281 0.7675 -2.0016 0.9802
4.4614 1.0901 -2.0016 0.9802
4.3718 1.4071 -2.0016 0.9802
4.0507 2.1644 -2.0016 0.9802
3.7948 2.5869 -2.0016 0.9802
3.5996 2.8522 -2.0016 0.9802
3.4950 2.9795 -2.0016 0.9802
3.3859 3.1029 -2.0016 0.9802
3.2725 3.2223 -2.0016 0.9802
2.9075 3.5552 -2.0016 0.9802
2.6452 3.7544 -2.0016 0.9802
2.3693 3.9344 -2.0016 0.9802
2.0812 4.0941 -2.0016 0.9802
1.7824 4.2327 -2.0016 0.9802
1.6294 4.2939 -2.0016 0.9802
1.4744 4.3496 -2.0016 0.9802
1.3175 4.3996 -2.0016 0.9802
0.9987 4.4828 -2.0016 0.9802
0.5115 4.5641 -2.0016 0.9802
0.1830 4.5890 -2.0016 0.9802
0.0183 4.5926 -2.0016 0.9802
-0.1464 4.5903 -2.0016 0.9802
-0.9629 4.4906 -2.0016 0.9802
-1.2823 4.4100 -2.0016 0.9802
-1.4396 4.3612 -2.0016 0.9802
-1.5951 4.3068 -2.0016 0.9802
-1.8997 4.1814 -2.0016 0.9802
-2.1945 4.0344 -2.0016 0.9802
-2.6151 3.7754 -2.0016 0.9802
-2.7488 3.6792 -2.0016 0.9802
-3.2466 3.2484 -2.0016 0.9802
-3.3610 3.1298 -2.0016 0.9802
-3.4711 3.0073 -2.0016 0.9802
-3.6778 2.7508 -2.0016 0.9802
-3.7740 2.6171 -2.0016 0.9802
-3.9519 2.3399 -2.0016 0.9802
-4.0333 2.1966 -2.0016 0.9802
-4.1804 1.9019 -2.0016 0.9802
-1.5868 0.5247 -0.7284 0.9927
-1.5695 0.4573 -0.7124 0.9929
-1.5161 0.2137 -0.6673 0.9933
-1.5255 0.1595 -0.6684 0.9933
-1.5295 0.1046 -0.6681 0.9933
-1.5280 0.0495 -0.6663 0.9934
-1.5291 -0.1152 -0.6683 0.9933
-1.5137 -0.2240 -0.6669 0.9933
-1.4980 -0.2769 -0.6639 0.9934
-1.5251 -0.3389 -0.6809 0.9932
-1.5894 -0.5378 -0.7313 0.9927
-4.1671 -1.9308 -2.0016 0.9802
-3.5702 -2.3257 -1.8570 0.9816
-3.4845 -2.4522 -1.8570 0.9816
-3.3943 -2.5756 -1.8570 0.9816
-2.9912 -3.0345 -1.8570 0.9816
-2.8804 -3.1398 -1.8570 0.9816
-2.6480 -3.3382 -1.8570 0.9816
-2.5266 -3.4310 -1.8570 0.9816
-2.4019 -3.5194 -1.8570 0.9816
-2.2741 -3.6033 -1.8570 0.9816
-1.8740 -3.8267 -1.8570 0.9816
-1.7356 -3.8914 -1.8570 0.9816
-1.4522 -4.0058 -1.8570 0.9816
-1.0135 -4.1386 -1.8570 0.9816
-0.7143 -4.2006 -1.8570 0.9816
-0.5632 -4.2235 -1.8570 0.9816
-0.4114 -4.2410 -1.8570 0.9816
0.0465 -4.2607 -1.8570 0.9816
0.1993 -4.2563 -1.8570 0.9816
0.3518 -4.2464 -1.8570 0.9816
0.5038 -4.2310 -1.8570 0.9816
0.6552 -4.2102 -1.8570 0.9816
0.8058 -4.1840 -1.8570 0.9816
0.9553 -4.1524 -1.8570 0.9816
1.5393 -3.9732 -1.8570 0.9816
1.8201 -3.8526 -1.8570 0.9816
1.9571 -3.7849 -1.8570 0.9816
2.0915 -3.7123 -1.8570 0.9816
2.2233 -3.6349 -1.8570 0.9816
3.0567 -2.9685 -1.8570 0.9816
3.5156 -2.9552 -2.0016 0.9802
3.7183 -2.6956 -2.0016 0.9802
3.8126 -2.5606 -2.0016 0.9802
3.9020 -2.4222 -2.0016 0.9802
3.9864 -2.2807 -2.0016 0.9802
4.2082 -1.8394 -2.0016 0.9802
4.3815 -1.3768 -2.0016 0.9802
4.4689 -1.0592 -2.0016 0.9802
4.5040 -0.8982 -2.0016 0.9802
4.5333 -0.7361 -2.0016 0.9802
4.5744 -0.4093 -2.0016 0.9802
4.5920 -0.0804 -2.0016 0.9802
4.5919 0.0844 -2.0016 0.9802
4.5859 0.2490 -2.0016 0.9802
4.5740 0.4133 -2.0016 0.9802
4.5563 0.5770 -2.0016 0.9802
4.5326 0.7401 -2.0016 0.9802
4.3279 1.5368 -2.0016 0.9802
4.2066 1.8430 -2.0016 0.9802
3.9844 2.2842 -2.0016 0.9802
3.8104 2.5639 -2.0016 0.9802
3.7160 2.6989 -2.0016 0.9802
3.5130 2.9583 -2.0016 0.9802
3.2919 3.2025 -2.0016 0.9802
2.6678 3.7383 -2.0016 0.9802
2.3930 3.9199 -2.0016 0.9802
2.2509 4.0032 -2.0016 0.9802
2.1059 4.0814 -2.0016 0.9802
1.9582 4.1543 -2.0016 0.9802
1.8079 4.2218 -2.0016 0.9802
0.8646 4.5105 -2.0016 0.9802
0.7023 4.5386 -2.0016 0.9802
0.5391 4.5609 -2.0016 0.9802
0.3752 4.5773 -2.0016 0.9802
0.2108 4.5878 -2.0016 0.9802
-0.4474 4.5708 -2.0016 0.9802
-0.6110 4.5518 -2.0016 0.9802
-0.7738 4.5270 -2.0016 0.9802
-0.9357 4.4963 -2.0016 0.9802
-1.0963 4.4599 -2.0016 0.9802
-1.4132 4.3698 -2.0016 0.9802
-1.5690 4.3164 -2.0016 0.9802
-1.7228 4.2573 -2.0016 0.9802
-2.0235 4.1229 -2.0016 0.9802
-2.1700 4.0477 -2.0016 0.9802
-2.5922 3.7912 -2.0016 0.9802
-2.8573 3.5956 -2.0016 0.9802
-3.3420 3.1501 -2.0016 0.9802
-3.5592 2.9025 -2.0016 0.9802
-3.6610 2.7730 -2.0016 0.9802
-3.7581 2.6399 -2.0016 0.9802
-3.8504 2.5034 -2.0016 0.9802
-3.9377 2.3637 -2.0016 0.9802
-4.0199 2.2210 -2.0016 0.9802
-4.2352 1.7764 -2.0016 0.9802
-1.5891 0.5362 -0.7309 0.9927
-1.5728 0.4686 -0.7152 0.9929
-1.5253 -0.1608 -0.6684 0.9933
-1.5158 -0.2150 -0.6672 0.9933
-1.5201 -0.3282 -0.6777 0.9932
-1.5475 -0.3927 -0.6958 0.9931
-3.7655 -2.2339 -1.9082 0.9811
-3.3161 -2.6757 -1.8570 0.9816
-3.2180 -2.7929 -1.8570 0.9816
-2.8994 -3.1223 -1.8570 0.9816
-2.4232 -3.5048 -1.8570 0.9816
-2.1657 -3.6695 -1.8570 0.9816
-1.3321 -4.0473 -1.8570 0.9816
-1.1861 -4.0925 -1.8570 0.9816
4.2456 -0.8200 -2.0016 0.9811
4.2723 -0.6672 -2.0016 0.9811
4.3238 -0.0495 -2.0016 0.9811
4.3162 0.2606 -2.0016 0.9811
4.2865 0.5693 -2.0016 0.9811
4.2346 0.8750 -2.0016 0.9811
4.2005 1.0263 -2.0016 0.9811
4.0106 1.6164 -2.0016 0.9811
3.9501 1.7592 -2.0016 0.9811
3.8844 1.8997 -2.0016 0.9811
3.8138 2.0378 -2.0016 0.9811
3.7383 2.1733 -2.0016 0.9811
3.6579 2.3059 -2.0016 0.9811
3.3891 2.6854 -2.0016 0.9811
3.2907 2.8053 -2.0016 0.9811
2.9703 3.1424 -2.0016 0.9811
2.6156 3.4433 -2.0016 0.9811
2.4905 3.5349 -2.0016 0.9811
1.9595 3.8547 -2.0016 0.9811
1.6781 3.9852 -2.0016 0.9811
1.5341 4.0428 -2.0016 0.9811
1.0911 4.1842 -2.0016 0.9811
0.6354 4.2772 -2.0016 0.9811
0.4816 4.2972 -2.0016 0.9811
0.3272 4.3117 -2.0016 0.9811
0.1723 4.3207 -2.0016 0.9811
0.0173 4.3241 -2.0016 0.9811
-0.2927 4.3142 -2.0016 0.9811
-0.7544 4.2578 -2.0016 0.9811
-0.9066 4.2280 -2.0016 0.9811
-1.0576 4.1928 -2.0016 0.9811
-1.5018 4.0549 -2.0016 0.9811
-1.7886 3.9369 -2.0016 0.9811
-2.7106 3.3690 -2.0016 0.9811
-2.8297 3.2696 -2.0016 0.9811
-2.9451 3.1661 -2.0016 0.9811
-3.0568 3.0584 -2.0016 0.9811
-3.1645 2.9468 -2.0016 0.9811
-3.3676 2.7124 -2.0016 0.9811
-3.4627 2.5899 -2.0016 0.9811
-3.5533 2.4641 -2.0016 0.9811
-3.6394 2.3351 -2.0016 0.9811
-3.7208 2.2030 -2.0016 0.9811
-1.3156 0.5985 -0.6690 0.9936
-1.3267 0.5470 -0.6643 0.9937
-1.3234 0.3856 -0.6381 0.9939
-1.3024 0.2800 -0.6166 0.9941
-1.3280 0.1872 -0.6208 0.9941
-1.3356 0.1396 -0.6216 0.9941
-1.3373 0.0434 -0.6194 0.9941
-1.3262 -0.1963 -0.6205 0.9941
-1.2992 -0.2887 -0.6160 0.9942
-1.3333 -0.4511 -0.6515 0.9938
-1.3318 -0.5046 -0.6592 0.9937
-1.3249 -0.5571 -0.6653 0.9937
-1.3129 -0.6083 -0.6698 0.9936
-3.8557 -1.9574 -2.0016 0.9811
-3.7830 -2.0944 -2.0016 0.9811
-3.6882 -2.2184 -1.9922 0.9812
-3.4327 -2.2361 -1.8963 0.9821
-3.2808 -2.3088 -1.8570 0.9825
-3.1959 -2.4250 -1.8570 0.9825
-2.4931 -3.1430 -1.8570 0.9825
-1.8925 -3.5373 -1.8570 0.9825
-1.7644 -3.6029 -1.8570 0.9825
-1.3672 -3.7716 -1.8570 0.9825
-0.6725 -3.9550 -1.8570 0.9825
-0.3873 -3.9930 -1.8570 0.9825
-0.2439 -4.0043 -1.8570 0.9825
0.3312 -3.9981 -1.8570 0.9825
0.4744 -3.9836 -1.8570 0.9825
0.8995 -3.9096 -1.8570 0.9825
1.3142 -3.7904 -1.8570 0.9825
1.4492 -3.7408 -1.8570 0.9825
1.5825 -3.6865 -1.8570 0.9825
1.7137 -3.6273 -1.8570 0.9825
1.8426 -3.5635 -1.8570 0.9825
2.2147 -3.3450 -1.8570 0.9825
2.3332 -3.2635 -1.8570 0.9825
2.5612 -3.0878 -1.8570 0.9825
2.6702 -2.9940 -1.8570 0.9825
2.7759 -2.8963 -1.8570 0.9825
2.8780 -2.7949 -1.8570 0.9825
3.7532 -2.1473 -2.0016 0.9811
3.8278 -2.0113 -2.0016 0.9811
4.0217 -1.5886 -2.0016 0.9811
4.1252 -1.2962 -2.0016 0.9811
4.1691 -1.1475 -2.0016 0.9811
4.2075 -0.9972 -2.0016 0.9811
4.2682 -0.6931 -2.0016 0.9811
4.3069 -0.3854 -2.0016 0.9811
4.3177 0.2344 -2.0016 0.9811
4.2067 1.0009 -2.0016 0.9811
4.1681 1.1511 -2.0016 0.9811
4.0748 1.4469 -2.0016 0.9811
3.8959 1.8762 -2.0016 0.9811
3.7514 2.1506 -2.0016 0.9811
3.6718 2.2837 -2.0016 0.9811
3.4053 2.6649 -2.0016 0.9811
2.7577 3.3306 -2.0016 0.9811
2.6364 3.4274 -2.0016 0.9811
2.5118 3.5197 -2.0016 0.9811
2.3840 3.6075 -2.0016 0.9811
1.9828 3.8427 -2.0016 0.9811
1.8437 3.9114 -2.0016 0.9811
1.7022 3.9750 -2.0016 0.9811
1.2655 4.1348 -2.0016 0.9811
1.1164 4.1775 -2.0016 0.9811
0.8141 4.2468 -2.0016 0.9811
0.6612 4.2732 -2.0016 0.9811
-0.2666 4.3159 -2.0016 0.9811
-0.5753 4.2857 -2.0016 0.9811
-0.8810 4.2334 -2.0016 0.9811
-1.0322 4.1991 -2.0016 0.9811
-1.4772 4.0639 -2.0016 0.9811
-1.6220 4.0084 -2.0016 0.9811
-1.7647 3.9476 -2.0016 0.9811
-2.0431 3.8110 -2.0016 0.9811
-2.3110 3.6547 -2.0016 0.9811
-3.1466 2.9659 -2.0016 0.9811
-3.2509 2.8512 -2.0016 0.9811
-3.6252 2.3570 -2.0016 0.9811
-3.7074 2.2255 -2.0016 0.9811
-3.7848 2.0911 -2.0016 0.9811
-3.8574 1.9541 -2.0016 0.9811
-1.3132 0.6071 -0.6697 0.9936
-1.3252 0.5558 -0.6652 0.9937
-1.3319 0.5033 -0.6591 0.9937
-1.3331 0.4498 -0.6513 0.9938
-1.3252 0.3948 -0.6400 0.9939
-1.3131 0.3405 -0.6279 0.9940
-1.2996 0.2876 -0.6161 0.9942
-1.3147 0.2419 -0.6188 0.9941
-1.3264 0.1951 -0.6206 0.9941
-1.3383 0.0997 -0.6212 0.9941
-1.3374 -0.0445 -0.6194 0.9941
-1.3385 -0.0927 -0.6210 0.9941
-1.3278 -0.1883 -0.6208 0.9941
-1.3020 -0.2811 -0.6166 0.9941
-1.3237 -0.3869 -0.6384 0.9939
-1.3322 -0.4418 -0.6497 0.9938
-1.3325 -0.4956 -0.6581 0.9938
-3.7956 -2.0715 -2.0016 0.9811
-3.2947 -2.2889 -1.8570 0.9825
-3.1221 -2.5192 -1.8570 0.9825
-2.8335 -2.8400 -1.8570 0.9825
-2.7298 -2.9397 -1.8570 0.9825
-2.1617 -3.3796 -1.8570 0.9825
-2.0391 -3.4549 -1.8570 0.9825
-1.9139 -3.5258 -1.8570 0.9825
-1.7862 -3.5922 -1.8570 0.9825
-1.5241 -3.7110 -1.8570 0.9825
-0.8377 -3.9233 -1.8570 0.9825
-0.6964 -3.9508 -1.8570 0.9825
3.9761 -0.9170 -2.0016 0.9820
4.0064 -0.7738 -2.0016 0.9820
4.0516 -0.4847 -2.0016 0.9820
4.0664 -0.3390 -2.0016 0.9820
4.0759 -0.1930 -2.0016 0.9820
4.0802 -0.0467 -2.0016 0.9820
4.0792 0.0996 -2.0016 0.9820
4.0730 0.2459 -2.0016 0.9820
4.0616 0.3918 -2.0016 0.9820
4.0449 0.5372 -2.0016 0.9820
4.0231 0.6819 -2.0016 0.9820
3.9788 0.8222 -1.9930 0.9821
3.5989 1.9230 -2.0016 0.9820
3.5277 2.0508 -2.0016 0.9820
3.3716 2.2984 -2.0016 0.9820
3.2870 2.4178 -2.0016 0.9820
3.1052 2.6472 -2.0016 0.9820
2.8030 2.9654 -2.0016 0.9820
2.1050 3.4956 -2.0016 0.9820
1.7174 3.7014 -2.0016 0.9820
1.5836 3.7606 -2.0016 0.9820
1.3100 3.8645 -2.0016 0.9820
1.0296 3.9484 -2.0016 0.9820
0.5996 4.0362 -2.0016 0.9820
0.0163 4.0804 -2.0016 0.9820
-0.1300 4.0784 -2.0016 0.9820
-0.4220 4.0586 -2.0016 0.9820
-0.5673 4.0408 -2.0016 0.9820
-1.2790 3.8748 -2.0016 0.9820
-1.4172 3.8265 -2.0016 0.9820
-1.8199 3.6521 -2.0016 0.9820
-2.2017 3.4355 -2.0016 0.9820
-2.3234 3.3544 -2.0016 0.9820
-2.6703 3.0854 -2.0016 0.9820
-2.7792 2.9877 -2.0016 0.9820
-2.8846 2.8861 -2.0016 0.9820
-3.0840 2.6719 -2.0016 0.9820
-3.1778 2.5596 -2.0016 0.9820
-3.2676 2.4440 -2.0016 0.9820
-3.3531 2.3252 -2.0016 0.9820
-3.5112 2.0789 -2.0016 0.9820
-1.1119 0.6056 -0.6211 0.9944
-1.1296 0.5636 -0.6192 0.9944
-1.1404 0.5188 -0.6146 0.9944
-1.1580 0.3829 -0.5983 0.9946
-1.1583 0.2928 -0.5861 0.9947
-1.1702 0.2516 -0.5871 0.9947
-1.1955 0.0818 -0.5878 0.9947
-1.1965 0.0388 -0.5872 0.9947
-1.1964 -0.0471 -0.5873 0.9947
-1.1916 -0.1329 -0.5881 0.9947
-1.1681 -0.2596 -0.5870 0.9947
-1.1590 -0.3464 -0.5933 0.9946
-1.1536 -0.4371 -0.6051 0.9945
-1.1473 -0.4824 -0.6105 0.9945
-1.1385 -0.5275 -0.6155 0.9944
-1.1272 -0.5722 -0.6201 0.9944
-3.4051 -2.2181 -1.9934 0.9821
-2.8440 -2.4987 -1.8570 0.9833
-2.6576 -2.6961 -1.8570 0.9833
-2.4575 -2.8796 -1.8570 0.9833
-2.2448 -3.0484 -1.8570 0.9833
-2.1340 -3.1269 -1.8570 0.9833
-2.0205 -3.2014 -1.8570 0.9833
-1.7858 -3.3380 -1.8570 0.9833
-1.6650 -3.3999 -1.8570 0.9833
-1.0318 -3.6424 -1.8570 0.9833
-0.9005 -3.6771 -1.8570 0.9833
-0.6346 -3.7321 -1.8570 0.9833
-0.5004 -3.7525 -1.8570 0.9833
0.1771 -3.7816 -1.8570 0.9833
0.3126 -3.7728 -1.8570 0.9833
0.7159 -3.7174 -1.8570 0.9833
0.8488 -3.6893 -1.8570 0.9833
0.9806 -3.6565 -1.8570 0.9833
1.1110 -3.6190 -1.8570 0.9833
1.2401 -3.5768 -1.8570 0.9833
1.4933 -3.4787 -1.8570 0.9833
1.6171 -3.4230 -1.8570 0.9833
2.0899 -3.1566 -1.8570 0.9833
2.4168 -2.9138 -1.8570 0.9833
2.5198 -2.8253 -1.8570 0.9833
2.8087 -2.5383 -1.8570 0.9833
3.1235 -2.6256 -2.0016 0.9820
3.2156 -2.5119 -2.0016 0.9820
3.3874 -2.2750 -2.0016 0.9820
3.6779 -1.7673 -2.0016 0.9820
3.8928 -1.2232 -2.0016 0.9820
3.9342 -1.0828 -2.0016 0.9820
4.0747 -0.2177 -2.0016 0.9820
4.0798 0.0749 -2.0016 0.9820
4.0010 0.8015 -2.0016 0.9820
3.9412 0.9377 -1.9872 0.9821
3.9178 1.0820 -1.9937 0.9821
3.8452 1.3654 -2.0016 0.9820
3.7938 1.5024 -2.0016 0.9820
3.6764 1.7705 -2.0016 0.9820
3.4649 2.1551 -2.0016 0.9820
3.3854 2.2779 -2.0016 0.9820
3.1212 2.6284 -2.0016 0.9820
3.0249 2.7386 -2.0016 0.9820
2.9248 2.8453 -2.0016 0.9820
2.8209 2.9484 -2.0016 0.9820
2.7133 3.0476 -2.0016 0.9820
2.6023 3.1430 -2.0016 0.9820
2.2497 3.4043 -2.0016 0.9820
2.1261 3.4828 -2.0016 0.9820
1.9999 3.5568 -2.0016 0.9820
1.6063 3.7510 -2.0016 0.9820
1.3333 3.8565 -2.0016 0.9820
1.0535 3.9421 -2.0016 0.9820
0.7682 4.0075 -2.0016 0.9820
0.6240 4.0325 -2.0016 0.9820
0.4790 4.0523 -2.0016 0.9820
0.3333 4.0668 -2.0016 0.9820
