ply
format ascii 1.0
element vertex 1542
property float32 x
property float32 y
property float32 z
property float32 I
end_header
-5.2310 15.8789 0.6592 0.9353
-6.0477 14.7147 0.6273 0.9383
-7.5763 13.9501 0.6260 0.9384
-11.3486 17.7346 0.8302 0.9192
-13.2127 15.2888 0.7968 0.9223
-13.9349 13.9626 0.7778 0.9241
-15.6200 13.5532 0.8154 0.9205
-16.8049 13.5565 0.8514 0.9172
-21.4180 -22.3652 0.5231 0.8835
-11.6601 -22.5680 0.4291 0.9034
-10.5716 -22.3954 0.4183 0.9057
-8.6708 -22.4007 0.4057 0.9084
-7.7585 -22.3982 0.4004 0.9095
-6.9107 -22.5320 0.3981 0.9100
-4.3300 -22.5120 0.3872 0.9124
-1.8666 -22.5902 0.3829 0.9133
0.5670 -22.5528 0.3811 0.9137
1.3695 -22.4236 0.3795 0.9140
33.0430 -36.0197 0.8257 0.8224
34.1405 -29.9976 0.7677 0.8338
32.6262 -26.6564 0.7117 0.8449
37.2012 -26.1847 0.7685 0.8336
39.0777 -25.4607 0.7879 0.8298
45.9821 13.3801 0.8089 0.8256
36.0459 14.8482 0.6585 0.8556
35.1837 20.8128 0.6905 0.8491
35.1885 22.5568 0.7060 0.8460
35.3940 24.5221 0.7273 0.8418
28.0360 22.5614 0.6079 0.8659
7.6117 16.7289 0.3105 0.9291
2.3890 22.8276 0.3877 0.9123
-0.0524 15.8645 0.2680 0.9385
-1.8192 12.3081 0.2102 0.9514
-2.2724 12.3059 0.2114 0.9512
-6.0486 14.3963 0.2638 0.9394
-9.8093 17.7303 0.3423 0.9221
-10.6583 17.7327 0.3495 0.9206
-13.2134 15.0505 0.3383 0.9230
-13.1770 13.9657 0.3243 0.9261
-12.3655 12.1982 0.2934 0.9329
-17.3078 15.8903 0.3969 0.9103
-20.0251 15.8979 0.4319 0.9028
-16.5932 12.2297 0.3482 0.9208
-33.2633 22.7220 0.6805 0.8512
-34.5641 21.8354 0.6906 0.8491
-27.2004 -22.5248 0.5966 0.8682
-23.3675 -22.3598 0.5463 0.8786
-21.8076 -22.4191 0.5283 0.8824
-20.2493 -22.3685 0.5097 0.8863
-16.3807 -22.5548 0.4709 0.8945
-15.1784 -22.5582 0.4593 0.8969
-13.6055 -21.8750 0.4351 0.9021
-12.8357 -22.3891 0.4359 0.9019
-11.8839 -22.5673 0.4308 0.9030
-9.8381 -22.4524 0.4141 0.9066
-8.8722 -22.4001 0.4070 0.9081
-7.9547 -22.3977 0.4015 0.9093
-3.6616 -22.4096 0.3836 0.9132
-2.8413 -22.4119 0.3816 0.9136
-2.0442 -22.5897 0.3831 0.9133
-1.2203 -22.4164 0.3792 0.9141
1.1939 -22.4231 0.3793 0.9141
2.2122 -4.2131 0.0804 0.9811
32.8965 -27.3081 0.7222 0.8428
32.9891 -25.4438 0.7037 0.8465
37.1949 -26.6168 0.7726 0.8328
41.6978 13.4132 0.7399 0.8393
37.1059 13.4221 0.6665 0.8540
35.7472 14.3998 0.6510 0.8571
29.8051 17.3186 0.5823 0.8712
35.3878 22.2968 0.7065 0.8459
35.2033 27.8793 0.7585 0.8356
3.9978 15.3039 0.2672 0.9387
2.0068 13.4663 0.2300 0.9470
2.5692 22.8271 0.3880 0.9122
0.9700 12.7020 0.2152 0.9503
0.5073 12.5637 0.2124 0.9509
-1.0682 15.8673 0.2686 0.9384
-1.6416 15.8689 0.2695 0.9382
-1.2324 8.8129 0.1503 0.9650
-3.3943 15.8738 0.2742 0.9371
-3.5714 12.3097 0.2165 0.9500
-4.0418 12.2690 0.2182 0.9496
-5.8707 15.8807 0.2860 0.9345
-6.0477 14.7147 0.2687 0.9383
-6.1060 12.2727 0.2315 0.9466
-10.3729 17.5669 0.3446 0.9216
-11.3486 17.7346 0.3557 0.9192
-12.9246 17.3240 0.3651 0.9172
-13.2095 16.4415 0.3563 0.9191
-10.6539 12.3279 0.2752 0.9369
-12.9748 13.9682 0.3220 0.9266
-17.0381 15.8896 0.3935 0.9110
-19.7062 15.8970 0.4277 0.9037
-21.2258 15.9012 0.4480 0.8993
-34.5630 22.2141 0.6940 0.8484
-21.4180 -22.3652 -0.1743 0.8835
-17.0854 -19.1722 -0.1446 0.9024
-18.1193 -21.8624 -0.1599 0.8926
-16.9811 -22.0529 -0.1567 0.8946
-16.1139 -22.5556 -0.1561 0.8950
-14.6568 -22.1543 -0.1496 0.8992
-13.3703 -21.8756 -0.1443 0.9025
-11.6601 -22.5680 -0.1430 0.9034
-6.0014 -22.4031 -0.1306 0.9114
-5.1271 -22.3110 -0.1290 0.9125
-4.3300 -22.5120 -0.1291 0.9124
-3.4824 -22.4101 -0.1277 0.9133
-2.6638 -22.4124 -0.1271 0.9137
-0.2404 -22.4191 -0.1262 0.9142
0.5670 -22.5528 -0.1270 0.9137
1.3695 -22.4236 -0.1265 0.9141
33.0449 -36.0218 -0.2752 0.8224
32.8793 -33.3573 -0.2637 0.8292
32.6262 -26.6564 -0.2372 0.8449
37.2030 -26.1860 -0.2561 0.8336
40.1668 13.2674 -0.2382 0.8443
36.0921 13.3748 -0.2167 0.8573
36.0459 14.8482 -0.2195 0.8556
36.0149 16.3693 -0.2227 0.8536
35.2976 17.5965 -0.2220 0.8541
29.8419 17.6529 -0.1952 0.8705
35.1936 24.3833 -0.2411 0.8426
28.0320 22.5582 -0.2026 0.8659
4.6124 15.8272 -0.0928 0.9362
3.4512 13.6462 -0.0793 0.9453
2.9037 13.5005 -0.0777 0.9463
-0.0413 12.5048 -0.0704 0.9512
-0.9018 11.9984 -0.0677 0.9530
-1.3504 12.1287 -0.0687 0.9524
-1.7984 12.1677 -0.0693 0.9520
-2.2405 12.1331 -0.0695 0.9518
-3.6113 12.0938 -0.0711 0.9508
-4.0855 12.0835 -0.0718 0.9503
-5.1311 12.2124 -0.0746 0.9484
-6.1400 12.1032 -0.0764 0.9472
-7.3955 12.3042 -0.0808 0.9442
-7.7684 11.9336 -0.0802 0.9446
-9.1293 12.0397 -0.0851 0.9414
-9.9583 12.1985 -0.0887 0.9390
-10.6325 12.1108 -0.0907 0.9376
-12.3088 12.1422 -0.0973 0.9332
-14.1433 12.0797 -0.1047 0.9283
-15.0746 11.9676 -0.1084 0.9259
-16.4509 12.1248 -0.1151 0.9215
-24.2126 11.8713 -0.1518 0.8977
-27.2004 -22.5248 -0.1988 0.8683
-21.8978 -22.5118 -0.1768 0.8819
-16.3807 -22.5548 -0.1569 0.8945
-13.6055 -21.8750 -0.1450 0.9021
-12.8357 -22.3891 -0.1453 0.9019
-11.8839 -22.5673 -0.1436 0.9030
-10.7858 -22.3948 -0.1399 0.9054
-5.3331 -22.4050 -0.1297 0.9120
-1.2203 -22.4164 -0.1264 0.9141
-0.4154 -22.4186 -0.1262 0.9142
0.3002 -17.3185 -0.0975 0.9331
1.1938 -22.4231 -0.1264 0.9141
2.2122 -4.2131 -0.0268 0.9811
32.8718 -36.3993 -0.2761 0.8219
47.4174 13.3973 -0.2774 0.8211
35.7472 14.3999 -0.2170 0.8571
35.2967 17.2535 -0.2212 0.8546
29.8379 17.3376 -0.1943 0.8711
35.2033 27.8793 -0.2528 0.8356
5.1693 17.2363 -0.1013 0.9305
3.0013 13.4431 -0.0775 0.9464
2.4711 13.2931 -0.0761 0.9474
1.4470 12.8568 -0.0728 0.9496
0.9602 12.5730 -0.0710 0.9508
-0.3787 12.0728 -0.0680 0.9528
-0.8328 12.3712 -0.0698 0.9516
-1.2593 12.1737 -0.0689 0.9522
-1.2322 8.8119 -0.0501 0.9650
-3.0914 12.2853 -0.0713 0.9506
-3.5221 12.1397 -0.0712 0.9507
-4.0085 12.1680 -0.0721 0.9500
-4.4313 11.9871 -0.0720 0.9502
-4.9002 11.9226 -0.0726 0.9497
-5.4678 12.0553 -0.0745 0.9484
-6.0296 12.1191 -0.0762 0.9473
-7.2003 12.1939 -0.0797 0.9449
-8.3619 12.0895 -0.0828 0.9429
-8.9455 11.9906 -0.0842 0.9419
-9.6537 12.0156 -0.0868 0.9402
-10.2824 11.8980 -0.0885 0.9390
-11.0827 11.9312 -0.0917 0.9369
-12.2261 12.2504 -0.0974 0.9331
-12.8059 11.9427 -0.0986 0.9324
-16.1361 12.0882 -0.1135 0.9225
-20.0684 11.9038 -0.1314 0.9109
-21.9869 11.9977 -0.1410 0.9047
-28.2423 12.8773 -0.1748 0.8832
-21.1911 8.7588 -0.1292 0.9124
-21.3094 -22.2518 -0.8675 0.8840
-17.0854 -19.1722 -0.7231 0.9023
-18.1193 -21.8624 -0.7996 0.8926
-16.9811 -22.0529 -0.7837 0.8946
-16.1139 -22.5556 -0.7805 0.8950
-14.6568 -22.1543 -0.7480 0.8992
-13.3703 -21.8756 -0.7219 0.9025
-12.5105 -22.2220 -0.7181 0.9030
-10.5025 -22.2490 -0.6928 0.9062
-9.5532 -22.2733 -0.6824 0.9076
-8.6300 -22.2953 -0.6732 0.9088
-5.1377 -22.3571 -0.6459 0.9123
-3.4775 -22.3789 -0.6377 0.9134
-2.6608 -22.3873 -0.6348 0.9137
0.5633 -22.4041 -0.6310 0.9142
32.8207 -33.2978 -1.3165 0.8294
34.0839 -29.9479 -1.2776 0.8340
37.1449 -26.1451 -1.2790 0.8338
34.4566 -3.8505 -0.9763 0.8705
44.8964 13.0642 -1.3166 0.8294
40.0167 13.2179 -1.1866 0.8448
33.4598 18.2063 -1.0726 0.8586
33.6610 21.5776 -1.1258 0.8521
2.3103 12.9915 -0.3716 0.9486
0.8333 12.1612 -0.3432 0.9524
-1.8140 12.2731 -0.3493 0.9516
-2.2020 11.9246 -0.3414 0.9526
-3.5362 11.8422 -0.3480 0.9517
-4.0697 12.0367 -0.3578 0.9504
-4.5032 11.8954 -0.3581 0.9504
-4.9797 11.8522 -0.3620 0.9499
-5.5383 11.9616 -0.3712 0.9486
-6.5888 11.9092 -0.3832 0.9470
-7.2273 12.0243 -0.3950 0.9454
-7.7541 11.9117 -0.4002 0.9447
-10.3834 11.8270 -0.4432 0.9390
-15.0657 11.9606 -0.5416 0.9259
-17.3642 11.8614 -0.5921 0.9193
-18.8078 11.8816 -0.6264 0.9148
-20.4744 11.9296 -0.6672 0.9095
-24.1084 11.8202 -0.7560 0.8981
-23.2768 -22.2730 -0.9071 0.8790
-21.6483 -22.2554 -0.8742 0.8832
-20.1327 -22.2397 -0.8447 0.8869
-18.7150 -22.2258 -0.8181 0.8902
-17.2560 -22.0517 -0.7884 0.8940
-16.3807 -22.5548 -0.7849 0.8944
-15.1784 -22.5582 -0.7656 0.8969
-13.6055 -21.8750 -0.7254 0.9021
-12.7395 -22.2214 -0.7212 0.9026
-11.7032 -22.2242 -0.7072 0.9044
-8.8288 -22.2907 -0.6751 0.9085
-5.3210 -22.3543 -0.6470 0.9121
-2.0263 -22.3926 -0.6331 0.9140
-0.4151 -22.4017 -0.6309 0.9142
0.3002 -17.3184 -0.4877 0.9330
2.2121 -4.2130 -0.1340 0.9811
28.0719 -38.7498 -1.3473 0.8257
32.8108 -36.3318 -1.3785 0.8221
38.4160 -25.4589 -1.2977 0.8316
44.8953 12.6847 -1.3136 0.8297
35.0379 14.1141 -1.0636 0.8597
36.0492 16.0467 -1.1111 0.8539
33.6600 21.2081 -1.1202 0.8528
34.1941 23.2979 -1.1652 0.8474
34.1953 25.1401 -1.1951 0.8438
0.4957 12.2768 -0.3460 0.9520
-0.8119 12.0610 -0.3404 0.9528
-1.2926 12.4956 -0.3537 0.9510
-1.2321 8.8109 -0.2505 0.9650
-2.1119 11.9584 -0.3419 0.9526
-3.0252 12.0224 -0.3491 0.9516
-3.4661 11.9469 -0.3503 0.9514
-3.8879 11.8019 -0.3499 0.9515
-4.4102 11.9299 -0.3581 0.9504
-5.4888 12.1015 -0.3742 0.9482
-6.4766 11.9252 -0.3821 0.9471
-7.1073 12.0365 -0.3936 0.9456
-7.7069 12.0438 -0.4026 0.9444
-8.1923 11.8444 -0.4055 0.9440
-9.5537 11.8912 -0.4295 0.9408
-10.2154 11.8205 -0.4399 0.9394
-11.0079 11.8506 -0.4554 0.9373
-11.8524 11.8760 -0.4724 0.9351
-14.6245 11.7976 -0.5291 0.9276
-15.9619 11.9578 -0.5616 0.9233
-23.7838 11.8922 -0.7487 0.8991
-27.8801 12.7122 -0.8628 0.8846
-16.1139 -22.5556 -1.4058 0.8949
-13.3703 -21.8756 -1.3002 0.9024
-10.5716 -22.3954 -1.2559 0.9056
-9.6067 -22.3981 -1.2360 0.9070
-7.7585 -22.3982 -1.2021 0.9094
-6.8704 -22.4007 -1.1883 0.9104
-6.0014 -22.4031 -1.1762 0.9113
-5.1488 -22.4055 -1.1659 0.9120
-4.3300 -22.5120 -1.1626 0.9123
-3.4824 -22.4101 -1.1502 0.9132
-1.0450 -22.4169 -1.1381 0.9140
-0.2404 -22.4191 -1.1370 0.9141
1.3695 -22.4236 -1.1393 0.9140
3.5264 -36.2954 -1.8494 0.8641
4.8254 -36.1456 -1.8494 0.8641
7.4031 -35.7069 -1.8494 0.8641
10.7610 -37.9720 -2.0016 0.8538
12.1155 -37.5618 -2.0016 0.8538
13.4543 -37.1033 -2.0016 0.8538
17.3603 -35.4443 -2.0016 0.8538
2.2430 -4.1920 -0.2411 0.9811
19.8556 -34.1091 -2.0016 0.8538
21.0657 -33.3753 -2.0016 0.8538
24.5274 -30.9206 -2.0016 0.8538
25.6202 -30.0214 -2.0016 0.8538
26.6460 -29.0464 -1.9990 0.8540
26.9854 -25.4821 -1.8823 0.8619
28.2393 -23.0722 -1.8494 0.8641
29.0484 -22.0450 -1.8494 0.8641
30.5533 -19.9067 -1.8494 0.8641
31.9013 -17.6662 -1.8494 0.8641
36.3801 -15.3024 -2.0016 0.8538
38.1939 -9.9449 -2.0016 0.8538
36.2208 -5.3686 -1.8570 0.8636
34.0677 -3.8070 -1.7385 0.8717
36.1161 -2.7293 -1.8368 0.8650
39.4365 -1.5612 -2.0016 0.8538
39.3762 2.6820 -2.0016 0.8538
39.2547 4.0921 -2.0016 0.8538
39.0827 5.4968 -2.0016 0.8538
38.8606 6.8945 -2.0016 0.8538
38.3581 8.2338 -1.9896 0.8546
35.0140 10.1886 -1.8494 0.8641
34.1939 12.6714 -1.8494 0.8641
33.7177 13.8891 -1.8494 0.8641
32.6357 16.2695 -1.8494 0.8641
32.0315 17.4291 -1.8494 0.8641
29.9749 20.7676 -1.8494 0.8641
27.5718 23.8660 -1.8494 0.8641
27.2685 25.3695 -1.8888 0.8614
25.8422 29.8305 -2.0016 0.8538
22.4898 32.4327 -2.0016 0.8538
7.6092 16.7233 -0.9318 0.9291
15.0469 36.4865 -2.0016 0.8538
12.3937 37.4709 -2.0016 0.8538
4.4761 15.3595 -0.8113 0.9379
3.4427 13.6128 -0.7121 0.9453
1.3011 12.4324 -0.6339 0.9512
0.8439 12.3156 -0.6260 0.9518
0.4014 12.3254 -0.6254 0.9518
-1.3228 11.8806 -0.6062 0.9533
-2.2445 12.1548 -0.6268 0.9517
-2.6379 11.8820 -0.6173 0.9524
-3.0639 11.7866 -0.6176 0.9524
-5.0569 12.0358 -0.6621 0.9491
-5.5051 11.8898 -0.6645 0.9489
-6.6289 11.9817 -0.6944 0.9466
-7.2352 12.0374 -0.7123 0.9453
-8.4103 11.9589 -0.7414 0.9431
-9.7285 11.9171 -0.7802 0.9402
-12.0908 11.9271 -0.8613 0.9342
-13.8931 11.8661 -0.9266 0.9294
-14.9343 11.8563 -0.9670 0.9265
-16.0673 11.8421 -1.0122 0.9232
-20.5389 11.9672 -1.2055 0.9092
-22.3240 11.9565 -1.2843 0.9035
-29.8956 13.3503 -1.6604 0.8771
-37.0979 13.4693 -2.0016 0.8538
-37.5570 12.1306 -2.0016 0.8538
-37.9677 10.7764 -2.0016 0.8538
-38.3296 9.4082 -2.0016 0.8538
-38.9053 6.6374 -2.0016 0.8538
-39.3930 2.4218 -2.0016 0.8538
-39.4253 -1.8219 -2.0016 0.8538
-39.3347 -3.2342 -2.0016 0.8538
-39.1934 -4.6423 -2.0016 0.8538
-39.0018 -6.0445 -2.0016 0.8538
-38.4684 -8.8237 -2.0016 0.8538
-37.7372 -11.5576 -2.0016 0.8538
-37.2986 -12.9031 -2.0016 0.8538
-36.8120 -14.2320 -2.0016 0.8538
-36.2781 -15.5426 -2.0016 0.8538
-35.0711 -18.1023 -2.0016 0.8538
-34.3996 -19.3480 -2.0016 0.8538
-28.9020 -22.2365 -1.8494 0.8641
-25.1057 -22.3550 -1.7048 0.8740
-23.3675 -22.3598 -1.6402 0.8785
-21.7543 -22.3643 -1.5823 0.8825
-20.2493 -22.3685 -1.5302 0.8862
-13.6055 -21.8750 -1.3064 0.9020
-10.7858 -22.3948 -1.2606 0.9052
-9.8141 -22.3975 -1.2401 0.9067
-8.8722 -22.4001 -1.2219 0.9080
-7.0620 -22.4001 -1.1911 0.9102
-6.1891 -22.4026 -1.1787 0.9111
-5.3331 -22.4050 -1.1680 0.9119
-4.5123 -22.5115 -1.1644 0.9121
-2.0283 -22.4141 -1.1414 0.9138
-1.2203 -22.4164 -1.1385 0.9140
-0.4154 -22.4186 -1.1371 0.9141
0.3002 -17.3183 -0.8784 0.9330
1.1938 -22.4231 -1.1388 0.9140
7.1242 -35.7636 -1.8494 0.8641
9.0933 -38.4056 -2.0016 0.8538
10.4643 -38.0549 -2.0016 0.8538
11.8219 -37.6552 -2.0016 0.8538
13.1643 -37.2072 -2.0016 0.8538
17.0832 -35.5787 -2.0016 0.8538
19.5887 -34.2631 -2.0016 0.8538
23.1543 -31.9617 -2.0016 0.8538
26.4523 -29.2909 -2.0016 0.8538
26.9575 -27.7798 -1.9631 0.8564
26.9806 -25.8789 -1.8960 0.8609
27.2053 -24.2829 -1.8494 0.8641
28.0584 -23.2919 -1.8494 0.8641
29.6553 -21.2215 -1.8494 0.8641
30.3971 -20.1447 -1.8494 0.8641
31.7625 -17.9147 -1.8494 0.8641
36.2595 -15.5859 -2.0016 0.8538
37.7234 -11.6026 -2.0016 0.8538
36.1778 -5.6511 -1.8570 0.8636
34.0626 -4.0759 -1.7398 0.8716
36.4898 -3.0441 -1.8570 0.8636
39.4231 -1.8690 -2.0016 0.8538
39.4648 -0.4544 -2.0016 0.8538
39.3959 2.3747 -2.0016 0.8538
38.5910 7.9693 -1.9984 0.8540
32.7584 9.2555 -1.7264 0.8725
33.3148 14.8295 -1.8494 0.8641
30.8528 19.4394 -1.8494 0.8641
30.1361 20.5330 -1.8494 0.8641
29.3806 21.6003 -1.8494 0.8641
28.5873 22.6397 -1.8494 0.8641
27.0684 28.6199 -1.9978 0.8540
26.0742 29.6279 -2.0016 0.8538
24.9952 30.5437 -2.0016 0.8538
23.8841 31.4202 -2.0016 0.8538
22.7423 32.2562 -2.0016 0.8538
21.5712 33.0508 -2.0016 0.8538
19.1475 34.5116 -2.0016 0.8538
17.8978 35.1759 -2.0016 0.8538
12.6858 37.3731 -2.0016 0.8538
3.5319 13.5206 -0.7087 0.9456
2.4287 13.0647 -0.6739 0.9482
0.9415 12.3293 -0.6271 0.9517
0.4905 12.1480 -0.6166 0.9525
-0.3754 11.9675 -0.6072 0.9532
-1.2253 11.8453 -0.6039 0.9534
-1.2320 8.8099 -0.4511 0.9650
-2.0841 11.8014 -0.6078 0.9531
-2.5234 11.8011 -0.6120 0.9528
-3.4322 11.8299 -0.6247 0.9519
-3.9460 11.9783 -0.6396 0.9507
-4.4494 12.0360 -0.6508 0.9499
-5.3571 11.8111 -0.6577 0.9494
-5.8583 11.7747 -0.6670 0.9487
-6.5086 11.9841 -0.6916 0.9468
-7.1104 12.0416 -0.7092 0.9455
-7.5461 11.7925 -0.7100 0.9455
-9.5032 11.8284 -0.7695 0.9410
-11.0068 11.8495 -0.8202 0.9373
-13.7733 11.9509 -0.9248 0.9296
-15.8853 11.9004 -1.0066 0.9236
-18.4501 11.8581 -1.1123 0.9159
-23.1915 11.5960 -1.3150 0.9014
-26.2756 11.9806 -1.4645 0.8908
-21.1190 8.7289 -1.1589 0.9125
-37.4611 12.4234 -2.0016 0.8538
-38.5785 8.3293 -2.0016 0.8538
-16.0948 -19.4197 -1.8494 0.9038
-15.3882 -19.9843 -1.8494 0.9038
-13.1536 -21.5210 -1.8494 0.9038
-12.3735 -21.9787 -1.8494 0.9038
-11.5696 -22.3926 -1.8481 0.9039
-6.8704 -22.4007 -1.7180 0.9103
-6.0014 -22.4031 -1.7006 0.9112
-5.1488 -22.4055 -1.6856 0.9119
-4.2455 -22.0728 -1.6481 0.9138
-3.4824 -22.4101 -1.6629 0.9131
-2.6638 -22.4124 -1.6549 0.9135
-1.8521 -22.4146 -1.6491 0.9137
0.4333 -17.2331 -1.2640 0.9332
1.3695 -22.4236 -1.6472 0.9138
2.4391 -25.1042 -1.8494 0.9038
4.2319 -24.8648 -1.8494 0.9038
5.1206 -24.6971 -1.8494 0.9038
6.0026 -24.4977 -1.8494 0.9038
12.0075 -24.5155 -2.0016 0.8963
2.2430 -4.1919 -0.3486 0.9811
15.3886 -22.5473 -2.0016 0.8963
18.4536 -20.1160 -2.0016 0.8963
19.8476 -18.7420 -2.0016 0.8963
21.7452 -16.5026 -2.0016 0.8963
24.3397 -12.3600 -2.0016 0.8963
25.1628 -10.5841 -2.0016 0.8963
25.5261 -9.6752 -2.0016 0.8963
26.4173 -6.8786 -2.0016 0.8963
26.6470 -5.9270 -2.0016 0.8963
26.8423 -4.9679 -2.0016 0.8963
27.0032 -4.0023 -2.0016 0.8963
27.2206 -2.0571 -2.0016 0.8963
27.2768 -1.0798 -2.0016 0.8963
27.2841 0.8775 -2.0016 0.8963
27.2351 1.8551 -2.0016 0.8963
27.1510 2.8304 -2.0016 0.8963
26.8784 4.7686 -2.0016 0.8963
26.6902 5.7292 -2.0016 0.8963
26.4676 6.6824 -2.0016 0.8963
26.2110 7.6270 -2.0016 0.8963
24.8516 11.2954 -2.0016 0.8963
23.4951 13.8985 -2.0016 0.8963
22.9818 14.7319 -2.0016 0.8963
22.4388 15.5464 -2.0016 0.8963
21.8670 16.3408 -2.0016 0.8963
21.2671 17.1143 -2.0016 0.8963
19.9861 18.5943 -2.0016 0.8963
19.3066 19.2988 -2.0016 0.8963
18.6023 19.9786 -2.0016 0.8963
17.8741 20.6327 -2.0016 0.8963
17.1229 21.2602 -2.0016 0.8963
16.3497 21.8604 -2.0016 0.8963
14.7412 22.9758 -2.0016 0.8963
13.0569 23.9731 -2.0016 0.8963
7.5730 16.6440 -1.3408 0.9293
10.4074 25.2364 -2.0016 0.8963
9.4960 25.5933 -2.0016 0.8963
7.9205 23.9465 -1.8494 0.9038
4.6514 15.9609 -1.2190 0.9355
2.8361 13.1862 -0.9889 0.9473
1.8410 13.0513 -0.9664 0.9485
-0.0395 11.9465 -0.8759 0.9532
-0.4667 11.9095 -0.8739 0.9533
-0.8911 11.8559 -0.8718 0.9534
-1.3249 11.8998 -0.8779 0.9531
-4.0651 12.0233 -0.9306 0.9504
-5.0162 11.9391 -0.9495 0.9494
-6.5826 11.8980 -0.9970 0.9469
-7.2590 12.0771 -1.0332 0.9451
-8.2932 11.7924 -1.0571 0.9438
-9.6448 11.8146 -1.1183 0.9407
-10.4566 11.9104 -1.1621 0.9384
-11.3119 11.9889 -1.2086 0.9360
-12.0377 11.8748 -1.2398 0.9344
-13.6371 11.6474 -1.3150 0.9306
-14.4906 11.5041 -1.3566 0.9285
-16.8639 11.5196 -1.4974 0.9214
-18.2491 11.5287 -1.5827 0.9171
-19.8039 11.5389 -1.6806 0.9122
-21.5659 11.5504 -1.7938 0.9065
-21.0840 8.5224 -1.6674 0.9128
-23.7081 8.6078 -1.8494 0.9038
-26.5112 6.5073 -2.0016 0.8963
-26.7275 5.5527 -2.0016 0.8963
-26.9094 4.5909 -2.0016 0.8963
-27.2467 1.6751 -2.0016 0.8963
-27.2967 -0.2817 -2.0016 0.8963
-26.9942 -2.2195 -1.9860 0.8971
-25.1505 -2.9790 -1.8570 0.9034
-25.0276 -3.8788 -1.8570 0.9034
-26.6072 -6.1030 -2.0016 0.8963
-25.7981 -8.9246 -2.0016 0.8963
-25.4616 -9.8437 -2.0016 0.8963
-25.0923 -10.7502 -2.0016 0.8963
-24.2574 -12.5207 -2.0016 0.8963
-23.7930 -13.3823 -2.0016 0.8963
-23.2979 -14.2267 -2.0016 0.8963
-22.7728 -15.0528 -2.0016 0.8963
-22.1948 -15.8427 -1.9994 0.8964
-18.8370 -16.7731 -1.8494 0.9038
-16.9272 -18.6987 -1.8494 0.9038
-16.2459 -19.2935 -1.8494 0.9038
-14.8216 -20.4081 -1.8494 0.9038
-12.5447 -21.8815 -1.8494 0.9038
-7.9547 -22.3977 -1.7427 0.9091
-5.2265 -16.5782 -1.2745 0.9327
-6.1891 -22.4026 -1.7041 0.9110
-5.3331 -22.4050 -1.6887 0.9118
-4.4243 -22.0723 -1.6506 0.9137
-3.6616 -22.4096 -1.6649 0.9130
-2.8413 -22.4119 -1.6564 0.9134
-2.0283 -22.4141 -1.6502 0.9137
0.2987 -17.2328 -1.2637 0.9332
3.1424 -25.0259 -1.8494 0.9038
4.0377 -24.8971 -1.8494 0.9038
4.9278 -24.7363 -1.8494 0.9038
9.1053 -25.7349 -2.0016 0.8963
2.2121 -4.2130 -0.3489 0.9811
13.5488 -23.6985 -2.0016 0.8963
14.3898 -23.1975 -2.0016 0.8963
15.2122 -22.6667 -2.0016 0.8963
16.7973 -21.5184 -2.0016 0.8963
17.5580 -20.9023 -2.0016 0.8963
18.2961 -20.2594 -2.0016 0.8963
19.0106 -19.5905 -2.0016 0.8963
21.0042 -17.4360 -2.0016 0.8963
21.6158 -16.6718 -2.0016 0.8963
25.0794 -10.7802 -2.0016 0.8963
26.0919 -8.0251 -2.0016 0.8963
26.3628 -7.0845 -2.0016 0.8963
26.5999 -6.1348 -2.0016 0.8963
26.9711 -4.2130 -2.0016 0.8963
27.2675 -1.2927 -2.0016 0.8963
27.2901 0.6645 -2.0016 0.8963
27.2487 1.6425 -2.0016 0.8963
27.1723 2.6184 -2.0016 0.8963
27.0610 3.5909 -2.0016 0.8963
26.9148 4.5587 -2.0016 0.8963
26.7341 5.5207 -2.0016 0.8963
26.5190 6.4756 -2.0016 0.8963
25.9868 8.3593 -2.0016 0.8963
25.3210 10.1999 -2.0016 0.8963
24.9390 11.1012 -2.0016 0.8963
24.5250 11.9881 -2.0016 0.8963
24.0794 12.8597 -2.0016 0.8963
23.6029 13.7147 -2.0016 0.8963
23.0960 14.5521 -2.0016 0.8963
22.5595 15.3708 -2.0016 0.8963
21.9939 16.1697 -2.0016 0.8963
20.7787 17.7041 -2.0016 0.8963
18.7577 19.8328 -2.0016 0.8963
18.0346 20.4926 -2.0016 0.8963
16.5198 21.7322 -2.0016 0.8963
15.7300 22.3105 -2.0016 0.8963
14.9201 22.8601 -2.0016 0.8963
14.0909 23.3803 -2.0016 0.8963
13.2436 23.8704 -2.0016 0.8963
7.7242 16.6306 -1.3445 0.9291
9.6954 25.5184 -2.0016 0.8963
8.1071 23.8840 -1.8494 0.9038
4.8066 16.0267 -1.2268 0.9351
1.4224 12.6377 -0.9325 0.9503
0.9358 12.2543 -0.9011 0.9519
-1.2588 12.1687 -0.8970 0.9521
-2.0992 11.8868 -0.8851 0.9527
-2.5534 11.9414 -0.8954 0.9522
-3.0076 11.9522 -0.9037 0.9518
-3.4442 11.8712 -0.9063 0.9516
-3.8963 11.8273 -0.9130 0.9513
-4.8923 11.9035 -0.9436 0.9497
-5.8920 11.8424 -0.9698 0.9483
-6.4840 11.9388 -0.9961 0.9470
-7.0294 11.9046 -1.0137 0.9461
-8.2068 11.8654 -1.0578 0.9438
-8.8420 11.8517 -1.0842 0.9424
-9.4920 11.8144 -1.1112 0.9410
-10.3063 11.9257 -1.1557 0.9387
-11.0001 11.8423 -1.1851 0.9372
-11.9642 11.9880 -1.2418 0.9343
-12.7584 11.8983 -1.2791 0.9324
-15.3639 11.5098 -1.4076 0.9259
-16.5818 11.5178 -1.4803 0.9222
-19.4493 11.5366 -1.6581 0.9133
-21.1624 11.5478 -1.7677 0.9078
-22.5595 11.2800 -1.8494 0.9038
-21.0517 8.7012 -1.6702 0.9127
-24.8668 8.2466 -1.9209 0.9003
-26.6833 5.7611 -2.0016 0.8963
-14.4198 -15.0575 -2.0016 0.9196
-13.8707 -15.5648 -2.0016 0.9196
-13.2705 -16.0120 -1.9966 0.9198
-10.7112 -16.1903 -1.8637 0.9250
-10.0458 -16.4363 -1.8494 0.9255
-8.2229 -17.4199 -1.8494 0.9255
-7.5931 -17.7035 -1.8494 0.9255
-5.6484 -18.4164 -1.8494 0.9255
-4.9845 -18.6071 -1.8494 0.9255
-2.2735 -19.1285 -1.8494 0.9255
-1.5863 -19.1978 -1.8494 0.9255
-0.8970 -19.2423 -1.8494 0.9255
-0.2065 -19.2621 -1.8494 0.9255
0.4320 -17.1824 -1.6501 0.9333
1.1743 -19.2273 -1.8494 0.9255
5.4458 -19.2162 -1.9175 0.9229
7.1072 -19.5997 -2.0016 0.9196
7.8053 -19.3323 -2.0016 0.9196
8.4934 -19.0400 -2.0016 0.9196
10.4886 -18.0180 -2.0016 0.9196
11.1279 -17.6304 -2.0016 0.9196
13.5338 -15.8587 -2.0016 0.9196
14.6354 -14.8481 -2.0016 0.9196
15.1583 -14.3139 -2.0016 0.9196
16.1450 -13.1908 -2.0016 0.9196
17.4680 -11.3811 -2.0016 0.9196
17.8648 -10.7475 -2.0016 0.9196
18.5890 -9.4398 -2.0016 0.9196
18.9155 -8.7672 -2.0016 0.9196
19.2176 -8.0835 -2.0016 0.9196
19.4951 -7.3893 -2.0016 0.9196
19.7475 -6.6856 -2.0016 0.9196
19.9745 -5.9733 -2.0016 0.9196
20.1758 -5.2534 -2.0016 0.9196
20.5004 -3.7941 -2.0016 0.9196
20.7892 -1.5710 -2.0016 0.9196
20.8322 -0.8247 -2.0016 0.9196
20.8484 -0.0773 -2.0016 0.9196
20.8003 1.4168 -2.0016 0.9196
20.5279 3.6420 -2.0016 0.9196
20.3842 4.3756 -2.0016 0.9196
19.7965 6.5390 -2.0016 0.9196
19.2771 7.9407 -2.0016 0.9196
18.3130 9.9646 -2.0016 0.9196
17.5519 11.2512 -2.0016 0.9196
17.1373 11.8733 -2.0016 0.9196
16.7006 12.4800 -2.0016 0.9196
16.2424 13.0707 -2.0016 0.9196
11.2583 17.5474 -2.0016 0.9196
9.9720 18.3090 -2.0016 0.9196
9.3091 18.6547 -2.0016 0.9196
7.3441 17.8083 -1.8494 0.9255
6.7009 18.0601 -1.8494 0.9255
6.0491 18.2887 -1.8494 0.9255
4.2284 14.5093 -1.4509 0.9411
3.3582 13.2787 -1.3150 0.9464
2.8334 13.1738 -1.2937 0.9473
1.2945 12.3691 -1.1940 0.9513
0.4022 12.3491 -1.1862 0.9516
-0.4656 11.8823 -1.1416 0.9533
-1.7747 12.0073 -1.1653 0.9524
-2.2196 12.0202 -1.1735 0.9521
-4.0148 11.8744 -1.2034 0.9509
-4.4902 11.8608 -1.2176 0.9503
-5.0359 11.9858 -1.2481 0.9491
-5.9536 11.7358 -1.2634 0.9485
-7.0561 11.7395 -1.3150 0.9464
-8.0608 11.4619 -1.3453 0.9452
-8.6944 11.4661 -1.3815 0.9438
-9.3639 11.4705 -1.4216 0.9422
-10.0744 11.4751 -1.4660 0.9405
-13.4614 11.4973 -1.6996 0.9313
-14.4906 11.5041 -1.7763 0.9283
-15.5065 11.4288 -1.8494 0.9255
-15.9063 10.8655 -1.8494 0.9255
-16.2856 10.2882 -1.8494 0.9255
-16.6440 9.6978 -1.8494 0.9255
-16.9810 9.0948 -1.8494 0.9255
-18.4584 8.2429 -1.9408 0.9220
-19.3246 7.8113 -2.0011 0.9197
-19.5968 7.1151 -2.0016 0.9196
-19.8393 6.4080 -2.0016 0.9196
-20.0563 5.6926 -2.0016 0.9196
-20.4126 4.2408 -2.0016 0.9196
-20.5516 3.5062 -2.0016 0.9196
-20.6641 2.7672 -2.0016 0.9196
-20.8474 -0.2151 -2.0016 0.9196
-20.8263 -0.9624 -2.0016 0.9196
-20.7784 -1.7084 -2.0016 0.9196
-20.7038 -2.4523 -2.0016 0.9196
-20.3208 -4.6611 -2.0016 0.9196
-20.1406 -5.3866 -2.0016 0.9196
-19.7028 -6.8160 -2.0016 0.9196
-19.4458 -7.5180 -2.0016 0.9196
-18.8571 -8.8921 -2.0016 0.9196
-18.5262 -9.5625 -2.0016 0.9196
-18.1714 -10.2205 -2.0016 0.9196
-17.3924 -11.4963 -2.0016 0.9196
-16.9690 -12.1125 -2.0016 0.9196
-16.5239 -12.7131 -2.0016 0.9196
-15.0633 -14.4137 -2.0016 0.9196
-14.5369 -14.9445 -2.0016 0.9196
-13.9918 -15.4561 -2.0016 0.9196
-13.4055 -15.9203 -1.9981 0.9198
-12.6538 -16.1704 -1.9713 0.9208
-9.5808 -16.7116 -1.8494 0.9255
-8.9755 -17.0444 -1.8494 0.9255
-8.3586 -17.3552 -1.8494 0.9255
-7.7311 -17.6437 -1.8494 0.9255
-7.0935 -17.9095 -1.8494 0.9255
-5.2066 -16.5150 -1.6625 0.9328
-5.1296 -18.5676 -1.8494 0.9255
-4.4606 -18.7396 -1.8494 0.9255
-3.1063 -19.0111 -1.8494 0.9255
-2.4227 -19.1102 -1.8494 0.9255
-1.7361 -19.1848 -1.8494 0.9255
-1.0471 -19.2347 -1.8494 0.9255
-0.3569 -19.2599 -1.8494 0.9255
1.0242 -19.2359 -1.8494 0.9255
1.7132 -19.1868 -1.8494 0.9255
3.0836 -19.0147 -1.8494 0.9255
6.2312 -19.8475 -1.9972 0.9198
6.9540 -19.6546 -2.0016 0.9196
9.0241 -18.7943 -2.0016 0.9196
2.2121 -4.2129 -0.4568 0.9811
10.3477 -18.0993 -2.0016 0.9196
10.9899 -17.7167 -2.0016 0.9196
11.6180 -17.3113 -2.0016 0.9196
12.8286 -16.4343 -2.0016 0.9196
13.9733 -15.4728 -2.0016 0.9196
16.0416 -13.3164 -2.0016 0.9196
16.5087 -12.7328 -2.0016 0.9196
16.9545 -12.1327 -2.0016 0.9196
17.7803 -10.8866 -2.0016 0.9196
18.1592 -10.2422 -2.0016 0.9196
18.5148 -9.5845 -2.0016 0.9196
19.4368 -7.5412 -2.0016 0.9196
19.9272 -6.1290 -2.0016 0.9196
20.3152 -4.6854 -2.0016 0.9196
20.7008 -2.4770 -2.0016 0.9196
20.8251 -0.9873 -2.0016 0.9196
20.8471 -0.2400 -2.0016 0.9196
20.7524 1.9997 -2.0016 0.9196
20.2534 4.9456 -2.0016 0.9196
20.0631 5.6686 -2.0016 0.9196
19.8469 6.3843 -2.0016 0.9196
19.6053 7.0917 -2.0016 0.9196
19.3385 7.7900 -2.0016 0.9196
19.0467 8.4783 -2.0016 0.9196
18.7305 9.1557 -2.0016 0.9196
18.3903 9.8214 -2.0016 0.9196
18.0263 10.4744 -2.0016 0.9196
17.2294 11.7391 -2.0016 0.9196
16.7975 12.3493 -2.0016 0.9196
16.3439 12.9436 -2.0016 0.9196
15.8694 13.5212 -2.0016 0.9196
15.3744 14.0815 -2.0016 0.9196
14.8597 14.6236 -2.0016 0.9196
10.1146 18.2306 -2.0016 0.9196
7.7080 16.5957 -1.7567 0.9291
7.4828 17.7504 -1.8494 0.9255
6.8416 18.0073 -1.8494 0.9255
6.1916 18.2410 -1.8494 0.9255
4.7967 15.9937 -1.6030 0.9351
2.9185 13.0723 -1.2859 0.9476
1.9037 12.7743 -1.2399 0.9494
1.3899 12.3489 -1.1930 0.9513
0.0541 12.0289 -1.1548 0.9528
-0.3762 11.9910 -1.1518 0.9529
-1.2309 11.8987 -1.1484 0.9531
-3.0090 11.9578 -1.1838 0.9517
-3.9721 12.0575 -1.2188 0.9503
-4.8705 11.8504 -1.2300 0.9498
-6.4142 11.8103 -1.2903 0.9474
-6.9985 11.8523 -1.3214 0.9462
-7.3826 11.5370 -1.3150 0.9464
-7.9272 11.4610 -1.3379 0.9455
-9.2149 11.4695 -1.4125 0.9426
-10.6626 11.4790 -1.5041 0.9390
-12.3204 11.4898 -1.6174 0.9345
-13.2490 11.4959 -1.6840 0.9319
-15.8210 10.9893 -1.8494 0.9255
-16.2048 10.4151 -1.8494 0.9255
-16.5678 9.8274 -1.8494 0.9255
-16.9095 9.2271 -1.8494 0.9255
-17.2294 8.6149 -1.8494 0.9255
-18.0911 8.2488 -1.9089 0.9232
-19.2400 7.9523 -1.9987 0.9197
-19.5407 7.2678 -2.0016 0.9196
-19.7887 6.5626 -2.0016 0.9196
-20.2081 5.1277 -2.0016 0.9196
-20.5236 3.6665 -2.0016 0.9196
-10.2803 -13.3508 -2.0016 0.9344
-9.7951 -13.7107 -2.0016 0.9344
-9.2972 -14.0531 -2.0016 0.9344
-7.1929 -15.2378 -2.0016 0.9344
-6.0825 -15.7140 -2.0016 0.9344
-5.5068 -15.8976 -1.9985 0.9345
-4.3309 -16.1673 -1.9882 0.9348
-1.9227 -16.1771 -1.9351 0.9365
-1.3370 -16.1807 -1.9286 0.9367
0.4114 -16.3613 -1.9441 0.9362
1.0075 -16.4971 -1.9633 0.9356
1.6204 -16.6776 -1.9904 0.9347
2.2254 -16.6698 -1.9977 0.9345
2.8271 -16.6113 -2.0016 0.9344
3.4208 -16.4993 -2.0016 0.9344
4.0101 -16.3660 -2.0016 0.9344
6.3084 -15.6247 -2.0016 0.9344
6.8645 -15.3885 -2.0016 0.9344
7.4118 -15.1325 -2.0016 0.9344
8.4771 -14.5625 -2.0016 0.9344
8.9937 -14.2492 -2.0016 0.9344
9.9917 -13.5681 -2.0016 0.9344
10.9382 -12.8173 -2.0016 0.9344
11.8286 -12.0005 -2.0016 0.9344
12.2512 -11.5687 -2.0016 0.9344
13.0487 -10.6611 -2.0016 0.9344
13.4225 -10.1864 -2.0016 0.9344
13.7791 -9.6987 -2.0016 0.9344
15.2878 -7.0859 -2.0016 0.9344
16.1437 -4.8278 -2.0016 0.9344
16.8022 -1.2698 -2.0016 0.9344
16.8370 -0.6666 -2.0016 0.9344
16.8112 1.1451 -2.0016 0.9344
16.7593 1.7471 -2.0016 0.9344
16.6859 2.3468 -2.0016 0.9344
16.4749 3.5364 -2.0016 0.9344
15.9999 5.2849 -2.0016 0.9344
15.5801 6.4178 -2.0016 0.9344
15.0802 7.5177 -2.0016 0.9344
14.8009 8.0536 -2.0016 0.9344
14.1858 9.0935 -2.0016 0.9344
13.4977 10.0866 -2.0016 0.9344
12.7402 11.0279 -2.0016 0.9344
12.3367 11.4775 -2.0016 0.9344
11.9173 11.9125 -2.0016 0.9344
11.0330 12.7358 -2.0016 0.9344
10.5693 13.1232 -2.0016 0.9344
10.0920 13.4936 -2.0016 0.9344
9.6018 13.8468 -2.0016 0.9344
9.0992 14.1821 -2.0016 0.9344
8.5849 14.4992 -2.0016 0.9344
7.4467 13.6725 -1.8494 0.9392
6.9517 13.9306 -1.8494 0.9392
5.9356 14.3930 -1.8494 0.9392
5.4158 14.5965 -1.8494 0.9392
4.8890 14.7813 -1.8494 0.9392
4.2284 14.5093 -1.7952 0.9409
3.3491 13.2425 -1.6226 0.9465
1.7673 12.5290 -1.5030 0.9503
1.2886 12.3131 -1.4706 0.9514
0.3877 11.9068 -1.4151 0.9531
-0.8580 11.4147 -1.3597 0.9549
-1.6880 11.4202 -1.3713 0.9546
-2.1093 11.4229 -1.3798 0.9543
-2.5366 11.4257 -1.3903 0.9539
-3.4135 11.4315 -1.4171 0.9531
-3.8660 11.4344 -1.4338 0.9525
-5.2985 11.4438 -1.4980 0.9505
-5.8072 11.4472 -1.5247 0.9496
-6.8846 11.4542 -1.5875 0.9476
-7.4588 11.4580 -1.6240 0.9464
-8.6944 11.4661 -1.7093 0.9437
-10.6845 11.3239 -1.8494 0.9392
-11.0836 10.9336 -1.8494 0.9392
-11.4684 10.5292 -1.8494 0.9392
-12.1935 9.6803 -1.8494 0.9392
-12.5327 9.2370 -1.8494 0.9392
-14.1457 8.2421 -1.9447 0.9362
-15.1295 7.4179 -2.0016 0.9344
-15.3857 6.8707 -2.0016 0.9344
-15.6222 6.3147 -2.0016 0.9344
-15.8385 5.7506 -2.0016 0.9344
-16.0345 5.1790 -2.0016 0.9344
-16.3644 4.0167 -2.0016 0.9344
-16.4979 3.4275 -2.0016 0.9344
-16.6102 2.8338 -2.0016 0.9344
-16.7011 2.2365 -2.0016 0.9344
-16.7705 1.6363 -2.0016 0.9344
-16.8184 1.0340 -2.0016 0.9344
-16.8493 -0.1739 -2.0016 0.9344
-16.8322 -0.7778 -2.0016 0.9344
-16.7332 -1.9820 -2.0016 0.9344
-16.5481 -3.1759 -2.0016 0.9344
-16.4236 -3.7672 -2.0016 0.9344
-16.2780 -4.3536 -2.0016 0.9344
-16.1115 -4.9344 -2.0016 0.9344
-15.9242 -5.5088 -2.0016 0.9344
-15.4885 -6.6357 -2.0016 0.9344
-15.2407 -7.1868 -2.0016 0.9344
-14.9732 -7.7285 -2.0016 0.9344
-13.3549 -10.2749 -2.0016 0.9344
-12.9779 -10.7471 -2.0016 0.9344
-12.5843 -11.2055 -2.0016 0.9344
-12.1745 -11.6494 -2.0016 0.9344
-11.7490 -12.0784 -2.0016 0.9344
-10.3842 -13.2701 -2.0016 0.9344
-9.4066 -13.9801 -2.0016 0.9344
-8.8993 -14.3084 -2.0016 0.9344
-8.3807 -14.6182 -2.0016 0.9344
-5.0531 -16.0281 -1.9963 0.9345
-3.8489 -16.1698 -1.9744 0.9352
-3.2417 -16.1726 -1.9593 0.9357
-2.6429 -16.1749 -1.9468 0.9361
-2.0508 -16.1768 -1.9370 0.9364
-1.4640 -16.1781 -1.9296 0.9367
-0.8816 -16.1951 -1.9266 0.9368
-0.3011 -16.2479 -1.9303 0.9366
0.2832 -16.3367 -1.9409 0.9363
1.4854 -16.6363 -1.9840 0.9349
2.0942 -16.6786 -1.9967 0.9345
2.6973 -16.6325 -2.0015 0.9344
3.2919 -16.5255 -2.0016 0.9344
5.0472 -16.0765 -2.0016 0.9344
5.6204 -15.8852 -2.0016 0.9344
10.3683 -13.2825 -2.0016 0.9344
11.2935 -12.5054 -2.0016 0.9344
11.7345 -12.0925 -2.0016 0.9344
12.5709 -11.2205 -2.0016 0.9344
12.9651 -10.7626 -2.0016 0.9344
13.3426 -10.2909 -2.0016 0.9344
14.0457 -9.3083 -2.0016 0.9344
14.3704 -8.7988 -2.0016 0.9344
14.6766 -8.2779 -2.0016 0.9344
15.7092 -6.0950 -2.0016 0.9344
15.9176 -5.5278 -2.0016 0.9344
16.1056 -4.9536 -2.0016 0.9344
16.2728 -4.3730 -2.0016 0.9344
16.4191 -3.7868 -2.0016 0.9344
16.7918 -1.4008 -2.0016 0.9344
16.8313 -0.7979 -2.0016 0.9344
16.8490 -0.1940 -2.0016 0.9344
16.5020 3.4077 -2.0016 0.9344
16.2154 4.5815 -2.0016 0.9344
16.0407 5.1599 -2.0016 0.9344
15.6297 6.2960 -2.0016 0.9344
14.8633 7.9378 -2.0016 0.9344
14.5692 8.4656 -2.0016 0.9344
13.9251 9.4878 -2.0016 0.9344
13.2095 10.4612 -2.0016 0.9344
12.8259 10.9281 -2.0016 0.9344
12.0099 11.8191 -2.0016 0.9344
11.5784 12.2421 -2.0016 0.9344
11.1321 12.6493 -2.0016 0.9344
10.6714 13.0403 -2.0016 0.9344
10.1970 13.4145 -2.0016 0.9344
8.6978 14.4318 -2.0016 0.9344
6.0478 14.3462 -1.8494 0.9392
5.0042 14.7427 -1.8494 0.9392
4.4724 14.9126 -1.8494 0.9392
1.3910 12.3593 -1.4774 0.9511
0.9279 12.1504 -1.4475 0.9521
0.0529 11.7557 -1.3964 0.9537
-0.7684 11.4141 -1.3589 0.9550
-1.1810 11.4168 -1.3634 0.9548
-2.0172 11.4223 -1.3778 0.9544
-2.8757 11.4279 -1.3998 0.9536
-3.3164 11.4308 -1.4138 0.9532
-4.2279 11.4368 -1.4484 0.9521
-5.1902 11.4431 -1.4926 0.9506
-7.3315 11.4571 -1.6157 0.9467
-7.9272 11.4610 -1.6553 0.9454
-8.5536 11.4652 -1.6992 0.9440
-10.9979 11.0198 -1.8494 0.9392
-12.1175 9.7752 -1.8494 0.9392
-12.7868 8.8818 -1.8494 0.9392
-13.0980 8.4183 -1.8495 0.9392
-14.7576 8.0528 -1.9970 0.9345
-15.3316 6.9906 -2.0016 0.9344
-15.5724 6.4364 -2.0016 0.9344
-15.7932 5.8740 -2.0016 0.9344
-15.9936 5.3040 -2.0016 0.9344
-16.4706 3.5561 -2.0016 0.9344
-16.5875 2.9633 -2.0016 0.9344
-9.3984 -10.5463 -2.0016 0.9445
-9.0143 -10.8765 -2.0016 0.9445
-8.6185 -11.1927 -2.0016 0.9445
-7.7944 -11.7815 -2.0016 0.9445
-7.3670 -12.0533 -2.0016 0.9445
-6.4843 -12.5503 -2.0016 0.9445
-6.0302 -12.7747 -2.0016 0.9445
-5.0993 -13.1739 -2.0016 0.9445
-4.6237 -13.3483 -2.0016 0.9445
-4.1422 -13.5055 -2.0016 0.9445
-2.1691 -13.9589 -2.0016 0.9445
-1.1633 -14.0784 -2.0016 0.9445
-0.1515 -14.1256 -2.0016 0.9445
0.3551 -14.1219 -2.0016 0.9445
1.3661 -14.0602 -2.0016 0.9445
2.8678 -13.8322 -2.0016 0.9445
3.8517 -13.5912 -2.0016 0.9445
4.3364 -13.4444 -2.0016 0.9445
6.2137 -12.6864 -2.0016 0.9445
7.5399 -11.9459 -2.0016 0.9445
7.9634 -11.6679 -2.0016 0.9445
8.3766 -11.3749 -2.0016 0.9445
9.1701 -10.7454 -2.0016 0.9445
10.6120 -9.3242 -2.0016 0.9445
10.9394 -8.9378 -2.0016 0.9445
11.2528 -8.5398 -2.0016 0.9445
11.8359 -7.7115 -2.0016 0.9445
12.1047 -7.2823 -2.0016 0.9445
12.8166 -5.9405 -2.0016 0.9445
13.2094 -5.0068 -2.0016 0.9445
13.5342 -4.0474 -2.0016 0.9445
13.8905 -2.5708 -2.0016 0.9445
14.0390 -1.5688 -2.0016 0.9445
14.0862 -1.0645 -2.0016 0.9445
14.1153 -0.5588 -2.0016 0.9445
14.0938 0.9600 -2.0016 0.9445
13.9887 1.9674 -2.0016 0.9445
13.8118 2.9648 -2.0016 0.9445
13.6966 3.4581 -2.0016 0.9445
13.4136 4.4306 -2.0016 0.9445
13.2461 4.9087 -2.0016 0.9445
12.8604 5.8452 -2.0016 0.9445
12.6425 6.3025 -2.0016 0.9445
11.3159 8.4561 -2.0016 0.9445
11.0054 8.8564 -2.0016 0.9445
9.2496 10.6771 -2.0016 0.9445
8.8608 11.0019 -2.0016 0.9445
8.0497 11.6085 -2.0016 0.9445
7.6283 11.8896 -2.0016 0.9445
7.1764 12.1203 -1.9958 0.9447
5.8280 11.6788 -1.8494 0.9486
4.0987 12.3920 -1.8494 0.9486
3.6518 12.5310 -1.8494 0.9486
2.2682 12.7550 -1.8356 0.9490
1.7673 12.5290 -1.7928 0.9502
1.2886 12.3131 -1.7542 0.9512
-0.0387 11.7144 -1.6598 0.9538
-0.4518 11.5281 -1.6347 0.9545
-2.1093 11.4229 -1.6459 0.9542
-4.3299 11.4375 -1.7328 0.9518
-4.8068 11.4406 -1.7583 0.9511
-5.2985 11.4438 -1.7868 0.9503
-6.3186 11.4208 -1.8494 0.9486
-7.5083 10.6764 -1.8494 0.9486
-8.2541 10.1109 -1.8494 0.9486
-8.6113 9.8085 -1.8494 0.9486
-8.9574 9.4935 -1.8494 0.9486
-9.2920 9.1662 -1.8494 0.9486
-9.6146 8.8272 -1.8494 0.9486
-10.3968 8.2539 -1.8809 0.9478
-12.2057 7.1117 -2.0016 0.9445
-12.6839 6.2188 -2.0016 0.9445
-13.0969 5.2940 -2.0016 0.9445
-13.7192 3.3674 -2.0016 0.9445
-13.8311 2.8734 -2.0016 0.9445
-14.0014 1.8749 -2.0016 0.9445
-14.0596 1.3718 -2.0016 0.9445
-14.0998 0.8668 -2.0016 0.9445
-14.1218 0.3608 -2.0016 0.9445
-14.1113 -0.6521 -2.0016 0.9445
-14.0283 -1.6616 -2.0016 0.9445
-12.7743 -2.9301 -1.8570 0.9484
-12.6610 -3.3862 -1.8570 0.9484
-11.8542 -5.5898 -1.8570 0.9484
-12.3125 -6.9251 -2.0016 0.9445
-11.4978 -8.2071 -2.0016 0.9445
-11.1961 -8.6140 -2.0016 0.9445
-10.5501 -9.3942 -2.0016 0.9445
-9.0989 -10.8058 -2.0016 0.9445
-8.7056 -11.1251 -2.0016 0.9445
-7.4608 -11.9955 -2.0016 0.9445
-6.5821 -12.4993 -2.0016 0.9445
-5.2020 -13.1337 -2.0016 0.9445
-3.2711 -13.7424 -2.0016 0.9445
-2.7763 -13.8509 -2.0016 0.9445
-1.2731 -14.0689 -2.0016 0.9445
-0.2617 -14.1240 -2.0016 0.9445
1.2563 -14.0704 -2.0016 0.9445
3.7455 -13.6208 -2.0016 0.9445
4.2314 -13.4778 -2.0016 0.9445
4.7119 -13.3174 -2.0016 0.9445
6.1145 -12.7345 -2.0016 0.9445
2.2121 -4.2129 -0.6742 0.9810
7.0113 -12.2636 -2.0016 0.9445
7.8721 -11.7297 -2.0016 0.9445
9.0860 -10.8167 -2.0016 0.9445
9.4679 -10.4840 -2.0016 0.9445
10.5389 -9.4068 -2.0016 0.9445
10.8694 -9.0229 -2.0016 0.9445
11.1858 -8.6274 -2.0016 0.9445
11.4880 -8.2208 -2.0016 0.9445
11.7753 -7.8037 -2.0016 0.9445
12.0475 -7.3765 -2.0016 0.9445
12.7699 -6.0403 -2.0016 0.9445
13.3446 -4.6343 -2.0016 0.9445
13.5022 -4.1529 -2.0016 0.9445
13.6424 -3.6661 -2.0016 0.9445
13.7651 -3.1747 -2.0016 0.9445
13.8700 -2.6791 -2.0016 0.9445
13.9572 -2.1802 -2.0016 0.9445
14.0263 -1.6784 -2.0016 0.9445
14.0775 -1.1744 -2.0016 0.9445
14.1222 0.3439 -2.0016 0.9445
14.1008 0.8500 -2.0016 0.9445
13.9280 2.3591 -2.0016 0.9445
13.7232 3.3510 -2.0016 0.9445
13.4478 4.3258 -2.0016 0.9445
13.2840 4.8051 -2.0016 0.9445
13.1032 5.2783 -2.0016 0.9445
12.6913 6.2037 -2.0016 0.9445
12.2142 7.0972 -2.0016 0.9445
11.9519 7.5305 -2.0016 0.9445
11.3815 8.3676 -2.0016 0.9445
11.0742 8.7702 -2.0016 0.9445
10.7527 9.1616 -2.0016 0.9445
10.4173 9.5412 -2.0016 0.9445
10.0685 9.9086 -2.0016 0.9445
8.5487 11.2461 -2.0016 0.9445
8.1401 11.5453 -2.0016 0.9445
7.7209 11.8297 -2.0016 0.9445
6.3322 11.4133 -1.8494 0.9486
5.9190 11.6330 -1.8494 0.9486
5.4981 11.8377 -1.8494 0.9486
5.0702 12.0272 -1.8494 0.9486
3.7495 12.5021 -1.8494 0.9486
3.2989 12.6285 -1.8494 0.9486
2.8440 12.7386 -1.8494 0.9486
1.8743 12.5773 -1.8018 0.9499
1.3910 12.3593 -1.7622 0.9510
0.4825 11.9495 -1.6945 0.9528
-0.7684 11.4141 -1.6209 0.9548
-1.2231 8.7465 -1.2513 0.9649
-2.0172 11.4223 -1.6435 0.9542
-2.4430 11.4251 -1.6554 0.9539
-2.8757 11.4279 -1.6697 0.9535
-3.3164 11.4308 -1.6864 0.9531
-3.7666 11.4338 -1.7057 0.9525
-4.2279 11.4368 -1.7277 0.9519
-4.7018 11.4399 -1.7525 0.9513
-5.1902 11.4431 -1.7803 0.9505
-5.6950 11.4464 -1.8115 0.9497
-6.2184 11.4499 -1.8461 0.9487
-7.4248 10.7347 -1.8494 0.9486
-7.8049 10.4616 -1.8494 0.9486
-8.5344 9.8754 -1.8494 0.9486
-10.2358 8.2572 -1.8634 0.9483
-11.0013 8.2416 -1.9477 0.9460
-13.0552 5.3960 -2.0016 0.9445
-13.4083 4.4466 -2.0016 0.9445
-13.6925 3.4744 -2.0016 0.9445
-13.8082 2.9813 -2.0016 0.9445
-8.0834 -9.0707 -2.0016 0.9519
-7.0628 -9.8862 -2.0016 0.9519
-6.7038 -10.1330 -2.0016 0.9519
-6.3362 -10.3669 -2.0016 0.9519
-4.7892 -11.1661 -2.0016 0.9519
-3.1439 -11.7361 -2.0016 0.9519
-2.7211 -11.8412 -2.0016 0.9519
-1.8656 -12.0058 -2.0016 0.9519
-1.0005 -12.1086 -2.0016 0.9519
-0.1303 -12.1492 -2.0016 0.9519
0.7406 -12.1273 -2.0016 0.9519
1.1749 -12.0929 -2.0016 0.9519
1.6077 -12.0430 -2.0016 0.9519
2.4666 -11.8969 -2.0016 0.9519
2.8915 -11.8008 -2.0016 0.9519
3.3127 -11.6895 -2.0016 0.9519
3.7297 -11.5633 -2.0016 0.9519
4.5487 -11.2663 -2.0016 0.9519
6.4850 -10.2745 -2.0016 0.9519
7.2045 -9.7834 -2.0016 0.9519
7.8871 -9.2419 -2.0016 0.9519
8.2133 -8.9532 -2.0016 0.9519
8.5290 -8.6530 -2.0016 0.9519
8.8338 -8.3417 -2.0016 0.9519
9.4088 -7.6872 -2.0016 0.9519
9.9355 -6.9933 -2.0016 0.9519
10.8331 -5.5012 -2.0016 0.9519
11.1995 -4.7108 -2.0016 0.9519
11.3612 -4.3062 -2.0016 0.9519
11.7578 -3.0615 -2.0016 0.9519
11.9470 -2.2111 -2.0016 0.9519
12.0186 -1.7814 -2.0016 0.9519
12.0747 -1.3493 -2.0016 0.9519
12.1404 -0.4806 -2.0016 0.9519
12.1498 -0.0451 -2.0016 0.9519
12.1218 0.8257 -2.0016 0.9519
12.0315 1.6922 -2.0016 0.9519
11.9631 2.1224 -2.0016 0.9519
11.8793 2.5500 -2.0016 0.9519
11.7802 2.9742 -2.0016 0.9519
11.5368 3.8107 -2.0016 0.9519
11.0610 5.0274 -2.0016 0.9519
10.6723 5.8071 -2.0016 0.9519
10.2287 6.5569 -2.0016 0.9519
9.7326 7.2730 -2.0016 0.9519
9.4656 7.6172 -2.0016 0.9519
9.1864 7.9517 -2.0016 0.9519
8.8954 8.2759 -2.0016 0.9519
8.5930 8.5895 -2.0016 0.9519
7.2769 9.7296 -2.0016 0.9519
6.1827 10.4422 -1.9992 0.9520
5.6304 10.3376 -1.9392 0.9534
3.9051 10.5249 -1.8494 0.9555
3.5252 10.6581 -1.8494 0.9555
3.1409 10.7777 -1.8494 0.9555
2.7524 10.8833 -1.8494 0.9555
2.3605 10.9750 -1.8494 0.9555
1.9655 11.0526 -1.8494 0.9555
1.5680 11.1159 -1.8494 0.9555
-0.4396 11.2174 -1.8494 0.9555
-0.8414 11.1944 -1.8494 0.9555
-1.2889 8.7204 -1.4522 0.9649
-2.4330 10.9592 -1.8494 0.9555
-2.8243 10.8649 -1.8494 0.9555
-3.2120 10.7567 -1.8494 0.9555
-4.3484 10.3496 -1.8494 0.9555
-4.7167 10.1870 -1.8494 0.9555
-5.0788 10.0114 -1.8494 0.9555
-6.4578 9.1826 -1.8494 0.9555
-6.7829 8.9452 -1.8494 0.9555
-7.0992 8.6962 -1.8494 0.9555
-8.3572 8.2441 -1.9339 0.9535
-9.2309 7.8841 -1.9999 0.9520
-9.7805 7.2085 -2.0016 0.9519
-10.9092 5.3487 -2.0016 0.9519
-11.0939 4.9542 -2.0016 0.9519
-11.2644 4.5532 -2.0016 0.9519
-11.4204 4.1465 -2.0016 0.9519
-11.5617 3.7344 -2.0016 0.9519
-12.1270 0.7455 -2.0016 0.9519
-12.1369 -0.5609 -2.0016 0.9519
-12.1090 -0.9956 -2.0016 0.9519
-12.0065 -1.8608 -2.0016 0.9519
-10.6528 -3.6852 -1.8570 0.9553
-10.5139 -4.0648 -1.8570 0.9553
-10.3694 -6.3320 -2.0016 0.9519
-9.6296 -7.4088 -2.0016 0.9519
-9.3578 -7.7493 -2.0016 0.9519
-8.4717 -8.7092 -2.0016 0.9519
-8.1540 -9.0073 -2.0016 0.9519
-7.8258 -9.2939 -2.0016 0.9519
-7.1397 -9.8308 -2.0016 0.9519
-6.4169 -10.3171 -2.0016 0.9519
-4.8762 -11.1284 -2.0016 0.9519
-4.4741 -11.2961 -2.0016 0.9519
-3.6532 -11.5877 -2.0016 0.9519
-2.8135 -11.8196 -2.0016 0.9519
-2.3879 -11.9129 -2.0016 0.9519
-1.5281 -12.0534 -2.0016 0.9519
-0.2251 -12.1478 -2.0016 0.9519
0.2106 -12.1480 -2.0016 0.9519
0.6460 -12.1327 -2.0016 0.9519
1.5137 -12.0552 -2.0016 0.9519
1.9449 -11.9932 -2.0016 0.9519
2.7993 -11.8230 -2.0016 0.9519
3.2214 -11.7150 -2.0016 0.9519
4.0526 -11.4541 -2.0016 0.9519
5.2590 -10.9527 -2.0016 0.9519
2.2121 -4.2129 -0.7839 0.9809
6.0303 -10.5477 -2.0016 0.9519
6.7706 -10.0885 -2.0016 0.9519
7.8147 -9.3032 -2.0016 0.9519
8.1432 -9.0171 -2.0016 0.9519
8.4612 -8.7193 -2.0016 0.9519
8.7684 -8.4104 -2.0016 0.9519
9.3485 -7.7604 -2.0016 0.9519
9.6208 -7.4203 -2.0016 0.9519
10.1277 -6.7118 -2.0016 0.9519
10.3619 -6.3444 -2.0016 0.9519
10.5826 -5.9688 -2.0016 0.9519
10.7898 -5.5856 -2.0016 0.9519
11.3272 -4.3948 -2.0016 0.9519
11.4775 -3.9859 -2.0016 0.9519
11.7336 -3.1532 -2.0016 0.9519
11.8391 -2.7305 -2.0016 0.9519
12.1491 -0.1399 -2.0016 0.9519
12.1463 0.2958 -2.0016 0.9519
11.9793 2.0290 -2.0016 0.9519
11.8031 2.8822 -2.0016 0.9519
11.5662 3.7206 -2.0016 0.9519
11.2699 4.5398 -2.0016 0.9519
10.5052 6.1042 -2.0016 0.9519
9.7890 7.1968 -2.0016 0.9519
9.5247 7.5431 -2.0016 0.9519
9.2482 7.8798 -2.0016 0.9519
8.9597 8.2063 -2.0016 0.9519
8.6598 8.5222 -2.0016 0.9519
8.3487 8.8272 -2.0016 0.9519
7.6947 9.4027 -2.0016 0.9519
6.2688 10.4016 -2.0007 0.9520
3.6083 10.6303 -1.8494 0.9555
2.8373 10.8615 -1.8494 0.9555
2.0517 11.0369 -1.8494 0.9555
0.8548 11.1934 -1.8494 0.9555
-1.1551 11.1664 -1.8494 0.9555
-1.2203 8.7262 -1.4515 0.9649
-2.7394 10.8866 -1.8494 0.9555
-3.8925 10.5295 -1.8494 0.9555
-4.2675 10.3832 -1.8494 0.9555
-4.6370 10.2235 -1.8494 0.9555
-5.0006 10.0507 -1.8494 0.9555
-5.3577 9.8650 -1.8494 0.9555
-7.0311 8.7514 -1.8494 0.9555
-7.3403 8.4937 -1.8494 0.9555
-8.2305 8.2468 -1.9194 0.9539
-8.8291 8.2340 -1.9889 0.9522
-9.1639 7.9513 -1.9987 0.9520
-9.7239 7.2846 -2.0016 0.9519
-9.9788 6.9313 -2.0016 0.9519
-10.2209 6.5691 -2.0016 0.9519
-10.4498 6.1984 -2.0016 0.9519
-10.6653 5.8198 -2.0016 0.9519
-10.8671 5.4337 -2.0016 0.9519
-11.0549 5.0406 -2.0016 0.9519
-11.2286 4.6410 -2.0016 0.9519
-11.3877 4.2355 -2.0016 0.9519
-11.5323 3.8245 -2.0016 0.9519
-11.6619 3.4086 -2.0016 0.9519
-11.7767 2.9883 -2.0016 0.9519
-11.9605 2.1367 -2.0016 0.9519
-7.3652 -7.6909 -2.0016 0.9576
-7.0848 -7.9501 -2.0016 0.9576
-6.7952 -8.1990 -2.0016 0.9576
-6.4969 -8.4373 -2.0016 0.9576
-4.1975 -9.7866 -2.0016 0.9576
-3.4855 -10.0622 -2.0016 0.9576
-2.7555 -10.2861 -2.0016 0.9576
-2.3849 -10.3783 -2.0016 0.9576
-2.0113 -10.4571 -2.0016 0.9576
-0.8769 -10.6127 -2.0016 0.9576
0.2677 -10.6455 -2.0016 0.9576
1.4091 -10.5552 -2.0016 0.9576
2.1618 -10.4271 -2.0016 0.9576
2.9035 -10.2453 -2.0016 0.9576
3.2689 -10.1347 -2.0016 0.9576
4.6840 -9.5633 -2.0016 0.9576
2.2429 -4.1918 -0.8936 0.9808
5.3573 -9.2031 -2.0016 0.9576
6.0030 -8.7955 -2.0016 0.9576
6.3145 -8.5747 -2.0016 0.9576
6.9127 -8.1001 -2.0016 0.9576
7.4753 -7.5841 -2.0016 0.9576
7.7424 -7.3111 -2.0016 0.9576
8.4827 -6.4375 -2.0016 0.9576
8.9221 -5.8131 -2.0016 0.9576
9.3158 -5.1589 -2.0016 0.9576
9.6615 -4.4781 -2.0016 0.9576
9.9575 -3.7742 -2.0016 0.9576
10.0864 -3.4148 -2.0016 0.9576
10.3052 -2.6833 -2.0016 0.9576
10.4710 -1.9379 -2.0016 0.9576
10.6185 -0.8024 -2.0016 0.9576
10.6405 -0.4212 -2.0016 0.9576
10.6487 -0.0395 -2.0016 0.9576
10.6433 0.3423 -2.0016 0.9576
10.5450 1.4831 -2.0016 0.9576
10.4116 2.2349 -2.0016 0.9576
10.3248 2.6068 -2.0016 0.9576
10.2247 2.9753 -2.0016 0.9576
10.1115 3.3399 -2.0016 0.9576
9.9852 3.7003 -2.0016 0.9576
9.8462 4.0559 -2.0016 0.9576
9.6944 4.4063 -2.0016 0.9576
9.5302 4.7510 -2.0016 0.9576
9.3538 5.0896 -2.0016 0.9576
9.1653 5.4217 -2.0016 0.9576
8.9650 5.7468 -2.0016 0.9576
8.7532 6.0645 -2.0016 0.9576
8.0515 6.9693 -2.0016 0.9576
7.5314 7.5283 -2.0016 0.9576
7.2566 7.7935 -2.0016 0.9576
6.9725 8.0487 -2.0016 0.9576
6.3779 8.5276 -2.0016 0.9576
5.7504 8.9627 -2.0016 0.9576
5.0916 9.3484 -2.0008 0.9576
4.7399 9.4983 -1.9953 0.9577
4.2242 9.2839 -1.9172 0.9593
3.7511 9.0959 -1.8494 0.9607
3.4226 9.2246 -1.8494 0.9607
2.7528 9.4461 -1.8494 0.9607
2.4124 9.5387 -1.8494 0.9607
2.0689 9.6191 -1.8494 0.9607
1.7227 9.6871 -1.8494 0.9607
1.3743 9.7426 -1.8494 0.9607
1.0241 9.7856 -1.8494 0.9607
0.6726 9.8161 -1.8494 0.9607
-1.0888 9.7786 -1.8494 0.9607
-2.1324 9.6052 -1.8494 0.9607
-2.4754 9.5226 -1.8494 0.9607
-2.8152 9.4277 -1.8494 0.9607
-4.4514 8.7745 -1.8494 0.9607
-5.0687 8.4330 -1.8494 0.9607
-6.2498 8.2422 -1.9442 0.9588
-6.7094 8.2187 -1.9942 0.9577
-7.0134 7.9885 -1.9981 0.9577
-7.8442 7.2018 -2.0016 0.9576
-8.7931 6.0065 -2.0016 0.9576
-9.0028 5.6874 -2.0016 0.9576
-9.2009 5.3610 -2.0016 0.9576
-9.3872 5.0277 -2.0016 0.9576
-9.7233 4.3421 -2.0016 0.9576
-10.0095 3.6342 -2.0016 0.9576
-10.1333 3.2730 -2.0016 0.9576
-10.4262 2.1661 -2.0016 0.9576
-10.4972 1.7909 -2.0016 0.9576
-10.5546 1.4134 -2.0016 0.9576
-10.6288 0.6534 -2.0016 0.9576
-10.6482 -0.1099 -2.0016 0.9576
-10.6375 -0.4916 -2.0016 0.9576
-10.6130 -0.8726 -2.0016 0.9576
-10.5749 -1.2526 -2.0016 0.9576
-10.5232 -1.6309 -2.0016 0.9576
-9.4465 -2.8931 -1.8570 0.9606
-9.3367 -3.2299 -1.8570 0.9606
-9.2149 -3.5626 -1.8570 0.9606
-9.0813 -3.8907 -1.8570 0.9606
-8.9359 -4.2138 -1.8570 0.9606
-8.7791 -4.5314 -1.8570 0.9606
-8.6673 -6.1867 -2.0016 0.9576
-8.4399 -6.4935 -2.0016 0.9576
-6.8590 -8.1457 -2.0016 0.9576
-6.5625 -8.3863 -2.0016 0.9576
-5.9447 -8.8350 -2.0016 0.9576
-5.6241 -9.0425 -2.0016 0.9576
-5.2963 -9.2383 -2.0016 0.9576
-4.6207 -9.5941 -2.0016 0.9576
-4.2738 -9.7536 -2.0016 0.9576
-3.9214 -9.9005 -2.0016 0.9576
-3.5639 -10.0347 -2.0016 0.9576
-2.8357 -10.2643 -2.0016 0.9576
-1.3393 -10.5643 -2.0016 0.9576
-0.9597 -10.6055 -2.0016 0.9576
-0.5789 -10.6331 -2.0016 0.9576
-0.1973 -10.6470 -2.0016 0.9576
0.9470 -10.6066 -2.0016 0.9576
1.3267 -10.5658 -2.0016 0.9576
1.7046 -10.5115 -2.0016 0.9576
2.0804 -10.4436 -2.0016 0.9576
2.4535 -10.3623 -2.0016 0.9576
3.1897 -10.1599 -2.0016 0.9576
3.5519 -10.0390 -2.0016 0.9576
3.9095 -9.9052 -2.0016 0.9576
4.6093 -9.5996 -2.0016 0.9576
2.2120 -4.2128 -0.8944 0.9808
5.2853 -9.2446 -2.0016 0.9576
7.1372 -7.9030 -2.0016 0.9576
7.4159 -7.6421 -2.0016 0.9576
7.6851 -7.3713 -2.0016 0.9576
7.9445 -7.0910 -2.0016 0.9576
8.4322 -6.5035 -2.0016 0.9576
8.6599 -6.1971 -2.0016 0.9576
8.8765 -5.8826 -2.0016 0.9576
9.4568 -4.8955 -2.0016 0.9576
9.6262 -4.5533 -2.0016 0.9576
10.0595 -3.4934 -2.0016 0.9576
10.1783 -3.1305 -2.0016 0.9576
10.2839 -2.7636 -2.0016 0.9576
10.4555 -2.0196 -2.0016 0.9576
10.5212 -1.6435 -2.0016 0.9576
10.5734 -1.2652 -2.0016 0.9576
10.6457 0.2592 -2.0016 0.9576
10.5997 1.0214 -2.0016 0.9576
10.3449 2.5261 -2.0016 0.9576
10.2476 2.8954 -2.0016 0.9576
10.1373 3.2609 -2.0016 0.9576
10.0138 3.6222 -2.0016 0.9576
9.8775 3.9789 -2.0016 0.9576
9.3932 5.0165 -2.0016 0.9576
9.2073 5.3500 -2.0016 0.9576
8.3480 6.6112 -2.0016 0.9576
8.1056 6.9062 -2.0016 0.9576
7.8528 7.1924 -2.0016 0.9576
7.3172 7.7366 -2.0016 0.9576
6.4442 8.4776 -2.0016 0.9576
5.4967 9.1205 -2.0016 0.9576
4.8168 9.4667 -1.9965 0.9577
3.8286 9.0819 -1.8525 0.9607
3.4945 9.1976 -1.8494 0.9607
2.8265 9.4244 -1.8494 0.9607
2.4868 9.5196 -1.8494 0.9607
2.1439 9.6027 -1.8494 0.9607
1.7982 9.6734 -1.8494 0.9607
1.4503 9.7316 -1.8494 0.9607
0.7492 9.8105 -1.8494 0.9607
0.3970 9.8311 -1.8494 0.9607
-0.3085 9.8342 -1.8494 0.9607
-1.2174 8.7059 -1.6523 0.9649
-2.0574 9.6216 -1.8494 0.9607
-3.0785 9.3450 -1.8494 0.9607
-3.4116 9.2287 -1.8494 0.9607
-3.7403 9.1004 -1.8494 0.9607
-4.0641 8.9605 -1.8494 0.9607
-4.6958 8.6462 -1.8494 0.9607
-5.0027 8.4723 -1.8494 0.9607
-5.7083 8.2530 -1.8861 0.9600
-6.1506 8.2442 -1.9333 0.9590
-6.6159 8.2346 -1.9854 0.9579
