ply
format ascii 1.0
element vertex 1573
property float32 x
property float32 y
property float32 z
property float32 I
end_header
19.5016 -7.3720 -2.0016 0.9196
19.7533 -6.6682 -2.0016 0.9196
20.1803 -5.2360 -2.0016 0.9196
20.3550 -4.5093 -2.0016 0.9196
20.7214 -2.2982 -2.0016 0.9196
20.7905 -1.5540 -2.0016 0.9196
20.8484 -0.0606 -2.0016 0.9196
20.8372 0.6867 -2.0016 0.9196
20.7345 2.1777 -2.0016 0.9196
20.6431 2.9195 -2.0016 0.9196
20.0139 5.8397 -2.0016 0.9196
19.7918 6.5533 -2.0016 0.9196
19.5442 7.2585 -2.0016 0.9196
19.2714 7.9544 -2.0016 0.9196
18.9739 8.6400 -2.0016 0.9196
18.6521 9.3145 -2.0016 0.9196
18.3062 9.9771 -2.0016 0.9196
17.1295 11.8845 -2.0016 0.9196
16.6925 12.4908 -2.0016 0.9196
16.2340 13.0811 -2.0016 0.9196
15.7547 13.6546 -2.0016 0.9196
15.2552 14.2105 -2.0016 0.9196
14.1980 15.2669 -2.0016 0.9196
13.6416 15.7660 -2.0016 0.9196
13.0677 16.2448 -2.0016 0.9196
-1.1575 8.8615 -1.0616 0.9646
-2.7655 11.4272 -1.3966 0.9537
-3.2039 11.4301 -1.4101 0.9533
-3.6515 11.4330 -1.4257 0.9528
-4.5801 11.4391 -1.4637 0.9516
-6.0832 11.4490 -1.5400 0.9491
-8.3903 11.4641 -1.6875 0.9444
-9.0421 11.4684 -1.7348 0.9429
-10.8960 11.1205 -1.8494 0.9392
-11.2876 10.7228 -1.8494 0.9392
-13.6226 8.2519 -1.8919 0.9379
-14.6664 8.1804 -1.9948 0.9346
-15.5119 6.5809 -2.0016 0.9344
-15.7378 6.0207 -2.0016 0.9344
-15.9435 5.4527 -2.0016 0.9344
-16.2932 4.2965 -2.0016 0.9344
-16.4367 3.7098 -2.0016 0.9344
-16.5591 3.1182 -2.0016 0.9344
-16.7400 1.9239 -2.0016 0.9344
-16.7982 1.3227 -2.0016 0.9344
-16.8348 0.7197 -2.0016 0.9344
-16.8498 0.1159 -2.0016 0.9344
-16.7648 -1.6935 -2.0016 0.9344
-16.4862 -3.4834 -2.0016 0.9344
-16.3507 -4.0721 -2.0016 0.9344
-16.1943 -4.6555 -2.0016 0.9344
-15.3627 -6.9221 -2.0016 0.9344
-14.2158 -9.0465 -2.0016 0.9344
-13.8824 -9.5503 -2.0016 0.9344
-12.7770 -10.9853 -2.0016 0.9344
-11.5239 -12.2933 -2.0016 0.9344
-11.0759 -12.6985 -2.0016 0.9344
-10.6136 -13.0873 -2.0016 0.9344
-10.1377 -13.4594 -2.0016 0.9344
-9.1475 -14.1510 -2.0016 0.9344
-8.6344 -14.4698 -2.0016 0.9344
-8.1102 -14.7700 -2.0016 0.9344
-6.4778 -15.5552 -2.0016 0.9344
-3.5373 -16.1713 -1.9663 0.9355
-1.7506 -16.1775 -1.9329 0.9366
-1.1664 -16.1856 -1.9276 0.9367
-0.5856 -16.2195 -1.9279 0.9367
-0.0039 -16.2885 -1.9348 0.9365
0.5841 -16.3944 -1.9487 0.9361
1.1843 -16.5442 -1.9702 0.9354
1.7986 -16.6958 -1.9947 0.9346
2.4011 -16.6573 -1.9991 0.9345
3.5927 -16.4627 -2.0016 0.9344
4.7629 -16.1630 -2.0016 0.9344
5.3392 -15.9819 -2.0016 0.9344
5.9086 -15.7803 -2.0016 0.9344
7.0239 -15.3164 -2.0016 0.9344
7.5683 -15.0548 -2.0016 0.9344
8.6274 -14.4739 -2.0016 0.9344
9.6422 -13.8187 -2.0016 0.9344
10.1313 -13.4642 -2.0016 0.9344
11.0698 -12.7038 -2.0016 0.9344
11.9515 -11.8781 -2.0016 0.9344
12.3696 -11.4421 -2.0016 0.9344
12.7717 -10.9914 -2.0016 0.9344
14.5268 -8.5381 -2.0016 0.9344
14.8235 -8.0120 -2.0016 0.9344
15.1011 -7.4755 -2.0016 0.9344
15.3594 -6.9294 -2.0016 0.9344
15.5979 -6.3744 -2.0016 0.9344
16.4845 -3.4913 -2.0016 0.9344
16.6923 -2.3014 -2.0016 0.9344
16.7640 -1.7016 -2.0016 0.9344
16.8142 -1.0996 -2.0016 0.9344
16.8428 -0.4962 -2.0016 0.9344
16.8498 0.1078 -2.0016 0.9344
16.7988 1.3146 -2.0016 0.9344
16.7409 1.9159 -2.0016 0.9344
16.6614 2.5147 -2.0016 0.9344
16.2952 4.2887 -2.0016 0.9344
15.9461 5.4451 -2.0016 0.9344
15.0043 7.6681 -2.0016 0.9344
14.7198 8.2010 -2.0016 0.9344
14.0944 9.2344 -2.0016 0.9344
13.7544 9.7337 -2.0016 0.9344
13.3967 10.2204 -2.0016 0.9344
13.0217 10.6940 -2.0016 0.9344
11.7985 12.0300 -2.0016 0.9344
11.3598 12.4452 -2.0016 0.9344
10.9064 12.8444 -2.0016 0.9344
10.4390 13.2271 -2.0016 0.9344
9.9582 13.5927 -2.0016 0.9344
8.9588 14.2712 -2.0016 0.9344
6.8143 13.9984 -1.8494 0.9392
6.3082 14.2336 -1.8494 0.9392
4.7438 14.8285 -1.8494 0.9392
2.6481 12.9264 -1.5674 0.9482
2.1293 12.6924 -1.5287 0.9495
1.1619 12.2560 -1.4624 0.9516
0.7078 12.0511 -1.4340 0.9525
0.2705 11.8539 -1.4084 0.9534
-0.5584 11.4128 -1.3573 0.9550
-3.0893 11.4293 -1.4064 0.9534
-3.9897 11.4352 -1.4386 0.9524
-6.4801 11.4516 -1.5630 0.9484
-7.6169 11.4590 -1.6344 0.9461
-8.8694 11.4672 -1.7220 0.9433
-9.5492 11.4717 -1.7730 0.9416
-10.2715 11.4764 -1.8295 0.9398
-10.7921 11.2214 -1.8494 0.9392
-11.5683 10.4194 -1.8494 0.9392
-12.6199 9.1174 -1.8494 0.9392
-13.3491 8.2570 -1.8645 0.9387
-14.4491 8.2364 -1.9756 0.9352
-15.4500 6.7249 -2.0016 0.9344
-15.6811 6.1668 -2.0016 0.9344
-15.8921 5.6008 -2.0016 0.9344
-16.0826 5.0276 -2.0016 0.9344
-16.8479 0.2726 -2.0016 0.9344
-16.7799 -1.5375 -2.0016 0.9344
-16.6266 -2.7357 -2.0016 0.9344
-16.5179 -3.3299 -2.0016 0.9344
-16.3879 -3.9198 -2.0016 0.9344
-16.0650 -5.0837 -2.0016 0.9344
-15.8724 -5.6563 -2.0016 0.9344
-15.1736 -7.3274 -2.0016 0.9344
-14.6096 -8.3956 -2.0016 0.9344
-13.6240 -9.9154 -2.0016 0.9344
-13.2598 -10.3973 -2.0016 0.9344
-11.6378 -12.1856 -2.0016 0.9344
-11.1936 -12.5949 -2.0016 0.9344
-10.7349 -12.9880 -2.0016 0.9344
-10.2625 -13.3645 -2.0016 0.9344
-9.7769 -13.7237 -2.0016 0.9344
-9.2787 -14.0653 -2.0016 0.9344
-8.7686 -14.3889 -2.0016 0.9344
-8.2472 -14.6939 -2.0016 0.9344
-7.7152 -14.9801 -2.0016 0.9344
-7.1733 -15.2470 -2.0016 0.9344
-2.4934 -16.1754 -1.9441 0.9362
-1.9030 -16.1772 -1.9349 0.9365
-0.1552 -16.2678 -1.9325 0.9366
1.0271 -16.5019 -1.9640 0.9356
2.8460 -16.6081 -2.0016 0.9344
4.0284 -16.3615 -2.0016 0.9344
4.6123 -16.2066 -2.0016 0.9344
5.1902 -16.0309 -2.0016 0.9344
6.3253 -15.6179 -2.0016 0.9344
7.4279 -15.1246 -2.0016 0.9344
9.5132 -13.9078 -2.0016 0.9344
11.4031 -12.4055 -2.0016 0.9344
11.8404 -11.9888 -2.0016 0.9344
12.6689 -11.1097 -2.0016 0.9344
13.7883 -9.6856 -2.0016 0.9344
14.1266 -9.1852 -2.0016 0.9344
14.4467 -8.6729 -2.0016 0.9344
15.0309 -7.6157 -2.0016 0.9344
15.2943 -7.0720 -2.0016 0.9344
15.7616 -5.9582 -2.0016 0.9344
16.3101 -4.2318 -2.0016 0.9344
16.5714 -3.0525 -2.0016 0.9344
16.7475 -1.8575 -2.0016 0.9344
16.8033 -1.2560 -2.0016 0.9344
16.8375 -0.6529 -2.0016 0.9344
16.7580 1.7601 -2.0016 0.9344
16.6841 2.3596 -2.0016 0.9344
16.5888 2.9561 -2.0016 0.9344
16.4722 3.5488 -2.0016 0.9344
16.3344 4.1369 -2.0016 0.9344
15.5755 6.4289 -2.0016 0.9344
15.3351 6.9830 -2.0016 0.9344
15.0750 7.5282 -2.0016 0.9344
14.4969 8.5888 -2.0016 0.9344
14.1797 9.1029 -2.0016 0.9344
13.8444 9.6053 -2.0016 0.9344
11.4751 12.3390 -2.0016 0.9344
11.0254 12.7424 -2.0016 0.9344
10.5616 13.1294 -2.0016 0.9344
10.0842 13.4995 -2.0016 0.9344
-1.1407 8.7325 -1.2478 0.9650
-2.3348 11.4244 -1.6522 0.9540
-2.7655 11.4272 -1.6659 0.9536
-3.2039 11.4301 -1.6819 0.9532
-3.6515 11.4330 -1.7006 0.9527
-4.5801 11.4391 -1.7459 0.9514
-6.0832 11.4490 -1.8370 0.9490
-6.5335 11.2993 -1.8494 0.9486
-6.9343 11.0579 -1.8494 0.9486
-7.3261 10.8022 -1.8494 0.9486
-8.7947 9.6443 -1.8494 0.9486
-9.1347 9.3229 -1.8494 0.9486
-9.4630 8.9895 -1.8494 0.9486
-10.0827 8.2885 -1.8494 0.9486
-10.7976 8.2458 -1.9250 0.9466
-11.4922 8.1411 -1.9955 0.9447
-11.8124 7.7474 -2.0016 0.9445
-12.3371 6.8812 -2.0016 0.9445
-12.5758 6.4346 -2.0016 0.9445
-12.7984 5.9797 -2.0016 0.9445
-13.0045 5.5171 -2.0016 0.9445
-13.5216 4.0893 -2.0016 0.9445
-13.6595 3.6020 -2.0016 0.9445
-13.7798 3.1101 -2.0016 0.9445
-14.0340 1.6129 -2.0016 0.9445
-14.0828 1.1089 -2.0016 0.9445
-14.1261 0.0971 -2.0016 0.9445
-14.0549 -1.4198 -2.0016 0.9445
-13.9950 -1.9227 -2.0016 0.9445
-12.7175 -3.1672 -1.8570 0.9484
-12.5958 -3.6210 -1.8570 0.9484
-12.4580 -4.0702 -1.8570 0.9484
-12.3041 -4.5141 -1.8570 0.9484
-11.9491 -5.3840 -1.8570 0.9484
-12.6631 -6.2611 -2.0016 0.9445
-11.3439 -8.4185 -2.0016 0.9445
-11.0349 -8.8197 -2.0016 0.9445
-10.7116 -9.2096 -2.0016 0.9445
-10.3747 -9.5876 -2.0016 0.9445
-10.0243 -9.9533 -2.0016 0.9445
-8.8980 -10.9718 -2.0016 0.9445
-6.7992 -12.3825 -2.0016 0.9445
-2.0222 -13.9809 -2.0016 0.9445
-1.0154 -14.0899 -2.0016 0.9445
-0.0034 -14.1264 -2.0016 0.9445
0.5030 -14.1174 -2.0016 0.9445
1.0086 -14.0903 -2.0016 0.9445
1.5130 -14.0451 -2.0016 0.9445
2.5153 -13.9007 -2.0016 0.9445
3.0120 -13.8016 -2.0016 0.9445
3.5047 -13.6847 -2.0016 0.9445
4.9535 -13.2295 -2.0016 0.9445
5.8885 -12.8406 -2.0016 0.9445
2.2964 -4.1869 -0.6766 0.9809
8.8927 -10.9761 -2.0016 0.9445
9.6562 -10.3108 -2.0016 0.9445
10.0196 -9.9581 -2.0016 0.9445
10.7072 -9.2147 -2.0016 0.9445
11.0306 -8.8250 -2.0016 0.9445
11.9142 -7.5899 -2.0016 0.9445
12.1786 -7.1580 -2.0016 0.9445
12.4273 -6.7169 -2.0016 0.9445
13.0766 -5.3440 -2.0016 0.9445
13.2597 -4.8719 -2.0016 0.9445
13.7061 -3.4204 -2.0016 0.9445
13.8199 -2.9269 -2.0016 0.9445
14.0542 -1.4265 -2.0016 0.9445
14.0963 -0.9219 -2.0016 0.9445
14.1203 -0.4160 -2.0016 0.9445
14.1261 0.0904 -2.0016 0.9445
14.1138 0.5966 -2.0016 0.9445
14.0348 1.6062 -2.0016 0.9445
13.8837 2.6075 -2.0016 0.9445
13.7813 3.1035 -2.0016 0.9445
13.6612 3.5955 -2.0016 0.9445
13.5235 4.0828 -2.0016 0.9445
13.1963 5.0411 -2.0016 0.9445
13.0071 5.5109 -2.0016 0.9445
12.3404 6.8753 -2.0016 0.9445
12.0860 7.3132 -2.0016 0.9445
11.8161 7.7417 -2.0016 0.9445
10.9168 8.9654 -2.0016 0.9445
9.5235 10.4335 -2.0016 0.9445
8.7516 11.0890 -2.0016 0.9445
7.9347 11.6874 -2.0016 0.9445
7.5107 11.9643 -2.0016 0.9445
5.7128 11.7356 -1.8494 0.9486
4.8574 12.1147 -1.8494 0.9486
1.1619 12.2560 -1.7443 0.9515
0.2705 11.8539 -1.6800 0.9532
-0.5584 11.4128 -1.6190 0.9549
-0.9696 11.4155 -1.6233 0.9548
-1.8014 11.4209 -1.6382 0.9544
-2.2241 11.4237 -1.6490 0.9541
-3.0893 11.4293 -1.6775 0.9533
-4.4568 11.4383 -1.7394 0.9516
-4.9374 11.4415 -1.7656 0.9509
-6.4280 11.3596 -1.8494 0.9486
-6.8311 11.1219 -1.8494 0.9486
-7.6103 10.6040 -1.8494 0.9486
-8.3504 10.0315 -1.8494 0.9486
-9.0476 9.4075 -1.8494 0.9486
-9.6983 8.7352 -1.8494 0.9486
-10.5972 8.2499 -1.9029 0.9472
-11.7330 7.8524 -2.0004 0.9446
-12.0139 7.4311 -2.0016 0.9445
-12.9526 5.6379 -2.0016 0.9445
-13.1463 5.1700 -2.0016 0.9445
-13.3232 4.6955 -2.0016 0.9445
-13.4829 4.2149 -2.0016 0.9445
-13.8575 2.7432 -2.0016 0.9445
-14.0184 1.7434 -2.0016 0.9445
-14.1073 0.7347 -2.0016 0.9445
-14.1246 0.2285 -2.0016 0.9445
-14.1237 -0.2779 -2.0016 0.9445
-14.0122 -1.7924 -2.0016 0.9445
-12.7465 -3.0488 -1.8570 0.9484
-12.4953 -3.9541 -1.8570 0.9484
-12.1799 -4.8391 -1.8570 0.9484
-12.7208 -6.1430 -2.0016 0.9445
-12.4925 -6.5950 -2.0016 0.9445
-12.2480 -7.0385 -2.0016 0.9445
-11.7123 -7.8979 -2.0016 0.9445
-11.1164 -8.7167 -2.0016 0.9445
-9.7566 -10.2158 -2.0016 0.9445
-8.9997 -10.8886 -2.0016 0.9445
-8.6036 -11.2042 -2.0016 0.9445
-8.1965 -11.5053 -2.0016 0.9445
-7.3512 -12.0630 -2.0016 0.9445
-6.9141 -12.3187 -2.0016 0.9445
-6.4681 -12.5586 -2.0016 0.9445
-6.0138 -12.7824 -2.0016 0.9445
-5.5518 -12.9897 -2.0016 0.9445
-5.0827 -13.1804 -2.0016 0.9445
-4.6070 -13.3541 -2.0016 0.9445
-4.1254 -13.5106 -2.0016 0.9445
-1.6504 -14.0297 -2.0016 0.9445
-1.1464 -14.0798 -2.0016 0.9445
-0.1348 -14.1258 -2.0016 0.9445
0.8775 -14.0991 -2.0016 0.9445
1.3823 -14.0586 -2.0016 0.9445
1.8853 -14.0000 -2.0016 0.9445
2.3859 -13.9235 -2.0016 0.9445
3.3773 -13.7168 -2.0016 0.9445
6.2273 -12.6798 -2.0016 0.9445
2.2478 -4.1903 -0.6738 0.9810
7.5524 -11.9380 -2.0016 0.9445
7.9754 -11.6597 -2.0016 0.9445
9.5599 -10.4002 -2.0016 0.9445
9.9265 -10.0509 -2.0016 0.9445
10.6210 -9.3139 -2.0016 0.9445
10.9481 -8.9272 -2.0016 0.9445
11.2610 -8.5291 -2.0016 0.9445
11.5595 -8.1200 -2.0016 0.9445
11.8431 -7.7004 -2.0016 0.9445
12.8220 -5.9289 -2.0016 0.9445
13.2138 -4.9951 -2.0016 0.9445
13.6736 -3.5478 -2.0016 0.9445
13.7920 -3.0554 -2.0016 0.9445
13.8927 -2.5591 -2.0016 0.9445
13.9755 -2.0595 -2.0016 0.9445
14.0871 -1.0530 -2.0016 0.9445
14.1158 -0.5474 -2.0016 0.9445
14.1187 0.4653 -2.0016 0.9445
14.0930 0.9711 -2.0016 0.9445
14.0491 1.4756 -2.0016 0.9445
13.9872 1.9782 -2.0016 0.9445
13.9073 2.4783 -2.0016 0.9445
13.5609 3.9568 -2.0016 0.9445
13.2426 4.9181 -2.0016 0.9445
13.0578 5.3897 -2.0016 0.9445
12.8563 5.8542 -2.0016 0.9445
12.6382 6.3113 -2.0016 0.9445
12.1536 7.2005 -2.0016 0.9445
10.6750 9.2520 -2.0016 0.9445
9.9848 9.9930 -2.0016 0.9445
9.2432 10.6826 -2.0016 0.9445
8.4541 11.3174 -2.0016 0.9445
-1.1382 8.7131 -1.4476 0.9650
-1.8521 11.0722 -1.8494 0.9555
-2.2478 10.9987 -1.8494 0.9555
-2.6406 10.9110 -1.8494 0.9555
-3.7965 10.5645 -1.8494 0.9555
-4.1728 10.4217 -1.8494 0.9555
-4.5436 10.2654 -1.8494 0.9555
-7.2620 8.5607 -1.8494 0.9555
-7.5642 8.2949 -1.8494 0.9555
-9.0841 8.0301 -1.9974 0.9520
-9.3857 7.7155 -2.0016 0.9519
-10.1597 6.6634 -2.0016 0.9519
-10.3920 6.2950 -2.0016 0.9519
-10.6109 5.9184 -2.0016 0.9519
-11.0077 5.1430 -2.0016 0.9519
-11.4961 3.9317 -2.0016 0.9519
-11.6297 3.5171 -2.0016 0.9519
-11.7483 3.0980 -2.0016 0.9519
-11.9400 2.2484 -2.0016 0.9519
-12.0704 1.3873 -2.0016 0.9519
-12.1124 0.9537 -2.0016 0.9519
-12.1388 0.5190 -2.0016 0.9519
-12.1448 -0.3520 -2.0016 0.9519
-12.1244 -0.7871 -2.0016 0.9519
-12.0883 -1.2211 -2.0016 0.9519
-11.9698 -2.0840 -2.0016 0.9519
-11.0287 -2.3303 -1.8570 0.9553
-10.9381 -2.7241 -1.8570 0.9553
-10.8335 -3.1144 -1.8570 0.9553
-10.7149 -3.5007 -1.8570 0.9553
-10.5825 -3.8825 -1.8570 0.9553
-10.4366 -4.2593 -1.8570 0.9553
-9.9190 -5.3550 -1.8570 0.9553
-9.7567 -7.2406 -2.0016 0.9519
-9.4909 -7.5857 -2.0016 0.9519
-8.3094 -8.8642 -2.0016 0.9519
-7.6530 -9.4367 -2.0016 0.9519
-6.2258 -10.4335 -2.0016 0.9519
-5.4624 -10.8527 -2.0016 0.9519
-5.0699 -11.0415 -2.0016 0.9519
-4.6708 -11.2162 -2.0016 0.9519
-3.0200 -11.7686 -2.0016 0.9519
-2.5962 -11.8692 -2.0016 0.9519
-2.1691 -11.9547 -2.0016 0.9519
-1.7392 -12.0247 -2.0016 0.9519
-1.3071 -12.0794 -2.0016 0.9519
0.8675 -12.1189 -2.0016 0.9519
1.7335 -12.0256 -2.0016 0.9519
2.5905 -11.8705 -2.0016 0.9519
3.4343 -11.6544 -2.0016 0.9519
4.2604 -11.3784 -2.0016 0.9519
5.0646 -11.0440 -2.0016 0.9519
5.4572 -10.8553 -2.0016 0.9519
2.2964 -4.1868 -0.7867 0.9808
6.9525 -9.9640 -2.0016 0.9519
7.6485 -9.4403 -2.0016 0.9519
7.9819 -9.1601 -2.0016 0.9519
8.3051 -8.8681 -2.0016 0.9519
8.6177 -8.5648 -2.0016 0.9519
9.2091 -7.9254 -2.0016 0.9519
10.0066 -6.8910 -2.0016 0.9519
10.2472 -6.5279 -2.0016 0.9519
11.0750 -4.9965 -2.0016 0.9519
11.2469 -4.5963 -2.0016 0.9519
11.5473 -3.7788 -2.0016 0.9519
11.6753 -3.3625 -2.0016 0.9519
11.7883 -2.9418 -2.0016 0.9519
11.8862 -2.5174 -2.0016 0.9519
11.9688 -2.0897 -2.0016 0.9519
12.0360 -1.6594 -2.0016 0.9519
12.0878 -1.2269 -2.0016 0.9519
12.1240 -0.7929 -2.0016 0.9519
12.0711 1.3815 -2.0016 0.9519
11.8530 2.6693 -2.0016 0.9519
11.7497 3.0924 -2.0016 0.9519
11.6314 3.5116 -2.0016 0.9519
11.3499 4.3358 -2.0016 0.9519
11.1872 4.7398 -2.0016 0.9519
11.0101 5.1378 -2.0016 0.9519
10.8189 5.5291 -2.0016 0.9519
10.6138 5.9133 -2.0016 0.9519
10.1628 6.6585 -2.0016 0.9519
9.9177 7.0185 -2.0016 0.9519
9.6597 7.3695 -2.0016 0.9519
9.1069 8.0426 -2.0016 0.9519
8.1910 8.9737 -2.0016 0.9519
7.5271 9.5374 -2.0016 0.9519
7.1804 9.8011 -2.0016 0.9519
6.8245 10.0522 -2.0016 0.9519
4.9135 10.0936 -1.8494 0.9555
4.5485 10.2632 -1.8494 0.9555
4.1777 10.4197 -1.8494 0.9555
3.8016 10.5627 -1.8494 0.9555
2.6458 10.9098 -1.8494 0.9555
2.2530 10.9976 -1.8494 0.9555
1.8574 11.0713 -1.8494 0.9555
0.6582 11.2067 -1.8494 0.9555
0.2561 11.2231 -1.8494 0.9555
-0.1463 11.2250 -1.8494 0.9555
-0.9501 11.1857 -1.8494 0.9555
-1.0595 8.7438 -1.4510 0.9649
-1.3776 8.7339 -1.4566 0.9648
-2.1453 11.0191 -1.8494 0.9555
-2.5389 10.9351 -1.8494 0.9555
-2.9292 10.8371 -1.8494 0.9555
-3.3158 10.7251 -1.8494 0.9555
-3.6981 10.5994 -1.8494 0.9555
-4.8145 10.1412 -1.8494 0.9555
-5.1749 9.9621 -1.8494 0.9555
-6.2144 9.3490 -1.8494 0.9555
-6.5455 9.1203 -1.8494 0.9555
-7.1821 8.6279 -1.8494 0.9555
-8.5148 8.2408 -1.9521 0.9531
-10.0972 6.7576 -2.0016 0.9519
-10.5554 6.0169 -2.0016 0.9519
-11.1403 4.8490 -2.0016 0.9519
-11.4591 4.0385 -2.0016 0.9519
-11.5964 3.6252 -2.0016 0.9519
-11.7189 3.2072 -2.0016 0.9519
-11.9186 2.3594 -2.0016 0.9519
-12.0570 1.4995 -2.0016 0.9519
-12.1483 0.1966 -2.0016 0.9519
-12.0992 -1.1086 -2.0016 0.9519
-11.1180 -2.2413 -1.8684 0.9551
-10.8620 -3.0135 -1.8570 0.9553
-10.7470 -3.4009 -1.8570 0.9553
-10.6182 -3.7839 -1.8570 0.9553
-10.3198 -4.5348 -1.8570 0.9553
-9.9684 -5.2625 -1.8570 0.9553
-9.8236 -7.1495 -2.0016 0.9519
-7.3998 -9.6365 -2.0016 0.9519
-6.3226 -10.3751 -2.0016 0.9519
-5.9467 -10.5951 -2.0016 0.9519
-5.1724 -10.9939 -2.0016 0.9519
-4.7750 -11.1722 -2.0016 0.9519
-4.3715 -11.3362 -2.0016 0.9519
-3.9624 -11.4856 -2.0016 0.9519
-3.1293 -11.7400 -2.0016 0.9519
-2.7065 -11.8446 -2.0016 0.9519
-0.9860 -12.1098 -2.0016 0.9519
-0.5513 -12.1374 -2.0016 0.9519
0.3196 -12.1457 -2.0016 0.9519
2.0521 -11.9753 -2.0016 0.9519
2.4800 -11.8941 -2.0016 0.9519
3.3257 -11.6858 -2.0016 0.9519
3.7424 -11.5591 -2.0016 0.9519
4.1543 -11.4176 -2.0016 0.9519
4.5609 -11.2613 -2.0016 0.9519
4.9616 -11.0906 -2.0016 0.9519
5.3560 -10.9056 -2.0016 0.9519
2.2478 -4.1903 -0.7834 0.9809
6.1235 -10.4939 -2.0016 0.9519
6.4957 -10.2677 -2.0016 0.9519
6.8595 -10.0283 -2.0016 0.9519
7.2146 -9.7760 -2.0016 0.9519
8.5376 -8.6446 -2.0016 0.9519
9.1350 -8.0107 -2.0016 0.9519
9.4162 -7.6781 -2.0016 0.9519
10.4169 -6.2537 -2.0016 0.9519
11.0280 -5.0993 -2.0016 0.9519
11.3650 -4.2962 -2.0016 0.9519
11.5116 -3.8861 -2.0016 0.9519
11.7605 -3.0514 -2.0016 0.9519
11.8623 -2.6279 -2.0016 0.9519
11.9488 -2.2010 -2.0016 0.9519
12.1433 0.4002 -2.0016 0.9519
12.0834 1.2691 -2.0016 0.9519
12.0302 1.7014 -2.0016 0.9519
11.9614 2.1315 -2.0016 0.9519
11.8774 2.5589 -2.0016 0.9519
11.7780 2.9830 -2.0016 0.9519
11.6635 3.4032 -2.0016 0.9519
11.5340 3.8191 -2.0016 0.9519
11.2308 4.6356 -2.0016 0.9519
11.0574 5.0351 -2.0016 0.9519
10.4531 6.1930 -2.0016 0.9519
9.7279 7.2793 -2.0016 0.9519
9.4607 7.6233 -2.0016 0.9519
8.5877 8.5948 -2.0016 0.9519
8.2741 8.8971 -2.0016 0.9519
7.6155 9.4670 -2.0016 0.9519
-1.1359 8.6957 -1.6483 0.9649
-1.6233 9.7042 -1.8494 0.9607
-2.3143 9.5630 -1.8494 0.9607
-3.3275 9.2593 -1.8494 0.9607
-3.6572 9.1341 -1.8494 0.9607
-5.2272 8.3357 -1.8494 0.9607
-5.5986 8.2551 -1.8748 0.9602
-6.4945 8.2371 -1.9716 0.9582
-7.1704 7.8631 -2.0002 0.9576
-7.4527 7.6062 -2.0016 0.9576
-8.4632 6.4631 -2.0016 0.9576
-8.9045 5.8402 -2.0016 0.9576
-9.1081 5.5172 -2.0016 0.9576
-9.4799 4.8506 -2.0016 0.9576
-9.6477 4.5076 -2.0016 0.9576
-9.8031 4.1589 -2.0016 0.9576
-9.9459 3.8049 -2.0016 0.9576
-10.0758 3.4460 -2.0016 0.9576
-10.1929 3.0826 -2.0016 0.9576
-10.2968 2.7153 -2.0016 0.9576
-10.6160 0.8359 -2.0016 0.9576
-10.6486 0.0732 -2.0016 0.9576
-10.6443 -0.3085 -2.0016 0.9576
-10.5497 -1.4493 -2.0016 0.9576
-10.4188 -2.2014 -2.0016 0.9576
-9.3911 -3.0682 -1.8570 0.9606
-9.0075 -4.0586 -1.8570 0.9606
-8.8562 -4.3788 -1.8570 0.9606
-8.6936 -4.6934 -1.8570 0.9606
-8.5198 -5.0020 -1.8570 0.9606
-8.3350 -5.3042 -1.8570 0.9606
-8.1395 -5.5995 -1.8570 0.9606
-8.5513 -6.3461 -2.0016 0.9576
-8.3183 -6.6485 -2.0016 0.9576
-8.0747 -6.9424 -2.0016 0.9576
-7.8207 -7.2273 -2.0016 0.9576
-7.2828 -7.7690 -2.0016 0.9576
-5.1254 -9.3342 -2.0016 0.9576
-4.7875 -9.5119 -2.0016 0.9576
-4.4435 -9.6774 -2.0016 0.9576
-4.0938 -9.8305 -2.0016 0.9576
-3.7388 -9.9709 -2.0016 0.9576
-2.2755 -10.4029 -2.0016 0.9576
-0.7654 -10.6213 -2.0016 0.9576
-0.3842 -10.6419 -2.0016 0.9576
-0.0026 -10.6488 -2.0016 0.9576
0.3791 -10.6421 -2.0016 0.9576
0.7603 -10.6216 -2.0016 0.9576
1.1406 -10.5876 -2.0016 0.9576
1.5193 -10.5399 -2.0016 0.9576
1.8961 -10.4786 -2.0016 0.9576
2.2705 -10.4039 -2.0016 0.9576
2.6419 -10.3159 -2.0016 0.9576
3.0100 -10.2146 -2.0016 0.9576
3.3742 -10.1001 -2.0016 0.9576
4.7830 -9.5142 -2.0016 0.9576
2.2964 -4.1868 -0.8975 0.9808
5.4523 -9.1471 -2.0016 0.9576
7.2791 -7.7725 -2.0016 0.9576
7.8172 -7.2311 -2.0016 0.9576
8.7704 -6.0397 -2.0016 0.9576
8.9812 -5.7214 -2.0016 0.9576
9.1805 -5.3959 -2.0016 0.9576
9.3680 -5.0633 -2.0016 0.9576
9.5435 -4.7243 -2.0016 0.9576
9.7067 -4.3792 -2.0016 0.9576
9.8574 -4.0285 -2.0016 0.9576
10.1207 -3.3119 -2.0016 0.9576
10.4901 -1.8316 -2.0016 0.9576
10.6261 -0.6949 -2.0016 0.9576
10.6442 -0.3136 -2.0016 0.9576
10.6486 0.0681 -2.0016 0.9576
10.5798 1.2108 -2.0016 0.9576
10.3886 2.3395 -2.0016 0.9576
10.1944 3.0777 -2.0016 0.9576
9.9477 3.8001 -2.0016 0.9576
9.6499 4.5030 -2.0016 0.9576
9.3025 5.1828 -2.0016 0.9576
8.4663 6.4590 -2.0016 0.9576
7.9818 7.0489 -2.0016 0.9576
7.7240 7.3305 -2.0016 0.9576
6.8925 8.1173 -2.0016 0.9576
6.2933 8.5902 -2.0016 0.9576
5.9813 8.8103 -2.0016 0.9576
4.9954 9.3908 -1.9993 0.9576
4.6326 9.5166 -1.9894 0.9578
4.0783 9.2022 -1.8919 0.9599
3.6616 9.1324 -1.8494 0.9607
3.3319 9.2577 -1.8494 0.9607
2.9980 9.3712 -1.8494 0.9607
2.6601 9.4726 -1.8494 0.9607
1.6279 9.7035 -1.8494 0.9607
1.2791 9.7556 -1.8494 0.9607
0.5769 9.8221 -1.8494 0.9607
0.2245 9.8365 -1.8494 0.9607
-0.4808 9.8273 -1.8494 0.9607
-1.8803 9.6577 -1.8494 0.9607
-3.5721 9.1677 -1.8494 0.9607
-3.8984 9.0338 -1.8494 0.9607
-4.2197 8.8883 -1.8494 0.9607
-4.5356 8.7313 -1.8494 0.9607
-5.1494 8.3840 -1.8494 0.9607
-5.4886 8.2571 -1.8636 0.9604
-6.3731 8.2397 -1.9579 0.9585
-7.0932 7.9253 -1.9992 0.9576
-7.3816 7.6752 -2.0016 0.9576
-7.9125 7.1267 -2.0016 0.9576
-8.1629 6.8385 -2.0016 0.9576
-8.4027 6.5415 -2.0016 0.9576
-8.8498 5.9228 -2.0016 0.9576
-9.9100 3.8973 -2.0016 0.9576
-10.0433 3.5396 -2.0016 0.9576
-10.4461 2.0679 -2.0016 0.9576
-10.5135 1.6922 -2.0016 0.9576
-10.5674 1.3143 -2.0016 0.9576
-10.6077 0.9346 -2.0016 0.9576
-10.6344 0.5538 -2.0016 0.9576
-10.6474 0.1723 -2.0016 0.9576
-10.6467 -0.2095 -2.0016 0.9576
-10.6324 -0.5909 -2.0016 0.9576
-10.6044 -0.9717 -2.0016 0.9576
-10.5628 -1.3511 -2.0016 0.9576
-10.5075 -1.7289 -2.0016 0.9576
-10.4388 -2.1044 -2.0016 0.9576
-9.6086 -2.2982 -1.8570 0.9606
-9.4192 -2.9807 -1.8570 0.9606
-8.7369 -4.6123 -1.8570 0.9606
-8.5659 -4.9225 -1.8570 0.9606
-8.3840 -5.2264 -1.8570 0.9606
-8.1913 -5.5236 -1.8570 0.9606
-8.3798 -6.5708 -2.0016 0.9576
-8.1389 -6.8670 -2.0016 0.9576
-7.6261 -7.4324 -2.0016 0.9576
-7.0740 -7.9596 -2.0016 0.9576
-6.4856 -8.4460 -2.0016 0.9576
-6.1787 -8.6730 -2.0016 0.9576
-5.8639 -8.8889 -2.0016 0.9576
-4.8758 -9.4670 -2.0016 0.9576
-4.5334 -9.6357 -2.0016 0.9576
-3.8314 -9.9357 -2.0016 0.9576
-3.4728 -10.0666 -2.0016 0.9576
-3.1098 -10.1846 -2.0016 0.9576
-1.9985 -10.4596 -2.0016 0.9576
-0.8642 -10.6137 -2.0016 0.9576
-0.4832 -10.6378 -2.0016 0.9576
-0.1016 -10.6483 -2.0016 0.9576
1.0420 -10.5977 -2.0016 0.9576
1.4212 -10.5536 -2.0016 0.9576
1.7986 -10.4958 -2.0016 0.9576
2.1736 -10.4246 -2.0016 0.9576
2.5459 -10.3400 -2.0016 0.9576
2.9148 -10.2421 -2.0016 0.9576
3.6411 -10.0070 -2.0016 0.9576
3.9974 -9.8700 -2.0016 0.9576
6.0121 -8.7893 -2.0016 0.9576
6.3232 -8.5682 -2.0016 0.9576
6.6263 -8.3360 -2.0016 0.9576
7.4828 -7.5766 -2.0016 0.9576
8.2529 -6.7295 -2.0016 0.9576
9.1299 -5.4810 -2.0016 0.9576
9.3205 -5.1503 -2.0016 0.9576
9.4991 -4.8129 -2.0016 0.9576
9.6655 -4.4693 -2.0016 0.9576
10.0894 -3.4060 -2.0016 0.9576
10.2050 -3.0421 -2.0016 0.9576
10.3075 -2.6744 -2.0016 0.9576
10.3968 -2.3032 -2.0016 0.9576
10.4726 -1.9291 -2.0016 0.9576
10.5350 -1.5525 -2.0016 0.9576
10.6488 -0.0309 -2.0016 0.9576
10.6430 0.3508 -2.0016 0.9576
10.5439 1.4912 -2.0016 0.9576
10.4837 1.8682 -2.0016 0.9576
10.4100 2.2428 -2.0016 0.9576
10.2225 2.9828 -2.0016 0.9576
9.8433 4.0629 -2.0016 0.9576
9.5269 4.7576 -2.0016 0.9576
9.3503 5.0960 -2.0016 0.9576
7.7919 7.2583 -2.0016 0.9576
7.2519 7.7979 -2.0016 0.9576
6.9677 8.0528 -2.0016 0.9576
-1.1332 8.6753 -1.8494 0.9649
-1.4434 8.6291 -1.8494 0.9649
-1.7518 8.5718 -1.8494 0.9649
-2.3614 8.4243 -1.8494 0.9649
-2.6618 8.3342 -1.8494 0.9649
-2.9684 8.2600 -1.8553 0.9648
-3.3049 8.2542 -1.8794 0.9643
-3.6512 8.2491 -1.9069 0.9638
-4.7243 8.1705 -1.9950 0.9621
-5.0211 8.0070 -1.9978 0.9621
-5.5924 7.6412 -2.0016 0.9620
-6.1254 7.2209 -2.0016 0.9620
-7.3147 6.0131 -2.0016 0.9620
-7.5256 5.7470 -2.0016 0.9620
-7.9179 5.1931 -2.0016 0.9620
-8.5788 4.0082 -2.0016 0.9620
-8.8439 3.3833 -2.0016 0.9620
-9.0636 2.7411 -2.0016 0.9620
-9.1560 2.4145 -2.0016 0.9620
-9.3623 1.4176 -2.0016 0.9620
-9.4071 1.0812 -2.0016 0.9620
-9.4398 0.7433 -2.0016 0.9620
-9.4604 0.4045 -2.0016 0.9620
-9.4491 -0.6134 -2.0016 0.9620
-9.3287 -1.6242 -2.0016 0.9620
-9.2645 -1.9575 -2.0016 0.9620
-8.9407 -2.2266 -1.9476 0.9630
-8.4431 -2.4272 -1.8570 0.9647
-8.0095 -3.6089 -1.8570 0.9647
-7.8750 -3.8937 -1.8570 0.9647
-7.5759 -4.4478 -1.8570 0.9647
-7.0546 -5.2354 -1.8570 0.9647
-6.4759 -6.9083 -2.0016 0.9620
-6.2242 -7.1360 -2.0016 0.9620
-5.9644 -7.3545 -2.0016 0.9620
-5.4222 -7.7629 -2.0016 0.9620
-5.1405 -7.9522 -2.0016 0.9620
-4.5575 -8.3001 -2.0016 0.9620
-4.2571 -8.4581 -2.0016 0.9620
-2.3536 -9.1718 -2.0016 0.9620
-1.6905 -9.3169 -2.0016 0.9620
-1.0187 -9.4141 -2.0016 0.9620
-0.3417 -9.4629 -2.0016 0.9620
1.0142 -9.4145 -2.0016 0.9620
1.3510 -9.3721 -2.0016 0.9620
1.6861 -9.3177 -2.0016 0.9620
2.0189 -9.2513 -2.0016 0.9620
2.6765 -9.0829 -2.0016 0.9620
3.3203 -8.8678 -2.0016 0.9620
3.6361 -8.7431 -2.0016 0.9620
5.4185 -7.7655 -2.0016 0.9620
5.9609 -7.3573 -2.0016 0.9620
6.2207 -7.1390 -2.0016 0.9620
7.3939 -5.9154 -2.0016 0.9620
7.7987 -5.3705 -2.0016 0.9620
8.6313 -3.8940 -2.0016 0.9620
8.7653 -3.5821 -2.0016 0.9620
8.8881 -3.2657 -2.0016 0.9620
8.9994 -2.9450 -2.0016 0.9620
9.1873 -2.2927 -2.0016 0.9620
9.2635 -1.9619 -2.0016 0.9620
9.3279 -1.6286 -2.0016 0.9620
9.4206 -0.9562 -2.0016 0.9620
9.4688 0.0606 -2.0016 0.9620
9.4606 0.3999 -2.0016 0.9620
9.4402 0.7388 -2.0016 0.9620
9.4076 1.0767 -2.0016 0.9620
9.3063 1.7479 -2.0016 0.9620
9.2377 2.0803 -2.0016 0.9620
9.1572 2.4101 -2.0016 0.9620
8.9610 3.0599 -2.0016 0.9620
7.9204 5.1893 -2.0016 0.9620
7.5283 5.7434 -2.0016 0.9620
7.3176 6.0096 -2.0016 0.9620
7.0975 6.2680 -2.0016 0.9620
6.6302 6.7603 -2.0016 0.9620
6.3837 6.9936 -2.0016 0.9620
5.8662 7.4330 -2.0016 0.9620
5.0344 8.0198 -2.0016 0.9620
4.4470 8.3598 -2.0016 0.9620
4.1445 8.5139 -2.0016 0.9620
3.8338 8.6506 -2.0001 0.9621
3.5142 8.7646 -1.9960 0.9621
3.1500 8.7524 -1.9662 0.9627
2.3937 8.5238 -1.8715 0.9645
1.7559 8.5710 -1.8494 0.9649
1.1374 8.6747 -1.8494 0.9649
0.8257 8.7099 -1.8494 0.9649
0.5130 8.7339 -1.8494 0.9649
0.1996 8.7467 -1.8494 0.9649
-0.1140 8.7482 -1.8494 0.9649
-0.4275 8.7385 -1.8494 0.9649
-0.7405 8.7176 -1.8494 0.9649
-1.3631 8.6422 -1.8494 0.9649
-1.6720 8.5877 -1.8494 0.9649
-1.9787 8.5223 -1.8494 0.9649
-2.2829 8.4459 -1.8494 0.9649
-2.8836 8.2650 -1.8503 0.9648
-3.2166 8.2554 -1.8728 0.9644
-3.9143 8.2450 -1.9293 0.9634
-4.9446 8.0504 -1.9970 0.9621
-5.5211 7.6929 -2.0016 0.9620
-5.7933 7.4900 -2.0016 0.9620
-6.0580 7.2776 -2.0016 0.9620
-6.3150 7.0558 -2.0016 0.9620
-7.4718 5.8168 -2.0016 0.9620
-7.6755 5.5452 -2.0016 0.9620
-7.8693 5.2666 -2.0016 0.9620
-8.2264 4.6893 -2.0016 0.9620
-8.5412 4.0879 -2.0016 0.9620
-8.6822 3.7791 -2.0016 0.9620
-8.8121 3.4655 -2.0016 0.9620
-8.9306 3.1474 -2.0016 0.9620
-9.1332 2.4995 -2.0016 0.9620
-9.2169 2.1706 -2.0016 0.9620
-9.4325 0.8311 -2.0016 0.9620
-9.4678 0.1532 -2.0016 0.9620
-9.4544 -0.5255 -2.0016 0.9620
-9.4295 -0.8640 -2.0016 0.9620
-9.3925 -1.2014 -2.0016 0.9620
-8.4653 -2.3486 -1.8570 0.9647
-8.3757 -2.6505 -1.8570 0.9647
-8.0428 -3.5342 -1.8570 0.9647
-7.9109 -3.8202 -1.8570 0.9647
-7.6169 -4.3772 -1.8570 0.9647
-7.4551 -4.6474 -1.8570 0.9647
-7.2838 -4.9116 -1.8570 0.9647
-6.9132 -5.4208 -1.8570 0.9647
-7.0137 -6.3616 -2.0016 0.9620
-6.5399 -6.8477 -2.0016 0.9620
-6.0325 -7.2987 -2.0016 0.9620
-5.7671 -7.5102 -2.0016 0.9620
-4.9276 -8.0859 -2.0016 0.9620
-4.6346 -8.2573 -2.0016 0.9620
-4.3356 -8.4181 -2.0016 0.9620
-3.4069 -8.8349 -2.0016 0.9620
-3.0881 -8.9513 -2.0016 0.9620
-2.7653 -9.0563 -2.0016 0.9620
-2.1093 -9.2311 -2.0016 0.9620
-1.7771 -9.3008 -2.0016 0.9620
-1.4426 -9.3585 -2.0016 0.9620
-0.0904 -9.4686 -2.0016 0.9620
0.5882 -9.4507 -2.0016 0.9620
0.9266 -9.4236 -2.0016 0.9620
1.2637 -9.3843 -2.0016 0.9620
1.9328 -9.2697 -2.0016 0.9620
2.2638 -9.1944 -2.0016 0.9620
2.9167 -9.0086 -2.0016 0.9620
3.2377 -8.8983 -2.0016 0.9620
3.5545 -8.7765 -2.0016 0.9620
3.8669 -8.6435 -2.0016 0.9620
2.2478 -4.1903 -1.0051 0.9807
4.7723 -8.1785 -2.0016 0.9620
5.0624 -8.0021 -2.0016 0.9620
5.6227 -7.6189 -2.0016 0.9620
5.8921 -7.4125 -2.0016 0.9620
6.4080 -6.9713 -2.0016 0.9620
6.8910 -6.4943 -2.0016 0.9620
7.3386 -5.9840 -2.0016 0.9620
7.7484 -5.4429 -2.0016 0.9620
8.1184 -4.8738 -2.0016 0.9620
8.2879 -4.5797 -2.0016 0.9620
8.4467 -4.2797 -2.0016 0.9620
8.5947 -3.9741 -2.0016 0.9620
8.9716 -3.0286 -2.0016 0.9620
9.0744 -2.7051 -2.0016 0.9620
9.3124 -1.7154 -2.0016 0.9620
9.3679 -1.3805 -2.0016 0.9620
9.4619 -0.3669 -2.0016 0.9620
9.4690 -0.0275 -2.0016 0.9620
9.4639 0.3119 -2.0016 0.9620
9.4172 0.9891 -2.0016 0.9620
9.3757 1.3260 -2.0016 0.9620
9.2566 1.9943 -2.0016 0.9620
9.1792 2.3248 -2.0016 0.9620
9.0900 2.6523 -2.0016 0.9620
8.9891 2.9764 -2.0016 0.9620
8.8766 3.2967 -2.0016 0.9620
8.7528 3.6127 -2.0016 0.9620
8.1466 4.8265 -2.0016 0.9620
7.3732 5.9412 -2.0016 0.9620
7.1555 6.2017 -2.0016 0.9620
6.9286 6.4542 -2.0016 0.9620
6.6928 6.6984 -2.0016 0.9620
5.9351 7.3781 -2.0016 0.9620
-1.3781 8.2387 -1.9632 0.9663
-1.6833 8.2364 -1.9757 0.9660
-2.2910 8.1733 -1.9950 0.9657
-2.5843 8.0915 -1.9963 0.9657
-2.8749 7.9999 -1.9979 0.9657
-3.4468 7.7874 -2.0015 0.9656
-3.7239 7.6592 -2.0016 0.9656
-4.2630 7.3727 -2.0016 0.9656
-5.2729 6.6878 -2.0016 0.9656
-5.5092 6.4945 -2.0016 0.9656
-5.7385 6.2928 -2.0016 0.9656
-6.1745 5.8656 -2.0016 0.9656
-6.5789 5.4082 -2.0016 0.9656
-6.7685 5.1689 -2.0016 0.9656
-6.9494 4.9229 -2.0016 0.9656
-7.2842 4.4124 -2.0016 0.9656
-7.4377 4.1485 -2.0016 0.9656
-7.7158 3.6050 -2.0016 0.9656
-7.8401 3.3261 -2.0016 0.9656
-8.0582 2.7559 -2.0016 0.9656
-8.1518 2.4653 -2.0016 0.9656
-8.2349 2.1716 -2.0016 0.9656
-8.4902 0.6685 -2.0016 0.9656
-8.5087 0.3638 -2.0016 0.9656
-8.5162 0.0586 -2.0016 0.9656
-8.5129 -0.2467 -2.0016 0.9656
-8.4986 -0.5517 -2.0016 0.9656
-8.4733 -0.8560 -2.0016 0.9656
-8.4372 -1.1591 -2.0016 0.9656
-8.3902 -1.4608 -2.0016 0.9656
-8.3325 -1.7606 -2.0016 0.9656
-8.2640 -2.0581 -2.0016 0.9656
-7.7752 -2.2352 -1.9014 0.9673
-6.9527 -3.7536 -1.8570 0.9681
-6.8137 -4.0004 -1.8570 0.9681
-6.5096 -4.4783 -1.8570 0.9681
-6.1721 -4.9331 -1.8570 0.9681
-5.6069 -5.5671 -1.8570 0.9681
-5.8245 -6.2133 -2.0016 0.9656
-5.3644 -6.6146 -2.0016 0.9656
-5.1238 -6.8027 -2.0016 0.9656
-4.6233 -7.1523 -2.0016 0.9656
-4.3640 -7.3134 -2.0016 0.9656
-2.7024 -8.0763 -2.0016 0.9656
-2.4112 -8.1680 -2.0016 0.9656
-1.5205 -8.3796 -2.0016 0.9656
-1.2191 -8.4287 -2.0016 0.9656
-0.0020 -8.5164 -2.0016 0.9656
0.3032 -8.5110 -2.0016 0.9656
0.6081 -8.4947 -2.0016 0.9656
1.2151 -8.4293 -2.0016 0.9656
1.8158 -8.3206 -2.0016 0.9656
2.6985 -8.0776 -2.0016 0.9656
3.2703 -7.8635 -2.0016 0.9656
3.5500 -7.7413 -2.0016 0.9656
2.1467 -4.2702 -1.1233 0.9806
2.2759 -4.1495 -1.1123 0.9807
4.3605 -7.3155 -2.0016 0.9656
4.6199 -7.1545 -2.0016 0.9656
4.8734 -6.9843 -2.0016 0.9656
5.3612 -6.6172 -2.0016 0.9656
5.5949 -6.4208 -2.0016 0.9656
6.2519 -5.7831 -2.0016 0.9656
6.6501 -5.3203 -2.0016 0.9656
6.8365 -5.0786 -2.0016 0.9656
7.0142 -4.8303 -2.0016 0.9656
7.3422 -4.3154 -2.0016 0.9656
7.4921 -4.0494 -2.0016 0.9656
7.7630 -3.5023 -2.0016 0.9656
8.1838 -2.3569 -2.0016 0.9656
8.2630 -2.0621 -2.0016 0.9656
8.3316 -1.7646 -2.0016 0.9656
8.3895 -1.4648 -2.0016 0.9656
8.4983 -0.5558 -2.0016 0.9656
8.5128 -0.2508 -2.0016 0.9656
8.5088 0.3597 -2.0016 0.9656
8.4905 0.6645 -2.0016 0.9656
8.3701 1.5720 -2.0016 0.9656
8.2360 2.1676 -2.0016 0.9656
8.0595 2.7521 -2.0016 0.9656
7.9557 3.0392 -2.0016 0.9656
7.7175 3.6013 -2.0016 0.9656
7.2864 4.4090 -2.0016 0.9656
7.1236 4.6673 -2.0016 0.9656
6.9518 4.9196 -2.0016 0.9656
6.3835 5.6374 -2.0016 0.9656
6.1773 5.8626 -2.0016 0.9656
5.7415 6.2901 -2.0016 0.9656
5.5123 6.4918 -2.0016 0.9656
5.2761 6.6853 -2.0016 0.9656
4.5280 7.2130 -2.0016 0.9656
2.8840 8.0133 -2.0016 0.9656
2.5945 8.1100 -2.0012 0.9656
2.0020 8.2551 -1.9964 0.9657
1.7032 8.3138 -1.9945 0.9657
1.0844 8.2710 -1.9605 0.9663
0.4843 8.2450 -1.9411 0.9666
-0.1075 8.2435 -1.9376 0.9667
-0.4033 8.2431 -1.9396 0.9667
-0.9986 8.2410 -1.9510 0.9665
-1.2995 8.2392 -1.9603 0.9663
-2.2145 8.1929 -1.9946 0.9657
-2.5085 8.1137 -1.9960 0.9657
-3.6525 7.6935 -2.0016 0.9656
-3.9259 7.5576 -2.0016 0.9656
-4.1942 7.4120 -2.0016 0.9656
-4.4572 7.2569 -2.0016 0.9656
-5.6797 6.3460 -2.0016 0.9656
-5.9035 6.1383 -2.0016 0.9656
-6.1197 5.9228 -2.0016 0.9656
-6.7201 5.2316 -2.0016 0.9656
-7.2429 4.4800 -2.0016 0.9656
-7.5452 3.9496 -2.0016 0.9656
-7.6819 3.6766 -2.0016 0.9656
-8.0322 2.8308 -2.0016 0.9656
-8.2897 1.9522 -2.0016 0.9656
-8.3543 1.6538 -2.0016 0.9656
-8.4513 1.0511 -2.0016 0.9656
-8.5049 0.4429 -2.0016 0.9656
-8.5148 -0.1675 -2.0016 0.9656
-8.5033 -0.4726 -2.0016 0.9656
-8.4809 -0.7771 -2.0016 0.9656
-8.4476 -1.0806 -2.0016 0.9656
-8.3485 -1.6830 -2.0016 0.9656
-8.2828 -1.9811 -2.0016 0.9656
-8.0202 -2.2251 -1.9561 0.9664
-7.5331 -2.3838 -1.8570 0.9681
-7.4428 -2.6523 -1.8570 0.9681
-7.3430 -2.9174 -1.8570 0.9681
-7.2337 -3.1787 -1.8570 0.9681
-6.9874 -3.6887 -1.8570 0.9681
-6.8507 -3.9368 -1.8570 0.9681
-6.7052 -4.1798 -1.8570 0.9681
-6.0390 -5.0952 -1.8570 0.9681
-5.8525 -5.3084 -1.8570 0.9681
-5.6584 -5.5147 -1.8570 0.9681
-5.8820 -6.1589 -2.0016 0.9656
-5.6575 -6.3657 -2.0016 0.9656
-5.4257 -6.5644 -2.0016 0.9656
-5.1869 -6.7547 -2.0016 0.9656
-4.6897 -7.1089 -2.0016 0.9656
-4.1683 -7.4266 -2.0016 0.9656
-3.8995 -7.5713 -2.0016 0.9656
-3.6256 -7.7062 -2.0016 0.9656
-3.0642 -7.9461 -2.0016 0.9656
-2.7774 -8.0508 -2.0016 0.9656
-2.1935 -8.2291 -2.0016 0.9656
-1.5984 -8.3651 -2.0016 0.9656
-1.2975 -8.4170 -2.0016 0.9656
-0.9950 -8.4581 -2.0016 0.9656
-0.6912 -8.4884 -2.0016 0.9656
-0.3865 -8.5077 -2.0016 0.9656
1.4384 -8.3941 -2.0016 0.9656
2.0361 -8.2695 -2.0016 0.9656
2.3312 -8.1912 -2.0016 0.9656
3.1970 -7.8936 -2.0016 0.9656
3.4778 -7.7740 -2.0016 0.9656
2.1520 -4.3819 -1.1473 0.9801
2.2312 -4.1594 -1.1093 0.9808
4.2922 -7.3557 -2.0016 0.9656
4.5531 -7.1971 -2.0016 0.9656
5.0571 -6.8525 -2.0016 0.9656
6.4032 -5.6151 -2.0016 0.9656
6.6003 -5.3820 -2.0016 0.9656
6.9689 -4.8953 -2.0016 0.9656
7.1399 -4.6424 -2.0016 0.9656
7.4541 -4.1189 -2.0016 0.9656
7.5970 -3.8491 -2.0016 0.9656
7.7301 -3.5744 -2.0016 0.9656
7.8532 -3.2950 -2.0016 0.9656
8.0691 -2.7239 -2.0016 0.9656
8.2435 -2.1388 -2.0016 0.9656
8.3149 -1.8420 -2.0016 0.9656
8.4927 -0.6348 -2.0016 0.9656
8.5164 -0.0247 -2.0016 0.9656
8.4699 0.8896 -2.0016 0.9656
8.4325 1.1926 -2.0016 0.9656
8.3254 1.7936 -2.0016 0.9656
8.2558 2.0909 -2.0016 0.9656
8.1755 2.3855 -2.0016 0.9656
8.0848 2.6770 -2.0016 0.9656
7.9836 2.9650 -2.0016 0.9656
7.8722 3.2493 -2.0016 0.9656
7.6192 3.8049 -2.0016 0.9656
7.4779 4.0756 -2.0016 0.9656
7.1668 4.6008 -2.0016 0.9656
6.8187 5.1024 -2.0016 0.9656
6.2316 5.8049 -2.0016 0.9656
6.0196 6.0245 -2.0016 0.9656
5.7998 6.2364 -2.0016 0.9656
-1.5479 7.5739 -2.0016 0.9686
-1.8183 7.5136 -2.0016 0.9686
-2.3519 7.3640 -2.0016 0.9686
-2.6144 7.2750 -2.0016 0.9686
-2.8735 7.1766 -2.0016 0.9686
-3.8696 6.6923 -2.0016 0.9686
-4.3391 6.3979 -2.0016 0.9686
-4.7863 6.0706 -2.0016 0.9686
-5.6047 5.3243 -2.0016 0.9686
-5.7919 5.1199 -2.0016 0.9686
-6.3081 4.4686 -2.0016 0.9686
-6.6120 4.0052 -2.0016 0.9686
-6.7513 3.7657 -2.0016 0.9686
-6.8819 3.5212 -2.0016 0.9686
-7.1165 3.0192 -2.0016 0.9686
-7.2202 2.7622 -2.0016 0.9686
-7.3145 2.5016 -2.0016 0.9686
-7.4750 1.9712 -2.0016 0.9686
-7.5408 1.7020 -2.0016 0.9686
-7.5970 1.4306 -2.0016 0.9686
-7.7303 0.0532 -2.0016 0.9686
-7.6913 -0.7770 -2.0016 0.9686
-7.6159 -1.3260 -2.0016 0.9686
-7.5635 -1.5981 -2.0016 0.9686
-7.5014 -1.8682 -2.0016 0.9686
-6.7332 -2.4703 -1.8570 0.9708
-6.3111 -3.4072 -1.8570 0.9708
-6.1849 -3.6312 -1.8570 0.9708
-6.0508 -3.8506 -1.8570 0.9708
-5.9089 -4.0650 -1.8570 0.9708
-5.6025 -4.4778 -1.8570 0.9708
-5.0894 -5.0534 -1.8570 0.9708
-4.7143 -5.4050 -1.8570 0.9708
-4.5176 -5.5705 -1.8570 0.9708
-4.1967 -6.4922 -2.0016 0.9686
-2.7142 -7.2383 -2.0016 0.9686
-1.9215 -7.4879 -2.0016 0.9686
-1.6519 -7.5519 -2.0016 0.9686
-1.1066 -7.6509 -2.0016 0.9686
-0.2789 -7.7254 -2.0016 0.9686
-0.0019 -7.7305 -2.0016 0.9686
0.8280 -7.6860 -2.0016 0.9686
1.1029 -7.6514 -2.0016 0.9686
1.3765 -7.6069 -2.0016 0.9686
1.9179 -7.4888 -2.0016 0.9686
2.4495 -7.3322 -2.0016 0.9686
2.9685 -7.1378 -2.0016 0.9686
3.2224 -7.0268 -2.0016 0.9686
2.1114 -4.2000 -1.2171 0.9808
2.2548 -4.1111 -1.2140 0.9808
3.9581 -6.6403 -2.0016 0.9686
4.1935 -6.4942 -2.0016 0.9686
4.4236 -6.3397 -2.0016 0.9686
4.6480 -6.1771 -2.0016 0.9686
5.2842 -5.6425 -2.0016 0.9686
5.4831 -5.4494 -2.0016 0.9686
5.6749 -5.2494 -2.0016 0.9686
5.8594 -5.0426 -2.0016 0.9686
6.0364 -4.8293 -2.0016 0.9686
6.2056 -4.6099 -2.0016 0.9686
6.5199 -4.1535 -2.0016 0.9686
6.8007 -3.6757 -2.0016 0.9686
6.9281 -3.4296 -2.0016 0.9686
7.0466 -3.1791 -2.0016 0.9686
7.1560 -2.9245 -2.0016 0.9686
7.2562 -2.6661 -2.0016 0.9686
7.5005 -1.8718 -2.0016 0.9686
7.5627 -1.6017 -2.0016 0.9686
7.6153 -1.3296 -2.0016 0.9686
7.7140 -0.5045 -2.0016 0.9686
7.7303 0.0495 -2.0016 0.9686
7.7236 0.3265 -2.0016 0.9686
7.6439 1.1537 -2.0016 0.9686
7.5977 1.4270 -2.0016 0.9686
7.5416 1.6984 -2.0016 0.9686
7.3157 2.4981 -2.0016 0.9686
6.8836 3.5180 -2.0016 0.9686
6.7531 3.7624 -2.0016 0.9686
6.3102 4.4656 -2.0016 0.9686
5.7944 5.1172 -2.0016 0.9686
5.6073 5.3216 -2.0016 0.9686
5.4129 5.5191 -2.0016 0.9686
4.5686 6.2360 -2.0016 0.9686
4.3421 6.3958 -2.0016 0.9686
4.1101 6.5473 -2.0016 0.9686
3.8728 6.6904 -2.0016 0.9686
3.6305 6.8249 -2.0016 0.9686
3.3835 6.9507 -2.0016 0.9686
1.5515 7.5732 -2.0016 0.9686
1.2790 7.6239 -2.0016 0.9686
1.0050 7.6649 -2.0016 0.9686
0.7296 7.6960 -2.0016 0.9686
0.4533 7.7172 -2.0016 0.9686
0.1764 7.7285 -2.0016 0.9686
-0.1008 7.7298 -2.0016 0.9686
-0.3778 7.7213 -2.0016 0.9686
-0.6543 7.7027 -2.0016 0.9686
-0.9299 7.6744 -2.0016 0.9686
-1.7484 7.5302 -2.0016 0.9686
-2.0171 7.4627 -2.0016 0.9686
-2.2833 7.3856 -2.0016 0.9686
-2.5466 7.2990 -2.0016 0.9686
-2.8066 7.2030 -2.0016 0.9686
-3.5636 6.8601 -2.0016 0.9686
-3.8072 6.7280 -2.0016 0.9686
-4.0459 6.5872 -2.0016 0.9686
-4.2794 6.4380 -2.0016 0.9686
-5.1555 5.7603 -2.0016 0.9686
-5.3587 5.5718 -2.0016 0.9686
-5.5549 5.3762 -2.0016 0.9686
-5.7441 5.1736 -2.0016 0.9686
-6.0999 4.7488 -2.0016 0.9686
-6.5744 4.0666 -2.0016 0.9686
-6.7160 3.8283 -2.0016 0.9686
-6.8489 3.5851 -2.0016 0.9686
-7.0881 3.0853 -2.0016 0.9686
-7.1942 2.8292 -2.0016 0.9686
-7.2909 2.5695 -2.0016 0.9686
-7.3784 2.3066 -2.0016 0.9686
-7.4563 2.0406 -2.0016 0.9686
-7.5833 1.5012 -2.0016 0.9686
-7.6323 1.2284 -2.0016 0.9686
-7.6714 0.9541 -2.0016 0.9686
-7.7186 -0.4290 -2.0016 0.9686
-7.6982 -0.7054 -2.0016 0.9686
-7.6279 -1.2551 -2.0016 0.9686
-7.5184 -1.7983 -2.0016 0.9686
-6.6653 -2.6481 -1.8570 0.9708
-6.5661 -2.8853 -1.8570 0.9708
-5.9464 -4.0098 -1.8570 0.9708
-5.7989 -4.2204 -1.8570 0.9708
-5.6439 -4.4255 -1.8570 0.9708
-4.7644 -5.3609 -1.8570 0.9708
-4.5692 -5.5282 -1.8570 0.9708
-4.4854 -6.2961 -2.0016 0.9686
-4.2569 -6.4529 -2.0016 0.9686
-3.7837 -6.7412 -2.0016 0.9686
-3.0382 -7.1084 -2.0016 0.9686
-2.7814 -7.2128 -2.0016 0.9686
-2.5211 -7.3078 -2.0016 0.9686
-1.7221 -7.5362 -2.0016 0.9686
-1.4508 -7.5931 -2.0016 0.9686
-1.1777 -7.6402 -2.0016 0.9686
-0.9031 -7.6775 -2.0016 0.9686
-0.3508 -7.7225 -2.0016 0.9686
0.2033 -7.7278 -2.0016 0.9686
0.4802 -7.7156 -2.0016 0.9686
1.0317 -7.6613 -2.0016 0.9686
1.3057 -7.6194 -2.0016 0.9686
1.8482 -7.5063 -2.0016 0.9686
2.1160 -7.4352 -2.0016 0.9686
2.3812 -7.3546 -2.0016 0.9686
2.6432 -7.2645 -2.0016 0.9686
2.1083 -4.2930 -1.2383 0.9804
2.3978 -4.1091 -1.2318 0.9805
4.8103 -6.0515 -2.0016 0.9686
5.0242 -5.8752 -2.0016 0.9686
5.2315 -5.6914 -2.0016 0.9686
5.8122 -5.0969 -2.0016 0.9686
5.9912 -4.8853 -2.0016 0.9686
6.3258 -4.4435 -2.0016 0.9686
6.4810 -4.2140 -2.0016 0.9686
6.6278 -3.9790 -2.0016 0.9686
6.8959 -3.4939 -2.0016 0.9686
7.0167 -3.2445 -2.0016 0.9686
7.2311 -2.7335 -2.0016 0.9686
7.6026 -1.4004 -2.0016 0.9686
7.7090 -0.5762 -2.0016 0.9686
7.7263 0.2546 -2.0016 0.9686
7.7122 0.5314 -2.0016 0.9686
7.6882 0.8075 -2.0016 0.9686
7.6543 1.0825 -2.0016 0.9686
7.6106 1.3562 -2.0016 0.9686
7.5571 1.6281 -2.0016 0.9686
7.1457 2.9494 -2.0016 0.9686
7.0354 3.2036 -2.0016 0.9686
6.9161 3.4538 -2.0016 0.9686
6.7878 3.6994 -2.0016 0.9686
6.6509 3.9403 -2.0016 0.9686
6.3515 4.4067 -2.0016 0.9686
6.1894 4.6315 -2.0016 0.9686
5.4640 5.4685 -2.0016 0.9686
5.2645 5.6609 -2.0016 0.9686
4.6264 6.1933 -2.0016 0.9686
-0.9158 7.0108 -2.0016 0.9710
-1.4157 6.9272 -2.0016 0.9710
-1.6631 6.8720 -2.0016 0.9710
-1.9083 6.8079 -2.0016 0.9710
-3.0916 6.3586 -2.0016 0.9710
-3.3175 6.2437 -2.0016 0.9710
-3.7563 5.9900 -2.0016 0.9710
-4.1757 5.7055 -2.0016 0.9710
-4.3775 5.5522 -2.0016 0.9710
-4.9482 5.0502 -2.0016 0.9710
-5.2973 4.6827 -2.0016 0.9710
-5.9122 3.8776 -2.0016 0.9710
-6.0474 3.6632 -2.0016 0.9710
-6.1748 3.4441 -2.0016 0.9710
-6.5088 2.7614 -2.0016 0.9710
-6.8366 1.8028 -2.0016 0.9710
-6.8968 1.5566 -2.0016 0.9710
-6.9482 1.3084 -2.0016 0.9710
-7.0485 0.5550 -2.0016 0.9710
-7.0639 0.3020 -2.0016 0.9710
-7.0345 -0.7106 -2.0016 0.9710
-7.0045 -0.9623 -2.0016 0.9710
-6.9655 -1.2127 -2.0016 0.9710
-6.9176 -1.4616 -2.0016 0.9710
-6.7951 -1.9535 -2.0016 0.9710
-6.1582 -2.2593 -1.8570 0.9731
-6.0733 -2.4786 -1.8570 0.9731
-5.8801 -2.9073 -1.8570 0.9731
-5.7721 -3.1162 -1.8570 0.9731
-5.6567 -3.3211 -1.8570 0.9731
-5.1241 -4.0954 -1.8570 0.9731
-4.3118 -4.9434 -1.8570 0.9731
-4.1318 -5.0948 -1.8570 0.9731
-3.5610 -5.5089 -1.8570 0.9731
-3.3613 -5.6330 -1.8570 0.9731
-3.4030 -6.1975 -2.0016 0.9710
-2.9503 -6.4254 -2.0016 0.9710
-2.4824 -6.6202 -2.0016 0.9710
-2.2435 -6.7049 -2.0016 0.9710
-2.0017 -6.7810 -2.0016 0.9710
-1.2623 -6.9567 -2.0016 0.9710
-1.0121 -6.9975 -2.0016 0.9710
-0.7606 -7.0293 -2.0016 0.9710
-0.5082 -7.0520 -2.0016 0.9710
-0.0017 -7.0703 -2.0016 0.9710
0.2517 -7.0658 -2.0016 0.9710
0.7573 -7.0297 -2.0016 0.9710
1.9985 -6.7820 -2.0016 0.9710
2.2403 -6.7060 -2.0016 0.9710
2.4792 -6.6214 -2.0016 0.9710
2.4493 -4.1091 -1.3542 0.9803
4.2511 -5.6496 -2.0016 0.9710
4.4509 -5.4936 -2.0016 0.9710
4.6449 -5.3305 -2.0016 0.9710
5.0148 -4.9841 -2.0016 0.9710
5.1903 -4.8011 -2.0016 0.9710
5.5209 -4.4169 -2.0016 0.9710
5.6757 -4.2162 -2.0016 0.9710
5.8231 -4.0101 -2.0016 0.9710
5.9631 -3.7988 -2.0016 0.9710
6.2199 -3.3618 -2.0016 0.9710
6.4448 -2.9076 -2.0016 0.9710
6.5449 -2.6747 -2.0016 0.9710
6.7197 -2.1990 -2.0016 0.9710
6.9169 -1.4649 -2.0016 0.9710
6.9650 -1.2161 -2.0016 0.9710
7.0041 -0.9656 -2.0016 0.9710
7.0342 -0.7140 -2.0016 0.9710
7.0553 -0.4614 -2.0016 0.9710
7.0673 -0.2082 -2.0016 0.9710
7.0640 0.2986 -2.0016 0.9710
7.0488 0.5516 -2.0016 0.9710
7.0245 0.8039 -2.0016 0.9710
6.8976 1.5533 -2.0016 0.9710
6.7686 2.0435 -2.0016 0.9710
6.6910 2.2848 -2.0016 0.9710
6.6048 2.5231 -2.0016 0.9710
6.2958 3.2175 -2.0016 0.9710
6.1764 3.4411 -2.0016 0.9710
5.9140 3.8748 -2.0016 0.9710
5.6212 4.2885 -2.0016 0.9710
5.4639 4.4872 -2.0016 0.9710
5.2996 4.6802 -2.0016 0.9710
5.1284 4.8671 -2.0016 0.9710
4.5763 5.3895 -2.0016 0.9710
3.9714 5.8496 -2.0016 0.9710
3.7591 5.9882 -2.0016 0.9710
3.5421 6.1191 -2.0016 0.9710
2.8648 6.4640 -2.0016 0.9710
2.1543 6.7341 -2.0016 0.9710
1.1698 6.9729 -2.0016 0.9710
0.6673 7.0388 -2.0016 0.9710
-0.3455 7.0619 -2.0016 0.9710
-0.5984 7.0450 -2.0016 0.9710
-1.1016 6.9840 -2.0016 0.9710
-1.3512 6.9400 -2.0016 0.9710
-1.5991 6.8871 -2.0016 0.9710
-2.0883 6.7549 -2.0016 0.9710
-2.3291 6.6757 -2.0016 0.9710
-2.5669 6.5879 -2.0016 0.9710
-2.8014 6.4917 -2.0016 0.9710
-3.9139 5.8882 -2.0016 0.9710
-4.1225 5.7441 -2.0016 0.9710
-4.3257 5.5927 -2.0016 0.9710
-4.5234 5.4340 -2.0016 0.9710
-4.7152 5.2684 -2.0016 0.9710
-5.8758 3.9324 -2.0016 0.9710
-6.0130 3.7193 -2.0016 0.9710
-6.1425 3.5014 -2.0016 0.9710
-6.2640 3.2790 -2.0016 0.9710
-6.3775 3.0523 -2.0016 0.9710
-6.4828 2.8218 -2.0016 0.9710
-6.9357 1.3730 -2.0016 0.9710
-6.9805 1.1235 -2.0016 0.9710
-7.0694 0.1144 -2.0016 0.9710
-7.0690 -0.1391 -2.0016 0.9710
-7.0594 -0.3924 -2.0016 0.9710
-7.0408 -0.6451 -2.0016 0.9710
-7.0132 -0.8971 -2.0016 0.9710
-6.9765 -1.1479 -2.0016 0.9710
-6.9309 -1.3972 -2.0016 0.9710
-6.8764 -1.6447 -2.0016 0.9710
-6.2797 -2.2378 -1.8872 0.9727
-5.9069 -2.8525 -1.8570 0.9731
-5.4386 -3.6674 -1.8570 0.9731
-5.3037 -3.8600 -1.8570 0.9731
-5.1619 -4.0476 -1.8570 0.9731
-5.0135 -4.2300 -1.8570 0.9731
-4.6976 -4.5783 -1.8570 0.9731
-4.5305 -4.7437 -1.8570 0.9731
-4.3576 -4.9031 -1.8570 0.9731
-3.9951 -5.2027 -1.8570 0.9731
-3.8061 -5.3425 -1.8570 0.9731
-3.6121 -5.4755 -1.8570 0.9731
-3.4605 -6.1656 -2.0016 0.9710
-3.2373 -6.2856 -2.0016 0.9710
-2.7787 -6.5014 -2.0016 0.9710
-2.5439 -6.5968 -2.0016 0.9710
-2.0648 -6.7621 -2.0016 0.9710
-1.5750 -6.8927 -2.0016 0.9710
-1.3269 -6.9447 -2.0016 0.9710
-0.3208 -7.0630 -2.0016 0.9710
-0.0675 -7.0700 -2.0016 0.9710
0.4392 -7.0567 -2.0016 0.9710
0.6918 -7.0364 -2.0016 0.9710
0.9436 -7.0071 -2.0016 0.9710
1.1942 -6.9688 -2.0016 0.9710
1.4432 -6.9215 -2.0016 0.9710
1.6903 -6.8653 -2.0016 0.9710
1.9353 -6.8003 -2.0016 0.9710
2.1778 -6.7266 -2.0016 0.9710
2.4175 -6.6442 -2.0016 0.9710
2.1980 -4.0975 -1.3163 0.9809
2.3893 -4.0946 -1.3421 0.9805
3.7800 -5.9750 -2.0016 0.9710
4.1983 -5.6889 -2.0016 0.9710
4.5951 -5.3735 -2.0016 0.9710
4.9683 -5.0305 -2.0016 0.9710
5.1454 -4.8492 -2.0016 0.9710
5.3159 -4.6616 -2.0016 0.9710
5.6362 -4.2688 -2.0016 0.9710
6.0619 -3.6392 -2.0016 0.9710
6.3070 -3.1955 -2.0016 0.9710
6.5197 -2.7355 -2.0016 0.9710
6.6136 -2.5001 -2.0016 0.9710
6.7757 -2.0198 -2.0016 0.9710
6.8437 -1.7757 -2.0016 0.9710
6.9533 -1.2808 -2.0016 0.9710
6.9948 -1.0308 -2.0016 0.9710
7.0272 -0.7794 -2.0016 0.9710
7.0507 -0.5270 -2.0016 0.9710
7.0703 -0.0205 -2.0016 0.9710
7.0665 0.2329 -2.0016 0.9710
7.0536 0.4860 -2.0016 0.9710
7.0317 0.7385 -2.0016 0.9710
6.9117 1.4891 -2.0016 0.9710
6.6280 2.4616 -2.0016 0.9710
6.4346 2.9301 -2.0016 0.9710
6.3255 3.1588 -2.0016 0.9710
6.0829 3.6039 -2.0016 0.9710
5.9498 3.8196 -2.0016 0.9710
5.8091 4.0304 -2.0016 0.9710
5.3429 4.6307 -2.0016 0.9710
4.9974 5.0015 -2.0016 0.9710
4.6263 5.3467 -2.0016 0.9710
4.4317 5.5091 -2.0016 0.9710
4.2313 5.6644 -2.0016 0.9710
-1.9799 6.1990 -2.0016 0.9731
-2.6338 5.9506 -2.0016 0.9731
-3.0534 5.7467 -2.0016 0.9731
-3.4572 5.5132 -2.0016 0.9731
-3.8433 5.2513 -2.0016 0.9731
-4.2096 4.9625 -2.0016 0.9731
-4.3848 4.8084 -2.0016 0.9731
-4.5543 4.6482 -2.0016 0.9731
-5.1719 3.9496 -2.0016 0.9731
-5.5659 3.3716 -2.0016 0.9731
-5.6832 3.1699 -2.0016 0.9731
-5.8957 2.7546 -2.0016 0.9731
-5.9906 2.5415 -2.0016 0.9731
-6.2289 1.8838 -2.0016 0.9731
-6.2924 1.6593 -2.0016 0.9731
-6.3478 1.4327 -2.0016 0.9731
-6.3951 1.2043 -2.0016 0.9731
-6.4341 0.9743 -2.0016 0.9731
-6.4649 0.7430 -2.0016 0.9731
-6.4874 0.5108 -2.0016 0.9731
-6.5073 0.0447 -2.0016 0.9731
-6.4745 -0.6540 -2.0016 0.9731
-6.4469 -0.8857 -2.0016 0.9731
-6.4110 -1.1162 -2.0016 0.9731
-6.3146 -1.5726 -2.0016 0.9731
-6.1857 -2.0210 -2.0016 0.9731
-5.5898 -2.2813 -1.8570 0.9751
-5.4120 -2.6759 -1.8570 0.9751
-5.3126 -2.8682 -1.8570 0.9751
-4.8482 -3.5979 -1.8570 0.9751
-4.4340 -4.0976 -1.8570 0.9751
-4.1290 -4.4047 -1.8570 0.9751
-3.9685 -4.5499 -1.8570 0.9751
-3.8029 -4.6892 -1.8570 0.9751
-3.4572 -4.9496 -1.8570 0.9751
-3.2775 -5.0703 -1.8570 0.9751
-3.0937 -5.1845 -1.8570 0.9751
-2.7143 -5.3929 -1.8570 0.9751
-2.3210 -5.5735 -1.8570 0.9751
-1.8424 -6.2412 -2.0016 0.9731
-1.6175 -6.3032 -2.0016 0.9731
-1.1618 -6.4029 -2.0016 0.9731
-0.9315 -6.4405 -2.0016 0.9731
-0.7001 -6.4697 -2.0016 0.9731
-0.2348 -6.5032 -2.0016 0.9731
0.2317 -6.5034 -2.0016 0.9731
0.4646 -6.4909 -2.0016 0.9731
1.1587 -6.4035 -2.0016 0.9731
1.3875 -6.3578 -2.0016 0.9731
1.6145 -6.3040 -2.0016 0.9731
1.8394 -6.2421 -2.0016 0.9731
2.3183 -5.5746 -1.8570 0.9751
2.5167 -5.4879 -1.8570 0.9751
2.2391 -4.0824 -1.4321 0.9807
3.7238 -5.3367 -2.0016 0.9731
3.9127 -5.1998 -2.0016 0.9731
4.0965 -5.0563 -2.0016 0.9731
4.2751 -4.9062 -2.0016 0.9731
4.6156 -4.5873 -2.0016 0.9731
4.7771 -4.4189 -2.0016 0.9731
4.9324 -4.2448 -2.0016 0.9731
5.0814 -4.0653 -2.0016 0.9731
5.3596 -3.6908 -2.0016 0.9731
5.4884 -3.4964 -2.0016 0.9731
5.7248 -3.0942 -2.0016 0.9731
5.8320 -2.8870 -2.0016 0.9731
5.9318 -2.6761 -2.0016 0.9731
6.2533 -1.8009 -2.0016 0.9731
6.3663 -1.3483 -2.0016 0.9731
6.4465 -0.8888 -2.0016 0.9731
6.4742 -0.6571 -2.0016 0.9731
6.4936 -0.4247 -2.0016 0.9731
6.5047 -0.1916 -2.0016 0.9731
6.4876 0.5077 -2.0016 0.9731
6.4653 0.7399 -2.0016 0.9731
6.3485 1.4297 -2.0016 0.9731
6.2932 1.6563 -2.0016 0.9731
6.1583 2.1029 -2.0016 0.9731
5.8970 2.7518 -2.0016 0.9731
5.7946 2.9614 -2.0016 0.9731
5.3119 3.7591 -2.0016 0.9731
5.1737 3.9471 -2.0016 0.9731
5.0290 4.1300 -2.0016 0.9731
4.8777 4.3076 -2.0016 0.9731
4.5566 4.6460 -2.0016 0.9731
4.2120 4.9605 -2.0016 0.9731
3.8458 5.2495 -2.0016 0.9731
3.4599 5.5115 -2.0016 0.9731
