ply
format ascii 1.0
element vertex 1534
property float32 x
property float32 y
property float32 z
property float32 I
end_header
30.0595 28.0782 3.4821 0.8478
3.3278 24.1198 2.0612 0.9069
2.3178 22.8278 1.9424 0.9120
1.4923 22.8301 1.9368 0.9122
0.3985 13.5681 1.1491 0.9470
-1.0660 13.5722 1.1525 0.9468
-1.5582 13.5735 1.1566 0.9466
-2.0605 13.6139 1.1656 0.9462
-2.5738 13.6686 1.1774 0.9457
-3.0933 13.7018 1.1891 0.9452
-4.7212 13.7936 1.2342 0.9432
-5.3048 13.8537 1.2558 0.9422
-6.0490 14.2435 1.3100 0.9398
-8.7017 15.5804 1.5107 0.9309
-9.2556 15.2579 1.5107 0.9309
-11.3446 13.7757 1.5107 0.9309
-11.8319 13.3595 1.5107 0.9309
-17.0780 15.5382 1.9545 0.9115
-18.5916 15.7330 2.0617 0.9069
-20.0159 15.7405 2.1556 0.9028
-21.8135 15.9206 2.2861 0.8973
-22.8998 14.3141 2.2861 0.8973
-32.0581 -23.2030 3.3500 0.8531
-26.8342 -22.5258 2.9659 0.8688
-24.8765 -22.4535 2.8368 0.8741
-23.0527 -22.3607 2.7187 0.8790
-21.4588 -22.3651 2.6238 0.8830
-19.9706 -22.3693 2.5385 0.8866
-18.5744 -22.3731 2.4616 0.8898
-17.0087 -22.0528 2.3576 0.8942
-15.9762 -22.3282 2.3242 0.8956
-14.8304 -22.3835 2.2730 0.8978
-11.6749 -22.5679 2.1509 0.9030
-9.6174 -22.3980 2.0635 0.9068
-8.6798 -22.4006 2.0337 0.9081
-7.7660 -22.3982 2.0068 0.9092
-5.1519 -22.4055 1.9462 0.9118
-4.3117 -22.4078 1.9317 0.9125
-3.4829 -22.4101 1.9199 0.9130
-1.8501 -22.4146 1.9039 0.9137
-0.2360 -22.4191 1.8979 0.9139
32.9205 -30.9965 3.8277 0.8340
39.2259 -25.4611 3.9588 0.8288
7.5992 16.7388 1.1399 0.9290
3.3708 24.1197 1.5102 0.9070
1.5325 22.8299 1.4189 0.9124
0.4222 13.5680 0.8418 0.9471
-0.0652 13.5694 0.8415 0.9471
-0.5529 13.5707 0.8422 0.9470
-1.0421 13.5721 0.8441 0.9469
-2.5319 13.5762 0.8564 0.9462
-3.0403 13.5776 0.8628 0.9458
-4.0839 13.5805 0.8794 0.9448
-4.6223 13.5820 0.8897 0.9441
-5.1741 13.5836 0.9014 0.9434
-10.7144 17.7329 1.2848 0.9203
-13.2105 16.0988 1.2914 0.9199
-13.2423 13.9607 1.1932 0.9258
-14.2317 13.9635 1.2364 0.9232
-15.4738 14.1282 1.2993 0.9195
-16.8472 14.3075 1.3706 0.9152
-20.1433 14.7557 1.5484 0.9048
-20.0409 -22.3691 1.8624 0.8866
-15.7644 -18.9210 1.5272 0.9060
-14.7584 -19.0660 1.4951 0.9079
-14.7025 -22.1066 1.6463 0.8991
-13.4950 -21.9622 1.5984 0.9019
-11.6338 -22.3924 1.5648 0.9038
-9.6638 -22.3979 1.5127 0.9069
-8.7249 -22.4005 1.4907 0.9082
-7.8099 -22.3981 1.4709 0.9093
-6.9192 -22.4005 1.4538 0.9103
-6.0479 -22.4030 1.4389 0.9112
-4.3451 -22.3704 1.4131 0.9127
-1.8896 -22.4145 1.3949 0.9138
-1.0811 -22.4168 1.3917 0.9140
-0.2753 -22.4190 1.3903 0.9141
1.3369 -22.4235 1.3930 0.9139
2.2399 -4.1942 0.2948 0.9811
33.2461 -36.2709 3.0511 0.8210
32.7676 -30.9608 2.7955 0.8347
37.0694 -26.0965 2.8112 0.8339
44.2066 12.9251 2.8560 0.8315
34.6379 14.3269 2.3244 0.8605
34.5895 15.7842 2.3577 0.8587
35.0527 20.8143 2.5280 0.8493
31.3755 29.3075 2.6624 0.8419
7.5766 16.7670 1.1410 0.9289
3.3296 24.1333 1.5107 0.9070
2.3178 22.8278 1.4228 0.9121
0.3985 13.5681 0.8417 0.9471
-0.0889 13.5694 0.8415 0.9471
-0.5767 13.5708 0.8423 0.9470
-1.0660 13.5722 0.8442 0.9469
-2.0546 13.5749 0.8514 0.9465
-2.5565 13.5763 0.8567 0.9461
-3.0653 13.5777 0.8631 0.9457
-3.5826 13.5791 0.8709 0.9453
-4.1099 13.5806 0.8799 0.9447
-4.6489 13.5821 0.8902 0.9441
-5.2014 13.5836 0.9020 0.9434
-6.0490 14.2435 0.9596 0.9399
-6.5239 13.9472 0.9548 0.9402
-9.9026 17.7306 1.2593 0.9218
-10.7569 17.7330 1.2861 0.9202
-11.6496 17.7354 1.3158 0.9185
-12.5856 17.7380 1.3487 0.9165
-13.2072 17.2653 1.3480 0.9166
-13.2889 13.9608 1.1952 0.9257
-26.8342 -22.5258 2.1726 0.8690
-24.7684 -22.3559 2.0690 0.8748
-21.4588 -22.3651 1.9220 0.8832
-11.5842 -22.3926 1.5634 0.9039
-10.5842 -22.3953 1.5360 0.9055
-8.6798 -22.4006 1.4897 0.9082
-7.7660 -22.3982 1.4700 0.9094
-5.1284 -22.3032 1.4191 0.9124
-3.4829 -22.4101 1.4063 0.9131
-2.6631 -22.4124 1.3996 0.9135
-1.8501 -22.4146 1.3947 0.9138
2.2475 -4.1906 0.2949 0.9811
33.3094 -36.2125 3.0510 0.8210
32.7653 -30.8503 2.7907 0.8350
37.0683 -25.9988 2.8076 0.8341
7.5983 16.7370 0.7248 0.9291
1.5325 22.8299 0.9022 0.9125
0.4937 15.8630 0.6258 0.9384
-0.6464 15.8662 0.6261 0.9384
-1.2184 15.8677 0.6275 0.9383
-2.3737 15.8709 0.6328 0.9378
-2.9601 15.8726 0.6367 0.9374
-4.7747 15.8776 0.6538 0.9358
-6.4941 13.9471 0.6066 0.9403
-9.8619 17.7305 0.8000 0.9220
-10.7144 17.7329 0.8169 0.9204
-11.6051 17.7353 0.8357 0.9187
-12.5389 17.7379 0.8565 0.9167
-13.2047 17.3248 0.8589 0.9165
-13.2136 14.9723 0.7874 0.9232
-13.2423 13.9607 0.7587 0.9259
-17.4041 15.8906 0.9293 0.9100
-15.9602 13.5542 0.8256 0.9196
-19.9860 13.5654 0.9525 0.9078
-23.0872 -22.3160 1.2661 0.8794
-15.7644 -18.9210 0.9711 0.9061
-13.9627 -20.9941 0.9942 0.9040
-13.4950 -21.9622 1.0164 0.9020
-12.6733 -22.3895 1.0145 0.9021
-11.7249 -22.5678 1.0028 0.9032
-10.6321 -22.3952 0.9775 0.9055
-7.8099 -22.3981 0.9353 0.9094
-6.9362 -22.4555 0.9267 0.9102
-4.3726 -22.5119 0.9043 0.9123
-2.7029 -22.4123 0.8901 0.9136
-1.9029 -22.5713 0.8932 0.9133
1.3369 -22.4235 0.8858 0.9140
2.2399 -4.1941 0.1875 0.9811
32.8851 -33.3868 1.8478 0.8289
32.8050 -30.9961 1.7796 0.8347
34.1224 -29.9966 1.7915 0.8337
32.6262 -26.6667 1.6615 0.8448
37.1997 -26.1882 1.7938 0.8335
39.0754 -25.4607 1.8390 0.8297
34.4990 -3.8313 1.3687 0.8703
44.9897 13.1540 1.8483 0.8289
39.5474 13.1216 1.6430 0.8464
35.4166 13.1806 1.4901 0.8596
35.0436 17.5381 1.5452 0.8548
35.1793 19.2154 1.5806 0.8517
35.1839 20.8922 1.6135 0.8489
35.0680 26.3058 1.7286 0.8390
7.5752 16.7640 0.7254 0.9290
0.4659 15.8631 0.6258 0.9384
-0.1040 15.8647 0.6256 0.9385
-4.1886 15.8760 0.6474 0.9364
-6.0448 15.7861 0.6665 0.9346
-7.1460 13.9489 0.6180 0.9392
-10.7569 17.7330 0.8178 0.9203
-11.6496 17.7354 0.8367 0.9186
-13.2106 16.0417 0.8194 0.9202
-13.2889 13.9608 0.7600 0.9257
-14.2817 13.9636 0.7876 0.9232
-18.5811 13.5615 0.9071 0.9120
-20.0618 13.5656 0.9549 0.9076
-26.6257 -22.3508 1.3707 0.8701
-21.4588 -22.3651 1.2222 0.8833
-16.8893 -18.9179 1.0000 0.9035
-15.7086 -18.9212 0.9697 0.9062
-13.9585 -19.5083 0.9459 0.9084
-13.3891 -21.8756 1.0113 0.9024
-12.6217 -22.3897 1.0135 0.9022
-11.6749 -22.5679 1.0019 0.9033
-10.5842 -22.3953 0.9767 0.9056
-8.6798 -22.4006 0.9473 0.9083
-7.7660 -22.3982 0.9348 0.9095
-6.8932 -22.4556 0.9262 0.9103
-6.0059 -22.4031 0.9146 0.9113
-5.1284 -22.3032 0.9024 0.9125
-4.3318 -22.5120 0.9040 0.9123
-3.4829 -22.4101 0.8943 0.9132
-2.6631 -22.4124 0.8900 0.9136
-1.8646 -22.5902 0.8938 0.9133
1.3763 -22.4236 0.8858 0.9140
2.2474 -4.1906 0.1875 0.9811
33.1348 -36.0226 1.9299 0.8221
32.8876 -33.2727 1.8447 0.8292
32.6265 -26.5718 1.6592 0.8450
37.1949 -26.0876 1.7914 0.8337
39.2259 -25.4611 1.8440 0.8293
7.5975 16.7351 0.3105 0.9291
3.5713 14.1877 0.2471 0.9432
2.9036 13.5776 0.2345 0.9460
-1.2184 15.8677 0.2688 0.9383
-1.3769 12.1827 0.2071 0.9521
-3.5546 15.8742 0.2748 0.9370
-3.7043 12.3182 0.2173 0.9498
-4.1090 12.0736 0.2154 0.9503
-6.1628 12.0818 0.2291 0.9472
-9.8619 17.7305 0.3427 0.9220
-10.7144 17.7329 0.3500 0.9205
-8.0929 12.3679 0.2497 0.9426
-13.2136 14.9723 0.3373 0.9232
-17.4040 15.8906 0.3981 0.9100
-18.7156 15.8942 0.4148 0.9064
-20.1437 15.8982 0.4335 0.9024
-33.2588 24.3633 0.6964 0.8479
-26.8978 -22.4991 0.5923 0.8691
-20.0409 -22.3691 0.5073 0.8868
-18.6405 -22.3730 0.4919 0.8900
-16.1985 -22.5554 0.4691 0.8949
-14.7407 -22.1640 0.4496 0.8990
-8.7249 -22.4005 0.4061 0.9083
-7.8099 -22.3981 0.4007 0.9095
-6.9734 -22.5760 0.3991 0.9098
-5.1695 -22.3031 0.3867 0.9125
-4.3726 -22.5119 0.3874 0.9123
-2.7029 -22.4123 0.3813 0.9136
-1.9029 -22.5713 0.3826 0.9134
-1.0811 -22.4168 0.3791 0.9141
-0.2753 -22.4190 0.3787 0.9142
0.4103 -17.3552 0.2932 0.9329
1.3369 -22.4235 0.3794 0.9141
33.0145 -36.0182 0.8253 0.8225
32.8819 -33.3836 0.7915 0.8291
32.6262 -26.6667 0.7118 0.8449
39.0754 -25.4607 0.7878 0.8298
34.3741 -3.8175 0.5842 0.8708
45.8366 13.4017 0.8067 0.8261
36.0731 13.4249 0.6502 0.8573
36.0460 14.9093 0.6589 0.8555
35.2978 17.6653 0.6667 0.8539
35.1992 26.4043 0.7433 0.8386
27.9831 22.6058 0.6077 0.8660
7.5741 16.7615 0.3107 0.9291
0.8328 12.7406 0.2157 0.9502
0.3647 12.4194 0.2099 0.9515
-0.1040 15.8647 0.2680 0.9385
-1.4063 12.2504 0.2083 0.9519
-1.8368 12.1360 0.2073 0.9521
-2.3104 12.2696 0.2109 0.9513
-4.1886 15.8760 0.2774 0.9364
-6.0490 14.2435 0.2614 0.9400
-6.1825 12.0682 0.2290 0.9472
-10.7569 17.7330 0.3503 0.9204
-8.7340 12.3096 0.2550 0.9414
-13.2072 17.2653 0.3672 0.9167
-10.3460 12.5632 0.2749 0.9370
-13.2137 14.9197 0.3367 0.9234
-13.2889 13.9608 0.3256 0.9258
-12.6528 12.3710 0.2989 0.9317
-17.4655 15.8908 0.3989 0.9099
-14.4903 12.2623 0.3206 0.9269
-20.2166 15.8984 0.4344 0.9022
-33.2640 22.4928 0.6783 0.8516
-26.8342 -22.5258 0.5918 0.8692
-23.0526 -22.3607 0.5425 0.8794
-21.4588 -22.3651 0.5236 0.8834
-17.1079 -19.1628 0.4338 0.9023
-17.0088 -22.0528 0.4704 0.8946
-16.1389 -22.5555 0.4685 0.8950
-14.6784 -22.1543 0.4489 0.8991
-12.6217 -22.3897 0.4342 0.9023
-11.6749 -22.5679 0.4292 0.9033
-10.5842 -22.3953 0.4184 0.9057
-8.6798 -22.4006 0.4058 0.9084
-7.7660 -22.3982 0.4004 0.9095
-6.9166 -22.5320 0.3981 0.9100
-5.1284 -22.3032 0.3866 0.9125
-2.6631 -22.4124 0.3812 0.9137
-1.0418 -22.4169 0.3791 0.9141
0.5727 -22.5528 0.3811 0.9137
1.3763 -22.4236 0.3795 0.9140
2.2474 -4.1906 0.0803 0.9812
33.1366 -36.0246 0.8268 0.8222
32.8845 -33.2695 0.7902 0.8293
32.8986 -30.9758 0.7633 0.8346
33.6419 -25.4456 0.7126 0.8447
37.1967 -26.0888 0.7675 0.8338
39.2259 -25.4611 0.7899 0.8294
34.4739 -3.7675 0.5858 0.8705
7.5967 16.7333 -0.1034 0.9291
2.3374 13.2380 -0.0757 0.9476
1.8726 13.3997 -0.0762 0.9473
1.3100 12.6812 -0.0718 0.9503
0.8484 12.6386 -0.0713 0.9506
-1.3615 12.0464 -0.0683 0.9527
-1.8203 12.1713 -0.0693 0.9520
-3.6334 12.0825 -0.0710 0.9508
-4.5479 11.9395 -0.0719 0.9502
-5.5562 11.9328 -0.0741 0.9487
-6.1616 12.0795 -0.0763 0.9472
-6.6508 11.9574 -0.0770 0.9467
-7.4238 12.2867 -0.0808 0.9442
-7.9936 12.2161 -0.0822 0.9433
-9.9891 12.1731 -0.0887 0.9390
-10.6295 12.0443 -0.0904 0.9378
-11.5343 12.1601 -0.0944 0.9352
-14.4105 12.2381 -0.1064 0.9272
-17.7394 12.0405 -0.1207 0.9178
-22.4400 11.9282 -0.1431 0.9033
-26.8978 -22.4991 -0.1974 0.8691
-18.6405 -22.3730 -0.1640 0.8900
-17.0703 -22.0527 -0.1570 0.8944
-14.7407 -22.1640 -0.1499 0.8990
-13.4950 -21.9622 -0.1451 0.9020
-12.6733 -22.3895 -0.1449 0.9022
-10.6321 -22.3952 -0.1396 0.9056
-8.7249 -22.4005 -0.1353 0.9083
-6.9734 -22.5760 -0.1330 0.9098
-6.0479 -22.4030 -0.1306 0.9114
-5.1695 -22.3031 -0.1289 0.9125
-1.9029 -22.5713 -0.1275 0.9134
-1.0811 -22.4168 -0.1264 0.9141
-0.2753 -22.4190 -0.1262 0.9142
0.4103 -17.3550 -0.0977 0.9329
1.3369 -22.4235 -0.1265 0.9141
32.8788 -33.3804 -0.2638 0.8291
32.6262 -26.6667 -0.2372 0.8449
39.0754 -25.4607 -0.2626 0.8298
34.3926 -3.8195 -0.1948 0.8707
45.8366 13.4017 -0.2689 0.8261
36.0460 14.9093 -0.2196 0.8555
36.0150 16.4347 -0.2229 0.8535
34.1329 18.6439 -0.2190 0.8559
35.1939 24.4761 -0.2414 0.8424
35.1992 26.4043 -0.2477 0.8386
27.9796 22.6030 -0.2025 0.8660
7.5732 16.7594 -0.1035 0.9291
2.8742 13.5559 -0.0780 0.9461
1.2880 12.6851 -0.0718 0.9503
-0.5273 12.4085 -0.0699 0.9515
-3.2282 12.2359 -0.0712 0.9506
-3.6988 12.2223 -0.0719 0.9502
-4.5744 11.9462 -0.0720 0.9501
-6.1787 12.0608 -0.0763 0.9472
-10.6274 11.9995 -0.0902 0.9379
-14.3935 12.1803 -0.1062 0.9274
-15.2536 11.9955 -0.1093 0.9253
-19.0499 11.9076 -0.1265 0.9141
-20.7092 11.9327 -0.1346 0.9088
-26.8342 -22.5258 -0.1973 0.8692
-24.8765 -22.4535 -0.1887 0.8745
-23.0527 -22.3607 -0.1808 0.8794
-18.5744 -22.3731 -0.1637 0.8902
-14.6784 -22.1543 -0.1496 0.8992
-13.3891 -21.8756 -0.1444 0.9025
-12.6217 -22.3897 -0.1447 0.9023
-10.5842 -22.3953 -0.1395 0.9057
-9.6927 -22.5734 -0.1383 0.9064
-6.9166 -22.5320 -0.1327 0.9100
-6.0059 -22.4031 -0.1306 0.9114
-2.6631 -22.4124 -0.1271 0.9137
-0.2360 -22.4191 -0.1262 0.9142
0.5727 -22.5528 -0.1270 0.9137
1.3763 -22.4236 -0.1265 0.9141
33.1385 -36.0267 -0.2756 0.8222
32.6265 -26.5718 -0.2369 0.8451
33.6419 -25.4456 -0.2375 0.8447
39.2259 -25.4611 -0.2633 0.8294
34.4501 -3.7649 -0.1951 0.8706
4.6225 15.9248 -0.4669 0.9358
2.2992 13.0218 -0.3723 0.9485
1.7869 12.7865 -0.3635 0.9496
1.3121 12.7010 -0.3595 0.9502
0.8413 12.5340 -0.3537 0.9510
0.3781 12.1511 -0.3423 0.9525
-0.4862 11.9350 -0.3363 0.9533
-0.9207 11.9909 -0.3386 0.9530
-1.8348 12.2682 -0.3493 0.9516
-2.2224 11.9170 -0.3413 0.9526
-2.7090 12.0981 -0.3491 0.9516
-3.1478 12.0163 -0.3498 0.9515
-4.0530 11.9093 -0.3542 0.9509
-4.5276 11.8863 -0.3582 0.9504
-5.0345 11.9124 -0.3642 0.9496
-6.6180 11.8984 -0.3834 0.9470
-7.2047 11.9241 -0.3923 0.9458
-8.3010 11.7428 -0.4049 0.9441
-9.0156 11.8286 -0.4188 0.9422
-9.7627 11.8972 -0.4333 0.9403
-15.1725 11.9748 -0.5443 0.9256
-17.5918 11.9403 -0.5987 0.9184
-18.7640 11.7746 -0.6238 0.9152
-20.5128 11.8674 -0.6673 0.9095
-22.3220 11.8655 -0.7118 0.9038
-24.3585 11.8465 -0.7627 0.8973
-26.6741 -22.3120 -0.9792 0.8701
-17.0703 -22.0527 -0.7853 0.8944
-16.1985 -22.5554 -0.7819 0.8948
-14.7407 -22.1639 -0.7493 0.8990
-13.4950 -21.9622 -0.7258 0.9020
-10.5620 -22.2474 -0.6934 0.9062
-6.8965 -22.3269 -0.6580 0.9107
-4.3726 -22.5119 -0.6457 0.9123
-3.5181 -22.3785 -0.6379 0.9133
-2.6998 -22.3869 -0.6349 0.9137
-1.0803 -22.3987 -0.6314 0.9142
-0.2751 -22.4022 -0.6308 0.9143
0.4103 -17.3549 -0.4888 0.9329
1.3358 -22.4043 -0.6320 0.9141
32.6262 -26.6667 -1.1865 0.8448
33.5194 -25.4452 -1.1850 0.8450
34.4578 -3.8268 -0.9762 0.8705
45.1590 13.2036 -1.3248 0.8284
35.5316 13.2234 -1.0675 0.8592
33.6613 21.6595 -1.1271 0.8520
34.9725 24.3221 -1.1995 0.8433
34.9778 26.2382 -1.2312 0.8395
34.5228 34.6505 -1.3773 0.8222
4.3702 15.1546 -0.4441 0.9388
2.8116 13.2608 -0.3817 0.9472
2.2794 13.0428 -0.3728 0.9484
1.2883 12.6886 -0.3591 0.9502
-0.0796 12.1479 -0.3421 0.9526
-0.5071 11.9346 -0.3364 0.9533
-0.9431 12.0080 -0.3392 0.9529
-2.2406 11.8988 -0.3409 0.9527
-3.1704 12.0167 -0.3499 0.9515
-3.5690 11.7933 -0.3469 0.9519
-5.1008 12.0107 -0.3674 0.9491
-6.0273 11.7653 -0.3722 0.9485
-6.6631 11.9303 -0.3848 0.9468
-7.1879 11.8494 -0.3902 0.9461
-9.7784 11.8740 -0.4331 0.9403
-11.2937 11.8647 -0.4612 0.9366
-13.0425 11.8665 -0.4965 0.9319
-14.0537 11.8928 -0.5184 0.9290
-17.6121 11.9092 -0.5987 0.9184
-20.5926 11.8655 -0.6692 0.9093
-22.4818 11.9000 -0.7163 0.9032
-24.5693 11.8960 -0.7686 0.8965
-24.6941 -22.2889 -0.9367 0.8754
-22.9586 -22.2695 -0.9006 0.8799
-18.4500 -22.2233 -0.8133 0.8908
-17.0088 -22.0528 -0.7842 0.8945
-16.1388 -22.5555 -0.7809 0.8950
-14.6784 -22.1543 -0.7483 0.8991
-12.5271 -22.2219 -0.7183 0.9030
-11.4974 -22.2248 -0.7046 0.9047
-9.5638 -22.2731 -0.6825 0.9076
-5.9899 -22.3433 -0.6514 0.9116
-4.3318 -22.5120 -0.6455 0.9123
-3.4781 -22.3789 -0.6377 0.9134
0.5689 -22.4041 -0.6311 0.9142
1.3751 -22.4043 -0.6320 0.9141
2.2474 -4.1905 -0.1339 0.9812
33.0854 -35.9690 -1.3761 0.8224
32.8224 -33.2067 -1.3147 0.8296
32.8326 -30.9137 -1.2698 0.8349
34.1829 -29.9438 -1.2796 0.8337
33.6419 -25.4456 -1.1877 0.8447
37.1410 -26.0498 -1.2774 0.8340
18.8521 34.6739 -2.0016 0.8538
15.0141 36.5000 -2.0016 0.8538
12.3560 37.4834 -2.0016 0.8538
4.4377 15.2882 -0.8073 0.9382
2.8116 13.1474 -0.6818 0.9476
2.3424 13.2664 -0.6832 0.9475
1.8168 13.0002 -0.6657 0.9488
0.8202 12.2196 -0.6211 0.9521
0.3848 12.3651 -0.6274 0.9517
-0.4832 11.8614 -0.6020 0.9536
-1.3422 11.8755 -0.6061 0.9533
-2.2605 12.1214 -0.6253 0.9518
-4.1456 12.1813 -0.6526 0.9498
-6.1000 11.9587 -0.6808 0.9477
-6.6614 11.9764 -0.6950 0.9466
-8.3711 11.8420 -0.7355 0.9436
-10.5158 11.9154 -0.8060 0.9383
-11.2589 11.8696 -0.8297 0.9366
-12.1470 11.9181 -0.8630 0.9341
-13.0081 11.8769 -0.8933 0.9319
-13.9730 11.8666 -0.9297 0.9292
-16.2428 11.8984 -1.0211 0.9225
-17.2935 11.7378 -1.0600 0.9197
-18.8585 11.8339 -1.1291 0.9147
-20.6296 11.9350 -1.2087 0.9090
-22.3522 11.8815 -1.2838 0.9036
-33.3451 14.7611 -1.8494 0.8641
-36.6398 14.6698 -2.0016 0.8538
-37.5981 12.0025 -2.0016 0.8538
-38.6707 7.8899 -2.0016 0.8538
-38.9291 6.4962 -2.0016 0.8538
-39.1372 5.0942 -2.0016 0.8538
-39.2949 3.6857 -2.0016 0.8538
-39.4020 2.2724 -2.0016 0.8538
-39.4634 -0.5612 -2.0016 0.8538
-39.1742 -4.8016 -2.0016 0.8538
-38.9766 -6.2051 -2.0016 0.8538
-38.4307 -8.9863 -2.0016 0.8538
-37.2416 -13.0668 -2.0016 0.8538
-36.7484 -14.3955 -2.0016 0.8538
-36.2078 -15.7058 -2.0016 0.8538
-34.9873 -18.2638 -2.0016 0.8538
-34.3090 -19.5083 -2.0016 0.8538
-31.0324 -19.1514 -1.8494 0.8641
-22.8961 -16.5107 -1.4316 0.8931
-28.7931 -22.3774 -1.8494 0.8641
-18.6405 -22.3730 -1.4768 0.8899
-10.6321 -22.3952 -1.2573 0.9055
-7.8099 -22.3981 -1.2030 0.9094
-6.9192 -22.4005 -1.1890 0.9104
-6.0479 -22.4030 -1.1768 0.9112
-5.1932 -22.4053 -1.1664 0.9120
-2.7029 -22.4123 -1.1449 0.9136
-1.8896 -22.4145 -1.1408 0.9138
-1.0811 -22.4168 -1.1382 0.9140
1.3369 -22.4235 -1.1392 0.9140
7.3593 -35.7160 -1.8494 0.8641
9.3478 -38.3444 -2.0016 0.8538
12.0755 -37.5747 -2.0016 0.8538
13.4168 -37.1169 -2.0016 0.8538
17.3304 -35.4589 -2.0016 0.8538
2.2398 -4.1940 -0.2411 0.9811
21.0429 -33.3897 -2.0016 0.8538
23.3849 -31.7934 -2.0016 0.8538
25.6063 -30.0332 -2.0016 0.8538
26.6362 -29.0597 -1.9992 0.8539
26.9852 -25.4972 -1.8828 0.8618
27.3881 -24.0766 -1.8494 0.8641
30.5528 -19.9075 -1.8494 0.8641
31.9028 -17.6636 -1.8494 0.8641
32.6510 -16.5750 -1.8570 0.8636
36.3839 -15.2935 -2.0016 0.8538
36.9095 -13.9772 -2.0016 0.8538
37.8174 -11.2923 -2.0016 0.8538
38.1985 -9.9272 -2.0016 0.8538
38.5303 -8.5492 -2.0016 0.8538
38.8125 -7.1602 -2.0016 0.8538
34.0681 -3.7835 -1.7384 0.8717
36.1162 -2.7025 -1.8367 0.8650
39.4377 -1.5300 -2.0016 0.8538
39.4672 -0.1129 -2.0016 0.8538
39.3736 2.7198 -2.0016 0.8538
38.8528 6.9380 -2.0016 0.8538
38.1487 8.2357 -1.9793 0.8553
35.3458 8.9702 -1.8494 0.8641
35.0009 10.2335 -1.8494 0.8641
34.6109 11.4836 -1.8494 0.8641
33.6975 13.9379 -1.8494 0.8641
32.0033 17.4807 -1.8494 0.8641
29.6403 17.6004 -1.7482 0.8710
29.1711 21.8823 -1.8494 0.8641
27.2684 25.4711 -1.8924 0.8612
23.5664 31.6591 -2.0016 0.8538
22.4145 32.4848 -2.0016 0.8538
21.2337 33.2687 -2.0016 0.8538
20.0254 34.0097 -2.0016 0.8538
18.7913 34.7068 -2.0016 0.8538
17.5330 35.3592 -2.0016 0.8538
7.5712 16.7552 -0.9325 0.9290
14.9502 36.5262 -2.0016 0.8538
13.6291 37.0395 -2.0016 0.8538
12.2903 37.5050 -2.0016 0.8538
4.3044 14.9264 -0.7878 0.9397
3.3088 13.2427 -0.6922 0.9468
2.7948 13.1815 -0.6834 0.9475
2.2426 12.8322 -0.6606 0.9492
1.7636 12.7827 -0.6544 0.9496
1.2701 12.5092 -0.6377 0.9509
0.8014 12.2607 -0.6231 0.9520
-0.0798 12.1711 -0.6173 0.9524
-0.5054 11.8935 -0.6037 0.9534
-0.9312 11.8561 -0.6031 0.9535
-1.3688 11.9234 -0.6087 0.9531
-1.8066 11.9363 -0.6122 0.9528
-2.7261 12.0751 -0.6278 0.9516
-3.5990 11.8925 -0.6301 0.9515
-4.5811 11.9637 -0.6497 0.9500
-5.5332 11.8292 -0.6623 0.9490
-6.1207 11.9475 -0.6808 0.9477
-6.6755 11.9524 -0.6943 0.9466
-7.2800 12.0013 -0.7119 0.9453
-8.4875 11.9622 -0.7438 0.9429
-9.1112 11.9107 -0.7605 0.9417
-9.7608 11.8526 -0.7787 0.9404
-11.4752 12.0553 -0.8441 0.9355
-13.0176 11.8438 -0.8925 0.9319
-14.0931 11.9262 -0.9363 0.9287
-16.3276 11.9167 -1.0251 0.9222
-18.8850 11.8045 -1.1295 0.9147
-20.6452 11.8958 -1.2084 0.9090
-22.3671 11.8393 -1.2834 0.9036
-23.8871 11.5656 -1.3459 0.8992
-33.3709 14.7027 -1.8494 0.8641
-38.3787 9.2061 -2.0016 0.8538
-38.6845 7.8222 -2.0016 0.8538
-38.9404 6.4281 -2.0016 0.8538
-39.1461 5.0258 -2.0016 0.8538
-39.4059 2.2034 -2.0016 0.8538
-39.4596 0.7871 -2.0016 0.8538
-39.4624 -0.6303 -2.0016 0.8538
-39.3154 -3.4607 -2.0016 0.8538
-39.1658 -4.8702 -2.0016 0.8538
-38.9656 -6.2733 -2.0016 0.8538
-38.0651 -10.4270 -2.0016 0.8538
-37.2187 -13.1319 -2.0016 0.8538
-35.5907 -17.0580 -2.0016 0.8538
-34.9553 -18.3250 -2.0016 0.8538
-34.2748 -19.5683 -2.0016 0.8538
-30.9989 -19.2057 -1.8494 0.8641
-30.2893 -20.3064 -1.8494 0.8641
-28.7539 -22.4278 -1.8494 0.8641
-24.7684 -22.3559 -1.6921 0.8749
-23.0527 -22.3607 -1.6287 0.8793
-18.5744 -22.3731 -1.4747 0.8901
-16.1389 -22.5555 -1.4065 0.8949
-14.6784 -22.1543 -1.3478 0.8990
-13.3890 -21.8756 -1.3007 0.9024
-11.5842 -22.3926 -1.2786 0.9040
-10.5842 -22.3953 -1.2562 0.9056
-8.6798 -22.4006 -1.2183 0.9083
-7.7660 -22.3982 -1.2022 0.9094
-6.0059 -22.4031 -1.1763 0.9113
-5.1519 -22.4055 -1.1659 0.9120
-3.4829 -22.4101 -1.1502 0.9132
-2.6631 -22.4124 -1.1446 0.9136
-0.2360 -22.4191 -1.1370 0.9141
1.3763 -22.4236 -1.1393 0.9140
3.5395 -36.2941 -1.8494 0.8641
9.4149 -38.3280 -2.0016 0.8538
10.7850 -37.9652 -2.0016 0.8538
16.1091 -36.0302 -2.0016 0.8538
21.1013 -33.3528 -2.0016 0.8538
22.2853 -32.5736 -2.0016 0.8538
23.4405 -31.7525 -2.0016 0.8538
24.5655 -30.8903 -2.0016 0.8538
26.6777 -29.0029 -1.9985 0.8540
26.9862 -25.4090 -1.8798 0.8620
27.4302 -24.0286 -1.8494 0.8641
29.8550 -20.9396 -1.8494 0.8641
30.5876 -19.8541 -1.8494 0.8641
31.2808 -18.7430 -1.8494 0.8641
32.7411 -16.5488 -1.8605 0.8634
35.0749 -16.1744 -1.9588 0.8567
36.4106 -15.2298 -2.0016 0.8538
37.4097 -12.5775 -2.0016 0.8538
38.2158 -9.8603 -2.0016 0.8538
39.4404 -1.4610 -2.0016 0.8538
39.4674 -0.0439 -2.0016 0.8538
39.4435 1.3733 -2.0016 0.8538
39.3687 2.7887 -2.0016 0.8538
14.7268 22.9850 -2.0016 0.8963
13.0393 23.9826 -2.0016 0.8963
12.1697 24.4354 -2.0016 0.8963
2.8047 13.1151 -0.9834 0.9476
2.2974 13.0116 -0.9688 0.9484
1.7862 12.7812 -0.9462 0.9496
1.3121 12.7018 -0.9363 0.9501
-0.0580 12.0653 -0.8847 0.9528
-0.4873 11.9604 -0.8777 0.9531
-1.8191 12.1630 -0.9017 0.9519
-2.2398 12.0100 -0.8958 0.9522
-2.6639 11.8967 -0.8939 0.9523
-3.1263 11.9344 -0.9046 0.9517
-3.5564 11.8264 -0.9055 0.9517
-4.5498 11.9446 -0.9372 0.9500
-4.9758 11.7735 -0.9372 0.9500
-5.5283 11.8728 -0.9603 0.9488
-6.0668 11.8936 -0.9790 0.9479
-6.6272 11.9150 -0.9997 0.9468
-8.3201 11.7699 -1.0568 0.9438
-9.0215 11.8364 -1.0912 0.9421
-10.4717 11.8655 -1.1604 0.9385
-11.3113 11.9250 -1.2051 0.9362
-13.0162 11.8843 -1.2923 0.9317
-13.6698 11.6091 -1.3150 0.9306
-14.5769 11.5046 -1.3616 0.9282
-15.7154 11.5121 -1.4284 0.9248
-16.9730 11.5203 -1.5041 0.9210
-19.9465 11.5398 -1.6896 0.9117
-23.0636 10.2097 -1.8494 0.9038
-21.3073 8.5310 -1.6828 0.9121
-23.7369 8.5282 -1.8494 0.9038
-26.2865 7.3626 -2.0016 0.8963
-26.7471 5.4571 -2.0016 0.8963
-26.9259 4.4932 -2.0016 0.8963
-27.1789 2.5493 -2.0016 0.8963
-27.2529 1.5717 -2.0016 0.8963
-27.2918 0.5922 -2.0016 0.8963
-27.2639 -1.3680 -2.0016 0.8963
-25.1382 -3.0812 -1.8570 0.9034
-24.8523 -4.8773 -1.8570 0.9034
-26.5811 -6.2155 -2.0016 0.8963
-26.0666 -8.1071 -2.0016 0.8963
-24.6374 -11.7553 -2.0016 0.8963
-23.7303 -13.4931 -2.0016 0.8963
-23.2305 -14.3365 -2.0016 0.8963
-20.8157 -16.1775 -1.9330 0.8997
-19.3642 -16.1975 -1.8510 0.9037
-18.1353 -17.5294 -1.8494 0.9038
-14.7128 -20.4866 -1.8494 0.9038
-13.2046 -21.4897 -1.8494 0.9038
-12.4245 -21.9500 -1.8494 0.9038
-11.6289 -22.3819 -1.8494 0.9038
-10.6321 -22.3952 -1.8177 0.9054
-9.6638 -22.3979 -1.7886 0.9068
-6.9192 -22.4005 -1.7190 0.9103
-6.0479 -22.4030 -1.7014 0.9111
-5.1932 -22.4053 -1.6864 0.9119
-3.5231 -22.4100 -1.6633 0.9130
-1.8896 -22.4145 -1.6493 0.9137
0.4074 -17.2330 -1.2639 0.9332
1.3369 -22.4235 -1.6471 0.9138
2.4042 -25.1076 -1.8494 0.9038
3.3041 -25.0050 -1.8494 0.9038
4.2001 -24.8702 -1.8494 0.9038
5.0903 -24.7034 -1.8494 0.9038
5.9739 -24.5047 -1.8494 0.9038
6.8499 -24.2744 -1.8494 0.9038
9.2800 -25.6724 -2.0016 0.8963
11.0984 -24.9402 -2.0016 0.8963
11.9868 -24.5256 -2.0016 0.8963
14.5546 -23.0944 -2.0016 0.8963
16.1745 -21.9904 -2.0016 0.8963
17.7109 -20.7729 -2.0016 0.8963
19.1560 -19.4483 -2.0016 0.8963
19.8420 -18.7479 -2.0016 0.8963
21.1363 -17.2756 -2.0016 0.8963
23.8820 -13.2227 -2.0016 0.8963
24.3414 -12.3567 -2.0016 0.8963
24.7694 -11.4747 -2.0016 0.8963
25.1654 -10.5779 -2.0016 0.8963
25.8596 -8.7447 -2.0016 0.8963
26.1570 -7.8105 -2.0016 0.8963
27.1314 -3.0131 -2.0016 0.8963
27.2777 -1.0582 -2.0016 0.8963
27.2833 0.9021 -2.0016 0.8963
27.2333 1.8812 -2.0016 0.8963
27.1482 2.8578 -2.0016 0.8963
27.0281 3.8307 -2.0016 0.8963
26.2012 7.6607 -2.0016 0.8963
25.9093 8.5965 -2.0016 0.8963
25.5839 9.5213 -2.0016 0.8963
24.8346 11.3328 -2.0016 0.8963
24.4117 12.2172 -2.0016 0.8963
21.8371 16.3808 -2.0016 0.8963
20.6052 17.9058 -2.0016 0.8963
19.9490 18.6341 -2.0016 0.8963
18.5603 20.0177 -2.0016 0.8963
16.3001 21.8975 -2.0016 0.8963
14.6866 23.0108 -2.0016 0.8963
13.8509 23.5233 -2.0016 0.8963
12.9973 24.0054 -2.0016 0.8963
12.1270 24.4566 -2.0016 0.8963
4.3321 15.0225 -1.1464 0.9392
2.2632 12.9504 -0.9639 0.9486
1.2602 12.4120 -0.9148 0.9512
0.3573 12.1664 -0.8925 0.9524
-0.0795 12.1357 -0.8898 0.9525
-0.5069 11.9298 -0.8755 0.9532
-1.3747 11.9753 -0.8838 0.9528
-1.8178 12.0105 -0.8907 0.9524
-2.6795 11.8686 -0.8921 0.9524
-3.1532 11.9516 -0.9063 0.9516
-5.0701 11.9383 -0.9510 0.9493
-6.0864 11.8806 -0.9788 0.9479
-6.6444 11.8969 -0.9991 0.9468
-7.8406 11.9366 -1.0471 0.9443
-8.3395 11.7536 -1.0567 0.9438
-10.4817 11.8350 -1.1592 0.9386
-11.3110 11.8829 -1.2029 0.9363
-12.0615 11.7928 -1.2368 0.9346
-13.0258 11.8513 -1.2912 0.9318
-13.6901 11.5851 -1.3150 0.9306
-14.6299 11.5050 -1.3647 0.9281
-21.8246 11.5521 -1.8106 0.9057
-23.4317 9.3340 -1.8494 0.9038
-26.2994 7.3166 -2.0016 0.8963
-26.9337 4.4461 -2.0016 0.8963
-27.2928 0.5444 -2.0016 0.8963
-27.2615 -1.4157 -2.0016 0.8963
-26.5702 -6.2620 -2.0016 0.8963
-26.3283 -7.2120 -2.0016 0.8963
-26.0523 -8.1527 -2.0016 0.8963
-25.0246 -10.9069 -2.0016 0.8963
-24.6168 -11.7984 -2.0016 0.8963
-23.7066 -13.5346 -2.0016 0.8963
-22.0661 -15.9710 -1.9972 0.8965
-20.7416 -16.1783 -1.9287 0.8999
-19.3182 -16.2166 -1.8494 0.9038
-18.7234 -16.8998 -1.8494 0.9038
-18.1046 -17.5611 -1.8494 0.9038
-16.7976 -18.8152 -1.8494 0.9038
-14.6769 -20.5124 -1.8494 0.9038
-13.1670 -21.5128 -1.8494 0.9038
-8.6798 -22.4006 -1.7615 0.9081
-7.7660 -22.3982 -1.7382 0.9093
-5.1519 -22.4055 -1.6857 0.9119
-4.2473 -22.0728 -1.6481 0.9138
-2.6631 -22.4124 -1.6549 0.9135
-1.8501 -22.4146 -1.6491 0.9137
-1.0418 -22.4169 -1.6454 0.9139
-0.2360 -22.4191 -1.6439 0.9140
6.0168 -24.4942 -1.8494 0.9038
6.8924 -24.2624 -1.8494 0.9038
7.7591 -23.9993 -1.8494 0.9038
9.3249 -25.6561 -2.0016 0.8963
11.1421 -24.9208 -2.0016 0.8963
2.2474 -4.1905 -0.3487 0.9811
13.7573 -23.5781 -2.0016 0.8963
14.5950 -23.0689 -2.0016 0.8963
16.2129 -21.9620 -2.0016 0.8963
16.9910 -21.3657 -2.0016 0.8963
17.7473 -20.7419 -2.0016 0.8963
18.4806 -20.0913 -2.0016 0.8963
19.8748 -18.7132 -2.0016 0.8963
22.3491 -15.6751 -2.0016 0.8963
22.8975 -14.8625 -2.0016 0.8963
23.9051 -13.1809 -2.0016 0.8963
24.3630 -12.3141 -2.0016 0.8963
25.1839 -10.5339 -2.0016 0.8963
25.5459 -9.6229 -2.0016 0.8963
26.4325 -6.8200 -2.0016 0.8963
27.2816 0.9498 -2.0016 0.8963
27.2299 1.9288 -2.0016 0.8963
27.1431 2.9053 -2.0016 0.8963
11.2473 17.5544 -2.0016 0.9196
10.6098 17.9469 -2.0016 0.9196
9.2944 18.6621 -2.0016 0.9196
7.5309 16.5884 -1.7490 0.9294
7.3281 17.8149 -1.8494 0.9255
6.0307 18.2948 -1.8494 0.9255
2.8205 13.1891 -1.2948 0.9472
0.3852 12.3782 -1.1889 0.9515
-1.7870 11.9481 -1.1598 0.9526
-3.5818 11.9109 -1.1941 0.9512
-5.0673 11.9900 -1.2497 0.9490
-5.5456 11.9101 -1.2613 0.9486
-6.6674 11.9871 -1.3169 0.9464
-7.0833 11.7231 -1.3150 0.9464
-7.4997 11.4612 -1.3150 0.9464
-8.1026 11.4622 -1.3476 0.9452
-8.7395 11.4664 -1.3841 0.9437
-9.4128 11.4708 -1.4246 0.9421
-11.7064 11.4858 -1.5745 0.9362
-12.5861 11.4916 -1.6362 0.9338
-13.5388 11.4978 -1.7053 0.9311
-15.5398 11.3835 -1.8494 0.9255
-15.9385 10.8182 -1.8494 0.9255
-16.3167 10.2389 -1.8494 0.9255
-17.0094 9.0415 -1.8494 0.9255
-19.3548 7.7493 -2.0016 0.9196
-19.8610 6.3403 -2.0016 0.9196
-20.0759 5.6231 -2.0016 0.9196
-20.5641 3.4316 -2.0016 0.9196
-20.8223 -1.0448 -2.0016 0.9196
-20.6936 -2.5364 -2.0016 0.9196
-20.4582 -4.0150 -2.0016 0.9196
-20.3009 -4.7470 -2.0016 0.9196
-20.1174 -5.4729 -2.0016 0.9196
-19.9079 -6.1917 -2.0016 0.9196
-19.4122 -7.6044 -2.0016 0.9196
-18.8164 -8.9779 -2.0016 0.9196
-18.4819 -9.6478 -2.0016 0.9196
-18.1236 -10.3051 -2.0016 0.9196
-17.7419 -10.9493 -2.0016 0.9196
-16.4616 -12.7936 -2.0016 0.9196
-15.9916 -13.3764 -2.0016 0.9196
-14.9904 -14.4896 -2.0016 0.9196
-14.4604 -15.0185 -2.0016 0.9196
-12.5181 -16.1719 -1.9634 0.9211
-11.6209 -16.1813 -1.9126 0.9231
-10.0848 -16.4124 -1.8494 0.9255
-8.8809 -17.0938 -1.8494 0.9255
-8.2614 -17.4017 -1.8494 0.9255
-7.6313 -17.6871 -1.8494 0.9255
-6.3423 -18.1891 -1.8494 0.9255
-5.0206 -18.5974 -1.8494 0.9255
-3.6730 -18.9097 -1.8494 0.9255
-2.9916 -19.0294 -1.8494 0.9255
-1.6182 -19.1951 -1.8494 0.9255
1.1465 -19.2290 -1.8494 0.9255
1.8362 -19.1754 -1.8494 0.9255
3.8875 -18.8668 -1.8494 0.9255
4.5624 -18.7151 -1.8494 0.9255
6.3716 -19.8262 -1.9993 0.9197
9.1547 -18.7310 -2.0016 0.9196
2.2398 -4.1940 -0.4565 0.9811
12.3530 -16.7948 -2.0016 0.9196
14.6301 -14.8533 -2.0016 0.9196
16.6058 -12.6058 -2.0016 0.9196
17.4677 -11.3816 -2.0016 0.9196
19.2196 -8.0787 -2.0016 0.9196
19.9769 -5.9651 -2.0016 0.9196
20.3535 -4.5161 -2.0016 0.9196
20.5025 -3.7824 -2.0016 0.9196
20.7211 -2.3012 -2.0016 0.9196
20.8484 -0.0597 -2.0016 0.9196
20.7989 1.4367 -2.0016 0.9196
20.7339 2.1826 -2.0016 0.9196
20.5238 3.6650 -2.0016 0.9196
20.3790 4.3995 -2.0016 0.9196
20.2079 5.1284 -2.0016 0.9196
20.0107 5.8507 -2.0016 0.9196
19.2656 7.9686 -2.0016 0.9196
18.6440 9.3307 -2.0016 0.9196
17.9263 10.6446 -2.0016 0.9196
17.1161 11.9037 -2.0016 0.9196
16.2177 13.1013 -2.0016 0.9196
15.7369 13.6752 -2.0016 0.9196
14.7149 14.7693 -2.0016 0.9196
13.0413 16.2660 -2.0016 0.9196
12.4489 16.7238 -2.0016 0.9196
11.8404 17.1600 -2.0016 0.9196
11.2166 17.5741 -2.0016 0.9196
9.9264 18.3337 -2.0016 0.9196
9.2617 18.6783 -2.0016 0.9196
7.4940 16.5841 -1.7472 0.9295
7.2969 17.8277 -1.8494 0.9255
6.6520 18.0782 -1.8494 0.9255
5.9986 18.3053 -1.8494 0.9255
3.3202 13.2883 -1.3150 0.9464
1.2636 12.4451 -1.2009 0.9510
0.8096 12.3854 -1.1916 0.9513
-0.0781 11.9102 -1.1435 0.9533
-0.5053 11.8903 -1.1426 0.9533
-1.3669 11.9072 -1.1507 0.9530
-3.1340 11.8789 -1.1795 0.9518
-3.5998 11.8950 -1.1931 0.9513
-4.5465 11.8733 -1.2206 0.9502
-6.7718 12.1249 -1.3333 0.9457
-8.7714 11.4666 -1.3860 0.9436
-9.4466 11.4710 -1.4266 0.9420
-10.9282 11.4807 -1.5217 0.9383
-12.6307 11.4919 -1.6394 0.9337
-14.6299 11.5050 -1.7868 0.9279
-15.5597 11.3563 -1.8494 0.9255
-16.3346 10.2103 -1.8494 0.9255
-17.0252 9.0117 -1.8494 0.9255
-17.3378 8.3946 -1.8494 0.9255
-18.7000 8.2390 -1.9618 0.9212
-19.6329 7.0150 -2.0016 0.9196
-20.2734 4.8631 -2.0016 0.9196
-20.7608 1.9106 -2.0016 0.9196
-20.8204 -1.0812 -2.0016 0.9196
-20.7682 -1.8281 -2.0016 0.9196
-20.6892 -2.5727 -2.0016 0.9196
-20.4512 -4.0508 -2.0016 0.9196
-20.2925 -4.7825 -2.0016 0.9196
-19.6606 -6.9369 -2.0016 0.9196
-19.3988 -7.6384 -2.0016 0.9196
-19.1121 -8.3300 -2.0016 0.9196
-18.8007 -9.0108 -2.0016 0.9196
-18.4650 -9.6801 -2.0016 0.9196
-17.3170 -11.6096 -2.0016 0.9196
-16.8890 -12.2239 -2.0016 0.9196
-16.4392 -12.8224 -2.0016 0.9196
-15.9682 -13.4044 -2.0016 0.9196
-14.9650 -14.5158 -2.0016 0.9196
-14.4342 -15.0438 -2.0016 0.9196
-10.7269 -16.1902 -1.8645 0.9249
-8.8510 -17.1093 -1.8494 0.9255
-7.6003 -17.7004 -1.8494 0.9255
-6.9599 -17.9619 -1.8494 0.9255
-6.3104 -18.2002 -1.8494 0.9255
-4.3167 -18.7733 -1.8494 0.9255
-3.6399 -18.9162 -1.8494 0.9255
-2.2729 -19.1286 -1.8494 0.9255
-0.8943 -19.2424 -1.8494 0.9255
-0.2028 -19.2621 -1.8494 0.9255
1.1801 -19.2270 -1.8494 0.9255
1.8697 -19.1722 -1.8494 0.9255
2.5569 -19.0927 -1.8494 0.9255
3.9205 -18.8600 -1.8494 0.9255
4.5952 -18.7070 -1.8494 0.9255
5.4649 -19.2374 -1.9200 0.9228
7.8207 -19.3261 -2.0016 0.9196
8.5096 -19.0328 -2.0016 0.9196
9.1874 -18.7150 -2.0016 0.9196
11.7721 -17.2069 -2.0016 0.9196
12.3823 -16.7731 -2.0016 0.9196
12.9766 -16.3177 -2.0016 0.9196
14.6561 -14.8277 -2.0016 0.9196
15.1790 -14.2919 -2.0016 0.9196
16.1656 -13.1656 -2.0016 0.9196
16.6279 -12.5767 -2.0016 0.9196
17.4876 -11.3510 -2.0016 0.9196
18.2571 -10.0667 -2.0016 0.9196
18.6068 -9.4047 -2.0016 0.9196
19.2337 -8.0451 -2.0016 0.9196
19.7615 -6.6440 -2.0016 0.9196
19.9873 -5.9302 -2.0016 0.9196
20.5091 -3.7465 -2.0016 0.9196
20.6304 -3.0077 -2.0016 0.9196
20.7931 -1.5193 -2.0016 0.9196
20.8342 -0.7717 -2.0016 0.9196
20.7301 2.2189 -2.0016 0.9196
8.5750 14.5051 -2.0016 0.9344
7.4366 13.6779 -1.8494 0.9392
6.9407 13.9361 -1.8494 0.9392
4.8741 14.7862 -1.8494 0.9392
3.3313 13.2345 -1.6211 0.9465
2.2507 12.7471 -1.5376 0.9492
0.3703 11.8989 -1.4141 0.9532
-0.4694 11.5202 -1.3696 0.9546
-1.7080 11.4203 -1.3717 0.9546
-4.8352 11.4408 -1.4754 0.9512
-5.3286 11.4440 -1.4995 0.9504
-5.8392 11.4474 -1.5265 0.9496
-7.4977 11.4582 -1.6266 0.9463
-8.1026 11.4622 -1.6674 0.9450
-9.4128 11.4708 -1.7626 0.9420
-10.7144 11.2956 -1.8494 0.9392
-11.1131 10.9036 -1.8494 0.9392
-11.4974 10.4976 -1.8494 0.9392
-11.8669 10.0780 -1.8494 0.9392
-12.2211 9.6454 -1.8494 0.9392
-12.5596 9.2003 -1.8494 0.9392
-12.8818 8.7435 -1.8494 0.9392
-13.1875 8.2753 -1.8494 0.9392
-14.2433 8.2403 -1.9546 0.9359
-14.8639 7.9010 -1.9996 0.9344
-15.1531 7.3696 -2.0016 0.9344
-15.4080 6.8207 -2.0016 0.9344
-15.8577 5.6974 -2.0016 0.9344
-16.2257 4.5446 -2.0016 0.9344
-16.5100 3.3685 -2.0016 0.9344
-16.6203 2.7735 -2.0016 0.9344
-16.7092 2.1749 -2.0016 0.9344
-16.8462 0.3655 -2.0016 0.9344
-16.8290 -0.8444 -2.0016 0.9344
-16.6406 -2.6492 -2.0016 0.9344
-16.5347 -3.2450 -2.0016 0.9344
-16.4076 -3.8366 -2.0016 0.9344
-16.2592 -4.4233 -2.0016 0.9344
-15.6893 -6.1460 -2.0016 0.9344
-15.4585 -6.7054 -2.0016 0.9344
-15.2078 -7.2561 -2.0016 0.9344
-14.9374 -7.7975 -2.0016 0.9344
-14.6478 -8.3288 -2.0016 0.9344
-14.0123 -9.3586 -2.0016 0.9344
-13.6673 -9.8557 -2.0016 0.9344
-12.5282 -11.2682 -2.0016 0.9344
-11.2438 -12.5501 -2.0016 0.9344
-10.7860 -12.9457 -2.0016 0.9344
-10.3142 -13.3246 -2.0016 0.9344
-9.3313 -14.0305 -2.0016 0.9344
-8.3003 -14.6640 -2.0016 0.9344
-7.7685 -14.9525 -2.0016 0.9344
-7.2266 -15.2218 -2.0016 0.9344
-6.6753 -15.4715 -2.0016 0.9344
-6.1155 -15.7012 -2.0016 0.9344
-5.5398 -15.8876 -1.9987 0.9345
-4.3645 -16.1671 -1.9892 0.9348
-3.7480 -16.1703 -1.9717 0.9353
-3.1414 -16.1731 -1.9570 0.9358
-2.5429 -16.1753 -1.9450 0.9362
-1.3640 -16.1799 -1.9288 0.9367
1.5963 -16.6702 -1.9892 0.9348
2.2029 -16.6713 -1.9975 0.9345
2.8058 -16.6149 -2.0016 0.9344
3.4005 -16.5035 -2.0016 0.9344
3.9909 -16.3707 -2.0016 0.9344
4.5762 -16.2169 -2.0016 0.9344
5.7282 -15.8466 -2.0016 0.9344
6.8507 -15.3947 -2.0016 0.9344
2.2398 -4.1940 -0.5648 0.9810
8.9840 -14.2553 -2.0016 0.9344
10.9323 -12.8223 -2.0016 0.9344
11.3857 -12.4215 -2.0016 0.9344
12.2477 -11.5724 -2.0016 0.9344
13.4211 -10.1883 -2.0016 0.9344
14.1177 -9.1988 -2.0016 0.9344
14.7415 -8.1619 -2.0016 0.9344
15.0250 -7.6273 -2.0016 0.9344
15.7581 -5.9674 -2.0016 0.9344
15.9622 -5.3978 -2.0016 0.9344
16.1457 -4.8211 -2.0016 0.9344
16.3084 -4.2383 -2.0016 0.9344
16.5705 -3.0570 -2.0016 0.9344
16.7472 -1.8599 -2.0016 0.9344
16.8375 -0.6532 -2.0016 0.9344
16.8501 -0.0482 -2.0016 0.9344
16.8410 0.5568 -2.0016 0.9344
16.4707 3.5558 -2.0016 0.9344
16.3324 4.1449 -2.0016 0.9344
15.7920 5.8771 -2.0016 0.9344
15.5708 6.4404 -2.0016 0.9344
14.7879 8.0774 -2.0016 0.9344
13.8336 9.6208 -2.0016 0.9344
13.4792 10.1113 -2.0016 0.9344
13.1075 10.5887 -2.0016 0.9344
12.7188 11.0526 -2.0016 0.9344
12.3138 11.5021 -2.0016 0.9344
11.8928 11.9368 -2.0016 0.9344
11.4566 12.3562 -2.0016 0.9344
11.0055 12.7596 -2.0016 0.9344
9.5696 13.8690 -2.0016 0.9344
9.0655 14.2037 -2.0016 0.9344
7.4127 13.6909 -1.8494 0.9392
5.3763 14.6111 -1.8494 0.9392
2.2257 12.7358 -1.5358 0.9493
1.2483 12.2950 -1.4680 0.9514
0.7901 12.0883 -1.4390 0.9524
0.3491 11.8894 -1.4129 0.9532
-0.0767 11.6973 -1.3895 0.9540
-0.8966 11.4150 -1.3601 0.9549
-1.3107 11.4177 -1.3652 0.9548
-2.5795 11.4260 -1.3914 0.9539
-3.9139 11.4347 -1.4356 0.9525
-4.3797 11.4378 -1.4548 0.9519
-5.3531 11.4442 -1.5008 0.9504
-6.3954 11.4510 -1.5580 0.9485
-6.9485 11.4546 -1.5914 0.9475
-7.5265 11.4584 -1.6285 0.9463
-8.7714 11.4666 -1.7149 0.9435
-10.7341 11.2769 -1.8494 0.9392
-11.1321 10.8842 -1.8494 0.9392
-11.5158 10.4774 -1.8494 0.9392
-12.2380 9.6240 -1.8494 0.9392
-13.2200 8.2635 -1.8519 0.9391
-14.2992 8.2392 -1.9603 0.9357
-14.8808 7.8766 -2.0000 0.9344
-15.1660 7.3430 -2.0016 0.9344
-15.4199 6.7938 -2.0016 0.9344
-16.0610 5.0962 -2.0016 0.9344
-16.3853 3.9304 -2.0016 0.9344
-16.8480 -0.2691 -2.0016 0.9344
-16.7852 -1.4775 -2.0016 0.9344
-16.7214 -2.0793 -2.0016 0.9344
-16.6359 -2.6783 -2.0016 0.9344
-16.4008 -3.8653 -2.0016 0.9344
-16.0811 -5.0324 -2.0016 0.9344
-15.4467 -6.7324 -2.0016 0.9344
-15.1950 -7.2827 -2.0016 0.9344
-14.9238 -7.8236 -2.0016 0.9344
-14.3238 -8.8745 -2.0016 0.9344
-13.6500 -9.8796 -2.0016 0.9344
-12.5084 -11.2901 -2.0016 0.9344
-11.6660 -12.1587 -2.0016 0.9344
-11.2218 -12.5697 -2.0016 0.9344
-9.3068 -14.0468 -2.0016 0.9344
-8.7964 -14.3719 -2.0016 0.9344
-8.2747 -14.6785 -2.0016 0.9344
-7.7423 -14.9661 -2.0016 0.9344
-7.1999 -15.2345 -2.0016 0.9344
-4.3342 -16.1673 -1.9883 0.9348
1.0126 -16.4983 -1.9635 0.9356
3.4294 -16.4975 -2.0016 0.9344
4.0196 -16.3637 -2.0016 0.9344
5.1836 -16.0330 -2.0016 0.9344
5.7559 -15.8366 -2.0016 0.9344
7.4255 -15.1258 -2.0016 0.9344
2.2474 -4.1905 -0.5648 0.9810
8.4919 -14.5539 -2.0016 0.9344
9.5144 -13.9069 -2.0016 0.9344
10.0076 -13.5564 -2.0016 0.9344
10.9547 -12.8032 -2.0016 0.9344
11.4074 -12.4016 -2.0016 0.9344
11.8453 -11.9840 -2.0016 0.9344
12.6748 -11.1030 -2.0016 0.9344
13.0653 -10.6407 -2.0016 0.9344
14.4541 -8.6607 -2.0016 0.9344
15.5451 -6.5022 -2.0016 0.9344
15.7685 -5.9398 -2.0016 0.9344
15.9716 -5.3698 -2.0016 0.9344
16.1541 -4.7929 -2.0016 0.9344
16.3158 -4.2098 -2.0016 0.9344
16.4564 -3.6212 -2.0016 0.9344
16.5759 -3.0280 -2.0016 0.9344
16.6739 -2.4308 -2.0016 0.9344
16.8054 -1.2280 -2.0016 0.9344
16.8386 -0.6237 -2.0016 0.9344
16.8501 -0.0187 -2.0016 0.9344
16.8080 1.1906 -2.0016 0.9344
7.1675 12.1242 -1.9956 0.9447
6.2345 11.4670 -1.8494 0.9486
5.8188 11.6834 -1.8494 0.9486
5.3955 11.8848 -1.8494 0.9486
4.0862 12.3961 -1.8494 0.9486
3.1861 12.6574 -1.8494 0.9486
2.2507 12.7471 -1.8341 0.9490
1.7498 12.5212 -1.7914 0.9502
1.2711 12.3053 -1.7528 0.9513
0.8121 12.0982 -1.7180 0.9522
-0.0563 11.7065 -1.6587 0.9538
-0.8765 11.4148 -1.6221 0.9548
-1.3059 8.7319 -1.2510 0.9650
-2.1303 11.4231 -1.6464 0.9541
-3.4377 11.4316 -1.6914 0.9529
-3.8915 11.4346 -1.7114 0.9524
-4.3567 11.4377 -1.7342 0.9518
-5.3286 11.4440 -1.7887 0.9503
-6.3444 11.4065 -1.8494 0.9486
-6.7499 11.1714 -1.8494 0.9486
-8.2797 10.0900 -1.8494 0.9486
-8.6366 9.7862 -1.8494 0.9486
-9.6389 8.8007 -1.8494 0.9486
-11.2439 8.2365 -1.9749 0.9452
-11.6744 7.9239 -1.9992 0.9446
-12.2275 7.0741 -2.0016 0.9445
-12.4737 6.6305 -2.0016 0.9445
-12.7037 6.1783 -2.0016 0.9445
-13.1143 5.2507 -2.0016 0.9445
-13.7309 3.3191 -2.0016 0.9445
-13.8412 2.8240 -2.0016 0.9445
-14.1030 0.8133 -2.0016 0.9445
-14.1231 0.3064 -2.0016 0.9445
-14.1086 -0.7079 -2.0016 0.9445
-14.0741 -1.2141 -2.0016 0.9445
-14.0215 -1.7186 -2.0016 0.9445
-13.8620 -2.7205 -2.0016 0.9445
-12.7618 -2.9841 -1.8570 0.9484
-12.6464 -3.4404 -1.8570 0.9484
-12.5147 -3.8923 -1.8570 0.9484
-12.2031 -4.7804 -1.8570 0.9484
-12.0236 -5.2154 -1.8570 0.9484
-11.8286 -5.6438 -1.8570 0.9484
-12.2801 -6.9825 -2.0016 0.9445
-12.0214 -7.4189 -2.0016 0.9445
-11.7473 -7.8458 -2.0016 0.9445
-11.1539 -8.6686 -2.0016 0.9445
-10.8355 -9.0635 -2.0016 0.9445
-10.5031 -9.4467 -2.0016 0.9445
-10.1571 -9.8178 -2.0016 0.9445
-9.7980 -10.1762 -2.0016 0.9445
-9.4263 -10.5214 -2.0016 0.9445
-7.3956 -12.0358 -2.0016 0.9445
-6.0584 -12.7613 -2.0016 0.9445
-4.6510 -13.3388 -2.0016 0.9445
-2.6935 -13.8672 -2.0016 0.9445
-2.1939 -13.9550 -2.0016 0.9445
-1.6914 -14.0248 -2.0016 0.9445
-1.1867 -14.0765 -2.0016 0.9445
-0.6805 -14.1100 -2.0016 0.9445
-0.1734 -14.1253 -2.0016 0.9445
0.3339 -14.1225 -2.0016 0.9445
0.8407 -14.1014 -2.0016 0.9445
1.8506 -14.0047 -2.0016 0.9445
2.3522 -13.9292 -2.0016 0.9445
4.3221 -13.4490 -2.0016 0.9445
5.7433 -12.9062 -2.0016 0.9445
7.9561 -11.6729 -2.0016 0.9445
9.1652 -10.7497 -2.0016 0.9445
9.9130 -10.0642 -2.0016 0.9445
10.2680 -9.7018 -2.0016 0.9445
10.9377 -8.9399 -2.0016 0.9445
11.5511 -8.1319 -2.0016 0.9445
12.3586 -6.8426 -2.0016 0.9445
12.8178 -5.9380 -2.0016 0.9445
13.0227 -5.4739 -2.0016 0.9445
13.3820 -4.5252 -2.0016 0.9445
13.6722 -3.5532 -2.0016 0.9445
13.7910 -3.0600 -2.0016 0.9445
13.8920 -2.5628 -2.0016 0.9445
13.9750 -2.0624 -2.0016 0.9445
14.1158 -0.5476 -2.0016 0.9445
14.1187 0.4668 -2.0016 0.9445
14.0488 1.4789 -2.0016 0.9445
13.8083 2.9810 -2.0016 0.9445
13.6923 3.4749 -2.0016 0.9445
13.2393 4.9271 -2.0016 0.9445
12.8516 5.8645 -2.0016 0.9445
12.3975 6.7717 -2.0016 0.9445
10.9887 8.8771 -2.0016 0.9445
10.3233 9.6429 -2.0016 0.9445
9.2265 10.6970 -2.0016 0.9445
8.8365 11.0214 -2.0016 0.9445
5.7983 11.6936 -1.8494 0.9486
5.3747 11.8942 -1.8494 0.9486
4.5072 12.2493 -1.8494 0.9486
4.0645 12.4032 -1.8494 0.9486
3.6165 12.5412 -1.8494 0.9486
2.7072 12.7684 -1.8494 0.9486
1.2483 12.2950 -1.7510 0.9513
0.7901 12.0883 -1.7164 0.9522
-2.1510 11.4232 -1.6470 0.9541
-3.0153 11.4289 -1.6748 0.9534
-3.9139 11.4347 -1.7125 0.9523
-4.3797 11.4378 -1.7354 0.9517
-5.3531 11.4442 -1.7901 0.9502
-6.3644 11.3954 -1.8494 0.9486
-7.1658 10.9093 -1.8494 0.9486
-7.9302 10.3669 -1.8494 0.9486
-8.2973 10.0755 -1.8494 0.9486
-8.6538 9.7710 -1.8494 0.9486
-8.9990 9.4540 -1.8494 0.9486
-9.6543 8.7838 -1.8494 0.9486
-9.9635 8.4315 -1.8494 0.9486
-10.4933 8.2520 -1.8915 0.9475
-11.2841 8.2357 -1.9794 0.9451
-11.9788 7.4876 -2.0016 0.9445
-12.2399 7.0527 -2.0016 0.9445
-12.4852 6.6086 -2.0016 0.9445
-12.7145 6.1561 -2.0016 0.9445
-12.9273 5.6956 -2.0016 0.9445
-13.3027 4.7532 -2.0016 0.9445
-13.4648 4.2725 -2.0016 0.9445
-13.7367 3.2951 -2.0016 0.9445
-13.8462 2.7998 -2.0016 0.9445
-13.9378 2.3008 -2.0016 0.9445
-14.1246 -0.2256 -2.0016 0.9445
-14.1074 -0.7326 -2.0016 0.9445
-13.8572 -2.7447 -2.0016 0.9445
-12.7565 -3.0064 -1.8570 0.9484
-12.5079 -3.9142 -1.8570 0.9484
-12.3593 -4.3607 -1.8570 0.9484
-12.1947 -4.8017 -1.8570 0.9484
-12.7388 -6.1055 -2.0016 0.9445
-12.0084 -7.4400 -2.0016 0.9445
-11.7335 -7.8664 -2.0016 0.9445
-11.1387 -8.6881 -2.0016 0.9445
-10.4865 -9.4651 -2.0016 0.9445
-10.1399 -9.8355 -2.0016 0.9445
-9.7802 -10.1933 -2.0016 0.9445
-8.6274 -11.1859 -2.0016 0.9445
-5.5736 -12.9804 -2.0016 0.9445
-3.6579 -13.6446 -2.0016 0.9445
-3.1656 -13.7671 -2.0016 0.9445
-1.6668 -14.0277 -2.0016 0.9445
-0.6558 -14.1112 -2.0016 0.9445
0.3586 -14.1219 -2.0016 0.9445
1.8751 -14.0014 -2.0016 0.9445
2.8751 -13.8307 -2.0016 0.9445
3.3698 -13.7186 -2.0016 0.9445
3.8602 -13.5887 -2.0016 0.9445
5.7659 -12.8961 -2.0016 0.9445
6.2252 -12.6808 -2.0016 0.9445
2.2473 -4.1904 -0.6737 0.9810
7.1192 -12.2013 -2.0016 0.9445
7.9765 -11.6589 -2.0016 0.9445
9.1840 -10.7336 -2.0016 0.9445
9.5634 -10.3969 -2.0016 0.9445
9.9306 -10.0468 -2.0016 0.9445
10.9534 -8.9207 -2.0016 0.9445
11.2666 -8.5217 -2.0016 0.9445
11.5653 -8.1116 -2.0016 0.9445
12.3705 -6.8209 -2.0016 0.9445
12.6075 -6.3724 -2.0016 0.9445
12.8281 -5.9156 -2.0016 0.9445
13.0323 -5.4511 -2.0016 0.9445
13.5429 -4.0181 -2.0016 0.9445
13.7963 -3.0358 -2.0016 0.9445
14.1179 0.4915 -2.0016 0.9445
6.9177 9.9882 -2.0016 0.9519
3.8950 10.5286 -1.8494 0.9555
3.1294 10.7810 -1.8494 0.9555
2.3476 10.9778 -1.8494 0.9555
1.9519 11.0550 -1.8494 0.9555
1.5537 11.1180 -1.8494 0.9555
1.1535 11.1666 -1.8494 0.9555
0.7519 11.2008 -1.8494 0.9555
-0.0539 11.2259 -1.8494 0.9555
-1.2608 11.1550 -1.8494 0.9555
-1.3032 8.7137 -1.4515 0.9649
-3.2328 10.7504 -1.8494 0.9555
-3.6168 10.6274 -1.8494 0.9555
-4.7386 10.1769 -1.8494 0.9555
-5.8055 9.6083 -1.8494 0.9555
-6.1467 9.3936 -1.8494 0.9555
-6.4801 9.1669 -1.8494 0.9555
-8.9435 8.1657 -1.9951 0.9521
-9.2549 7.8597 -2.0003 0.9520
-10.2914 6.4580 -2.0016 0.9519
-11.2794 4.5160 -2.0016 0.9519
-11.8097 2.8547 -2.0016 0.9519
-11.9046 2.4289 -2.0016 0.9519
-11.9841 1.9998 -2.0016 0.9519
-12.0482 1.5682 -2.0016 0.9519
-12.1297 0.6995 -2.0016 0.9519
-12.1470 0.2636 -2.0016 0.9519
-12.1486 -0.1728 -2.0016 0.9519
-12.1346 -0.6089 -2.0016 0.9519
-12.1049 -1.0442 -2.0016 0.9519
-12.0596 -1.4782 -2.0016 0.9519
-11.9988 -1.9102 -2.0016 0.9519
-11.3807 -2.2335 -1.9106 0.9541
-10.9762 -2.5666 -1.8570 0.9553
-10.6365 -3.7320 -1.8570 0.9553
-10.4957 -4.1115 -1.8570 0.9553
-10.3413 -4.4857 -1.8570 0.9553
-9.8548 -7.1065 -2.0016 0.9519
-9.3194 -7.7954 -2.0016 0.9519
-9.0335 -8.1250 -2.0016 0.9519
-7.7773 -9.3345 -2.0016 0.9519
-7.4371 -9.6078 -2.0016 0.9519
-6.7284 -10.1167 -2.0016 0.9519
-6.3608 -10.3518 -2.0016 0.9519
-5.9850 -10.5735 -2.0016 0.9519
-5.6015 -10.7816 -2.0016 0.9519
-5.2108 -10.9758 -2.0016 0.9519
-2.7434 -11.8361 -2.0016 0.9519
-2.3167 -11.9270 -2.0016 0.9519
-1.4547 -12.0625 -2.0016 0.9519
-0.5853 -12.1358 -2.0016 0.9519
0.2872 -12.1465 -2.0016 0.9519
0.7231 -12.1283 -2.0016 0.9519
1.5916 -12.0452 -2.0016 0.9519
2.4520 -11.8999 -2.0016 0.9519
2.8777 -11.8042 -2.0016 0.9519
3.7174 -11.5672 -2.0016 0.9519
4.1303 -11.4263 -2.0016 0.9519
4.9397 -11.1004 -2.0016 0.9519
5.3351 -10.9159 -2.0016 0.9519
2.2398 -4.1939 -0.7833 0.9809
6.4780 -10.2789 -2.0016 0.9519
6.8429 -10.0396 -2.0016 0.9519
7.5457 -9.5227 -2.0016 0.9519
7.8828 -9.2456 -2.0016 0.9519
8.2097 -8.9566 -2.0016 0.9519
8.5260 -8.6560 -2.0016 0.9519
8.8313 -8.3443 -2.0016 0.9519
9.6774 -7.3463 -2.0016 0.9519
9.9349 -6.9941 -2.0016 0.9519
10.1796 -6.6328 -2.0016 0.9519
10.4112 -6.2631 -2.0016 0.9519
10.6294 -5.8852 -2.0016 0.9519
11.3624 -4.3028 -2.0016 0.9519
11.5096 -3.8921 -2.0016 0.9519
11.6419 -3.4763 -2.0016 0.9519
11.9483 -2.2042 -2.0016 0.9519
12.0756 -1.3411 -2.0016 0.9519
12.1160 -0.9066 -2.0016 0.9519
12.1407 -0.4710 -2.0016 0.9519
12.1498 -0.0348 -2.0016 0.9519
12.1432 0.4015 -2.0016 0.9519
12.1210 0.8373 -2.0016 0.9519
11.9607 2.1358 -2.0016 0.9519
11.8763 2.5639 -2.0016 0.9519
11.5317 3.8261 -2.0016 0.9519
11.2274 4.6438 -2.0016 0.9519
11.0534 5.0440 -2.0016 0.9519
10.6629 5.8242 -2.0016 0.9519
9.7193 7.2908 -2.0016 0.9519
9.4512 7.6351 -2.0016 0.9519
9.1710 7.9695 -2.0016 0.9519
8.8789 8.2937 -2.0016 0.9519
8.2608 8.9095 -2.0016 0.9519
7.9356 9.2003 -2.0016 0.9519
7.6001 9.4793 -2.0016 0.9519
7.2548 9.7461 -2.0016 0.9519
6.5367 10.2416 -2.0016 0.9519
5.5686 10.2850 -1.9268 0.9537
3.8766 10.5354 -1.8494 0.9555
3.4958 10.6678 -1.8494 0.9555
3.1105 10.7864 -1.8494 0.9555
2.3284 10.9819 -1.8494 0.9555
1.9326 11.0584 -1.8494 0.9555
1.5343 11.1207 -1.8494 0.9555
0.7322 11.2021 -1.8494 0.9555
-0.4766 11.2159 -1.8494 0.9555
-0.8790 11.1915 -1.8494 0.9555
-1.3183 8.7102 -1.4513 0.9649
-2.0774 11.0321 -1.8494 0.9555
-2.4722 10.9504 -1.8494 0.9555
-3.6354 10.6211 -1.8494 0.9555
-4.3882 10.3328 -1.8494 0.9555
-5.4739 9.8010 -1.8494 0.9555
-5.8223 9.5981 -1.8494 0.9555
-6.4961 9.1555 -1.8494 0.9555
-7.1364 8.6657 -1.8494 0.9555
-8.4304 8.2426 -1.9423 0.9533
-8.9589 8.1511 -1.9953 0.9521
-9.2699 7.8445 -2.0005 0.9520
-9.8140 7.1627 -2.0016 0.9519
-10.3027 6.4400 -2.0016 0.9519
-10.9355 5.2947 -2.0016 0.9519
-11.4415 4.0881 -2.0016 0.9519
-11.5809 3.6747 -2.0016 0.9519
-11.7053 3.2565 -2.0016 0.9519
-11.9876 1.9789 -2.0016 0.9519
-12.0510 1.5472 -2.0016 0.9519
-12.1309 0.6783 -2.0016 0.9519
-12.1475 0.2423 -2.0016 0.9519
-12.1483 -0.1940 -2.0016 0.9519
-12.1335 -0.6301 -2.0016 0.9519
-12.1031 -1.0654 -2.0016 0.9519
-11.9954 -1.9312 -2.0016 0.9519
-10.8717 -2.9781 -1.8570 0.9553
-10.4885 -4.1299 -1.8570 0.9553
-10.1650 -4.8719 -1.8570 0.9553
-9.9835 -5.2338 -1.8570 0.9553
-9.7892 -5.5889 -1.8570 0.9553
-10.3282 -6.3990 -2.0016 0.9519
-9.8424 -7.1237 -2.0016 0.9519
-9.5802 -7.4725 -2.0016 0.9519
-9.3058 -7.8117 -2.0016 0.9519
-9.0193 -8.1408 -2.0016 0.9519
-8.7211 -8.4594 -2.0016 0.9519
-8.0916 -9.0634 -2.0016 0.9519
-7.7609 -9.3481 -2.0016 0.9519
-7.0700 -9.8810 -2.0016 0.9519
-6.7107 -10.1285 -2.0016 0.9519
-5.5826 -10.7914 -2.0016 0.9519
-5.1915 -10.9849 -2.0016 0.9519
-4.3898 -11.3291 -2.0016 0.9519
-3.5654 -11.6149 -2.0016 0.9519
-2.7227 -11.8409 -2.0016 0.9519
-2.2958 -11.9310 -2.0016 0.9519
-1.4336 -12.0650 -2.0016 0.9519
-0.1279 -12.1492 -2.0016 0.9519
0.3084 -12.1460 -2.0016 0.9519
1.1793 -12.0925 -2.0016 0.9519
1.6127 -12.0424 -2.0016 0.9519
3.3201 -11.6874 -2.0016 0.9519
4.1503 -11.4190 -2.0016 0.9519
4.5576 -11.2626 -2.0016 0.9519
5.3542 -10.9065 -2.0016 0.9519
6.4959 -10.2675 -2.0016 0.9519
6.8604 -10.0277 -2.0016 0.9519
7.2160 -9.7749 -2.0016 0.9519
7.5624 -9.5095 -2.0016 0.9519
7.8990 -9.2318 -2.0016 0.9519
8.5411 -8.6411 -2.0016 0.9519
8.8459 -8.3289 -2.0016 0.9519
9.1392 -8.0059 -2.0016 0.9519
9.4208 -7.6725 -2.0016 0.9519
9.9471 -6.9767 -2.0016 0.9519
10.4222 -6.2448 -2.0016 0.9519
11.0333 -5.0879 -2.0016 0.9519
11.3700 -4.2829 -2.0016 0.9519
11.6480 -3.4559 -2.0016 0.9519
11.8660 -2.6111 -2.0016 0.9519
