ply
format ascii 1.0
element vertex 1537
property float32 x
property float32 y
property float32 z
property float32 I
end_header
-6.5001 13.9471 0.9542 0.9402
-10.7187 17.7329 1.2849 0.9203
-11.6080 17.7353 1.3144 0.9186
-12.5403 17.7379 1.3471 0.9166
-13.2104 16.1010 1.2915 0.9199
-13.2373 13.9607 1.1930 0.9258
-18.3750 14.5151 1.4521 0.9104
-27.0787 -22.5251 2.1842 0.8683
-23.1976 -22.2951 1.9952 0.8790
-20.1607 -22.3687 1.8673 0.8863
-15.8616 -18.9207 1.5310 0.9058
-15.0534 -20.8221 1.5933 0.9022
-14.7117 -21.9669 1.6394 0.8995
-12.7719 -22.3893 1.5984 0.9019
-11.7303 -22.3922 1.5675 0.9037
-10.7269 -22.3949 1.5398 0.9053
-7.9012 -22.3978 1.4728 0.9092
-7.0099 -22.4003 1.4555 0.9102
-6.1382 -22.4027 1.4404 0.9111
-5.2833 -22.4051 1.4275 0.9119
-3.6135 -22.4097 1.4076 0.9130
-2.7938 -22.4120 1.4005 0.9135
-1.9813 -22.4143 1.3953 0.9138
0.3358 -17.3131 1.0738 0.9330
1.2401 -22.4232 1.3926 0.9139
2.2199 -4.2074 0.2950 0.9811
32.6137 -31.1611 2.7971 0.8346
33.6168 -29.8894 2.7894 0.8350
49.5018 -4.0388 3.0798 0.8195
45.7104 13.0020 2.9469 0.8266
40.0338 12.9556 2.6093 0.8448
35.1690 12.7911 2.3206 0.8607
34.6001 15.4738 2.3504 0.8591
32.4380 15.9259 2.2408 0.8652
28.1139 16.4007 2.0183 0.8777
34.8606 25.7208 2.6864 0.8406
31.5678 25.0875 2.5004 0.8508
1.7075 22.8295 1.4196 0.9123
0.0400 13.5691 0.8414 0.9471
-0.4467 13.5704 0.8420 0.9470
-1.4251 13.5732 0.8463 0.9468
-1.2470 8.8190 0.5523 0.9649
-2.4188 13.5759 0.8551 0.9462
-2.9248 13.5773 0.8612 0.9459
-3.9622 13.5802 0.8772 0.9449
-4.4968 13.5817 0.8872 0.9443
-5.0444 13.5832 0.8985 0.9436
-13.2096 16.3932 1.3055 0.9191
-13.2128 15.2446 1.2510 0.9223
-17.0867 15.8897 1.4469 0.9107
-16.4714 14.2512 1.3506 0.9164
-19.6685 14.6916 1.5223 0.9063
-48.1564 -5.3854 3.0048 0.8235
-27.3761 -22.3663 2.1921 0.8679
-23.6791 -22.3590 2.0195 0.8776
-22.0444 -22.3635 1.9472 0.8817
-20.5207 -22.3677 1.8823 0.8855
-15.0120 -18.9231 1.4978 0.9077
-14.9695 -20.3254 1.5653 0.9038
-14.9779 -21.9427 1.6474 0.8990
-13.0349 -22.3885 1.6065 0.9014
-9.0462 -22.3996 1.4980 0.9077
-8.1242 -22.3972 1.4774 0.9089
-5.3670 -16.6333 1.0838 0.9324
-5.4925 -22.4045 1.4305 0.9117
-4.6408 -22.3695 1.4167 0.9125
-3.8104 -22.3718 1.4073 0.9131
-2.1809 -22.4137 1.3964 0.9137
-1.3723 -22.4160 1.3926 0.9139
0.2368 -22.4204 1.3904 0.9141
1.0415 -22.4227 1.3919 0.9140
2.1917 -4.2444 0.2962 0.9810
32.8916 -36.9294 3.0666 0.8202
44.7414 13.1547 1.8389 0.8297
35.0438 17.5910 1.5461 0.8547
35.1841 20.9439 1.6145 0.8488
35.1290 22.6549 1.6482 0.8459
35.0628 24.4351 1.6852 0.8428
7.5749 16.7657 0.7254 0.9290
2.3290 22.8277 0.9048 0.9122
-1.2337 15.8678 0.6276 0.9383
-2.9729 15.8726 0.6368 0.9374
-3.5666 15.8743 0.6415 0.9369
-4.1700 15.8759 0.6472 0.9364
-4.7850 15.8776 0.6539 0.9358
-5.4137 15.8794 0.6615 0.9350
-6.0446 15.8460 0.6687 0.9344
-6.0489 14.2961 0.6121 0.9398
-7.1203 13.9488 0.6175 0.9392
-9.8673 17.7305 0.8001 0.9220
-10.7187 17.7329 0.8170 0.9204
-12.5403 17.7379 0.8566 0.9167
-13.2373 13.9607 0.7586 0.9259
-17.3932 15.8905 0.9290 0.9100
-17.1628 13.5575 0.8624 0.9162
-18.4936 13.5612 0.9043 0.9123
-26.8683 -22.3501 1.3781 0.8694
-24.9949 -22.3553 1.3223 0.8744
-17.0501 -18.9174 1.0042 0.9031
-15.8616 -18.9207 0.9735 0.9059
-13.9623 -20.8479 0.9894 0.9044
-13.5403 -21.8751 1.0144 0.9021
-8.8171 -22.4003 0.9492 0.9081
-7.9012 -22.3978 0.9365 0.9093
-7.0271 -22.4552 0.9278 0.9101
-6.1382 -22.4027 0.9159 0.9112
-5.2833 -22.4051 0.9077 0.9120
-4.4632 -22.5117 0.9049 0.9122
-3.6135 -22.4097 0.8951 0.9131
-2.7938 -22.4120 0.8906 0.9136
-1.1737 -22.4165 0.8851 0.9141
0.3358 -17.3130 0.6828 0.9330
1.2401 -22.4232 0.8855 0.9140
2.2199 -4.2074 0.1876 0.9811
28.2237 -38.7987 1.8918 0.8253
33.7568 -30.0139 1.7811 0.8346
32.9018 -27.2058 1.6834 0.8429
37.1987 -26.5122 1.8012 0.8329
34.2830 -4.0386 1.3612 0.8709
40.6604 13.1583 1.6851 0.8428
35.0343 14.1839 1.4904 0.8596
35.1877 22.2552 1.6417 0.8465
35.0615 23.9769 1.6749 0.8436
35.0668 25.8729 1.7183 0.8399
35.0723 27.8726 1.7665 0.8358
2.5329 22.8272 0.9056 0.9122
0.0468 15.8642 0.6255 0.9385
-0.5223 15.8658 0.6259 0.9384
-1.6662 15.8690 0.6292 0.9381
-1.2468 8.8177 0.3512 0.9650
-3.4195 15.8738 0.6403 0.9371
-5.2574 15.8790 0.6596 0.9352
-5.8977 15.8807 0.6680 0.9344
-6.9655 13.9484 0.6148 0.9395
-10.4077 17.5670 0.8051 0.9215
-11.3851 17.7347 0.8310 0.9191
-12.3063 17.7373 0.8512 0.9172
-12.9637 17.3241 0.8532 0.9170
-13.2128 15.2446 0.7955 0.9224
-13.0093 13.9652 0.7526 0.9264
-13.9748 13.9627 0.7790 0.9240
-15.6647 13.5534 0.8168 0.9204
-16.8535 13.5567 0.8529 0.9171
-18.1539 13.5603 0.8935 0.9133
-27.3545 -22.3487 1.3928 0.8681
-23.6791 -22.3590 1.2842 0.8778
-22.0984 -22.4183 1.2412 0.8816
-20.5207 -22.3677 1.1969 0.8856
-13.8086 -21.8744 1.0200 0.9016
-13.0349 -22.3885 1.0215 0.9015
-10.9708 -22.3943 0.9833 0.9050
-8.1242 -22.3972 0.9394 0.9090
-3.8104 -22.3718 0.8948 0.9132
-0.5671 -22.4182 0.8843 0.9141
0.2387 -22.5960 0.8910 0.9135
1.0415 -22.4227 0.8851 0.9141
32.8875 -36.9248 1.9498 0.8204
45.0297 13.2395 0.7928 0.8288
39.8318 13.2800 0.7092 0.8454
35.9217 13.4254 0.6478 0.8578
36.0505 16.5061 0.6698 0.8533
35.1841 20.9439 0.6917 0.8489
35.1889 22.6936 0.7073 0.8458
35.3944 24.6662 0.7287 0.8415
35.3998 26.6047 0.7480 0.8376
27.9949 22.6544 0.6088 0.8658
7.5735 16.7627 0.3107 0.9291
3.5545 14.2112 0.2474 0.9431
2.3290 22.8277 0.3876 0.9123
0.8393 12.7333 0.2156 0.9502
0.3763 12.5522 0.2121 0.9510
-0.0934 15.8646 0.2680 0.9385
-0.6626 15.8662 0.2682 0.9384
-1.8472 12.2807 0.2098 0.9515
-2.2999 12.2796 0.2110 0.9512
-3.5666 15.8743 0.2748 0.9370
-4.1700 15.8759 0.2773 0.9364
-4.1148 12.0696 0.2154 0.9503
-6.0446 15.8460 0.2865 0.9344
-6.0489 14.2961 0.2622 0.9398
-5.7310 12.2967 0.2292 0.9472
-6.1661 12.0795 0.2291 0.9472
-9.8673 17.7305 0.3428 0.9220
-8.7152 12.3275 0.2550 0.9414
-13.2045 17.3248 0.3680 0.9165
-13.2136 14.9761 0.3374 0.9232
-13.2373 13.9607 0.3250 0.9259
-17.3932 15.8905 0.3980 0.9101
-18.7015 15.8942 0.4146 0.9065
-33.2587 24.3883 0.6967 0.8479
-33.2637 22.6043 0.6793 0.8514
-27.0787 -22.5251 0.5950 0.8686
-24.9949 -22.3553 0.5664 0.8745
-23.1650 -22.2638 0.5427 0.8794
-21.7124 -22.4194 0.5272 0.8826
-20.1607 -22.3687 0.5087 0.8865
-17.1793 -22.0524 0.4722 0.8942
-16.3063 -22.5550 0.4701 0.8946
-13.5403 -21.8751 0.4346 0.9022
-12.7719 -22.3893 0.4354 0.9020
-9.7812 -22.4525 0.4137 0.9067
-8.8171 -22.4003 0.4066 0.9082
-7.9012 -22.3978 0.4012 0.9094
-6.1382 -22.4027 0.3924 0.9113
-5.2833 -22.4051 0.3888 0.9120
-3.6135 -22.4097 0.3834 0.9132
-1.9968 -22.5898 0.3831 0.9133
-1.1737 -22.4165 0.3792 0.9141
-0.3690 -22.4187 0.3787 0.9142
1.2401 -22.4232 0.3793 0.9141
2.2199 -4.2074 0.0804 0.9811
28.2203 -38.7941 0.8103 0.8254
32.8727 -36.2582 0.8267 0.8222
33.7586 -30.0155 0.7630 0.8347
32.8989 -27.2034 0.7211 0.8430
37.2004 -26.5134 0.7716 0.8330
38.5760 -25.4593 0.7807 0.8312
34.2896 -4.0394 0.5832 0.8710
35.8399 14.5100 0.6531 0.8567
36.0494 16.1220 0.6671 0.8539
35.1783 18.8653 0.6743 0.8524
29.7657 17.3643 0.5821 0.8712
35.3931 24.2036 0.7243 0.8424
35.1980 25.9697 0.7389 0.8395
35.2036 27.9770 0.7596 0.8354
3.9748 15.3158 0.2673 0.9387
0.4855 12.5059 0.2114 0.9512
0.0367 12.4552 0.2104 0.9514
-0.5223 15.8658 0.2681 0.9385
-2.1956 12.3233 0.2114 0.9512
-3.4195 15.8738 0.2743 0.9371
-6.0479 14.6531 0.2678 0.9386
-5.5675 12.2269 0.2269 0.9477
-6.1212 12.2578 0.2314 0.9467
-10.4077 17.5670 0.3449 0.9216
-11.3851 17.7347 0.3560 0.9191
-8.5883 12.3784 0.2545 0.9415
-17.0867 15.8897 0.3941 0.9109
-33.2625 23.0356 0.6834 0.8506
-34.5632 22.1465 0.6934 0.8486
-21.1648 8.7143 0.3866 0.9125
-27.3761 -22.3663 0.5971 0.8681
-25.4422 -22.3541 0.5721 0.8733
-23.6791 -22.3590 0.5501 0.8778
-20.5207 -22.3677 0.5127 0.8856
-19.2431 -22.5469 0.5007 0.8882
-14.1443 -19.2051 0.4029 0.9090
-15.3976 -22.5576 0.4613 0.8965
-13.0349 -22.3885 0.4376 0.9015
-12.0770 -22.5668 0.4323 0.9027
-10.9708 -22.3943 0.4212 0.9051
-9.9932 -22.3970 0.4143 0.9065
-8.1242 -22.3972 0.4024 0.9091
-6.3513 -22.4021 0.3933 0.9111
-5.4925 -22.4045 0.3897 0.9118
-3.8104 -22.3718 0.3833 0.9132
-2.9950 -22.4114 0.3819 0.9135
-1.3723 -22.4160 0.3794 0.9141
0.2387 -22.5960 0.3817 0.9136
39.8318 13.2800 -0.2364 0.8454
36.0109 14.9508 -0.2195 0.8556
36.0505 16.5061 -0.2232 0.8533
34.1326 18.6945 -0.2191 0.8558
35.1841 20.9439 -0.2305 0.8489
35.1889 22.6936 -0.2357 0.8458
35.1940 24.5265 -0.2415 0.8423
27.9840 22.6455 -0.2027 0.8659
3.4105 13.6354 -0.0791 0.9453
2.3103 13.1913 -0.0754 0.9478
1.7801 12.8617 -0.0731 0.9494
1.2947 12.6894 -0.0718 0.9503
-0.0737 12.5151 -0.0705 0.9512
-1.3801 12.1134 -0.0686 0.9524
-2.7000 12.0173 -0.0693 0.9519
-3.2159 12.2435 -0.0713 0.9506
-4.0510 11.8824 -0.0707 0.9510
-5.1625 12.2012 -0.0746 0.9484
-5.5593 11.9284 -0.0741 0.9487
-6.1645 12.0763 -0.0763 0.9472
-7.9949 12.2150 -0.0822 0.9433
-8.3935 11.8724 -0.0819 0.9435
-10.6297 12.0476 -0.0905 0.9378
-12.3347 12.1083 -0.0973 0.9332
-13.0852 11.9547 -0.0998 0.9316
-15.0273 11.8706 -0.1078 0.9263
-17.7334 12.0507 -0.1207 0.9178
-20.6963 11.9922 -0.1347 0.9088
-22.4411 11.9499 -0.1431 0.9033
-24.4717 11.9256 -0.1533 0.8968
-23.1650 -22.2638 -0.1809 0.8794
-21.8289 -22.5397 -0.1767 0.8820
-18.7554 -22.3726 -0.1644 0.8898
-17.1793 -22.0524 -0.1574 0.8942
-16.3063 -22.5550 -0.1567 0.8946
-15.1078 -22.5584 -0.1529 0.8971
-11.8222 -22.5675 -0.1434 0.9031
-10.7269 -22.3949 -0.1398 0.9054
-9.8336 -22.5730 -0.1386 0.9062
-8.8171 -22.4003 -0.1355 0.9082
-7.0648 -22.5757 -0.1332 0.9097
-6.1382 -22.4027 -0.1308 0.9113
-2.7938 -22.4120 -0.1272 0.9136
-1.1737 -22.4165 -0.1264 0.9141
0.3358 -17.3128 -0.0975 0.9331
2.2198 -4.2074 -0.0268 0.9812
28.2169 -38.7895 -0.2701 0.8254
32.8960 -27.2011 -0.2403 0.8430
34.3318 -4.0444 -0.1946 0.8709
46.9288 13.3486 -0.2747 0.8227
35.8399 14.5100 -0.2177 0.8567
35.2969 17.3295 -0.2214 0.8545
34.1349 18.3058 -0.2181 0.8565
34.4726 21.8029 -0.2296 0.8495
35.1927 24.0666 -0.2400 0.8432
35.2036 27.9770 -0.2532 0.8354
4.8201 16.1656 -0.0950 0.9347
3.5133 13.5376 -0.0787 0.9456
2.4625 13.3642 -0.0765 0.9471
1.3901 12.5281 -0.0710 0.9508
0.9487 12.6839 -0.0716 0.9504
-0.4036 12.2602 -0.0691 0.9521
-1.2736 12.1295 -0.0687 0.9524
-2.1850 12.2637 -0.0701 0.9514
-6.0780 12.1712 -0.0766 0.9470
-8.3766 12.0733 -0.0827 0.9429
-8.9400 11.9470 -0.0840 0.9421
-9.6672 11.9970 -0.0867 0.9402
-11.0894 11.9042 -0.0916 0.9370
-12.8499 11.9497 -0.0988 0.9322
-13.9148 12.0393 -0.1036 0.9290
-14.8282 11.9276 -0.1071 0.9267
-17.3221 11.9962 -0.1186 0.9192
-20.2817 11.9925 -0.1327 0.9101
-21.9303 11.9277 -0.1406 0.9050
-24.3029 12.1101 -0.1529 0.8971
-21.1621 8.7132 -0.1289 0.9125
-27.3761 -22.3663 -0.1990 0.8681
-20.5207 -22.3677 -0.1709 0.8857
-14.1443 -19.2051 -0.1343 0.9090
-13.8086 -21.8744 -0.1456 0.9017
-13.0349 -22.3885 -0.1459 0.9016
-12.0770 -22.5668 -0.1441 0.9027
-5.3653 -16.6280 -0.0984 0.9325
-3.8104 -22.3718 -0.1278 0.9132
-2.9950 -22.4114 -0.1273 0.9135
-2.1980 -22.5893 -0.1278 0.9132
0.2387 -22.5960 -0.1272 0.9136
1.0415 -22.4227 -0.1264 0.9141
2.1916 -4.2443 -0.0269 0.9811
44.7414 13.1547 -1.3131 0.8298
35.4008 13.2307 -1.0642 0.8597
36.0505 16.5061 -1.1164 0.8533
33.4601 18.3262 -1.0742 0.8584
33.6614 21.7084 -1.1278 0.8519
34.9726 24.3722 -1.2003 0.8432
34.9780 26.2877 -1.2320 0.8394
27.9776 22.6404 -1.0134 0.8659
34.4845 34.6580 -1.3767 0.8223
4.3734 15.1551 -0.4441 0.9388
2.2842 13.0420 -0.3728 0.9484
0.8263 12.5358 -0.3537 0.9510
0.3625 12.0934 -0.3407 0.9527
-0.4990 11.9472 -0.3367 0.9533
-1.8450 12.2658 -0.3493 0.9516
-2.7178 12.0963 -0.3491 0.9516
-3.5587 11.8086 -0.3473 0.9518
-4.0655 11.9250 -0.3548 0.9508
-6.0127 11.7790 -0.3724 0.9485
-6.6210 11.8973 -0.3834 0.9470
-7.7962 11.9115 -0.4009 0.9446
-9.7621 11.8981 -0.4334 0.9403
-11.2950 11.9122 -0.4622 0.9364
-12.1879 11.9642 -0.4809 0.9339
-13.0191 11.8943 -0.4965 0.9319
-13.9483 11.8545 -0.5154 0.9294
-14.9669 11.8229 -0.5371 0.9265
-16.1774 11.8627 -0.5649 0.9229
-17.5880 11.9519 -0.5988 0.9184
-20.5044 11.8810 -0.6673 0.9095
-24.9236 -22.2915 -0.9415 0.8748
-21.5526 -22.2544 -0.8723 0.8834
-17.1792 -22.0523 -0.7871 0.8942
-15.1078 -22.5584 -0.7645 0.8971
-13.5403 -21.8751 -0.7244 0.9022
-12.6762 -22.2215 -0.7204 0.9027
-11.6424 -22.2244 -0.7065 0.9045
-10.6551 -22.2449 -0.6945 0.9060
-9.7015 -22.2696 -0.6840 0.9074
-8.7745 -22.2920 -0.6746 0.9086
-6.9864 -22.3252 -0.6587 0.9106
-6.1213 -22.3411 -0.6523 0.9115
-5.2715 -22.3550 -0.6467 0.9122
-4.4632 -22.5117 -0.6462 0.9123
-3.6083 -22.3775 -0.6382 0.9133
-1.9794 -22.3930 -0.6330 0.9140
-1.1727 -22.3982 -0.6315 0.9142
0.3358 -17.3127 -0.4876 0.9331
1.2391 -22.4044 -0.6318 0.9141
2.2198 -4.2074 -0.1339 0.9811
28.1515 -38.6996 -1.3475 0.8257
32.6137 -31.1611 -1.2701 0.8349
37.1475 -26.4757 -1.2845 0.8332
34.4290 -4.0558 -0.9761 0.8705
44.8956 12.7703 -1.3143 0.8296
40.6840 13.1660 -1.2041 0.8427
36.0494 16.1220 -1.1120 0.8538
29.8736 17.4273 -0.9738 0.8708
34.9766 25.8064 -1.2239 0.8404
2.9367 13.2527 -0.3822 0.9471
2.4300 13.1879 -0.3776 0.9478
1.9255 13.0617 -0.3718 0.9485
1.4096 12.7036 -0.3599 0.9501
0.4757 12.2539 -0.3453 0.9521
-1.2744 12.1379 -0.3437 0.9523
-2.1295 11.9518 -0.3418 0.9526
-2.6269 12.1946 -0.3512 0.9513
-3.0319 11.9726 -0.3478 0.9518
-4.4173 11.8947 -0.3573 0.9505
-5.4980 12.0742 -0.3736 0.9483
-6.4747 11.8801 -0.3810 0.9473
-7.1057 11.9937 -0.3925 0.9457
-7.7196 12.0250 -0.4024 0.9444
-8.2078 11.8300 -0.4054 0.9440
-8.9218 11.9227 -0.4193 0.9422
-12.9186 12.0136 -0.4967 0.9318
-14.8164 11.9181 -0.5354 0.9267
-15.9570 11.9192 -0.5608 0.9234
-17.0584 11.8136 -0.5843 0.9203
-18.4574 11.8267 -0.6173 0.9160
-20.1225 11.8983 -0.6582 0.9107
-21.8029 11.8584 -0.6989 0.9055
-27.3190 -22.3197 -0.9933 0.8683
-23.5918 -22.2765 -0.9136 0.8782
-21.9408 -22.2585 -0.8801 0.8824
-20.4058 -22.2425 -0.8499 0.8862
-14.1443 -19.2051 -0.6716 0.9090
-15.3976 -22.5576 -0.7690 0.8965
-12.9373 -22.2208 -0.7240 0.9022
-10.8945 -22.2384 -0.6973 0.9057
-8.0898 -22.3025 -0.6680 0.9094
-5.3647 -16.6262 -0.4919 0.9325
-6.3330 -22.3373 -0.6538 0.9113
-4.6701 -22.5111 -0.6474 0.9121
-2.9914 -22.3841 -0.6359 0.9136
-2.1788 -22.3914 -0.6335 0.9139
0.2367 -22.4036 -0.6309 0.9142
1.0407 -22.4044 -0.6315 0.9142
1.8473 -22.4036 -0.6330 0.9140
32.8177 -36.8464 -1.3894 0.8208
39.0671 5.6068 -2.0016 0.8538
38.8410 7.0036 -2.0016 0.8538
37.8617 8.2384 -1.9651 0.8563
35.3317 9.0256 -1.8494 0.8641
32.5907 16.3596 -1.8494 0.8641
30.8530 16.8983 -1.7840 0.8686
29.1513 21.9087 -1.8494 0.8641
27.8552 22.5414 -1.8173 0.8663
27.2666 27.4038 -1.9605 0.8566
26.8168 28.9574 -2.0016 0.8538
25.7616 29.9001 -2.0016 0.8538
23.5531 31.6690 -2.0016 0.8538
18.7852 34.7101 -2.0016 0.8538
7.5706 16.7562 -0.9325 0.9290
14.9504 36.5262 -2.0016 0.8538
13.6314 37.0386 -2.0016 0.8538
4.3070 14.9251 -0.7878 0.9397
3.3111 13.2381 -0.6920 0.9468
2.2467 12.8279 -0.6605 0.9492
0.8073 12.2478 -0.6225 0.9520
0.3694 12.3238 -0.6253 0.9518
-1.3573 11.9127 -0.6081 0.9531
-2.6758 11.9094 -0.6190 0.9523
-3.5924 11.9203 -0.6314 0.9514
-4.0634 11.9189 -0.6386 0.9508
-4.5686 11.9766 -0.6501 0.9500
-5.5231 11.8508 -0.6631 0.9490
-6.1035 11.9568 -0.6808 0.9477
-8.3718 11.8417 -0.7355 0.9436
-9.0164 11.8299 -0.7543 0.9422
-9.7471 11.8799 -0.7793 0.9403
-12.0853 11.8635 -0.8589 0.9344
-17.2859 11.7466 -1.0599 0.9197
-20.6221 11.9492 -1.2087 0.9090
-22.3456 11.8990 -1.2839 0.9036
-23.7309 11.5646 -1.3388 0.8997
-33.3325 14.7896 -1.8494 0.8641
-33.8412 13.5852 -1.8494 0.8641
-37.1299 13.3809 -2.0016 0.8538
-37.9931 10.6864 -2.0016 0.8538
-38.3518 9.3176 -2.0016 0.8538
-38.6611 7.9369 -2.0016 0.8538
-39.1304 5.1466 -2.0016 0.8538
-39.2897 3.7406 -2.0016 0.8538
-39.4568 0.9161 -2.0016 0.8538
-38.7429 -7.5277 -2.0016 0.8538
-38.4481 -8.9116 -2.0016 0.8538
-38.1040 -10.2841 -2.0016 0.8538
-37.7108 -11.6434 -2.0016 0.8538
-37.2692 -12.9877 -2.0016 0.8538
-35.0304 -18.1809 -2.0016 0.8538
-30.3763 -20.1760 -1.8494 0.8641
-23.0000 -16.4946 -1.4354 0.8928
-28.8527 -22.3005 -1.8494 0.8641
-26.8683 -22.3501 -1.7724 0.8694
-24.9949 -22.3553 -1.7006 0.8743
-23.1976 -22.2951 -1.6317 0.8791
-20.1607 -22.3687 -1.5272 0.8864
-13.5403 -21.8751 -1.3047 0.9021
-12.7719 -22.3893 -1.3072 0.9019
-11.7303 -22.3922 -1.2820 0.9037
-9.7572 -22.3976 -1.2390 0.9068
-8.8171 -22.4003 -1.2208 0.9081
-7.9012 -22.3978 -1.2045 0.9093
-7.0099 -22.4003 -1.1903 0.9103
-4.4632 -22.5117 -1.1639 0.9122
-3.6135 -22.4097 -1.1512 0.9131
-2.7938 -22.4120 -1.1454 0.9135
-1.9813 -22.4143 -1.1412 0.9138
-1.1737 -22.4165 -1.1384 0.9140
0.3358 -17.3126 -0.8782 0.9330
3.3176 -36.3150 -1.8494 0.8641
4.6172 -36.1728 -1.8494 0.8641
5.9109 -35.9840 -1.8494 0.8641
11.8979 -37.6313 -2.0016 0.8538
13.2391 -37.1807 -2.0016 0.8538
15.8689 -36.1366 -2.0016 0.8538
17.1541 -35.5445 -2.0016 0.8538
19.6566 -34.2242 -2.0016 0.8538
23.2171 -31.9162 -2.0016 0.8538
24.3462 -31.0635 -2.0016 0.8538
25.4440 -30.1708 -2.0016 0.8538
26.5064 -29.2363 -2.0014 0.8538
27.2521 -24.2304 -1.8494 0.8641
28.1032 -23.2379 -1.8494 0.8641
30.1868 -18.4042 -1.7930 0.8680
31.7963 -17.8546 -1.8494 0.8641
34.4334 -16.2082 -1.9301 0.8586
37.3072 -12.8781 -2.0016 0.8538
38.1340 -10.1721 -2.0016 0.8538
34.5076 -5.3254 -1.7707 0.8695
34.0638 -4.0128 -1.7395 0.8716
36.4953 -2.9776 -1.8570 0.8636
39.4656 -0.3829 -2.0016 0.8538
39.3916 2.4456 -2.0016 0.8538
39.2786 3.8560 -2.0016 0.8538
39.1151 5.2616 -2.0016 0.8538
38.5558 8.0334 -1.9973 0.8541
35.4100 8.7132 -1.8494 0.8641
35.0749 9.9769 -1.8494 0.8641
33.2889 14.8874 -1.8494 0.8641
32.7339 16.0711 -1.8494 0.8641
28.5488 22.6883 -1.8494 0.8641
27.7171 23.6970 -1.8494 0.8641
27.2671 26.9243 -1.9434 0.8577
27.0299 28.6753 -1.9985 0.8540
24.9443 30.5852 -2.0016 0.8538
22.6890 32.2938 -2.0016 0.8538
21.5168 33.0863 -2.0016 0.8538
19.0910 34.5429 -2.0016 0.8538
16.5671 35.8219 -2.0016 0.8538
2.4147 13.1051 -0.6758 0.9480
1.4013 12.6287 -0.6444 0.9504
0.9191 12.2890 -0.6250 0.9518
0.4735 12.1969 -0.6190 0.9523
0.0350 11.8792 -0.6024 0.9535
-0.3935 11.9541 -0.6066 0.9532
-1.2461 8.8126 -0.4514 0.9650
-2.1189 11.8928 -0.6126 0.9528
-2.5435 11.8073 -0.6125 0.9528
-3.0256 11.9475 -0.6250 0.9518
-3.4440 11.8041 -0.6236 0.9519
-4.4466 11.9735 -0.6477 0.9501
-5.3643 11.7805 -0.6565 0.9495
-7.5481 11.7578 -0.7086 0.9456
-8.1343 11.7240 -0.7237 0.9445
-9.5051 11.7959 -0.7683 0.9411
-11.9623 11.9520 -0.8576 0.9345
-12.8462 11.9463 -0.8897 0.9322
-13.7724 11.9160 -0.9236 0.9297
-14.7901 11.8969 -0.9626 0.9268
-15.8844 11.8650 -1.0055 0.9237
-18.4578 11.8269 -1.1117 0.9159
-21.1190 8.6954 -1.1583 0.9126
-37.4778 12.3729 -2.0016 0.8538
-38.2680 9.6560 -2.0016 0.8538
-38.5895 8.2781 -2.0016 0.8538
-39.2552 4.0875 -2.0016 0.8538
-39.4471 1.2645 -2.0016 0.8538
-39.3549 -2.9775 -2.0016 0.8538
-39.0405 -5.7895 -2.0016 0.8538
-38.8078 -7.1852 -2.0016 0.8538
-36.9047 -13.9898 -2.0016 0.8538
-36.3796 -15.3037 -2.0016 0.8538
-35.8076 -16.5979 -2.0016 0.8538
-35.1896 -17.8708 -2.0016 0.8538
-34.5264 -19.1207 -2.0016 0.8538
-31.2472 -18.7989 -1.8494 0.8641
-29.0485 -22.0448 -1.8494 0.8641
-27.3545 -22.3487 -1.7914 0.8681
-25.4422 -22.3541 -1.7176 0.8732
-23.6792 -22.3590 -1.6516 0.8777
-19.0936 -22.3717 -1.4916 0.8889
-15.3976 -22.5576 -1.3851 0.8964
-13.8086 -21.8744 -1.3119 0.9016
-13.0349 -22.3885 -1.3138 0.9014
-10.9708 -22.3943 -1.2647 0.9049
-5.3641 -16.6244 -0.8859 0.9324
-6.3513 -22.4021 -1.1809 0.9110
-5.4925 -22.4045 -1.1699 0.9117
-4.6701 -22.5111 -1.1659 0.9120
-3.8168 -22.4092 -1.1528 0.9130
-2.9950 -22.4114 -1.1467 0.9134
-2.1809 -22.4137 -1.1421 0.9138
-1.3723 -22.4160 -1.1389 0.9140
-0.5671 -22.4182 -1.1373 0.9141
0.2368 -22.4204 -1.1371 0.9141
1.0415 -22.4227 -1.1384 0.9140
2.9967 -36.3429 -1.8494 0.8641
11.5650 -37.7349 -2.0016 0.8538
12.9102 -37.2962 -2.0016 0.8538
14.2388 -36.8094 -2.0016 0.8538
15.5491 -36.2754 -2.0016 0.8538
2.1916 -4.2442 -0.2422 0.9811
20.5741 -33.6806 -2.0016 0.8538
25.1766 -30.3944 -2.0016 0.8538
26.6740 5.8040 -2.0016 0.8963
26.4488 6.7564 -2.0016 0.8963
26.1896 7.7002 -2.0016 0.8963
25.8968 8.6340 -2.0016 0.8963
25.2117 10.4672 -2.0016 0.8963
23.9423 13.1133 -2.0016 0.8963
23.4568 13.9631 -2.0016 0.8963
22.9412 14.7949 -2.0016 0.8963
22.3962 15.6078 -2.0016 0.8963
21.2204 17.1722 -2.0016 0.8963
20.5912 17.9219 -2.0016 0.8963
19.9355 18.6485 -2.0016 0.8963
18.5482 20.0288 -2.0016 0.8963
17.8183 20.6808 -2.0016 0.8963
17.0656 21.3062 -2.0016 0.8963
14.6797 23.0152 -2.0016 0.8963
12.9930 24.0077 -2.0016 0.8963
7.5156 16.6345 -1.3384 0.9294
10.3406 25.2638 -2.0016 0.8963
4.3350 15.0219 -1.1464 0.9392
1.2608 12.3579 -0.9108 0.9514
0.8130 12.3344 -0.9063 0.9516
0.3647 12.1651 -0.8924 0.9524
-0.0714 12.1371 -0.8899 0.9525
-0.9270 11.9232 -0.8769 0.9532
-2.2413 11.9663 -0.8927 0.9523
-2.6703 11.8852 -0.8932 0.9523
-3.1364 11.9408 -0.9052 0.9517
-4.0947 12.0107 -0.9304 0.9504
-4.5461 11.9179 -0.9353 0.9501
-6.6296 11.9126 -0.9996 0.9468
-9.8460 12.0004 -1.1382 0.9396
-10.4710 11.8677 -1.1604 0.9385
-11.3114 11.9295 -1.2054 0.9362
-12.0510 11.8298 -1.2382 0.9345
-14.5639 11.5045 -1.3608 0.9283
-19.9153 11.5396 -1.6877 0.9118
-21.6925 11.5513 -1.8020 0.9061
-22.6734 11.0493 -1.8494 0.9038
-23.0549 10.2294 -1.8494 0.9038
-26.2785 7.3914 -2.0016 0.8963
-26.7405 5.4897 -2.0016 0.8963
-26.9201 4.5276 -2.0016 0.8963
-27.0651 3.5597 -2.0016 0.8963
-27.2506 1.6115 -2.0016 0.8963
-26.5932 -6.1639 -2.0016 0.8963
-26.3551 -7.1131 -2.0016 0.8963
-26.0832 -8.0533 -2.0016 0.8963
-25.0679 -10.8069 -2.0016 0.8963
-23.7629 -13.4355 -2.0016 0.8963
-23.2660 -14.2787 -2.0016 0.8963
-22.7393 -15.1035 -2.0016 0.8963
-20.9291 -16.1763 -1.9395 0.8993
-19.4654 -16.1921 -1.8565 0.9034
-18.1852 -17.4777 -1.8494 0.9038
-17.5470 -18.1183 -1.8494 0.9038
-16.2038 -19.3289 -1.8494 0.9038
-14.0351 -20.9567 -1.8494 0.9038
-13.2749 -21.4464 -1.8494 0.9038
-12.4976 -21.9084 -1.8494 0.9038
-11.7042 -22.3423 -1.8494 0.9038
-10.7269 -22.3949 -1.8207 0.9052
-8.8171 -22.4003 -1.7651 0.9080
-7.9012 -22.3978 -1.7414 0.9091
-6.1382 -22.4027 -1.7032 0.9110
-5.2833 -22.4051 -1.6878 0.9118
-4.3762 -22.0725 -1.6499 0.9137
-2.7938 -22.4120 -1.6560 0.9134
-0.3690 -22.4187 -1.6440 0.9140
0.3343 -17.2329 -1.2638 0.9332
1.2401 -22.4232 -1.6466 0.9139
2.2946 -25.1178 -1.8494 0.9038
3.1935 -25.0194 -1.8494 0.9038
4.9781 -24.7263 -1.8494 0.9038
6.7366 -24.3061 -1.8494 0.9038
7.6035 -24.0490 -1.8494 0.9038
10.9759 -24.9944 -2.0016 0.8963
2.2198 -4.2073 -0.3488 0.9811
13.5958 -23.6716 -2.0016 0.8963
15.2568 -22.6367 -2.0016 0.8963
16.0584 -22.0753 -2.0016 0.8963
18.3355 -20.2238 -2.0016 0.8963
19.0486 -19.5536 -2.0016 0.8963
19.7373 -18.8582 -2.0016 0.8963
20.4006 -18.1386 -2.0016 0.8963
21.6477 -16.6303 -2.0016 0.8963
22.7835 -15.0366 -2.0016 0.8963
23.8023 -13.3657 -2.0016 0.8963
24.2661 -12.5038 -2.0016 0.8963
24.6987 -11.6260 -2.0016 0.8963
25.0996 -10.7332 -2.0016 0.8963
25.4682 -9.8265 -2.0016 0.8963
26.1068 -7.9766 -2.0016 0.8963
26.3759 -7.0357 -2.0016 0.8963
26.8122 -5.1279 -2.0016 0.8963
27.1107 -3.1937 -2.0016 0.8963
27.2078 -2.2199 -2.0016 0.8963
27.2969 -0.2649 -2.0016 0.8963
27.2888 0.7138 -2.0016 0.8963
27.0545 3.6392 -2.0016 0.8963
26.9067 4.6067 -2.0016 0.8963
26.5075 6.5226 -2.0016 0.8963
26.2566 7.4685 -2.0016 0.8963
25.3031 10.2441 -2.0016 0.8963
24.9197 11.1445 -2.0016 0.8963
24.5042 12.0306 -2.0016 0.8963
23.5793 13.7553 -2.0016 0.8963
22.5331 15.4093 -2.0016 0.8963
21.9663 16.2071 -2.0016 0.8963
21.3712 16.9841 -2.0016 0.8963
20.7487 17.7393 -2.0016 0.8963
20.0995 18.4716 -2.0016 0.8963
18.7244 19.8642 -2.0016 0.8963
17.2531 21.1547 -2.0016 0.8963
14.8824 22.8846 -2.0016 0.8963
14.0525 23.4034 -2.0016 0.8963
13.2045 23.8920 -2.0016 0.8963
12.3396 24.3500 -2.0016 0.8963
2.3939 12.9921 -0.9686 0.9484
1.4036 12.6494 -0.9332 0.9502
-0.3982 12.0983 -0.8876 0.9526
-2.1165 11.8792 -0.8847 0.9528
-2.5821 11.9866 -0.8990 0.9520
-3.4545 11.8403 -0.9043 0.9517
-4.4011 11.8509 -0.9269 0.9506
-5.3804 11.8159 -0.9520 0.9493
-5.8988 11.8125 -0.9681 0.9484
-6.4836 11.8964 -0.9934 0.9471
-7.6134 11.8594 -1.0333 0.9450
-11.0168 11.8263 -1.1851 0.9372
-11.9686 11.9583 -1.2405 0.9344
-12.9473 12.0403 -1.2964 0.9315
-13.5624 11.7344 -1.3150 0.9306
-15.4092 11.5101 -1.4102 0.9258
-17.9897 11.5270 -1.5666 0.9179
-19.5114 11.5370 -1.6620 0.9131
-22.5750 11.2491 -1.8494 0.9038
-24.9753 8.2453 -1.9285 0.8999
-26.2122 7.6232 -2.0016 0.8963
-26.6910 5.7256 -2.0016 0.8963
-27.1514 2.8272 -2.0016 0.8963
-27.2353 1.8521 -2.0016 0.8963
-27.2767 -1.0824 -2.0016 0.8963
-26.6466 -5.9287 -2.0016 0.8963
-26.1533 -7.8226 -2.0016 0.8963
-25.8561 -8.7551 -2.0016 0.8963
-25.5257 -9.6763 -2.0016 0.8963
-23.8807 -13.2251 -2.0016 0.8963
-23.3912 -14.0726 -2.0016 0.8963
-22.8718 -14.9021 -2.0016 0.8963
-21.3102 -16.1722 -1.9615 0.8983
-18.9478 -16.6479 -1.8494 0.9038
-16.3739 -19.1851 -1.8494 0.9038
-15.6756 -19.7597 -1.8494 0.9038
-14.2197 -20.8319 -1.8494 0.9038
-12.6906 -21.7972 -1.8494 0.9038
-11.9011 -22.2381 -1.8494 0.9038
-10.9708 -22.3943 -1.8284 0.9048
-9.9932 -22.3970 -1.7982 0.9063
-8.1242 -22.3972 -1.7469 0.9089
-5.3439 -16.5619 -1.2760 0.9326
-6.3513 -22.4021 -1.7073 0.9108
-4.5790 -22.0719 -1.6528 0.9136
-2.9950 -22.4114 -1.6579 0.9133
-1.3723 -22.4160 -1.6467 0.9139
-0.5671 -22.4182 -1.6443 0.9140
0.1821 -17.2406 -1.2642 0.9332
1.0415 -22.4227 -1.6459 0.9139
2.0727 -25.1371 -1.8494 0.9038
2.9724 -25.0466 -1.8494 0.9038
7.3908 -24.1152 -1.8494 0.9038
8.9295 -25.7964 -2.0016 0.8963
11.6472 -24.6887 -2.0016 0.8963
13.3861 -23.7908 -2.0016 0.8963
15.8628 -22.2163 -2.0016 0.8963
16.6490 -21.6334 -2.0016 0.8963
17.4137 -21.0227 -2.0016 0.8963
18.1561 -20.3849 -2.0016 0.8963
20.5176 3.6996 -2.0016 0.9196
19.7782 6.5941 -2.0016 0.9196
19.5291 7.2988 -2.0016 0.9196
19.2550 7.9941 -2.0016 0.9196
17.5210 11.2994 -2.0016 0.9196
16.6664 12.5256 -2.0016 0.9196
16.2067 13.1150 -2.0016 0.9196
15.7262 13.6875 -2.0016 0.9196
12.4419 16.7290 -2.0016 0.9196
11.8342 17.1642 -2.0016 0.9196
9.9232 18.3355 -2.0016 0.9196
6.0009 18.3046 -1.8494 0.9255
1.7626 12.7353 -1.2343 0.9496
-0.0703 11.9456 -1.1469 0.9531
-0.9489 12.2048 -1.1753 0.9520
-1.7929 11.9193 -1.1572 0.9527
-2.6898 11.9721 -1.1780 0.9519
-3.1696 12.0671 -1.1978 0.9511
-3.5893 11.9099 -1.1942 0.9512
-5.0711 11.9852 -1.2494 0.9490
-5.5476 11.9033 -1.2608 0.9486
-6.6679 11.9815 -1.3164 0.9464
-7.0853 11.7219 -1.3150 0.9464
-8.1035 11.4622 -1.3477 0.9452
-11.7006 11.4858 -1.5741 0.9362
-12.5782 11.4915 -1.6357 0.9338
-14.5639 11.5045 -1.7818 0.9281
-15.5342 11.3911 -1.8494 0.9255
-16.3104 10.2489 -1.8494 0.9255
-17.0028 9.0540 -1.8494 0.9255
-17.3164 8.4387 -1.8494 0.9255
-19.8545 6.3608 -2.0016 0.9196
-20.0697 5.6450 -2.0016 0.9196
-20.2592 4.9220 -2.0016 0.9196
-20.4226 4.1926 -2.0016 0.9196
-20.8122 1.2307 -2.0016 0.9196
-20.8469 -0.2635 -2.0016 0.9196
-20.8240 -1.0106 -2.0016 0.9196
-20.7744 -1.7564 -2.0016 0.9196
-20.6981 -2.5000 -2.0016 0.9196
-20.3101 -4.7075 -2.0016 0.9196
-20.1283 -5.4325 -2.0016 0.9196
-19.9206 -6.1506 -2.0016 0.9196
-18.8370 -8.9345 -2.0016 0.9196
-18.5047 -9.6040 -2.0016 0.9196
-17.7690 -10.9051 -2.0016 0.9196
-17.3667 -11.5351 -2.0016 0.9196
-16.9421 -12.1501 -2.0016 0.9196
-15.5398 -13.8987 -2.0016 0.9196
-14.5041 -14.9764 -2.0016 0.9196
-13.9579 -15.4867 -2.0016 0.9196
-13.3678 -15.9460 -1.9977 0.9198
-11.6978 -16.1805 -1.9168 0.9229
-10.8421 -16.1891 -1.8706 0.9247
-10.1385 -16.3793 -1.8494 0.9255
-8.9389 -17.0636 -1.8494 0.9255
-7.6934 -17.6602 -1.8494 0.9255
-7.0554 -17.9246 -1.8494 0.9255
-6.4084 -18.1660 -1.8494 0.9255
-5.1792 -16.5500 -1.6649 0.9327
-1.6961 -19.1883 -1.8494 0.9255
-1.0072 -19.2368 -1.8494 0.9255
-0.3170 -19.2606 -1.8494 0.9255
0.3333 -17.1822 -1.6499 0.9333
1.7525 -19.1833 -1.8494 0.9255
3.1224 -19.0084 -1.8494 0.9255
3.8018 -18.8843 -1.8494 0.9255
4.4763 -18.7358 -1.8494 0.9255
6.2732 -19.8412 -1.9978 0.9198
7.6931 -19.3772 -2.0016 0.9196
9.0616 -18.7763 -2.0016 0.9196
10.3835 -18.0788 -2.0016 0.9196
12.2643 -16.8596 -2.0016 0.9196
14.5480 -14.9337 -2.0016 0.9196
15.0740 -14.4026 -2.0016 0.9196
15.5806 -13.8530 -2.0016 0.9196
17.4005 -11.4840 -2.0016 0.9196
18.1786 -10.2078 -2.0016 0.9196
18.5328 -9.5496 -2.0016 0.9196
18.8632 -8.8791 -2.0016 0.9196
19.1694 -8.1973 -2.0016 0.9196
19.7074 -6.8028 -2.0016 0.9196
19.9386 -6.0920 -2.0016 0.9196
20.7794 -1.6954 -2.0016 0.9196
20.8269 -0.9494 -2.0016 0.9196
20.6624 2.7794 -2.0016 0.9196
20.0530 5.7040 -2.0016 0.9196
19.5928 7.1260 -2.0016 0.9196
19.0320 8.5114 -2.0016 0.9196
18.7146 9.1882 -2.0016 0.9196
16.3219 12.9713 -2.0016 0.9196
15.8464 13.5481 -2.0016 0.9196
15.3506 14.1074 -2.0016 0.9196
13.7474 15.6738 -2.0016 0.9196
13.1768 16.1565 -2.0016 0.9196
12.5891 16.6185 -2.0016 0.9196
7.4541 17.7625 -1.8494 0.9255
6.8126 18.0183 -1.8494 0.9255
6.1624 18.2509 -1.8494 0.9255
4.6707 15.6648 -1.5693 0.9364
2.9013 13.0929 -1.2875 0.9475
2.4434 13.2606 -1.2945 0.9473
1.3738 12.3813 -1.1960 0.9512
0.9168 12.2580 -1.1801 0.9518
0.4799 12.3614 -1.1876 0.9515
0.0357 12.1222 -1.1638 0.9525
-0.8165 11.8560 -1.1409 0.9534
-2.1042 11.8098 -1.1517 0.9529
-3.4540 11.8385 -1.1839 0.9517
-3.9799 12.0204 -1.2156 0.9504
-4.4701 12.0366 -1.2327 0.9497
-4.8848 11.8351 -1.2292 0.9499
-5.9147 11.8443 -1.2710 0.9482
-6.5712 12.0571 -1.3183 0.9463
-7.0640 11.9232 -1.3305 0.9458
-7.9519 11.4612 -1.3392 0.9455
-8.5795 11.4653 -1.3748 0.9441
-9.2423 11.4697 -1.4142 0.9425
-10.6934 11.4792 -1.5061 0.9389
-11.4943 11.4844 -1.5599 0.9368
-12.3556 11.4901 -1.6199 0.9344
-13.2871 11.4962 -1.6868 0.9318
-15.8363 10.9673 -1.8494 0.9255
-16.2193 10.3925 -1.8494 0.9255
-17.2412 8.5913 -1.8494 0.9255
-18.1544 8.2478 -1.9143 0.9230
-19.2548 7.9278 -1.9991 0.9197
-19.5505 7.2414 -2.0016 0.9196
-19.7975 6.5359 -2.0016 0.9196
-20.0191 5.8221 -2.0016 0.9196
-20.2149 5.1008 -2.0016 0.9196
-20.3847 4.3729 -2.0016 0.9196
-20.5284 3.6393 -2.0016 0.9196
-20.8321 -0.8267 -2.0016 0.9196
-20.7891 -1.5729 -2.0016 0.9196
-20.6230 -3.0583 -2.0016 0.9196
-20.5001 -3.7956 -2.0016 0.9196
-20.3508 -4.5280 -2.0016 0.9196
-19.9741 -5.9744 -2.0016 0.9196
-19.2174 -8.0841 -2.0016 0.9196
-18.9152 -8.7678 -2.0016 0.9196
-18.2384 -10.1004 -2.0016 0.9196
-17.8647 -10.7477 -2.0016 0.9196
-17.0487 -12.0000 -2.0016 0.9196
-16.1452 -13.1907 -2.0016 0.9196
-15.1586 -14.3135 -2.0016 0.9196
-11.9151 -16.1783 -1.9290 0.9224
-7.8491 -17.5915 -1.8494 0.9255
-6.5686 -18.1087 -1.8494 0.9255
-5.3312 -16.5224 -1.6668 0.9326
-2.5516 -19.0934 -1.8494 0.9255
-1.8655 -19.1726 -1.8494 0.9255
-1.1771 -19.2272 -1.8494 0.9255
0.1815 -17.1818 -1.6496 0.9333
1.5830 -19.1980 -1.8494 0.9255
2.2701 -19.1289 -1.8494 0.9255
2.9544 -19.0352 -1.8494 0.9255
5.0304 -18.7933 -1.8678 0.9248
6.0892 -19.8681 -1.9950 0.9199
6.8198 -19.7015 -2.0016 0.9196
8.8954 -18.8556 -2.0016 0.9196
10.2234 -18.1698 -2.0016 0.9196
10.8682 -17.7916 -2.0016 0.9196
12.1149 -16.9673 -2.0016 0.9196
13.2994 -16.0557 -2.0016 0.9196
16.6793 2.3938 -2.0016 0.9344
16.3259 4.1705 -2.0016 0.9344
16.1659 4.7530 -2.0016 0.9344
15.9851 5.3295 -2.0016 0.9344
15.5622 6.4610 -2.0016 0.9344
15.3206 7.0147 -2.0016 0.9344
14.7787 8.0943 -2.0016 0.9344
14.1608 9.1324 -2.0016 0.9344
13.0986 10.5998 -2.0016 0.9344
11.4491 12.3630 -2.0016 0.9344
10.5339 13.1516 -2.0016 0.9344
9.5646 13.8725 -2.0016 0.9344
9.0612 14.2064 -2.0016 0.9344
8.5462 14.5221 -2.0016 0.9344
7.4102 13.6922 -1.8494 0.9392
6.9147 13.9491 -1.8494 0.9392
4.8500 14.7941 -1.8494 0.9392
1.7318 12.5130 -1.5005 0.9504
1.2547 12.2978 -1.4684 0.9514
0.7970 12.0914 -1.4394 0.9524
0.3565 11.8927 -1.4133 0.9532
-0.0689 11.7008 -1.3899 0.9540
-0.4809 11.5149 -1.3690 0.9546
-2.1395 11.4231 -1.3805 0.9543
-3.0019 11.4288 -1.4036 0.9535
-3.4452 11.4317 -1.4182 0.9530
-3.8983 11.4346 -1.4350 0.9525
-4.3630 11.4377 -1.4541 0.9519
-4.8408 11.4408 -1.4757 0.9512
-5.3336 11.4440 -1.4998 0.9504
-5.8434 11.4474 -1.5267 0.9495
-8.1035 11.4622 -1.6674 0.9450
-8.7394 11.4664 -1.7126 0.9436
-10.1249 11.4754 -1.8178 0.9402
-10.7123 11.2977 -1.8494 0.9392
-12.5551 9.2065 -1.8494 0.9392
-12.8770 8.7506 -1.8494 0.9392
-13.1824 8.2833 -1.8494 0.9392
-14.2219 8.2407 -1.9525 0.9359
-14.8568 7.9113 -1.9994 0.9344
-15.4021 6.8339 -2.0016 0.9344
-16.0468 5.1409 -2.0016 0.9344
-16.3738 3.9781 -2.0016 0.9344
-16.5059 3.3886 -2.0016 0.9344
-16.7743 1.5970 -2.0016 0.9344
-16.8488 -0.2130 -2.0016 0.9344
-16.8303 -0.8168 -2.0016 0.9344
-16.7902 -1.4196 -2.0016 0.9344
-16.5408 -3.2139 -2.0016 0.9344
-16.4150 -3.8047 -2.0016 0.9344
-15.7027 -6.1117 -2.0016 0.9344
-15.4735 -6.6707 -2.0016 0.9344
-14.9558 -7.7621 -2.0016 0.9344
-14.6680 -8.2933 -2.0016 0.9344
-14.0361 -9.3229 -2.0016 0.9344
-13.3321 -10.3045 -2.0016 0.9344
-12.9542 -10.7758 -2.0016 0.9344
-11.7225 -12.1042 -2.0016 0.9344
-11.2811 -12.5166 -2.0016 0.9344
-10.8251 -12.9129 -2.0016 0.9344
-10.3553 -13.2927 -2.0016 0.9344
-9.8722 -13.6553 -2.0016 0.9344
-9.3764 -14.0004 -2.0016 0.9344
-8.8685 -14.3275 -2.0016 0.9344
-8.3492 -14.6362 -2.0016 0.9344
-7.8192 -14.9261 -2.0016 0.9344
-7.2791 -15.1968 -2.0016 0.9344
-5.5983 -15.8698 -1.9990 0.9345
-5.0187 -16.0374 -1.9961 0.9346
-4.4296 -16.1667 -1.9912 0.9347
-3.8130 -16.1700 -1.9735 0.9353
0.3170 -16.3432 -1.9417 0.9363
0.9111 -16.4732 -1.9598 0.9357
5.0797 -16.0663 -2.0016 0.9344
5.6523 -15.8739 -2.0016 0.9344
6.2177 -15.6610 -2.0016 0.9344
6.7751 -15.4281 -2.0016 0.9344
7.3237 -15.1753 -2.0016 0.9344
2.2198 -4.2073 -0.5651 0.9810
8.3922 -14.6116 -2.0016 0.9344
9.9123 -13.6263 -2.0016 0.9344
11.3178 -12.4834 -2.0016 0.9344
11.7580 -12.0697 -2.0016 0.9344
12.5925 -11.1963 -2.0016 0.9344
13.3623 -10.2653 -2.0016 0.9344
13.7217 -9.7797 -2.0016 0.9344
14.0634 -9.2816 -2.0016 0.9344
14.3871 -8.7715 -2.0016 0.9344
14.6923 -8.2501 -2.0016 0.9344
15.4930 -6.6252 -2.0016 0.9344
15.7206 -6.0656 -2.0016 0.9344
15.9279 -5.4982 -2.0016 0.9344
16.2809 -4.3429 -2.0016 0.9344
16.4261 -3.7565 -2.0016 0.9344
16.5502 -3.1653 -2.0016 0.9344
16.8327 -0.7674 -2.0016 0.9344
16.8494 -0.1635 -2.0016 0.9344
16.8444 0.4406 -2.0016 0.9344
16.8178 1.0441 -2.0016 0.9344
16.3621 4.0261 -2.0016 0.9344
15.8353 5.7594 -2.0016 0.9344
15.3820 6.8791 -2.0016 0.9344
15.1255 7.4261 -2.0016 0.9344
14.8496 7.9635 -2.0016 0.9344
14.5546 8.4907 -2.0016 0.9344
14.2409 9.0069 -2.0016 0.9344
13.1917 10.4837 -2.0016 0.9344
12.8074 10.9498 -2.0016 0.9344
12.4067 11.4019 -2.0016 0.9344
11.9900 11.8392 -2.0016 0.9344
10.6497 13.0580 -2.0016 0.9344
9.6868 13.7874 -2.0016 0.9344
8.6741 14.4460 -2.0016 0.9344
7.5309 13.6263 -1.8494 0.9392
7.0376 13.8874 -1.8494 0.9392
6.5353 14.1308 -1.8494 0.9392
6.0246 14.3560 -1.8494 0.9392
5.5061 14.5627 -1.8494 0.9392
4.9805 14.7507 -1.8494 0.9392
2.8884 13.0347 -1.5859 0.9476
1.3703 12.3500 -1.4760 0.9512
0.4635 11.9410 -1.4195 0.9530
-0.3806 11.5602 -1.3739 0.9545
-0.7861 11.4142 -1.3591 0.9550
-1.1987 11.4170 -1.3636 0.9548
-1.2456 8.8096 -1.0569 0.9648
-2.0351 11.4224 -1.3782 0.9543
-3.3351 11.4310 -1.4144 0.9532
-4.2474 11.4369 -1.4492 0.9520
-4.7217 11.4400 -1.4701 0.9514
-5.7161 11.4466 -1.5198 0.9498
-6.2403 11.4500 -1.5490 0.9488
-7.9519 11.4612 -1.6570 0.9454
-8.5795 11.4653 -1.7010 0.9439
-9.2423 11.4697 -1.7497 0.9424
-9.9450 11.4743 -1.8037 0.9407
-11.0136 11.0041 -1.8494 0.9392
-14.7710 8.0338 -1.9973 0.9345
-15.5811 6.4153 -2.0016 0.9344
-15.8011 5.8526 -2.0016 0.9344
-16.1798 4.7055 -2.0016 0.9344
-16.4753 3.5342 -2.0016 0.9344
-16.5914 2.9414 -2.0016 0.9344
-16.6862 2.3448 -2.0016 0.9344
-16.8500 -0.0642 -2.0016 0.9344
-16.8369 -0.6681 -2.0016 0.9344
-16.8021 -1.2712 -2.0016 0.9344
-16.7458 -1.8727 -2.0016 0.9344
-16.5686 -3.0677 -2.0016 0.9344
-16.4479 -3.6596 -2.0016 0.9344
-15.9600 -5.4042 -2.0016 0.9344
-15.5318 -6.5337 -2.0016 0.9344
-14.7407 -8.1634 -2.0016 0.9344
-14.4386 -8.6865 -2.0016 0.9344
-14.1179 -9.1985 -2.0016 0.9344
-13.7791 -9.6987 -2.0016 0.9344
-13.4226 -10.1863 -2.0016 0.9344
-13.0488 -10.6609 -2.0016 0.9344
-12.6583 -11.1218 -2.0016 0.9344
-12.2515 -11.5684 -2.0016 0.9344
-11.8289 -12.0002 -2.0016 0.9344
-11.3912 -12.4165 -2.0016 0.9344
-10.4723 -13.2007 -2.0016 0.9344
-9.9924 -13.5676 -2.0016 0.9344
-9.4996 -13.9170 -2.0016 0.9344
-8.4781 -14.5619 -2.0016 0.9344
-6.8659 -15.3879 -2.0016 0.9344
-6.3099 -15.6241 -2.0016 0.9344
-5.1619 -15.9979 -1.9968 0.9345
-4.5792 -16.1515 -1.9942 0.9346
-3.9639 -16.1693 -1.9776 0.9351
-2.7549 -16.1745 -1.9490 0.9360
-2.1618 -16.1765 -1.9386 0.9364
-0.9912 -16.1906 -1.9268 0.9367
-0.4106 -16.2339 -1.9290 0.9367
1.3688 -16.6006 -1.9786 0.9351
3.1795 -16.5475 -2.0016 0.9344
4.9375 -16.1105 -2.0016 0.9344
8.2628 -14.6852 -2.0016 0.9344
9.7915 -13.7133 -2.0016 0.9344
10.7488 -12.9765 -2.0016 0.9344
11.2071 -12.5829 -2.0016 0.9344
13.8034 3.0035 -2.0016 0.9445
13.2324 4.9455 -2.0016 0.9445
13.0467 5.4166 -2.0016 0.9445
12.8441 5.8808 -2.0016 0.9445
12.3898 6.7859 -2.0016 0.9445
11.8717 7.6562 -2.0016 0.9445
11.5897 8.0768 -2.0016 0.9445
11.2927 8.4870 -2.0016 0.9445
10.6556 9.2743 -2.0016 0.9445
9.5984 10.3646 -2.0016 0.9445
9.2207 10.7020 -2.0016 0.9445
8.8312 11.0257 -2.0016 0.9445
8.4303 11.3351 -2.0016 0.9445
7.5965 11.9100 -2.0016 0.9445
6.2124 11.4789 -1.8494 0.9486
5.7970 11.6943 -1.8494 0.9486
4.5080 12.2490 -1.8494 0.9486
3.1670 12.6622 -1.8494 0.9486
2.2309 12.7382 -1.8323 0.9491
1.7318 12.5130 -1.7899 0.9502
0.7970 12.0914 -1.7169 0.9522
-0.0689 11.7008 -1.6579 0.9538
-1.3009 11.4176 -1.6282 0.9546
-1.3134 8.7316 -1.2511 0.9650
-2.1395 11.4231 -1.6467 0.9541
-2.5671 11.4259 -1.6593 0.9538
-3.0019 11.4288 -1.6743 0.9534
-3.4452 11.4317 -1.6917 0.9529
-4.3630 11.4377 -1.7345 0.9517
-5.3336 11.4440 -1.7890 0.9503
-7.1479 10.9210 -1.8494 0.9486
-7.5348 10.6577 -1.8494 0.9486
-7.9120 10.3808 -1.8494 0.9486
-8.6354 9.7873 -1.8494 0.9486
-9.9456 8.4526 -1.8494 0.9486
-10.4476 8.2529 -1.8864 0.9476
-11.6694 7.9300 -1.9991 0.9446
-12.4688 6.6396 -2.0016 0.9445
-12.9124 5.7292 -2.0016 0.9445
-13.2897 4.7894 -2.0016 0.9445
-13.4529 4.3099 -2.0016 0.9445
-13.5987 3.8249 -2.0016 0.9445
-14.0058 1.8421 -2.0016 0.9445
-14.1226 0.3279 -2.0016 0.9445
-14.1253 -0.1786 -2.0016 0.9445
-14.0245 -1.6939 -2.0016 0.9445
-13.9547 -2.1955 -2.0016 0.9445
-13.8671 -2.6944 -2.0016 0.9445
-12.6532 -3.4151 -1.8570 0.9484
-12.3761 -4.3128 -1.8570 0.9484
-11.8415 -5.6165 -1.8570 0.9484
-12.2970 -6.9527 -2.0016 0.9445
-12.0398 -7.3890 -2.0016 0.9445
-11.7672 -7.8159 -2.0016 0.9445
-11.4795 -8.2326 -2.0016 0.9445
-11.1770 -8.6388 -2.0016 0.9445
-10.5294 -9.4174 -2.0016 0.9445
-9.4575 -10.4933 -2.0016 0.9445
-8.6814 -11.1440 -2.0016 0.9445
-8.2764 -11.4480 -2.0016 0.9445
-6.5552 -12.5134 -2.0016 0.9445
-6.1025 -12.7403 -2.0016 0.9445
-5.6419 -12.9509 -2.0016 0.9445
-4.6995 -13.3218 -2.0016 0.9445
-4.2190 -13.4817 -2.0016 0.9445
-3.7330 -13.6242 -2.0016 0.9445
-3.2422 -13.7493 -2.0016 0.9445
-2.7473 -13.8567 -2.0016 0.9445
-2.2488 -13.9463 -2.0016 0.9445
-1.7474 -14.0179 -2.0016 0.9445
-1.2438 -14.0715 -2.0016 0.9445
-0.7386 -14.1071 -2.0016 0.9445
-0.2325 -14.1245 -2.0016 0.9445
0.2740 -14.1237 -2.0016 0.9445
0.7801 -14.1048 -2.0016 0.9445
1.2852 -14.0678 -2.0016 0.9445
2.7880 -13.8486 -2.0016 0.9445
3.2826 -13.7397 -2.0016 0.9445
4.2586 -13.4692 -2.0016 0.9445
4.7386 -13.3079 -2.0016 0.9445
6.1399 -12.7223 -2.0016 0.9445
2.2198 -4.2072 -0.6740 0.9810
7.0356 -12.2497 -2.0016 0.9445
8.3100 -11.4236 -2.0016 0.9445
8.7141 -11.1184 -2.0016 0.9445
9.4883 -10.4655 -2.0016 0.9445
9.8574 -10.1187 -2.0016 0.9445
11.2024 -8.6059 -2.0016 0.9445
11.7902 -7.7812 -2.0016 0.9445
12.0615 -7.3536 -2.0016 0.9445
12.5574 -6.4706 -2.0016 0.9445
12.7812 -6.0163 -2.0016 0.9445
13.3532 -4.6094 -2.0016 0.9445
13.5099 -4.1278 -2.0016 0.9445
13.6491 -3.6409 -2.0016 0.9445
13.9611 -2.1546 -2.0016 0.9445
14.0294 -1.6527 -2.0016 0.9445
14.0796 -1.1488 -2.0016 0.9445
14.1117 -0.6433 -2.0016 0.9445
14.1257 -0.1371 -2.0016 0.9445
13.8294 2.8815 -2.0016 0.9445
13.7172 3.3753 -2.0016 0.9445
13.5874 3.8649 -2.0016 0.9445
13.2756 4.8284 -2.0016 0.9445
12.6805 6.2257 -2.0016 0.9445
12.4492 6.6762 -2.0016 0.9445
12.2019 7.1182 -2.0016 0.9445
10.7371 9.1798 -2.0016 0.9445
10.4012 9.5588 -2.0016 0.9445
9.6896 10.2794 -2.0016 0.9445
9.3149 10.6201 -2.0016 0.9445
8.9282 10.9472 -2.0016 0.9445
7.2563 12.0848 -1.9972 0.9446
5.9000 11.6426 -1.8494 0.9486
4.6160 12.2087 -1.8494 0.9486
3.2787 12.6337 -1.8494 0.9486
2.8238 12.7431 -1.8494 0.9486
2.3576 12.7953 -1.8435 0.9488
1.8526 12.5675 -1.7999 0.9500
1.3703 12.3500 -1.7606 0.9510
0.4635 11.9410 -1.6932 0.9529
0.0346 11.7475 -1.6645 0.9536
-0.7861 11.4142 -1.6211 0.9548
-2.0351 11.4224 -1.6439 0.9542
-2.4612 11.4252 -1.6560 0.9539
-2.8941 11.4281 -1.6703 0.9535
-3.3351 11.4310 -1.6872 0.9530
-3.7857 11.4339 -1.7066 0.9525
-4.2474 11.4369 -1.7286 0.9519
-4.7218 11.4400 -1.7536 0.9512
-5.2107 11.4432 -1.7816 0.9505
-5.7161 11.4466 -1.8128 0.9496
-6.2403 11.4500 -1.8476 0.9487
-6.6529 11.2294 -1.8494 0.9486
-7.0512 10.9837 -1.8494 0.9486
-8.1896 10.1633 -1.8494 0.9486
-8.8967 9.5504 -1.8494 0.9486
-9.2333 9.2253 -1.8494 0.9486
-9.8705 8.5401 -1.8494 0.9486
-10.2645 8.2566 -1.8665 0.9482
-12.6436 6.3003 -2.0016 0.9445
-13.0625 5.3783 -2.0016 0.9445
-13.5644 3.9449 -2.0016 0.9445
-13.6971 3.4561 -2.0016 0.9445
-13.9095 2.4659 -2.0016 0.9445
-14.0939 0.9584 -2.0016 0.9445
-14.1192 0.4526 -2.0016 0.9445
-14.0861 -1.0657 -2.0016 0.9445
-13.9736 -2.0722 -2.0016 0.9445
-13.8903 -2.5718 -2.0016 0.9445
-12.7932 -2.8464 -1.8570 0.9484
-12.6829 -3.3032 -1.8570 0.9484
-12.2550 -4.6456 -1.8570 0.9484
-11.8973 -5.5148 -1.8580 0.9484
-12.5953 -6.3964 -2.0016 0.9445
-12.3579 -6.8438 -2.0016 0.9445
-12.1046 -7.2824 -2.0016 0.9445
-11.8358 -7.7116 -2.0016 0.9445
-10.9395 -8.9377 -2.0016 0.9445
-9.9168 -10.0604 -2.0016 0.9445
-9.5498 -10.4094 -2.0016 0.9445
-9.1706 -10.7450 -2.0016 0.9445
-8.3772 -11.3745 -2.0016 0.9445
-7.5407 -11.9454 -2.0016 0.9445
-6.6655 -12.4550 -2.0016 0.9445
-5.7560 -12.9005 -2.0016 0.9445
-5.2899 -13.0986 -2.0016 0.9445
-4.8170 -13.2798 -2.0016 0.9445
-4.3379 -13.4439 -2.0016 0.9445
-3.8532 -13.5907 -2.0016 0.9445
-2.3719 -13.9259 -2.0016 0.9445
-1.8712 -14.0019 -2.0016 0.9445
1.1609 -14.0786 -2.0016 0.9445
1.6648 -14.0280 -2.0016 0.9445
4.1394 -13.5063 -2.0016 0.9445
4.6209 -13.3493 -2.0016 0.9445
5.0964 -13.1750 -2.0016 0.9445
5.5654 -12.9839 -2.0016 0.9445
7.3640 -12.0552 -2.0016 0.9445
8.6156 -11.1950 -2.0016 0.9445
9.0113 -10.8789 -2.0016 0.9445
9.3955 -10.5489 -2.0016 0.9445
11.9571 2.1560 -2.0016 0.9519
11.7719 3.0072 -2.0016 0.9519
11.6565 3.4272 -2.0016 0.9519
11.2212 4.6587 -2.0016 0.9519
11.0470 5.0580 -2.0016 0.9519
10.4402 6.2147 -2.0016 0.9519
10.2107 6.5849 -2.0016 0.9519
9.4448 7.6430 -2.0016 0.9519
8.5697 8.6128 -2.0016 0.9519
8.2555 8.9144 -2.0016 0.9519
7.9306 9.2046 -2.0016 0.9519
7.5955 9.4830 -2.0016 0.9519
6.8966 10.0028 -2.0016 0.9519
6.5336 10.2436 -2.0016 0.9519
6.1532 10.4559 -1.9986 0.9520
5.5642 10.2813 -1.9259 0.9537
4.6221 10.2303 -1.8494 0.9555
3.8773 10.5352 -1.8494 0.9555
3.1125 10.7859 -1.8494 0.9555
2.7239 10.8905 -1.8494 0.9555
2.3318 10.9812 -1.8494 0.9555
1.1394 11.1680 -1.8494 0.9555
0.7384 11.2017 -1.8494 0.9555
-0.8702 11.1922 -1.8494 0.9555
-1.2708 11.1538 -1.8494 0.9555
-1.3104 8.7120 -1.4514 0.9649
-3.2393 10.7485 -1.8494 0.9555
-3.6225 10.6255 -1.8494 0.9555
-4.7422 10.1752 -1.8494 0.9555
-5.8071 9.6073 -1.8494 0.9555
-6.1478 9.3929 -1.8494 0.9555
-6.8050 8.9284 -1.8494 0.9555
-7.1206 8.6787 -1.8494 0.9555
-7.8275 8.2552 -1.8741 0.9549
-8.3974 8.2433 -1.9385 0.9534
-9.2517 7.8629 -2.0002 0.9520
-9.7979 7.1847 -2.0016 0.9519
-10.2875 6.4643 -2.0016 0.9519
-10.9220 5.3225 -2.0016 0.9519
-11.4303 4.1193 -2.0016 0.9519
-11.5706 3.7069 -2.0016 0.9519
-11.6960 3.2898 -2.0016 0.9519
-11.8064 2.8684 -2.0016 0.9519
-11.9017 2.4433 -2.0016 0.9519
-12.1356 -0.5890 -2.0016 0.9519
-12.1067 -1.0236 -2.0016 0.9519
-12.0022 -1.8884 -2.0016 0.9519
-10.9811 -2.5452 -1.8570 0.9553
-10.6444 -3.7094 -1.8570 0.9553
-10.5046 -4.0886 -1.8570 0.9553
-10.1847 -4.8307 -1.8570 0.9553
-9.8124 -5.5479 -1.8570 0.9553
-9.8733 -7.0807 -2.0016 0.9519
-9.0561 -8.0998 -2.0016 0.9519
-8.7600 -8.4192 -2.0016 0.9519
-8.1342 -9.0252 -2.0016 0.9519
-7.8055 -9.3109 -2.0016 0.9519
-7.1184 -9.8462 -2.0016 0.9519
-6.7609 -10.0951 -2.0016 0.9519
-6.3947 -10.3309 -2.0016 0.9519
-5.6380 -10.7625 -2.0016 0.9519
-5.2486 -10.9577 -2.0016 0.9519
-4.4501 -11.3056 -2.0016 0.9519
-4.0420 -11.4578 -2.0016 0.9519
-2.7886 -11.8255 -2.0016 0.9519
-2.3629 -11.9179 -2.0016 0.9519
-1.9342 -11.9949 -2.0016 0.9519
-0.2000 -12.1482 -2.0016 0.9519
0.2356 -12.1476 -2.0016 0.9519
1.5384 -12.0521 -2.0016 0.9519
2.8233 -11.8173 -2.0016 0.9519
3.2451 -11.7085 -2.0016 0.9519
4.0756 -11.4459 -2.0016 0.9519
4.4833 -11.2925 -2.0016 0.9519
5.2808 -10.9422 -2.0016 0.9519
2.2198 -4.2072 -0.7836 0.9809
6.0512 -10.5358 -2.0016 0.9519
6.7905 -10.0752 -2.0016 0.9519
7.1473 -9.8253 -2.0016 0.9519
7.4949 -9.5627 -2.0016 0.9519
8.1607 -9.0012 -2.0016 0.9519
8.4781 -8.7029 -2.0016 0.9519
8.7847 -8.3934 -2.0016 0.9519
9.3634 -7.7424 -2.0016 0.9519
9.6350 -7.4018 -2.0016 0.9519
9.8941 -7.0517 -2.0016 0.9519
10.1405 -6.6925 -2.0016 0.9519
10.5939 -5.9488 -2.0016 0.9519
10.9929 -5.1745 -2.0016 0.9519
11.3354 -4.3736 -2.0016 0.9519
11.6196 -3.5502 -2.0016 0.9519
11.9336 -2.2823 -2.0016 0.9519
12.1096 -0.9880 -2.0016 0.9519
12.1373 -0.5533 -2.0016 0.9519
12.1493 -0.1179 -2.0016 0.9519
12.1265 0.7529 -2.0016 0.9519
12.0917 1.1871 -2.0016 0.9519
11.9756 2.0503 -2.0016 0.9519
11.8944 2.4783 -2.0016 0.9519
11.7980 2.9031 -2.0016 0.9519
11.5596 3.7409 -2.0016 0.9519
11.4181 4.1528 -2.0016 0.9519
11.2619 4.5595 -2.0016 0.9519
10.9063 5.3546 -2.0016 0.9519
10.7074 5.7421 -2.0016 0.9519
10.2684 6.4945 -2.0016 0.9519
10.0291 6.8584 -2.0016 0.9519
9.7768 7.2135 -2.0016 0.9519
9.5119 7.5593 -2.0016 0.9519
9.2348 7.8954 -2.0016 0.9519
8.3339 8.8412 -2.0016 0.9519
8.0116 9.1342 -2.0016 0.9519
7.6790 9.4155 -2.0016 0.9519
7.3366 9.6847 -2.0016 0.9519
6.9847 9.9415 -2.0016 0.9519
6.2508 10.4101 -2.0004 0.9520
5.0745 10.0136 -1.8494 0.9555
4.3440 10.3514 -1.8494 0.9555
3.5912 10.6361 -1.8494 0.9555
3.2077 10.7580 -1.8494 0.9555
2.8200 10.8660 -1.8494 0.9555
2.0342 11.0401 -1.8494 0.9555
1.6372 11.1060 -1.8494 0.9555
0.8373 11.1947 -1.8494 0.9555
0.4355 11.2175 -1.8494 0.9555
-1.2339 8.7262 -1.4519 0.9649
-2.3640 10.9742 -1.8494 0.9555
-3.1442 10.7767 -1.8494 0.9555
-5.3722 9.8571 -1.8494 0.9555
-6.3993 9.2234 -1.8494 0.9555
-6.7258 8.9881 -1.8494 0.9555
-7.0437 8.7412 -1.8494 0.9555
-9.9885 6.9174 -2.0016 0.9519
-10.2300 6.5549 -2.0016 0.9519
-10.4584 6.1840 -2.0016 0.9519
-10.6733 5.8051 -2.0016 0.9519
-11.6665 3.3929 -2.0016 0.9519
-11.8796 2.5484 -2.0016 0.9519
-12.0317 1.6907 -2.0016 0.9519
-12.1436 0.3893 -2.0016 0.9519
-12.1403 -0.4817 -2.0016 0.9519
-12.1152 -0.9166 -2.0016 0.9519
-11.0032 -2.4482 -1.8570 0.9553
-10.9084 -2.8410 -1.8570 0.9553
-10.5403 -3.9956 -1.8570 0.9553
-10.2270 -4.7405 -1.8570 0.9553
-10.0505 -5.1041 -1.8570 0.9553
-10.4110 -6.2635 -2.0016 0.9519
-9.9355 -6.9933 -2.0016 0.9519
-9.6784 -7.3449 -2.0016 0.9519
-9.4089 -7.6871 -2.0016 0.9519
-8.8340 -8.3415 -2.0016 0.9519
-8.2137 -8.9530 -2.0016 0.9519
-7.8875 -9.2416 -2.0016 0.9519
-7.2051 -9.7830 -2.0016 0.9519
-6.8498 -10.0349 -2.0016 0.9519
-6.4857 -10.2740 -2.0016 0.9519
-6.1132 -10.4999 -2.0016 0.9519
-5.3452 -10.9109 -2.0016 0.9519
-4.9507 -11.0955 -2.0016 0.9519
-4.5498 -11.2658 -2.0016 0.9519
-4.1430 -11.4217 -2.0016 0.9519
-3.7309 -11.5629 -2.0016 0.9519
-3.3140 -11.6892 -2.0016 0.9519
-2.8929 -11.8004 -2.0016 0.9519
-2.0400 -11.9774 -2.0016 0.9519
-1.6094 -12.0428 -2.0016 0.9519
-1.1767 -12.0928 -2.0016 0.9519
-0.7424 -12.1272 -2.0016 0.9519
0.1283 -12.1492 -2.0016 0.9519
1.8634 -12.0061 -2.0016 0.9519
2.2926 -11.9316 -2.0016 0.9519
3.1415 -11.7367 -2.0016 0.9519
3.5602 -11.6165 -2.0016 0.9519
3.9743 -11.4815 -2.0016 0.9519
4.3834 -11.3316 -2.0016 0.9519
4.7867 -11.1672 -2.0016 0.9519
5.9579 -10.5888 -2.0016 0.9519
6.3336 -10.3684 -2.0016 0.9519
6.7012 -10.1347 -2.0016 0.9519
7.4101 -9.6286 -2.0016 0.9519
7.7505 -9.3568 -2.0016 0.9519
10.5408 1.5128 -2.0016 0.9576
10.4798 1.8897 -2.0016 0.9576
10.2164 3.0038 -2.0016 0.9576
9.8349 4.0832 -2.0016 0.9576
9.5171 4.7773 -2.0016 0.9576
9.1503 5.4469 -2.0016 0.9576
8.9492 5.7714 -2.0016 0.9576
8.7366 6.0885 -2.0016 0.9576
8.5127 6.3977 -2.0016 0.9576
8.0325 6.9912 -2.0016 0.9576
7.7767 7.2746 -2.0016 0.9576
6.9508 8.0674 -2.0016 0.9576
6.6572 8.3114 -2.0016 0.9576
6.3549 8.5447 -2.0016 0.9576
5.7264 8.9780 -2.0016 0.9576
4.1845 9.2617 -1.9103 0.9595
3.3983 9.2336 -1.8494 0.9607
2.7280 9.4533 -1.8494 0.9607
2.3874 9.5450 -1.8494 0.9607
2.0437 9.6245 -1.8494 0.9607
1.6974 9.6916 -1.8494 0.9607
1.3489 9.7462 -1.8494 0.9607
0.9987 9.7883 -1.8494 0.9607
