ply
format ascii 1.0
element vertex 1539
property float32 x
property float32 y
property float32 z
property float32 I
end_header
-5.4868 -22.4045 1.4304 0.9117
-3.8004 -22.3719 1.4072 0.9131
-2.9828 -22.4115 1.4020 0.9134
-1.3558 -22.4160 1.3926 0.9139
-0.5485 -22.4182 1.3906 0.9140
1.0646 -22.4227 1.3920 0.9140
33.4681 -34.7591 2.9922 0.8242
33.2332 -29.8857 2.7715 0.8360
32.8133 -27.4404 2.6525 0.8425
32.7485 -25.4431 2.5716 0.8469
38.1824 -25.4883 2.8468 0.8319
34.3394 -4.1836 2.1451 0.8705
49.6125 -2.4494 3.0802 0.8195
34.6505 13.9239 2.3157 0.8610
32.4444 15.8325 2.2387 0.8653
28.0855 16.3014 2.0137 0.8780
31.7437 25.1337 2.5107 0.8502
3.5493 24.1192 1.5117 0.9069
2.5248 22.8272 1.4242 0.9121
0.6071 15.8627 0.9844 0.9384
-0.4568 13.5705 0.8420 0.9470
-0.9462 13.5718 0.8436 0.9469
-2.4348 13.5760 0.8553 0.9462
-2.9424 13.5774 0.8615 0.9458
-3.4580 13.5788 0.8689 0.9454
-3.9833 13.5803 0.8776 0.9449
-4.5199 13.5817 0.8876 0.9442
-6.0481 14.5821 0.9789 0.9387
-6.3814 13.9468 0.9511 0.9404
-10.5566 17.7324 1.2797 0.9206
-11.4409 17.7349 1.3087 0.9189
-12.3675 17.7374 1.3409 0.9170
-13.0292 17.3243 1.3442 0.9168
-13.2099 16.3094 1.3015 0.9193
-14.0537 13.9630 1.2285 0.9237
-18.1632 14.5175 1.4419 0.9110
-16.4569 -18.9191 0.9887 0.9045
-13.9601 -20.0568 0.9636 0.9068
-13.9646 -21.6862 1.0171 0.9019
-13.1732 -22.1693 1.0168 0.9019
-12.3337 -22.5661 1.0140 0.9022
-10.2252 -22.3963 0.9708 0.9061
-8.3399 -22.4016 0.9425 0.9087
-7.4338 -22.3991 0.9306 0.9099
-6.5667 -22.4565 0.9226 0.9106
-4.8588 -22.5106 0.9081 0.9119
-1.5562 -22.5910 0.8929 0.9133
-0.7361 -22.4177 0.8844 0.9141
0.0701 -22.4200 0.8840 0.9142
0.8835 -22.5978 0.8917 0.9134
1.6857 -22.4245 0.8867 0.9139
32.6040 -37.0122 1.9449 0.8208
32.8862 -30.0752 1.7572 0.8366
32.6286 -25.7906 1.6400 0.8466
32.6081 -4.2499 1.2966 0.8767
45.3178 8.9020 1.8212 0.8312
32.9552 8.9742 1.3468 0.8722
42.2752 13.1616 1.7459 0.8376
37.5104 13.1748 1.5677 0.8529
35.1769 18.3841 1.5651 0.8531
35.1863 21.7418 1.6309 0.8474
35.0600 23.4459 1.6631 0.8446
35.0707 27.2937 1.7523 0.8370
2.7182 22.8266 0.9064 0.9121
0.7400 15.8623 0.6261 0.9384
-0.4012 15.8655 0.6258 0.9384
-0.9729 15.8671 0.6268 0.9383
-1.5471 15.8687 0.6287 0.9382
-3.9017 15.8752 0.6446 0.9367
-6.2407 13.9464 0.6025 0.9407
-6.8534 13.9481 0.6128 0.9397
-7.4884 13.9499 0.6243 0.9386
-10.2598 17.5666 0.8022 0.9218
-11.2315 17.7343 0.8277 0.9194
-12.1477 17.7368 0.8477 0.9175
-12.9264 14.0345 0.7524 0.9265
-13.8198 13.9623 0.7746 0.9244
-15.4955 13.5529 0.8117 0.9209
-16.6725 13.5562 0.8473 0.9176
-17.9590 13.5597 0.8873 0.9139
-19.3750 13.5637 0.9326 0.9097
-20.9453 13.5680 0.9840 0.9049
-27.4397 -22.3485 1.3954 0.8679
-25.5155 -22.3539 1.3376 0.8730
-23.7422 -22.3588 1.2860 0.8776
-22.1528 -22.4182 1.2427 0.8815
-16.1815 -18.9199 0.9817 0.9051
-13.9611 -20.4205 0.9754 0.9057
-13.8282 -21.8743 1.0204 0.9016
-12.0900 -22.5668 1.0095 0.9026
-10.9805 -22.3942 0.9835 0.9050
-9.9999 -22.3970 0.9672 0.9065
-9.0723 -22.4545 0.9549 0.9076
-5.3656 -16.6317 0.6891 0.9324
-4.6622 -22.5111 0.9065 0.9121
-2.9828 -22.4115 0.8915 0.9135
-2.1835 -22.5893 0.8949 0.9132
1.0646 -22.4227 0.8851 0.9141
32.8838 -36.7061 1.9432 0.8210
32.6127 -31.5203 1.7884 0.8340
32.8949 -27.5087 1.6909 0.8423
32.7485 -25.4431 1.6352 0.8470
38.1824 -25.4883 1.8103 0.8321
30.2088 -18.6317 1.3995 0.8676
34.2938 -4.1781 1.3622 0.8708
41.0720 13.1649 1.7007 0.8414
35.0424 17.1003 1.5375 0.8555
29.8330 17.3157 1.3601 0.8710
35.1874 22.1514 1.6395 0.8467
1.6971 22.8295 0.9027 0.9124
0.6071 15.8627 0.6259 0.9384
0.0365 15.8643 0.6255 0.9385
-0.5341 15.8658 0.6260 0.9384
-1.1062 15.8674 0.6272 0.9383
-1.6813 15.8690 0.6292 0.9381
-1.2572 8.8250 0.3515 0.9649
-2.8466 15.8723 0.6358 0.9375
-4.0429 15.8756 0.6460 0.9365
-4.6571 15.8773 0.6524 0.9359
-6.0481 14.5821 0.6225 0.9388
-7.6396 13.9503 0.6272 0.9383
-11.4409 17.7349 0.8322 0.9190
-12.3675 17.7374 0.8526 0.9171
-13.0292 17.3243 0.8547 0.9169
-13.2099 16.3094 0.8276 0.9194
-13.2131 15.1646 0.7931 0.9226
-13.0804 13.9654 0.7545 0.9263
-14.0537 13.9630 0.7812 0.9238
-17.1869 15.8900 0.9230 0.9106
-16.9614 13.5570 0.8562 0.9167
-19.6117 -22.5459 0.5048 0.8873
-17.7292 -21.9261 0.4763 0.8933
-16.6291 -22.1488 0.4678 0.8951
-15.7001 -22.5567 0.4642 0.8959
-14.2057 -22.0606 0.4432 0.9004
-13.1732 -22.1693 0.4356 0.9020
-8.3399 -22.4016 0.4038 0.9088
-7.4337 -22.3991 0.3987 0.9099
-6.6020 -22.5770 0.3973 0.9102
-4.8588 -22.5106 0.3890 0.9120
-4.0184 -22.5129 0.3863 0.9126
-3.1625 -22.3318 0.3810 0.9137
-2.3698 -22.5446 0.3829 0.9133
-0.7361 -22.4177 0.3789 0.9142
0.0701 -22.4200 0.3787 0.9142
2.1891 -4.3043 0.0816 0.9809
2.3292 -4.1989 0.0811 0.9810
32.6040 -37.0122 0.8332 0.8209
34.1016 -36.0153 0.8378 0.8200
32.8831 -30.0723 0.7527 0.8367
32.6286 -25.7906 0.7025 0.8467
37.8633 -25.7358 0.7733 0.8326
43.0710 13.4093 0.7620 0.8349
38.2057 13.4190 0.6840 0.8504
36.0481 15.6537 0.6639 0.8545
35.1459 18.3679 0.6699 0.8533
35.1815 20.0283 0.6838 0.8505
35.1913 23.5336 0.7151 0.8442
2.6391 13.6909 0.2355 0.9457
2.0995 13.4832 0.2305 0.9469
2.7182 22.8266 0.3883 0.9121
1.0507 12.6955 0.2152 0.9503
-3.3012 15.8735 0.2739 0.9372
-5.1372 15.8786 0.2819 0.9354
-4.4713 12.2929 0.2210 0.9490
-6.0471 14.9315 0.2721 0.9376
-6.2407 13.9464 0.2581 0.9407
-7.4884 13.9499 0.2674 0.9386
-10.2598 17.5666 0.3436 0.9218
-7.9045 12.4811 0.2496 0.9426
-12.9264 14.0345 0.3223 0.9265
-12.4316 12.5598 0.2985 0.9317
-16.9002 15.8892 0.3918 0.9114
-18.1707 15.8927 0.4078 0.9079
-19.5508 15.8965 0.4256 0.9041
-21.0595 15.9007 0.4457 0.8998
-33.2618 23.2853 0.6858 0.8501
-34.5625 22.3890 0.6956 0.8481
-25.5155 -22.3539 0.5730 0.8731
-23.7422 -22.3588 0.5509 0.8777
-22.1528 -22.4182 0.5324 0.8815
-20.5674 -22.3676 0.5133 0.8855
-17.3912 -21.8799 0.4721 0.8942
-14.1602 -19.1928 0.4029 0.9090
-13.0512 -22.3885 0.4377 0.9015
-10.9805 -22.3942 0.4213 0.9050
-9.9999 -22.3970 0.4143 0.9065
-6.3479 -22.4021 0.3933 0.9111
-5.4868 -22.4045 0.3896 0.9119
-3.8004 -22.3719 0.3833 0.9132
-2.1835 -22.5893 0.3834 0.9132
-1.3558 -22.4160 0.3793 0.9141
-0.5484 -22.4182 0.3788 0.9142
0.2597 -22.5961 0.3817 0.9136
2.1981 -4.2340 0.0806 0.9811
32.6127 -31.5203 0.7661 0.8341
33.3829 -30.0204 0.7584 0.8356
38.1824 -25.4883 0.7755 0.8322
47.6204 13.3967 0.8356 0.8204
36.0491 16.0139 0.6663 0.8540
35.2465 17.1999 0.6625 0.8548
29.8161 17.3059 0.5823 0.8712
35.3878 22.2776 0.7063 0.8460
35.1977 25.8660 0.7378 0.8397
35.2033 27.8729 0.7585 0.8356
2.9954 13.5215 0.2339 0.9461
2.5247 22.8272 0.3879 0.9122
-0.5341 15.8658 0.2682 0.9385
-1.2570 8.8237 0.1506 0.9650
-2.2060 12.3005 0.2111 0.9512
-3.4400 15.8739 0.2744 0.9371
-4.0429 15.8756 0.2767 0.9366
-4.0351 12.1248 0.2159 0.9502
-5.7036 12.4654 0.2316 0.9466
-6.1410 12.2384 0.2313 0.9467
-8.6044 12.3404 0.2541 0.9416
-12.3251 12.2455 0.2935 0.9329
-18.4815 15.8936 0.4117 0.9071
-19.8897 15.8975 0.4301 0.9032
-21.4314 15.9018 0.4508 0.8987
-16.6291 -22.1488 -0.1559 0.8951
-15.7001 -22.5567 -0.1547 0.8959
-13.1732 -22.1693 -0.1452 0.9020
-12.3337 -22.5661 -0.1448 0.9022
-9.3412 -22.5744 -0.1375 0.9069
-8.3399 -22.4016 -0.1346 0.9088
-7.4337 -22.3991 -0.1329 0.9099
-6.6020 -22.5770 -0.1324 0.9102
-4.0184 -22.5129 -0.1288 0.9126
2.3291 -4.1988 -0.0270 0.9810
34.1034 -36.0172 -0.2793 0.8200
32.6145 -32.0541 -0.2575 0.8328
32.6286 -25.7906 -0.2342 0.8467
45.3085 8.9001 -0.2600 0.8314
43.0710 13.4093 -0.2540 0.8349
38.0693 13.3711 -0.2272 0.8510
35.9981 15.6319 -0.2210 0.8547
35.6787 17.0427 -0.2226 0.8537
34.4720 21.3005 -0.2281 0.8504
35.1913 23.5336 -0.2384 0.8442
35.1965 25.4143 -0.2444 0.8406
35.2020 27.3959 -0.2511 0.8366
3.0680 13.3202 -0.0770 0.9468
2.0135 12.9310 -0.0737 0.9490
1.5180 12.7478 -0.0723 0.9499
0.5778 12.3844 -0.0698 0.9516
-0.3045 12.0394 -0.0678 0.9530
-0.7601 12.3966 -0.0699 0.9515
-1.1903 12.2092 -0.0691 0.9521
-2.0626 12.0814 -0.0690 0.9522
-2.4875 11.9613 -0.0688 0.9523
-3.4475 12.1284 -0.0710 0.9508
-3.9555 12.2261 -0.0723 0.9499
-4.4168 12.1432 -0.0728 0.9496
-4.8728 12.0319 -0.0731 0.9494
-5.3919 12.0495 -0.0743 0.9486
-6.5012 12.1110 -0.0774 0.9465
-7.6351 12.0556 -0.0803 0.9445
-8.2538 12.0513 -0.0822 0.9432
-8.8426 11.9647 -0.0838 0.9422
-12.0616 12.1859 -0.0965 0.9337
-12.6449 11.8884 -0.0977 0.9329
-15.9862 12.0702 -0.1128 0.9230
-21.5370 11.8473 -0.1384 0.9064
-27.8680 12.8149 -0.1727 0.8845
-25.5155 -22.3539 -0.1910 0.8731
-23.7422 -22.3588 -0.1836 0.8777
-22.2717 -22.5385 -0.1784 0.8810
-20.5674 -22.3676 -0.1711 0.8855
-14.1602 -19.1928 -0.1342 0.9090
-15.4221 -22.5575 -0.1538 0.8965
-13.8282 -21.8743 -0.1457 0.9017
-13.0512 -22.3885 -0.1459 0.9015
-12.0900 -22.5668 -0.1441 0.9027
-10.9805 -22.3942 -0.1404 0.9050
-9.9999 -22.3970 -0.1381 0.9065
-8.1255 -22.3972 -0.1341 0.9091
-6.3479 -22.4021 -0.1311 0.9111
-2.9828 -22.4115 -0.1273 0.9135
-2.1835 -22.5893 -0.1278 0.9132
0.2597 -22.5961 -0.1272 0.9136
1.0646 -22.4227 -0.1264 0.9141
32.8891 -27.5038 -0.2414 0.8424
32.7485 -25.4431 -0.2335 0.8471
37.1869 -26.8049 -0.2581 0.8325
30.2001 -18.6264 -0.1998 0.8677
34.4123 -4.1925 -0.1952 0.8705
32.9143 9.2595 -0.1925 0.8722
37.0819 13.3739 -0.2219 0.8541
35.2381 14.1600 -0.2138 0.8591
36.0138 15.9982 -0.2219 0.8542
35.2465 17.1999 -0.2208 0.8548
34.4725 21.7014 -0.2293 0.8496
35.1925 23.9630 -0.2397 0.8434
35.2033 27.8729 -0.2528 0.8356
4.8217 16.1630 -0.0950 0.9348
3.5137 13.5369 -0.0787 0.9456
2.9832 13.4664 -0.0777 0.9463
1.9208 13.0525 -0.0743 0.9486
1.3869 12.5391 -0.0710 0.9508
0.4761 12.4397 -0.0701 0.9514
0.0279 12.1214 -0.0682 0.9527
-0.4122 12.2447 -0.0690 0.9522
-2.1951 12.2398 -0.0700 0.9515
-4.4252 11.8566 -0.0713 0.9506
-6.0919 12.1406 -0.0765 0.9471
-6.5319 11.9275 -0.0766 0.9471
-8.4002 12.0476 -0.0827 0.9429
-9.1137 12.1180 -0.0854 0.9412
-9.6907 11.9644 -0.0867 0.9403
-11.3605 12.1292 -0.0936 0.9357
-12.2709 12.1917 -0.0974 0.9331
-12.8878 11.9152 -0.0988 0.9322
-14.0518 12.0842 -0.1043 0.9285
-17.3306 11.9177 -0.1184 0.9193
-20.2771 11.8942 -0.1324 0.9103
-24.2744 11.9842 -0.1524 0.8974
-15.7001 -22.5567 -0.7739 0.8959
-13.1732 -22.1693 -0.7261 0.9020
-9.2200 -22.2815 -0.6790 0.9080
-8.3030 -22.3026 -0.6701 0.9092
-5.6717 -22.3487 -0.6492 0.9119
-4.8588 -22.5106 -0.6484 0.9120
-4.0184 -22.5129 -0.6439 0.9126
-2.3535 -22.3900 -0.6339 0.9138
-1.5428 -22.3960 -0.6321 0.9141
-0.7356 -22.4004 -0.6311 0.9142
1.6841 -22.4039 -0.6326 0.9140
2.1891 -4.3042 -0.1360 0.9809
32.8207 -30.0153 -1.2523 0.8370
32.6286 -25.7906 -1.1711 0.8467
32.6076 -4.2498 -0.9259 0.8767
32.9547 8.9740 -0.9617 0.8723
35.6454 12.5198 -1.0638 0.8597
35.0369 13.7398 -1.0597 0.8602
35.6322 17.0205 -1.1119 0.8538
33.8451 17.6881 -1.0753 0.8583
33.4621 19.0495 -1.0842 0.8572
33.6589 20.7980 -1.1141 0.8536
34.1943 22.8669 -1.1583 0.8482
34.9806 27.2235 -1.2481 0.8375
30.0115 27.0335 -1.1373 0.8508
3.6688 13.6632 -0.3984 0.9450
1.4961 12.5637 -0.3563 0.9506
1.0326 12.4772 -0.3525 0.9511
0.1283 12.0233 -0.3386 0.9530
-1.1818 8.8240 -0.2507 0.9650
-2.0339 11.9134 -0.3403 0.9528
-2.4590 11.8238 -0.3401 0.9528
-2.9557 12.0262 -0.3487 0.9517
-4.3394 11.9304 -0.3575 0.9505
-4.9005 12.1002 -0.3676 0.9491
-7.4968 11.8372 -0.3945 0.9455
-10.1632 11.8633 -0.4399 0.9394
-10.9594 11.8989 -0.4555 0.9373
-12.6186 11.8637 -0.4877 0.9330
-15.7707 11.9075 -0.5564 0.9240
-16.9816 11.8882 -0.5837 0.9204
-18.4299 11.9386 -0.6183 0.9159
-20.0836 12.0077 -0.6589 0.9106
-21.3540 11.7466 -0.6863 0.9071
-23.3963 11.7952 -0.7378 0.9005
-25.4513 -22.2976 -0.9528 0.8734
-21.9956 -22.2591 -0.8811 0.8823
-20.4528 -22.2430 -0.8508 0.8861
-17.3912 -21.8799 -0.7871 0.8942
-13.8282 -21.8743 -0.7287 0.9016
-9.9404 -22.2636 -0.6865 0.9070
-8.0912 -22.3025 -0.6680 0.9094
-5.3639 -16.6263 -0.4919 0.9325
-5.4739 -22.3519 -0.6480 0.9120
-3.8009 -22.3752 -0.6391 0.9132
-2.1644 -22.3915 -0.6334 0.9139
-1.3547 -22.3972 -0.6318 0.9141
32.6127 -31.5203 -1.2771 0.8340
33.3184 -29.9625 -1.2617 0.8358
32.8312 -27.4554 -1.2051 0.8426
37.1339 -26.7666 -1.2889 0.8326
38.1824 -25.4883 -1.2927 0.8322
43.7244 -3.7380 -1.2357 0.8389
44.8952 12.6300 -1.3132 0.8298
41.0720 13.1649 -1.2145 0.8415
36.5268 13.1737 -1.0934 0.8561
35.0378 14.0795 -1.0633 0.8598
35.2005 17.1774 -1.1029 0.8549
29.9172 17.3645 -0.9740 0.8707
33.6600 21.1899 -1.1200 0.8529
34.1958 25.1297 -1.1949 0.8438
4.7829 16.0328 -0.4711 0.9352
2.4280 13.1889 -0.3776 0.9478
1.4051 12.7043 -0.3599 0.9501
0.9201 12.3775 -0.3495 0.9515
0.4687 12.2459 -0.3451 0.9521
0.0280 12.1714 -0.3427 0.9525
-0.4070 12.0893 -0.3406 0.9527
-0.8394 12.0409 -0.3399 0.9528
-1.2672 11.9604 -0.3387 0.9530
-2.1425 11.9461 -0.3417 0.9526
-2.6255 12.1151 -0.3491 0.9516
-5.9433 11.8444 -0.3731 0.9484
-6.4721 11.8183 -0.3794 0.9475
-7.1014 11.9287 -0.3909 0.9460
-8.2324 11.8069 -0.4053 0.9440
-8.9475 11.8970 -0.4192 0.9422
-9.6878 11.9609 -0.4334 0.9403
-10.2644 11.7804 -0.4400 0.9394
-11.1601 11.9152 -0.4597 0.9368
-11.8883 11.8115 -0.4719 0.9351
-12.9517 11.9743 -0.4967 0.9318
-14.8440 11.8645 -0.5351 0.9268
-18.6702 11.8737 -0.6230 0.9153
-21.8537 11.7844 -0.6991 0.9054
-24.0684 11.8825 -0.7558 0.8982
-17.7292 -21.9261 -1.4300 0.8932
-16.6291 -22.1488 -1.4046 0.8950
-13.1732 -22.1693 -1.3078 0.9019
-11.2136 -22.3936 -1.2701 0.9046
-9.2686 -22.3990 -1.2294 0.9075
-8.3398 -22.4016 -1.2123 0.9087
-4.0184 -22.5129 -1.1598 0.9125
0.8427 -21.5536 -1.0939 0.9172
7.0418 -27.0372 -1.4169 0.8941
11.3138 -37.8110 -2.0016 0.8538
14.0009 -36.9006 -2.0016 0.8538
15.3182 -36.3735 -2.0016 0.8538
2.1890 -4.3041 -0.2449 0.9808
20.3729 -33.8027 -2.0016 0.8538
21.5747 -33.0486 -2.0016 0.8538
22.7486 -32.2517 -2.0016 0.8538
26.9492 -28.4615 -1.9878 0.8547
26.9730 -26.5095 -1.9180 0.8594
30.8764 -19.4020 -1.8494 0.8641
32.1905 -17.1336 -1.8494 0.8641
36.0076 -15.9599 -1.9974 0.8541
36.6335 -14.6856 -2.0016 0.8538
37.1376 -13.3593 -2.0016 0.8538
38.0014 -10.6568 -2.0016 0.8538
38.3599 -9.2840 -2.0016 0.8538
38.6688 -7.8992 -2.0016 0.8538
38.9278 -6.5042 -2.0016 0.8538
32.4744 -4.2325 -1.6608 0.8771
38.5190 -2.2249 -1.9567 0.8568
39.4581 -0.8582 -2.0016 0.8538
39.4178 1.9787 -2.0016 0.8538
38.9757 6.2104 -2.0016 0.8538
38.7273 7.6074 -2.0016 0.8538
33.9492 13.3132 -1.8494 0.8641
29.7834 16.9553 -1.7381 0.8717
31.0218 19.1686 -1.8494 0.8641
30.3128 20.2712 -1.8494 0.8641
29.5646 21.3477 -1.8494 0.8641
28.7782 22.3966 -1.8494 0.8641
27.2691 24.5632 -1.8613 0.8633
27.2676 26.3978 -1.9247 0.8590
25.2364 30.3447 -2.0016 0.8538
24.1294 31.2322 -2.0016 0.8538
22.9912 32.0793 -2.0016 0.8538
21.8233 32.8849 -2.0016 0.8538
19.4044 34.3678 -2.0016 0.8538
16.8852 35.6730 -2.0016 0.8538
15.5921 36.2569 -2.0016 0.8538
14.2788 36.7939 -2.0016 0.8538
3.0661 13.3118 -0.6928 0.9468
2.4868 12.9008 -0.6663 0.9487
-0.3022 11.9477 -0.6061 0.9533
-0.7388 12.0498 -0.6122 0.9528
-1.1817 8.8229 -0.4514 0.9650
-2.0385 11.9404 -0.6143 0.9526
-2.4423 11.7437 -0.6083 0.9531
-4.8930 12.0818 -0.6611 0.9491
-5.3157 11.8792 -0.6600 0.9492
-5.8165 11.8377 -0.6689 0.9485
-6.3528 11.8344 -0.6812 0.9476
-6.8990 11.8123 -0.6937 0.9467
-7.4639 11.7853 -0.7075 0.9457
-8.0840 11.8033 -0.7255 0.9443
-9.3783 11.7789 -0.7636 0.9415
-10.0919 11.7800 -0.7867 0.9398
-10.9672 11.9074 -0.8210 0.9372
-12.6357 11.8798 -0.8796 0.9329
-14.5789 11.8539 -0.9529 0.9275
-17.0081 11.9067 -1.0529 0.9202
-21.5691 11.8649 -1.2484 0.9061
-23.1530 11.6725 -1.3150 0.9014
-25.1574 11.5684 -1.4043 0.8950
-21.1033 8.7996 -1.1596 0.9125
-37.4245 12.5332 -2.0016 0.8538
-37.8508 11.1799 -2.0016 0.8538
-38.2282 9.8122 -2.0016 0.8538
-38.5562 8.4318 -2.0016 0.8538
-38.8344 7.0404 -2.0016 0.8538
-39.0623 5.6400 -2.0016 0.8538
-39.3666 2.8191 -2.0016 0.8538
-39.4413 -1.4349 -2.0016 0.8538
-39.2363 -4.2647 -2.0016 0.8538
-39.0577 -5.6723 -2.0016 0.8538
-38.8285 -7.0725 -2.0016 0.8538
-38.5492 -8.4636 -2.0016 0.8538
-37.8416 -11.2112 -2.0016 0.8538
-37.4142 -12.5641 -2.0016 0.8538
-36.4149 -15.2195 -2.0016 0.8538
-35.8443 -16.5186 -2.0016 0.8538
-35.2274 -17.7963 -2.0016 0.8538
-30.5895 -19.8512 -1.8494 0.8641
-29.8562 -20.9379 -1.8494 0.8641
-29.0843 -21.9975 -1.8494 0.8641
-27.4397 -22.3485 -1.7947 0.8678
-22.0986 -22.3634 -1.5945 0.8817
-19.1336 -22.3716 -1.4929 0.8888
-17.3912 -21.8799 -1.4173 0.8941
-13.8282 -21.8743 -1.3124 0.9015
-13.0512 -22.3885 -1.3143 0.9014
-11.9960 -22.3914 -1.2883 0.9033
-10.9805 -22.3942 -1.2649 0.9049
-9.0501 -22.3996 -1.2252 0.9078
-5.3633 -16.6245 -0.8859 0.9324
-6.3479 -22.4021 -1.1808 0.9110
-2.1666 -22.4138 -1.1420 0.9138
-0.5485 -22.4182 -1.1373 0.9141
0.2577 -22.4205 -1.1371 0.9141
4.3418 -36.2069 -1.8494 0.8641
8.8902 -38.4531 -2.0016 0.8538
14.3092 -36.7821 -2.0016 0.8538
15.6220 -36.2440 -2.0016 0.8538
2.1981 -4.2339 -0.2419 0.9811
20.6550 -33.6311 -2.0016 0.8538
21.8505 -32.8669 -2.0016 0.8538
23.0177 -32.0603 -2.0016 0.8538
26.3351 -29.3962 -2.0016 0.8538
27.9739 -23.3934 -1.8494 0.8641
28.7966 -22.3728 -1.8494 0.8641
29.5822 -21.3233 -1.8494 0.8641
30.3295 -20.2462 -1.8494 0.8641
30.0848 -18.5553 -1.7926 0.8680
32.3327 -16.8637 -1.8494 0.8641
34.0943 -16.2513 -1.9154 0.8596
36.2145 -15.6904 -2.0016 0.8538
36.7550 -14.3786 -2.0016 0.8538
37.6930 -11.7009 -2.0016 0.8538
38.7336 -7.5754 -2.0016 0.8538
38.9808 -6.1782 -2.0016 0.8538
36.4835 -3.1190 -1.8570 0.8636
39.4194 -1.9462 -2.0016 0.8538
39.3998 2.3085 -2.0016 0.8538
38.9224 6.5363 -2.0016 0.8538
35.4359 8.6073 -1.8494 0.8641
32.7542 9.2145 -1.7256 0.8726
34.7260 11.1308 -1.8494 0.8641
33.8366 13.5968 -1.8494 0.8641
33.3260 14.8042 -1.8494 0.8641
29.6402 17.2037 -1.7380 0.8717
30.8604 19.4275 -1.8494 0.8641
29.3850 21.5943 -1.8494 0.8641
28.5898 22.6365 -1.8494 0.8641
27.2688 24.9793 -1.8754 0.8623
27.2672 26.8429 -1.9405 0.8579
27.0625 28.6285 -1.9979 0.8540
26.0638 29.6371 -2.0016 0.8538
24.9816 30.5548 -2.0016 0.8538
23.8672 31.4330 -2.0016 0.8538
21.5474 33.0664 -2.0016 0.8538
20.3450 33.8195 -2.0016 0.8538
19.1162 34.5289 -2.0016 0.8538
17.8627 35.1937 -2.0016 0.8538
16.5861 35.8131 -2.0016 0.8538
2.9254 13.2053 -0.6859 0.9473
1.3968 12.6294 -0.6444 0.9504
0.9096 12.2363 -0.6223 0.9520
0.0273 11.8763 -0.6023 0.9535
-1.2494 11.7922 -0.6014 0.9536
-1.2565 8.8198 -0.4518 0.9649
-2.5587 11.8071 -0.6127 0.9528
-3.4765 11.8523 -0.6264 0.9517
-3.9801 11.9597 -0.6392 0.9508
-4.4436 11.9059 -0.6445 0.9504
-5.8868 11.7318 -0.6657 0.9488
-6.5038 11.8762 -0.6867 0.9472
-8.9637 11.9186 -0.7563 0.9420
-9.6184 11.8752 -0.7750 0.9406
-10.3145 11.8380 -0.7963 0.9391
-11.1830 11.9397 -0.8296 0.9366
-11.9712 11.8939 -0.8558 0.9346
-12.9035 11.9298 -0.8912 0.9320
-14.7784 11.8121 -0.9595 0.9270
-18.6990 11.8920 -1.1238 0.9151
-20.1626 11.8271 -1.1855 0.9106
-21.8916 11.8048 -1.2613 0.9052
-23.4204 11.5626 -1.3246 0.9007
-28.7170 12.9153 -1.5969 0.8815
-37.0646 13.5606 -2.0016 0.8538
-37.5281 12.2196 -2.0016 0.8538
-37.9431 10.8628 -2.0016 0.8538
-38.3090 9.4920 -2.0016 0.8538
-38.6254 8.1089 -2.0016 0.8538
-39.1082 5.3130 -2.0016 0.8538
-39.3888 2.4897 -2.0016 0.8538
-39.4529 1.0723 -2.0016 0.8538
-39.4659 -0.3465 -2.0016 0.8538
-39.4279 -1.7649 -2.0016 0.8538
-39.3390 -3.1809 -2.0016 0.8538
-39.1992 -4.5929 -2.0016 0.8538
-38.4771 -8.7858 -2.0016 0.8538
-16.5535 -19.0302 -1.8494 0.9038
-15.1436 -20.1703 -1.8494 0.9038
-14.4088 -20.7016 -1.8494 0.9038
-12.8844 -21.6832 -1.8494 0.9038
-12.0966 -22.1323 -1.8494 0.9038
-11.2136 -22.3936 -1.8363 0.9044
-9.2686 -22.3990 -1.7774 0.9074
-8.3399 -22.4016 -1.7527 0.9086
-5.6858 -22.4040 -1.6948 0.9115
-4.7640 -22.0714 -1.6556 0.9134
-3.1670 -22.3632 -1.6561 0.9134
-1.5441 -22.4155 -1.6474 0.9138
1.6857 -22.4245 -1.6488 0.9138
2.7935 -25.0672 -1.8494 0.9038
3.6929 -24.9506 -1.8494 0.9038
4.5874 -24.8017 -1.8494 0.9038
5.4759 -24.6208 -1.8494 0.9038
9.6839 -25.5228 -2.0016 0.8963
10.5951 -25.1582 -2.0016 0.8963
11.4925 -24.7611 -2.0016 0.8963
14.0912 -23.3801 -2.0016 0.8963
14.9224 -22.8585 -2.0016 0.8963
15.7344 -22.3074 -2.0016 0.8963
17.2963 -21.1193 -2.0016 0.8963
18.0443 -20.4840 -2.0016 0.8963
19.4693 -19.1347 -2.0016 0.8963
20.1445 -18.4226 -2.0016 0.8963
20.7936 -17.6866 -2.0016 0.8963
21.4159 -16.9277 -2.0016 0.8963
22.0105 -16.1470 -2.0016 0.8963
22.5767 -15.3455 -2.0016 0.8963
24.0974 -12.8260 -2.0016 0.8963
24.5428 -11.9515 -2.0016 0.8963
25.3380 -10.1575 -2.0016 0.8963
26.5322 -6.4214 -2.0016 0.8963
26.7458 -5.4636 -2.0016 0.8963
26.9249 -4.4987 -2.0016 0.8963
27.1786 -2.5527 -2.0016 0.8963
27.2528 -1.5742 -2.0016 0.8963
27.2917 -0.5936 -2.0016 0.8963
27.2954 0.3878 -2.0016 0.8963
27.2638 1.3686 -2.0016 0.8963
26.9581 4.2955 -2.0016 0.8963
26.7863 5.2617 -2.0016 0.8963
26.3391 7.1725 -2.0016 0.8963
26.0642 8.1146 -2.0016 0.8963
25.7557 9.0462 -2.0016 0.8963
25.0393 10.8731 -2.0016 0.8963
24.6323 11.7661 -2.0016 0.8963
23.7233 13.5053 -2.0016 0.8963
22.1317 15.9806 -2.0016 0.8963
20.2828 18.2701 -2.0016 0.8963
19.6130 18.9874 -2.0016 0.8963
18.9179 19.6801 -2.0016 0.8963
18.1983 20.3473 -2.0016 0.8963
15.0944 22.7453 -2.0016 0.8963
13.4213 23.7710 -2.0016 0.8963
12.5582 24.2380 -2.0016 0.8963
10.7845 25.0777 -2.0016 0.8963
3.6414 13.5610 -1.0295 0.9452
2.5108 13.0252 -0.9726 0.9482
1.5048 12.6372 -0.9331 0.9502
0.5702 12.2215 -0.8971 0.9521
0.1285 12.0439 -0.8831 0.9528
-0.3034 11.9960 -0.8799 0.9530
-0.7300 11.9055 -0.8746 0.9533
-1.1677 11.9773 -0.8824 0.9529
-1.1815 8.8218 -0.6526 0.9649
-2.5223 12.1283 -0.9083 0.9515
-2.9504 12.0047 -0.9064 0.9516
-4.3318 11.9096 -0.9292 0.9504
-4.8160 11.8916 -0.9407 0.9498
-6.4225 11.9643 -0.9957 0.9470
-6.9880 11.9648 -1.0160 0.9459
-7.4562 11.7731 -1.0218 0.9456
-8.1313 11.8725 -1.0551 0.9439
-8.7940 11.8988 -1.0849 0.9424
-9.4061 11.8139 -1.1072 0.9412
-11.7536 11.8747 -1.2251 0.9352
-14.1459 11.5018 -1.3368 0.9295
-15.2429 11.5090 -1.4004 0.9263
-19.2939 11.5355 -1.6482 0.9138
-20.9906 11.5467 -1.7566 0.9084
-22.9157 10.5376 -1.8494 0.9038
-23.6135 8.8641 -1.8494 0.9038
-24.6333 8.2495 -1.9048 0.9011
-26.4411 6.7867 -2.0016 0.8963
-27.0180 3.9010 -2.0016 0.8963
-27.2284 1.9499 -2.0016 0.8963
-27.2809 0.9699 -2.0016 0.8963
-27.2982 -0.0113 -2.0016 0.8963
-25.1780 -2.7367 -1.8570 0.9034
-24.9164 -4.5384 -1.8570 0.9034
-26.4355 -6.8086 -2.0016 0.8963
-25.8780 -8.6901 -2.0016 0.8963
-24.7922 -11.4253 -2.0016 0.8963
-24.3655 -12.3090 -2.0016 0.8963
-23.9073 -13.1769 -2.0016 0.8963
-22.3500 -15.6738 -2.0016 0.8963
-19.8751 -16.1874 -1.8795 0.9023
-18.9715 -16.6208 -1.8494 0.9038
-17.7284 -17.9408 -1.8494 0.9038
-17.0721 -18.5664 -1.8494 0.9038
-16.3937 -19.1681 -1.8494 0.9038
-15.6942 -19.7449 -1.8494 0.9038
-10.9805 -22.3942 -1.8288 0.9048
-8.1255 -22.3972 -1.7469 0.9089
-5.3431 -16.5619 -1.2760 0.9326
-2.9828 -22.4115 -1.6577 0.9133
-0.5485 -22.4182 -1.6442 0.9140
0.1981 -17.2356 -1.2638 0.9332
1.0646 -22.4227 -1.6459 0.9139
3.0031 -25.0430 -1.8494 0.9038
4.7947 -24.7625 -1.8494 0.9038
6.5611 -24.3541 -1.8494 0.9038
7.4322 -24.1025 -1.8494 0.9038
9.8971 -25.4408 -2.0016 0.8963
11.6993 -24.6641 -2.0016 0.8963
2.1981 -4.2339 -0.3498 0.9810
14.2863 -23.2614 -2.0016 0.8963
15.9205 -22.1749 -2.0016 0.8963
16.7073 -21.5884 -2.0016 0.8963
18.9341 -19.6644 -2.0016 0.8963
20.2979 -18.2534 -2.0016 0.8963
20.9409 -17.5120 -2.0016 0.8963
23.2344 -14.3302 -2.0016 0.8963
24.6420 -11.7458 -2.0016 0.8963
25.7632 -9.0249 -2.0016 0.8963
26.5850 -6.1992 -2.0016 0.8963
26.7906 -5.2396 -2.0016 0.8963
27.0978 -3.3014 -2.0016 0.8963
27.2957 -0.3652 -2.0016 0.8963
27.2514 1.5967 -2.0016 0.8963
27.0663 3.5504 -2.0016 0.8963
26.9212 4.5209 -2.0016 0.8963
26.5269 6.4433 -2.0016 0.8963
25.9954 8.3324 -2.0016 0.8963
25.6791 9.2614 -2.0016 0.8963
24.9474 11.0823 -2.0016 0.8963
23.6095 13.7034 -2.0016 0.8963
22.5640 15.3641 -2.0016 0.8963
21.4019 16.9454 -2.0016 0.8963
20.7790 17.7038 -2.0016 0.8963
18.0274 20.4989 -2.0016 0.8963
16.5081 21.7410 -2.0016 0.8963
14.0719 23.3917 -2.0016 0.8963
12.3550 24.3422 -2.0016 0.8963
7.7034 16.6332 -1.3440 0.9291
9.6629 25.5308 -2.0016 0.8963
8.0744 23.8951 -1.8494 0.9038
4.7834 16.0344 -1.2269 0.9351
2.3925 12.9961 -0.9689 0.9484
1.8749 12.7406 -0.9442 0.9497
1.3944 12.6070 -0.9300 0.9504
-0.8272 11.8652 -0.8721 0.9534
-1.2848 12.1263 -0.8941 0.9523
-2.1295 11.8736 -0.8845 0.9528
-2.5919 11.9601 -0.8973 0.9521
-4.0092 12.0472 -0.9310 0.9504
-4.3985 11.7850 -0.9223 0.9508
-5.4432 11.8963 -0.9592 0.9489
-5.9927 11.9427 -0.9797 0.9478
-8.2485 11.8300 -1.0574 0.9438
-9.6075 11.8617 -1.1192 0.9406
-11.9773 11.8999 -1.2380 0.9345
-12.9389 11.9625 -1.2920 0.9318
-13.5976 11.6936 -1.3150 0.9306
-14.3922 11.5034 -1.3509 0.9288
-18.1265 11.5279 -1.5751 0.9174
-19.6698 11.5380 -1.6720 0.9126
-21.0342 8.5649 -1.6652 0.9129
-25.3099 8.2412 -1.9517 0.8987
-26.2438 7.5134 -2.0016 0.8963
-26.4969 6.5653 -2.0016 0.8963
-26.7158 5.6086 -2.0016 0.8963
-26.9001 4.6447 -2.0016 0.8963
-27.0497 3.6748 -2.0016 0.8963
-27.1643 2.7002 -2.0016 0.8963
-27.2881 0.7417 -2.0016 0.8963
-27.2971 -0.2397 -2.0016 0.8963
-25.0321 -3.8495 -1.8570 0.9034
-24.8775 -4.7467 -1.8570 0.9034
-13.6815 -15.7285 -2.0014 0.9196
-13.0604 -16.1520 -1.9942 0.9199
-12.1446 -16.1759 -1.9419 0.9219
-11.2651 -16.1849 -1.8932 0.9238
-8.6251 -17.2243 -1.8494 0.9255
-8.0004 -17.5232 -1.8494 0.9255
-7.3654 -17.7995 -1.8494 0.9255
-6.7208 -18.0527 -1.8494 0.9255
-4.7385 -18.6713 -1.8494 0.9255
-4.0643 -18.8295 -1.8494 0.9255
-3.3848 -18.9634 -1.8494 0.9255
-2.7010 -19.0729 -1.8494 0.9255
-2.0137 -19.1576 -1.8494 0.9255
-1.3238 -19.2176 -1.8494 0.9255
0.0602 -19.2631 -1.8494 0.9255
0.7526 -19.2484 -1.8494 0.9255
2.8202 -19.0556 -1.8494 0.9255
4.1819 -18.8037 -1.8494 0.9255
5.9021 -19.7251 -1.9767 0.9206
8.7772 -18.9109 -2.0016 0.9196
2.1889 -4.3039 -0.4636 0.9808
10.7619 -17.8561 -2.0016 0.9196
11.3968 -17.4578 -2.0016 0.9196
12.6215 -16.5939 -2.0016 0.9196
13.7810 -15.6443 -2.0016 0.9196
14.3344 -15.1388 -2.0016 0.9196
15.3850 -14.0699 -2.0016 0.9196
16.8101 -12.3320 -2.0016 0.9196
17.2425 -11.7198 -2.0016 0.9196
17.6527 -11.0925 -2.0016 0.9196
18.4040 -9.7956 -2.0016 0.9196
19.0601 -8.4481 -2.0016 0.9196
19.3515 -7.7576 -2.0016 0.9196
19.6178 -7.0570 -2.0016 0.9196
19.8588 -6.3473 -2.0016 0.9196
20.0741 -5.6294 -2.0016 0.9196
20.2635 -4.9042 -2.0016 0.9196
20.4267 -4.1727 -2.0016 0.9196
20.6736 -2.6944 -2.0016 0.9196
20.8223 1.0453 -2.0016 0.9196
20.6934 2.5385 -2.0016 0.9196
20.5888 3.2806 -2.0016 0.9196
20.4575 4.0186 -2.0016 0.9196
20.1160 5.4779 -2.0016 0.9196
19.9061 6.1974 -2.0016 0.9196
19.4094 7.6114 -2.0016 0.9196
18.4773 9.6566 -2.0016 0.9196
17.7358 10.9591 -2.0016 0.9196
17.3304 11.5895 -2.0016 0.9196
16.9027 12.2049 -2.0016 0.9196
16.4531 12.8046 -2.0016 0.9196
15.9822 13.3877 -2.0016 0.9196
14.4482 15.0303 -2.0016 0.9196
13.3310 16.0294 -2.0016 0.9196
12.7463 16.4983 -2.0016 0.9196
11.5281 17.3713 -2.0016 0.9196
8.2413 17.4112 -1.8494 0.9255
6.9692 17.9583 -1.8494 0.9255
6.3192 18.1972 -1.8494 0.9255
3.5843 13.3487 -1.3269 0.9460
2.5433 13.1940 -1.2900 0.9474
1.9792 12.7104 -1.2350 0.9496
1.0141 12.2536 -1.1804 0.9518
0.5648 12.1070 -1.1636 0.9525
0.1280 11.9964 -1.1518 0.9529
-0.3027 11.9707 -1.1496 0.9530
-0.7434 12.1244 -1.1662 0.9524
-1.1756 12.0576 -1.1631 0.9525
-2.4802 11.9262 -1.1695 0.9522
-2.9199 11.8807 -1.1746 0.9520
-4.3031 11.8306 -1.2086 0.9507
-4.7995 11.8509 -1.2275 0.9499
-7.8492 11.4605 -1.3336 0.9457
-8.4731 11.4646 -1.3686 0.9443
-9.8293 11.4735 -1.4505 0.9411
-10.5721 11.4784 -1.4982 0.9392
-12.2202 11.4892 -1.6103 0.9348
-14.1459 11.5018 -1.7503 0.9294
-15.7805 11.0473 -1.8494 0.9255
-16.1674 10.4730 -1.8494 0.9255
-17.2009 8.6718 -1.8494 0.9255
-17.9434 8.2511 -1.8961 0.9237
-19.7694 6.6206 -2.0016 0.9196
-20.1939 5.1832 -2.0016 0.9196
-20.5141 3.7191 -2.0016 0.9196
-20.7283 2.2357 -2.0016 0.9196
-20.8353 0.7408 -2.0016 0.9196
-20.8485 -0.0086 -2.0016 0.9196
-20.7264 -2.2528 -2.0016 0.9196
-20.3635 -4.4709 -2.0016 0.9196
-20.1896 -5.1999 -2.0016 0.9196
-19.9897 -5.9222 -2.0016 0.9196
-19.7639 -6.6369 -2.0016 0.9196
-19.2360 -8.0396 -2.0016 0.9196
-18.9346 -8.7259 -2.0016 0.9196
-18.6087 -9.4008 -2.0016 0.9196
-18.2588 -10.0636 -2.0016 0.9196
-17.8853 -10.7134 -2.0016 0.9196
-16.1653 -13.1660 -2.0016 0.9196
-15.1777 -14.2933 -2.0016 0.9196
-14.1116 -15.3468 -2.0016 0.9196
-13.5379 -15.8290 -1.9997 0.9197
-11.9359 -16.1780 -1.9301 0.9224
-11.0666 -16.1869 -1.8825 0.9242
-10.2932 -16.2825 -1.8494 0.9255
-9.7013 -16.6419 -1.8494 0.9255
-8.4806 -17.2959 -1.8494 0.9255
-7.8535 -17.5896 -1.8494 0.9255
-7.2162 -17.8605 -1.8494 0.9255
-6.5695 -18.1083 -1.8494 0.9255
-5.3304 -16.5224 -1.6667 0.9326
-5.2516 -18.5335 -1.8494 0.9255
-4.5821 -18.7103 -1.8494 0.9255
-3.9066 -18.8629 -1.8494 0.9255
-3.2261 -18.9911 -1.8494 0.9255
-1.8534 -19.1738 -1.8494 0.9255
-1.1630 -19.2280 -1.8494 0.9255
-0.4711 -19.2574 -1.8494 0.9255
0.1975 -17.1818 -1.6496 0.9333
0.9136 -19.2415 -1.8494 0.9255
1.6046 -19.1962 -1.8494 0.9255
2.9796 -19.0313 -1.8494 0.9255
3.6617 -18.9119 -1.8494 0.9255
6.8555 -19.6891 -2.0016 0.9196
7.5588 -19.4300 -2.0016 0.9196
8.9351 -18.8368 -2.0016 0.9196
2.1981 -4.2338 -0.4580 0.9810
12.1590 -16.9357 -2.0016 0.9196
12.7599 -16.4877 -2.0016 0.9196
13.9114 -15.5284 -2.0016 0.9196
15.5022 -13.9407 -2.0016 0.9196
17.7448 -10.9444 -2.0016 0.9196
18.1268 -10.2995 -2.0016 0.9196
18.8199 -8.9706 -2.0016 0.9196
19.4157 -7.5954 -2.0016 0.9196
19.9112 -6.1809 -2.0016 0.9196
20.1205 -5.4613 -2.0016 0.9196
20.5915 -3.2636 -2.0016 0.9196
20.7727 -1.7759 -2.0016 0.9196
20.5606 3.4528 -2.0016 0.9196
20.4232 4.1896 -2.0016 0.9196
20.2594 4.9210 -2.0016 0.9196
19.6120 7.0732 -2.0016 0.9196
18.7366 9.1432 -2.0016 0.9196
18.3959 9.8108 -2.0016 0.9196
17.6435 11.1071 -2.0016 0.9196
16.3454 12.9418 -2.0016 0.9196
15.3734 14.0826 -2.0016 0.9196
14.8572 14.6261 -2.0016 0.9196
14.3219 15.1507 -2.0016 0.9196
13.7681 15.6557 -2.0016 0.9196
13.1965 16.1404 -2.0016 0.9196
12.0028 17.0468 -2.0016 0.9196
7.4618 17.7592 -1.8494 0.9255
6.8187 18.0160 -1.8494 0.9255
4.6814 15.6927 -1.5722 0.9363
3.4490 13.2876 -1.3180 0.9463
2.9007 13.0936 -1.2875 0.9475
1.3702 12.3886 -1.1966 0.9511
0.0279 12.1233 -1.1639 0.9525
-0.4030 11.9709 -1.1499 0.9530
-0.8294 11.8971 -1.1450 0.9532
-3.0417 11.9441 -1.1833 0.9517
-3.4780 11.8574 -1.1863 0.9516
-3.9878 11.9828 -1.2124 0.9505
-4.4779 11.9979 -1.2295 0.9498
-4.9014 11.8173 -1.2282 0.9499
-5.4210 11.8477 -1.2509 0.9490
-5.9266 11.8111 -1.2687 0.9483
-6.5506 11.9616 -1.3093 0.9467
-7.0065 11.7692 -1.3150 0.9464
-7.9915 11.4615 -1.3414 0.9454
-9.2902 11.4700 -1.4171 0.9424
-9.9979 11.4746 -1.4611 0.9407
-11.5595 11.4849 -1.5644 0.9366
-15.8724 10.9149 -1.8494 0.9255
-16.9551 9.1429 -1.8494 0.9255
-17.2728 8.5276 -1.8494 0.9255
-18.3324 8.2449 -1.9298 0.9224
-20.0433 5.7383 -2.0016 0.9196
-20.2366 5.0141 -2.0016 0.9196
-20.4037 4.2835 -2.0016 0.9196
-20.5445 3.5473 -2.0016 0.9196
-20.6587 2.8066 -2.0016 0.9196
-20.8408 0.5664 -2.0016 0.9196
-20.7807 -1.6803 -2.0016 0.9196
-20.7069 -2.4262 -2.0016 0.9196
-20.4790 -3.9075 -2.0016 0.9196
-20.3254 -4.6411 -2.0016 0.9196
-6.4427 -15.5698 -2.0016 0.9344
-5.8756 -15.7825 -2.0004 0.9344
-4.7132 -16.1179 -1.9948 0.9346
-3.4906 -16.1715 -1.9652 0.9355
-2.8870 -16.1741 -1.9516 0.9360
-1.7005 -16.1776 -1.9323 0.9366
0.6415 -16.4062 -1.9503 0.9360
1.2450 -16.5628 -1.9730 0.9353
4.2469 -16.3062 -2.0016 0.9344
4.8303 -16.1430 -2.0016 0.9344
2.1889 -4.3038 -0.5736 0.9807
9.7123 -13.7695 -2.0016 0.9344
10.6764 -13.0362 -2.0016 0.9344
11.1381 -12.6440 -2.0016 0.9344
11.5853 -12.2355 -2.0016 0.9344
12.4344 -11.3716 -2.0016 0.9344
12.8351 -10.9173 -2.0016 0.9344
13.5863 -9.9670 -2.0016 0.9344
13.9358 -9.4722 -2.0016 0.9344
14.5802 -8.4465 -2.0016 0.9344
14.8744 -7.9170 -2.0016 0.9344
15.1494 -7.3772 -2.0016 0.9344
15.6402 -6.2698 -2.0016 0.9344
15.8555 -5.7036 -2.0016 0.9344
16.2243 -4.5498 -2.0016 0.9344
16.3773 -3.9637 -2.0016 0.9344
16.7763 -1.5757 -2.0016 0.9344
16.8221 -0.9717 -2.0016 0.9344
16.8485 0.2394 -2.0016 0.9344
16.7248 2.0516 -2.0016 0.9344
16.6402 2.6515 -2.0016 0.9344
16.5342 3.2479 -2.0016 0.9344
16.2581 4.4273 -2.0016 0.9344
16.0885 5.0088 -2.0016 0.9344
15.8981 5.5839 -2.0016 0.9344
15.6871 6.1517 -2.0016 0.9344
14.9337 7.8046 -2.0016 0.9344
14.6435 8.3364 -2.0016 0.9344
14.3344 8.8573 -2.0016 0.9344
13.6611 9.8642 -2.0016 0.9344
13.2977 10.3489 -2.0016 0.9344
12.5198 11.2775 -2.0016 0.9344
12.1064 11.7202 -2.0016 0.9344
11.2331 12.5597 -2.0016 0.9344
10.7744 12.9553 -2.0016 0.9344
10.3018 13.3342 -2.0016 0.9344
9.8158 13.6959 -2.0016 0.9344
9.3172 14.0398 -2.0016 0.9344
7.1623 13.8236 -1.8494 0.9392
6.1507 14.3024 -1.8494 0.9392
5.6326 14.5142 -1.8494 0.9392
5.1073 14.7073 -1.8494 0.9392
3.0154 13.0920 -1.5959 0.9473
2.4768 12.8491 -1.5544 0.9487
1.9648 12.6181 -1.5169 0.9499
1.4763 12.3978 -1.4831 0.9510
1.0085 12.1868 -1.4526 0.9519
0.5591 11.9841 -1.4251 0.9528
-0.2934 11.5995 -1.3783 0.9543
-1.1130 11.4164 -1.3625 0.9548
-1.9500 11.4219 -1.3764 0.9544
-4.6329 11.4395 -1.4661 0.9515
-5.1203 11.4427 -1.4891 0.9508
-6.1461 11.4494 -1.5436 0.9490
-7.8492 11.4605 -1.6500 0.9456
-8.4731 11.4646 -1.6934 0.9442
-9.1315 11.4689 -1.7414 0.9427
-9.8293 11.4735 -1.7946 0.9410
-10.9523 11.0652 -1.8494 0.9392
-12.0797 9.8219 -1.8494 0.9392
-15.0462 7.5855 -2.0016 0.9344
-15.3091 7.0398 -2.0016 0.9344
-15.7753 5.9218 -2.0016 0.9344
-15.9780 5.3509 -2.0016 0.9344
-16.1600 4.7731 -2.0016 0.9344
-16.3211 4.1892 -2.0016 0.9344
-16.4611 3.5998 -2.0016 0.9344
-16.5799 3.0058 -2.0016 0.9344
-16.6772 2.4080 -2.0016 0.9344
-16.7530 1.8069 -2.0016 0.9344
-16.8071 1.2036 -2.0016 0.9344
-16.8395 0.5987 -2.0016 0.9344
-16.8390 -0.6126 -2.0016 0.9344
-16.6752 -2.4217 -2.0016 0.9344
-16.5774 -3.0195 -2.0016 0.9344
-16.3176 -4.2027 -2.0016 0.9344
-15.7704 -5.9348 -2.0016 0.9344
-15.5469 -6.4978 -2.0016 0.9344
-15.0399 -7.5979 -2.0016 0.9344
-14.7571 -8.1336 -2.0016 0.9344
-14.4552 -8.6588 -2.0016 0.9344
-13.7958 -9.6749 -2.0016 0.9344
-13.4391 -10.1645 -2.0016 0.9344
-13.0651 -10.6410 -2.0016 0.9344
-11.8437 -11.9856 -2.0016 0.9344
-11.4053 -12.4035 -2.0016 0.9344
-10.9521 -12.8055 -2.0016 0.9344
-10.4847 -13.1909 -2.0016 0.9344
-10.0038 -13.5592 -2.0016 0.9344
-9.5100 -13.9100 -2.0016 0.9344
-9.0038 -14.2428 -2.0016 0.9344
-7.4183 -15.1293 -2.0016 0.9344
-6.8697 -15.3862 -2.0016 0.9344
-6.3122 -15.6232 -2.0016 0.9344
-5.7413 -15.8254 -1.9997 0.9344
-4.5768 -16.1521 -1.9942 0.9346
-2.7476 -16.1746 -1.9488 0.9360
-2.1530 -16.1765 -1.9385 0.9364
-1.5638 -16.1779 -1.9307 0.9366
-0.9793 -16.1909 -1.9268 0.9368
-0.3972 -16.2350 -1.9291 0.9367
0.7806 -16.4408 -1.9551 0.9358
2.0008 -16.6846 -1.9961 0.9346
3.7956 -16.4171 -2.0016 0.9344
5.5407 -15.9131 -2.0016 0.9344
6.1091 -15.7037 -2.0016 0.9344
6.6696 -15.4740 -2.0016 0.9344
2.1981 -4.2338 -0.5667 0.9810
10.3128 -13.3257 -2.0016 0.9344
10.7851 -12.9464 -2.0016 0.9344
11.2435 -12.5504 -2.0016 0.9344
12.5291 -11.2671 -2.0016 0.9344
12.9260 -10.8095 -2.0016 0.9344
13.6692 -9.8530 -2.0016 0.9344
14.0145 -9.3553 -2.0016 0.9344
14.3417 -8.8455 -2.0016 0.9344
14.6504 -8.3243 -2.0016 0.9344
14.9402 -7.7923 -2.0016 0.9344
15.2106 -7.2502 -2.0016 0.9344
15.4614 -6.6988 -2.0016 0.9344
15.6921 -6.1388 -2.0016 0.9344
16.0926 -4.9956 -2.0016 0.9344
16.4099 -3.8265 -2.0016 0.9344
16.6424 -2.6377 -2.0016 0.9344
16.7889 -1.4353 -2.0016 0.9344
16.8486 -0.2254 -2.0016 0.9344
16.8459 0.3803 -2.0016 0.9344
16.8213 0.9856 -2.0016 0.9344
16.7750 1.5896 -2.0016 0.9344
16.6175 2.7906 -2.0016 0.9344
16.5064 3.3861 -2.0016 0.9344
16.3740 3.9772 -2.0016 0.9344
16.2205 4.5632 -2.0016 0.9344
16.0460 5.1433 -2.0016 0.9344
15.8508 5.7167 -2.0016 0.9344
15.1433 7.3897 -2.0016 0.9344
14.5733 8.4586 -2.0016 0.9344
13.5780 9.9782 -2.0016 0.9344
12.8261 10.9279 -2.0016 0.9344
11.5752 12.2451 -2.0016 0.9344
10.6656 13.0450 -2.0016 0.9344
9.7009 13.7775 -2.0016 0.9344
8.6860 14.4388 -2.0016 0.9344
6.5428 14.1273 -1.8494 0.9392
6.0308 14.3534 -1.8494 0.9392
4.9840 14.7495 -1.8494 0.9392
3.4490 13.2876 -1.6307 0.9462
0.4568 11.9379 -1.4191 0.9530
0.0270 11.7441 -1.3950 0.9538
-0.3891 11.5564 -1.3735 0.9545
-3.3529 11.4311 -1.4151 0.9531
-4.7450 11.4402 -1.4712 0.9513
-5.2360 11.4434 -1.4949 0.9506
-5.7438 11.4467 -1.5213 0.9497
-8.6230 11.4656 -1.7041 0.9438
-9.2902 11.4700 -1.7533 0.9423
-9.9979 11.4746 -1.8078 0.9405
-11.0444 10.9731 -1.8494 0.9392
-11.4317 10.5691 -1.8494 0.9392
-11.8042 10.1513 -1.8494 0.9392
-12.5030 9.2770 -1.8494 0.9392
-13.1372 8.3548 -1.8494 0.9392
-14.0540 8.2438 -1.9354 0.9365
-15.3675 6.9114 -2.0016 0.9344
-15.6060 6.3546 -2.0016 0.9344
-16.1993 4.6378 -2.0016 0.9344
-16.3556 4.0525 -2.0016 0.9344
-16.6045 2.8670 -2.0016 0.9344
-16.7675 1.6667 -2.0016 0.9344
-16.8439 0.4578 -2.0016 0.9344
-16.8333 -0.7535 -2.0016 0.9344
-16.7953 -1.3580 -2.0016 0.9344
-16.6544 -2.5611 -2.0016 0.9344
-8.8821 -10.9847 -2.0016 0.9445
-8.4815 -11.2969 -2.0016 0.9445
-8.0700 -11.5944 -2.0016 0.9445
-7.2162 -12.1442 -2.0016 0.9445
-5.8670 -12.8504 -2.0016 0.9445
-4.4496 -13.4073 -2.0016 0.9445
-3.4749 -13.6923 -2.0016 0.9445
-2.4822 -13.9066 -2.0016 0.9445
-1.9808 -13.9868 -2.0016 0.9445
-1.4768 -14.0490 -2.0016 0.9445
0.0442 -14.1263 -2.0016 0.9445
1.0589 -14.0867 -2.0016 0.9445
1.5645 -14.0395 -2.0016 0.9445
2.0682 -13.9742 -2.0016 0.9445
3.5604 -13.6704 -2.0016 0.9445
4.5333 -13.3792 -2.0016 0.9445
5.0113 -13.2077 -2.0016 0.9445
7.7221 -11.8289 -2.0016 0.9445
8.5520 -11.2436 -2.0016 0.9445
8.9506 -10.9289 -2.0016 0.9445
9.3377 -10.6002 -2.0016 0.9445
9.7126 -10.2577 -2.0016 0.9445
10.4245 -9.5334 -2.0016 0.9445
11.3901 -8.3559 -2.0016 0.9445
12.2234 -7.0812 -2.0016 0.9445
12.7006 -6.1847 -2.0016 0.9445
13.1121 -5.2563 -2.0016 0.9445
13.2925 -4.7816 -2.0016 0.9445
13.4558 -4.3008 -2.0016 0.9445
13.6017 -3.8143 -2.0016 0.9445
13.7300 -3.3230 -2.0016 0.9445
13.8406 -2.8273 -2.0016 0.9445
14.0079 -1.8257 -2.0016 0.9445
14.1029 -0.8146 -2.0016 0.9445
14.1231 -0.3072 -2.0016 0.9445
14.1250 0.2007 -2.0016 0.9445
13.9504 2.2229 -2.0016 0.9445
13.8615 2.7229 -2.0016 0.9445
12.9575 5.6267 -2.0016 0.9445
12.7468 6.0888 -2.0016 0.9445
12.5197 6.5430 -2.0016 0.9445
12.0173 7.4256 -2.0016 0.9445
11.7427 7.8527 -2.0016 0.9445
10.1494 9.8257 -2.0016 0.9445
9.4173 10.5294 -2.0016 0.9445
8.2291 11.4820 -2.0016 0.9445
7.3752 12.0308 -1.9995 0.9446
6.0045 11.5890 -1.8494 0.9486
5.5841 11.7974 -1.8494 0.9486
5.1564 11.9905 -1.8494 0.9486
4.2817 12.3299 -1.8494 0.9486
2.4705 12.8163 -1.8494 0.9486
1.9648 12.6181 -1.8094 0.9497
1.4763 12.3978 -1.7690 0.9508
0.5591 11.9841 -1.6999 0.9527
0.1257 11.7886 -1.6704 0.9535
-1.1130 11.4164 -1.6253 0.9547
-1.1711 8.7436 -1.2499 0.9650
-2.8086 11.4275 -1.6673 0.9536
-4.1597 11.4364 -1.7243 0.9520
-5.1203 11.4427 -1.7762 0.9506
-6.1461 11.4494 -1.8412 0.9489
-6.9835 11.0268 -1.8494 0.9486
-8.4917 9.9122 -1.8494 0.9486
-9.1819 9.2765 -1.8494 0.9486
-9.5094 8.9405 -1.8494 0.9486
-9.8246 8.5929 -1.8494 0.9486
-10.1590 8.2602 -1.8552 0.9485
-11.5433 8.0810 -1.9965 0.9447
-12.1246 7.2491 -2.0016 0.9445
-12.3773 6.8086 -2.0016 0.9445
-12.6140 6.3593 -2.0016 0.9445
-13.2253 4.9645 -2.0016 0.9445
-13.3952 4.4859 -2.0016 0.9445
-13.8003 3.0179 -2.0016 0.9445
-13.8998 2.5199 -2.0016 0.9445
-14.0903 1.0090 -2.0016 0.9445
-14.1175 0.5019 -2.0016 0.9445
-14.1264 -0.0058 -2.0016 0.9445
-14.1171 -0.5136 -2.0016 0.9445
-14.0895 -1.0207 -2.0016 0.9445
-14.0437 -1.5265 -2.0016 0.9445
-13.9797 -2.0303 -2.0016 0.9445
-13.8977 -2.5314 -2.0016 0.9445
-12.8011 -2.8105 -1.8570 0.9484
-12.6918 -3.2688 -1.8570 0.9484
-12.5661 -3.7229 -1.8570 0.9484
-12.2662 -4.6160 -1.8570 0.9484
-12.0923 -5.0540 -1.8570 0.9484
-12.6088 -6.3697 -2.0016 0.9445
-12.1186 -7.2591 -2.0016 0.9445
-11.5658 -8.1110 -2.0016 0.9445
-11.2668 -8.5215 -2.0016 0.9445
-10.9532 -8.9209 -2.0016 0.9445
-10.2840 -9.6848 -2.0016 0.9445
-9.9292 -10.0482 -2.0016 0.9445
-9.1817 -10.7355 -2.0016 0.9445
-8.3867 -11.3674 -2.0016 0.9445
-7.9727 -11.6615 -2.0016 0.9445
-6.2192 -12.6837 -2.0016 0.9445
-5.7593 -12.8991 -2.0016 0.9445
-5.2919 -13.0978 -2.0016 0.9445
-4.3373 -13.4441 -2.0016 0.9445
-3.8512 -13.5913 -2.0016 0.9445
-3.3602 -13.7209 -2.0016 0.9445
-2.8649 -13.8329 -2.0016 0.9445
-1.8637 -14.0029 -2.0016 0.9445
-0.8529 -14.1006 -2.0016 0.9445
1.1767 -14.0773 -2.0016 0.9445
2.6853 -13.8688 -2.0016 0.9445
3.1820 -13.7634 -2.0016 0.9445
4.1626 -13.4992 -2.0016 0.9445
4.6451 -13.3408 -2.0016 0.9445
5.1216 -13.1653 -2.0016 0.9445
6.0542 -12.7633 -2.0016 0.9445
9.0417 -10.8537 -2.0016 0.9445
10.1575 -9.8173 -2.0016 0.9445
10.5039 -9.4459 -2.0016 0.9445
10.8366 -9.0622 -2.0016 0.9445
11.7491 -7.8430 -2.0016 0.9445
12.2822 -6.9787 -2.0016 0.9445
12.5251 -6.5327 -2.0016 0.9445
12.7519 -6.0783 -2.0016 0.9445
12.9621 -5.6160 -2.0016 0.9445
13.1556 -5.1465 -2.0016 0.9445
13.3321 -4.6703 -2.0016 0.9445
13.4913 -4.1880 -2.0016 0.9445
13.8637 -2.7114 -2.0016 0.9445
13.9522 -2.2113 -2.0016 0.9445
14.0227 -1.7084 -2.0016 0.9445
14.0751 -1.2033 -2.0016 0.9445
14.1251 -0.1890 -2.0016 0.9445
14.1228 0.3188 -2.0016 0.9445
14.0634 1.3326 -2.0016 0.9445
14.0064 1.8373 -2.0016 0.9445
13.7273 3.3343 -2.0016 0.9445
13.2886 4.7926 -2.0016 0.9445
13.1077 5.2672 -2.0016 0.9445
12.4646 6.6476 -2.0016 0.9445
12.2176 7.0913 -2.0016 0.9445
11.9548 7.5259 -2.0016 0.9445
9.7042 10.2657 -2.0016 0.9445
9.3289 10.6079 -2.0016 0.9445
8.9416 10.9363 -2.0016 0.9445
8.5427 11.2507 -2.0016 0.9445
6.3219 11.4190 -1.8494 0.9486
5.9074 11.6389 -1.8494 0.9486
5.4852 11.8437 -1.8494 0.9486
4.6201 12.2072 -1.8494 0.9486
3.2793 12.6336 -1.8494 0.9486
2.3554 12.7943 -1.8433 0.9488
1.3657 12.3479 -1.7602 0.9510
0.9024 12.1389 -1.7247 0.9520
0.0270 11.7441 -1.6640 0.9537
-0.3891 11.5564 -1.6383 0.9544
-1.2096 11.4170 -1.6267 0.9547
-1.2460 8.7465 -1.2518 0.9649
-2.0486 11.4225 -1.6443 0.9542
-2.4760 11.4253 -1.6564 0.9539
-4.7450 11.4402 -1.7548 0.9512
-6.2693 11.4480 -1.8494 0.9486
-7.0755 10.9680 -1.8494 0.9486
-7.4652 10.7066 -1.8494 0.9486
-8.2151 10.1426 -1.8494 0.9486
-8.5743 9.8408 -1.8494 0.9486
-8.9225 9.5262 -1.8494 0.9486
-9.8961 8.5104 -1.8494 0.9486
-10.3284 8.2553 -1.8734 0.9480
-11.1046 8.2394 -1.9592 0.9457
-11.6195 7.9903 -1.9981 0.9446
-12.1848 7.1474 -2.0016 0.9445
-12.4339 6.7048 -2.0016 0.9445
-13.0833 5.3274 -2.0016 0.9445
-13.2664 4.8537 -2.0016 0.9445
-13.5808 3.8881 -2.0016 0.9445
-13.7118 3.3974 -2.0016 0.9445
-14.1212 0.3838 -2.0016 0.9445
-14.1259 -0.1240 -2.0016 0.9445
-14.1123 -0.6317 -2.0016 0.9445
-14.0304 -1.6439 -2.0016 0.9445
-7.9740 -9.1670 -2.0016 0.9519
-7.6393 -9.4478 -2.0016 0.9519
-7.2948 -9.7162 -2.0016 0.9519
-6.9409 -9.9721 -2.0016 0.9519
-5.8271 -10.6614 -2.0016 0.9519
-5.4401 -10.8639 -2.0016 0.9519
-2.9887 -11.7766 -2.0016 0.9519
-1.2701 -12.0833 -2.0016 0.9519
-0.8350 -12.1211 -2.0016 0.9519
0.4747 -12.1406 -2.0016 0.9519
0.9107 -12.1157 -2.0016 0.9519
1.3456 -12.0751 -2.0016 0.9519
2.2097 -11.9473 -2.0016 0.9519
3.8990 -11.5073 -2.0016 0.9519
4.7156 -11.1974 -2.0016 0.9519
2.1888 -4.3037 -0.7954 0.9806
6.6417 -10.1739 -2.0016 0.9519
8.0312 -9.1170 -2.0016 0.9519
8.3537 -8.8225 -2.0016 0.9519
8.6654 -8.5165 -2.0016 0.9519
9.2548 -7.8720 -2.0016 0.9519
9.7964 -7.1867 -2.0016 0.9519
11.2775 -4.5209 -2.0016 0.9519
11.4327 -4.1126 -2.0016 0.9519
11.5731 -3.6990 -2.0016 0.9519
11.8089 -2.8580 -2.0016 0.9519
12.0966 -1.1362 -2.0016 0.9519
12.1470 -0.2642 -2.0016 0.9519
12.1486 0.1726 -2.0016 0.9519
12.1346 0.6091 -2.0016 0.9519
12.1049 1.0449 -2.0016 0.9519
12.0595 1.4793 -2.0016 0.9519
11.9985 1.9119 -2.0016 0.9519
11.9220 2.3419 -2.0016 0.9519
11.8302 2.7689 -2.0016 0.9519
10.5588 6.0110 -2.0016 0.9519
10.3359 6.3866 -2.0016 0.9519
10.0996 6.7540 -2.0016 0.9519
9.5883 7.4621 -2.0016 0.9519
9.3139 7.8019 -2.0016 0.9519
8.7294 8.4509 -2.0016 0.9519
8.0997 9.0562 -2.0016 0.9519
7.7689 9.3415 -2.0016 0.9519
7.4281 9.6147 -2.0016 0.9519
6.7182 10.1235 -2.0016 0.9519
6.3500 10.3584 -2.0016 0.9519
5.1644 9.9675 -1.8494 0.9555
4.8028 10.1467 -1.8494 0.9555
3.2991 10.7303 -1.8494 0.9555
2.9112 10.8419 -1.8494 0.9555
2.5197 10.9396 -1.8494 0.9555
2.1248 11.0231 -1.8494 0.9555
1.3274 11.1472 -1.8494 0.9555
0.1197 11.2253 -1.8494 0.9555
-0.2838 11.2224 -1.8494 0.9555
-1.0893 11.1730 -1.8494 0.9555
-1.1687 8.7262 -1.4504 0.9649
-2.6793 10.9016 -1.8494 0.9555
-3.0694 10.7982 -1.8494 0.9555
-3.8372 10.5498 -1.8494 0.9555
-4.2140 10.4051 -1.8494 0.9555
-4.5852 10.2469 -1.8494 0.9555
-6.0064 9.4840 -1.8494 0.9555
-6.3434 9.2620 -1.8494 0.9555
-6.9924 8.7823 -1.8494 0.9555
-7.3036 8.5253 -1.8494 0.9555
-7.6119 8.2644 -1.8510 0.9555
-8.1641 8.2482 -1.9119 0.9540
-8.7595 8.2355 -1.9807 0.9524
-9.1298 7.9852 -1.9981 0.9520
-9.6964 7.3212 -2.0016 0.9519
-9.9533 6.9679 -2.0016 0.9519
-10.4281 6.2348 -2.0016 0.9519
-10.8491 5.4696 -2.0016 0.9519
-11.0387 5.0761 -2.0016 0.9519
-11.2140 4.6760 -2.0016 0.9519
-11.3749 4.2699 -2.0016 0.9519
-11.5210 3.8583 -2.0016 0.9519
-11.7684 3.0206 -2.0016 0.9519
-11.8694 2.5957 -2.0016 0.9519
-12.0252 1.7363 -2.0016 0.9519
-12.1422 0.4317 -2.0016 0.9519
-12.1418 -0.4417 -2.0016 0.9519
-12.1181 -0.8779 -2.0016 0.9519
-12.0787 -1.3129 -2.0016 0.9519
-12.0237 -1.7462 -2.0016 0.9519
-11.9532 -2.1772 -2.0016 0.9519
-11.0100 -2.4173 -1.8570 0.9553
-10.8079 -3.2020 -1.8570 0.9553
-10.5499 -3.9702 -1.8570 0.9553
-10.2375 -4.7178 -1.8570 0.9553
-10.0613 -5.0828 -1.8570 0.9553
-10.4230 -6.2434 -2.0016 0.9519
-10.1918 -6.6141 -2.0016 0.9519
-8.5400 -8.6423 -2.0016 0.9519
-6.4923 -10.2699 -2.0016 0.9519
-5.7377 -10.7097 -2.0016 0.9519
-5.3490 -10.9091 -2.0016 0.9519
-4.5515 -11.2652 -2.0016 0.9519
-3.7304 -11.5630 -2.0016 0.9519
-2.8901 -11.8011 -2.0016 0.9519
-1.6029 -12.0437 -2.0016 0.9519
-0.7335 -12.1277 -2.0016 0.9519
0.1396 -12.1491 -2.0016 0.9519
0.5762 -12.1362 -2.0016 0.9519
2.7368 -11.8376 -2.0016 0.9519
3.1605 -11.7316 -2.0016 0.9519
3.5802 -11.6104 -2.0016 0.9519
4.8092 -11.1576 -2.0016 0.9519
5.2071 -10.9775 -2.0016 0.9519
6.3585 -10.3532 -2.0016 0.9519
8.4272 -8.7523 -2.0016 0.9519
9.0342 -8.1242 -2.0016 0.9519
9.5945 -7.4542 -2.0016 0.9519
9.8562 -7.1045 -2.0016 0.9519
10.1052 -6.7456 -2.0016 0.9519
10.7727 -5.6187 -2.0016 0.9519
11.1485 -4.8302 -2.0016 0.9519
11.3149 -4.4264 -2.0016 0.9519
11.4667 -4.0168 -2.0016 0.9519
11.6036 -3.6021 -2.0016 0.9519
11.7256 -3.1826 -2.0016 0.9519
12.0001 -1.9019 -2.0016 0.9519
12.0607 -1.4694 -2.0016 0.9519
11.9020 2.4416 -2.0016 0.9519
11.8066 2.8678 -2.0016 0.9519
11.5700 3.7086 -2.0016 0.9519
11.4293 4.1221 -2.0016 0.9519
11.2737 4.5302 -2.0016 0.9519
11.1036 4.9325 -2.0016 0.9519
10.2821 6.4729 -2.0016 0.9519
7.6905 9.4062 -2.0016 0.9519
7.3474 9.6765 -2.0016 0.9519
6.2599 10.4058 -2.0005 0.9520
5.8183 10.5095 -1.9789 0.9525
5.0808 10.0104 -1.8494 0.9555
4.7177 10.1866 -1.8494 0.9555
3.9737 10.4992 -1.8494 0.9555
2.4280 10.9603 -1.8494 0.9555
2.0325 11.0405 -1.8494 0.9555
1.2341 11.1579 -1.8494 0.9555
0.8322 11.1951 -1.8494 0.9555
0.0258 11.2260 -1.8494 0.9555
-0.7807 11.1988 -1.8494 0.9555
-1.2431 8.7263 -1.4521 0.9649
-1.9817 11.0497 -1.8494 0.9555
-2.7704 10.8788 -1.8494 0.9555
-3.5448 10.6516 -1.8494 0.9555
-3.9254 10.5173 -1.8494 0.9555
-6.0856 9.4334 -1.8494 0.9555
-6.4207 9.2086 -1.8494 0.9555
-6.7475 8.9718 -1.8494 0.9555
-7.7338 8.2571 -1.8638 0.9552
-9.7573 7.2398 -2.0016 0.9519
-10.2522 6.5201 -2.0016 0.9519
-11.0808 4.9835 -2.0016 0.9519
-11.2528 4.5820 -2.0016 0.9519
-11.5529 3.7618 -2.0016 0.9519
-11.8907 2.4963 -2.0016 0.9519
-11.9727 2.0673 -2.0016 0.9519
-12.0393 1.6356 -2.0016 0.9519
-12.0903 1.2018 -2.0016 0.9519
-12.1454 0.3301 -2.0016 0.9519
-12.1377 -0.5433 -2.0016 0.9519
-12.0673 -1.4139 -2.0016 0.9519
-12.0087 -1.8467 -2.0016 0.9519
-11.7128 -2.2349 -1.9644 0.9528
-10.9894 -2.5093 -1.8570 0.9553
-6.9889 -8.0345 -2.0016 0.9576
-5.4397 -9.1546 -2.0016 0.9576
-5.1072 -9.3442 -2.0016 0.9576
-4.7680 -9.5217 -2.0016 0.9576
-3.3542 -10.1068 -2.0016 0.9576
-2.9888 -10.2208 -2.0016 0.9576
-2.2468 -10.4091 -2.0016 0.9576
-1.8712 -10.4831 -2.0016 0.9576
-1.1132 -10.5905 -2.0016 0.9576
-0.7318 -10.6236 -2.0016 0.9576
-0.3495 -10.6431 -2.0016 0.9576
0.4160 -10.6407 -2.0016 0.9576
0.7982 -10.6189 -2.0016 0.9576
1.1794 -10.5833 -2.0016 0.9576
1.5590 -10.5341 -2.0016 0.9576
2.3118 -10.3948 -2.0016 0.9576
2.6839 -10.3050 -2.0016 0.9576
3.4173 -10.0856 -2.0016 0.9576
3.7776 -9.9562 -2.0016 0.9576
2.1888 -4.3036 -0.9075 0.9805
5.4969 -9.1204 -2.0016 0.9576
6.1379 -8.7019 -2.0016 0.9576
6.7472 -8.2385 -2.0016 0.9576
7.5948 -7.4643 -2.0016 0.9576
7.8582 -7.1865 -2.0016 0.9576
8.8070 -5.9862 -2.0016 0.9576
9.0165 -5.6657 -2.0016 0.9576
9.2143 -5.3380 -2.0016 0.9576
9.4002 -5.0033 -2.0016 0.9576
9.5740 -4.6622 -2.0016 0.9576
9.8842 -3.9624 -2.0016 0.9576
10.2533 -2.8753 -2.0016 0.9576
10.3500 -2.5049 -2.0016 0.9576
10.4334 -2.1313 -2.0016 0.9576
10.5595 -1.3762 -2.0016 0.9576
