ply
format ascii 1.0
element vertex 1593
property float32 x
property float32 y
property float32 z
property float32 I
end_header
-6.0678 4.7898 -2.0016 0.9686
-6.6914 3.8712 -2.0016 0.9686
-6.8261 3.6282 -2.0016 0.9686
-7.1769 2.8727 -2.0016 0.9686
-7.2755 2.6130 -2.0016 0.9686
-7.3647 2.3499 -2.0016 0.9686
-7.5748 1.5438 -2.0016 0.9686
-7.6969 0.7198 -2.0016 0.9686
-7.7178 0.4428 -2.0016 0.9686
-7.7206 -0.3902 -2.0016 0.9686
-7.7016 -0.6674 -2.0016 0.9686
-7.6338 -1.2187 -2.0016 0.9686
-7.5266 -1.7637 -2.0016 0.9686
-7.1510 -2.2282 -1.9393 0.9695
-6.7663 -2.3782 -1.8570 0.9708
-6.6765 -2.6198 -1.8570 0.9708
-6.3559 -3.3229 -1.8570 0.9708
-6.1008 -3.7708 -1.8570 0.9708
-5.9614 -3.9876 -1.8570 0.9708
-5.8143 -4.1992 -1.8570 0.9708
-5.6597 -4.4053 -1.8570 0.9708
-5.3287 -4.8004 -1.8570 0.9708
-5.1528 -4.9888 -1.8570 0.9708
-4.7812 -5.3459 -1.8570 0.9708
-4.2749 -6.4409 -2.0016 0.9686
-3.3081 -6.9869 -2.0016 0.9686
-3.0550 -7.1012 -2.0016 0.9686
-2.5371 -7.3023 -2.0016 0.9686
-2.2732 -7.3887 -2.0016 0.9686
-2.0062 -7.4656 -2.0016 0.9686
-1.1913 -7.6381 -2.0016 0.9686
0.1930 -7.7281 -2.0016 0.9686
0.4705 -7.7162 -2.0016 0.9686
1.0234 -7.6624 -2.0016 0.9686
1.2980 -7.6207 -2.0016 0.9686
1.5710 -7.5692 -2.0016 0.9686
1.8419 -7.5078 -2.0016 0.9686
2.1105 -7.4368 -2.0016 0.9686
2.3763 -7.3562 -2.0016 0.9686
2.8984 -7.1665 -2.0016 0.9686
3.1541 -7.0578 -2.0016 0.9686
2.1083 -4.2962 -1.2391 0.9804
2.2045 -4.1117 -1.2080 0.9809
2.3970 -4.1091 -1.2317 0.9805
4.1326 -6.5332 -2.0016 0.9686
4.8115 -6.0506 -2.0016 0.9686
5.0258 -5.8738 -2.0016 0.9686
5.8154 -5.0933 -2.0016 0.9686
6.1661 -4.6625 -2.0016 0.9686
6.3297 -4.4380 -2.0016 0.9686
6.4850 -4.2077 -2.0016 0.9686
6.7705 -3.7311 -2.0016 0.9686
6.9002 -3.4854 -2.0016 0.9686
7.2351 -2.7228 -2.0016 0.9686
7.3283 -2.4610 -2.0016 0.9686
7.4120 -2.1962 -2.0016 0.9686
7.5505 -1.6582 -2.0016 0.9686
7.6052 -1.3859 -2.0016 0.9686
7.6501 -1.1117 -2.0016 0.9686
7.7305 -0.0044 -2.0016 0.9686
7.7256 0.2734 -2.0016 0.9686
7.7108 0.5507 -2.0016 0.9686
7.6861 0.8274 -2.0016 0.9686
7.6514 1.1031 -2.0016 0.9686
7.6068 1.3772 -2.0016 0.9686
7.5524 1.6497 -2.0016 0.9686
7.4883 1.9199 -2.0016 0.9686
7.3311 2.4527 -2.0016 0.9686
7.2382 2.7145 -2.0016 0.9686
6.6366 3.9644 -2.0016 0.9686
6.3347 4.4308 -2.0016 0.9686
6.1715 4.6555 -2.0016 0.9686
6.0002 4.8742 -2.0016 0.9686
5.6347 5.2925 -2.0016 0.9686
5.4409 5.4915 -2.0016 0.9686
5.2401 5.6835 -2.0016 0.9686
4.5981 6.2143 -2.0016 0.9686
4.1400 6.5285 -2.0016 0.9686
3.6605 6.8089 -2.0016 0.9686
3.4135 6.9360 -2.0016 0.9686
2.6473 7.2631 -2.0016 0.9686
2.3847 7.3535 -2.0016 0.9686
2.1189 7.4344 -2.0016 0.9686
1.3067 7.6192 -2.0016 0.9686
1.0321 7.6613 -2.0016 0.9686
0.7562 7.6934 -2.0016 0.9686
0.4793 7.7156 -2.0016 0.9686
0.2018 7.7279 -2.0016 0.9686
-0.9073 7.6771 -2.0016 0.9686
-1.4563 7.5921 -2.0016 0.9686
-1.7281 7.5349 -2.0016 0.9686
-2.2648 7.3913 -2.0016 0.9686
-2.5289 7.3052 -2.0016 0.9686
-3.5492 6.8676 -2.0016 0.9686
-3.7937 6.7356 -2.0016 0.9686
-4.7194 6.1227 -2.0016 0.9686
-4.9364 5.9492 -2.0016 0.9686
-5.1469 5.7680 -2.0016 0.9686
-5.7377 5.1807 -2.0016 0.9686
-5.9201 4.9712 -2.0016 0.9686
-6.2618 4.5332 -2.0016 0.9686
-6.4206 4.3053 -2.0016 0.9686
-6.8466 3.5895 -2.0016 0.9686
-7.4561 2.0415 -2.0016 0.9686
-7.6324 1.2274 -2.0016 0.9686
-7.7202 0.3990 -2.0016 0.9686
-7.7289 -0.1564 -2.0016 0.9686
-7.7183 -0.4340 -2.0016 0.9686
-7.6977 -0.7111 -2.0016 0.9686
-7.6672 -0.9872 -2.0016 0.9686
-7.5165 -1.8064 -2.0016 0.9686
-7.4467 -2.0753 -2.0016 0.9686
-7.0281 -2.2337 -1.9094 0.9700
-6.7527 -2.4166 -1.8570 0.9708
-6.6615 -2.6576 -1.8570 0.9708
-6.5617 -2.8952 -1.8570 0.9708
-6.4535 -3.1291 -1.8570 0.9708
-6.2121 -3.5845 -1.8570 0.9708
-6.0793 -3.8054 -1.8570 0.9708
-5.9387 -4.0213 -1.8570 0.9708
-5.7904 -4.2321 -1.8570 0.9708
-4.9408 -5.1988 -1.8570 0.9708
-4.5585 -5.5449 -1.8586 0.9708
-4.6916 -6.1440 -2.0016 0.9686
-4.4678 -6.3086 -2.0016 0.9686
-4.2383 -6.4651 -2.0016 0.9686
-3.7631 -6.7527 -2.0016 0.9686
-3.2684 -7.0055 -2.0016 0.9686
-3.0146 -7.1185 -2.0016 0.9686
-1.9638 -7.4769 -2.0016 0.9686
-1.6939 -7.5426 -2.0016 0.9686
-0.8725 -7.6811 -2.0016 0.9686
-0.0409 -7.7304 -2.0016 0.9686
0.7911 -7.6899 -2.0016 0.9686
1.0669 -7.6565 -2.0016 0.9686
2.9391 -7.1500 -2.0016 0.9686
2.1101 -4.2390 -1.2260 0.9806
2.2344 -4.1113 -1.2115 0.9809
2.4372 -4.1241 -1.2403 0.9804
4.4008 -6.3556 -2.0016 0.9686
5.2658 -5.6596 -2.0016 0.9686
5.4658 -5.4668 -2.0016 0.9686
5.6587 -5.2669 -2.0016 0.9686
5.8442 -5.0602 -2.0016 0.9686
6.0223 -4.8469 -2.0016 0.9686
6.1925 -4.6274 -2.0016 0.9686
6.3548 -4.4020 -2.0016 0.9686
6.5088 -4.1708 -2.0016 0.9686
6.6545 -3.9343 -2.0016 0.9686
6.9198 -3.4462 -2.0016 0.9686
7.0392 -3.1954 -2.0016 0.9686
7.3421 -2.4194 -2.0016 0.9686
7.4243 -2.1541 -2.0016 0.9686
7.4969 -1.8859 -2.0016 0.9686
7.5598 -1.6154 -2.0016 0.9686
7.6897 -0.7925 -2.0016 0.9686
7.7133 -0.5157 -2.0016 0.9686
7.7304 0.0395 -2.0016 0.9686
7.7240 0.3172 -2.0016 0.9686
7.7076 0.5945 -2.0016 0.9686
7.4773 1.9624 -2.0016 0.9686
7.4019 2.2298 -2.0016 0.9686
7.2227 2.7556 -2.0016 0.9686
7.0062 3.2671 -2.0016 0.9686
6.7535 3.7618 -2.0016 0.9686
6.6139 4.0020 -2.0016 0.9686
6.3095 4.4666 -2.0016 0.9686
6.1449 4.6904 -2.0016 0.9686
5.9724 4.9082 -2.0016 0.9686
5.6046 5.3244 -2.0016 0.9686
5.4096 5.5223 -2.0016 0.9686
-6.7621 -2.0649 -2.0016 0.9710
-6.4590 -2.2291 -1.9343 0.9720
-6.0311 -2.5797 -1.8570 0.9731
-5.7185 -3.2137 -1.8570 0.9731
-5.4729 -3.6160 -1.8570 0.9731
-5.3395 -3.8103 -1.8570 0.9731
-5.1991 -3.9997 -1.8570 0.9731
-4.7386 -4.5359 -1.8570 0.9731
-4.5725 -4.7032 -1.8570 0.9731
-4.4006 -4.8645 -1.8570 0.9731
-4.2230 -5.0194 -1.8570 0.9731
-4.0399 -5.1679 -1.8570 0.9731
-3.6584 -5.4447 -1.8570 0.9731
-3.4604 -5.5726 -1.8570 0.9731
-3.5116 -6.1366 -2.0016 0.9710
-3.2889 -6.2588 -2.0016 0.9710
-3.0619 -6.3730 -2.0016 0.9710
-2.8309 -6.4789 -2.0016 0.9710
-2.5963 -6.5764 -2.0016 0.9710
-2.1173 -6.7458 -2.0016 0.9710
-1.3792 -6.9345 -2.0016 0.9710
-1.1292 -6.9796 -2.0016 0.9710
-0.8777 -7.0156 -2.0016 0.9710
-0.6250 -7.0426 -2.0016 0.9710
-0.1177 -7.0693 -2.0016 0.9710
0.1364 -7.0690 -2.0016 0.9710
0.6437 -7.0410 -2.0016 0.9710
0.8962 -7.0133 -2.0016 0.9710
1.6456 -6.8761 -2.0016 0.9710
2.0923 -4.3255 -1.3602 0.9802
2.1672 -4.0979 -1.3123 0.9809
3.7457 -5.9966 -2.0016 0.9710
3.9587 -5.8582 -2.0016 0.9710
4.5661 -5.3982 -2.0016 0.9710
4.7571 -5.2307 -2.0016 0.9710
4.9419 -5.0564 -2.0016 0.9710
5.1204 -4.8755 -2.0016 0.9710
5.4573 -4.4953 -2.0016 0.9710
5.7660 -4.0918 -2.0016 0.9710
6.0450 -3.6671 -2.0016 0.9710
6.1728 -3.4476 -2.0016 0.9710
6.2927 -3.2236 -2.0016 0.9710
6.4045 -2.9954 -2.0016 0.9710
6.5079 -2.7634 -2.0016 0.9710
6.6030 -2.5278 -2.0016 0.9710
6.7675 -2.0471 -2.0016 0.9710
6.8367 -1.8026 -2.0016 0.9710
6.9485 -1.3070 -2.0016 0.9710
6.9909 -1.0565 -2.0016 0.9710
7.0244 -0.8046 -2.0016 0.9710
7.0488 -0.5518 -2.0016 0.9710
7.0640 -0.2981 -2.0016 0.9710
7.0672 0.2099 -2.0016 0.9710
7.0339 0.7169 -2.0016 0.9710
6.9159 1.4696 -2.0016 0.9710
6.7925 1.9624 -2.0016 0.9710
6.7177 2.2052 -2.0016 0.9710
6.6341 2.4451 -2.0016 0.9710
6.5420 2.6819 -2.0016 0.9710
5.8167 4.0194 -2.0016 0.9710
5.5130 4.4268 -2.0016 0.9710
4.4382 5.5038 -2.0016 0.9710
4.2376 5.6597 -2.0016 0.9710
4.0316 5.8083 -2.0016 0.9710
3.8203 5.9494 -2.0016 0.9710
3.3832 6.2084 -2.0016 0.9710
3.1579 6.3259 -2.0016 0.9710
2.9286 6.4353 -2.0016 0.9710
2.4589 6.6290 -2.0016 0.9710
2.2192 6.7130 -2.0016 0.9710
1.9766 6.7884 -2.0016 0.9710
1.4840 6.9128 -2.0016 0.9710
1.2346 6.9617 -2.0016 0.9710
0.9837 7.0016 -2.0016 0.9710
0.7315 7.0324 -2.0016 0.9710
0.4784 7.0541 -2.0016 0.9710
-0.0294 7.0703 -2.0016 0.9710
-0.2834 7.0647 -2.0016 0.9710
-0.5371 7.0499 -2.0016 0.9710
-1.5414 6.9003 -2.0016 0.9710
-1.7883 6.8404 -2.0016 0.9710
-2.0329 6.7718 -2.0016 0.9710
-2.2749 6.6943 -2.0016 0.9710
-2.7498 6.5137 -2.0016 0.9710
-3.4347 6.1800 -2.0016 0.9710
-3.8696 5.9174 -2.0016 0.9710
-4.0797 5.7745 -2.0016 0.9710
-4.2846 5.6242 -2.0016 0.9710
-4.8649 5.1306 -2.0016 0.9710
-5.2207 4.7680 -2.0016 0.9710
-5.3887 4.5773 -2.0016 0.9710
-5.5496 4.3807 -2.0016 0.9710
-5.8499 3.9709 -2.0016 0.9710
-5.9888 3.7582 -2.0016 0.9710
-6.1200 3.5406 -2.0016 0.9710
-6.2432 3.3184 -2.0016 0.9710
-6.3584 3.0920 -2.0016 0.9710
-6.6542 2.3898 -2.0016 0.9710
-6.8086 1.9058 -2.0016 0.9710
-6.8727 1.6600 -2.0016 0.9710
-6.9742 1.1622 -2.0016 0.9710
-7.0613 -0.3569 -2.0016 0.9710
-7.0439 -0.6104 -2.0016 0.9710
-7.0175 -0.8630 -2.0016 0.9710
-6.9819 -1.1146 -2.0016 0.9710
-6.9374 -1.3648 -2.0016 0.9710
-6.8839 -1.6131 -2.0016 0.9710
-5.5798 -3.4488 -1.8570 0.9731
-5.4523 -3.6470 -1.8570 0.9731
-5.3178 -3.8406 -1.8570 0.9731
-5.1764 -4.0291 -1.8570 0.9731
-5.0282 -4.2125 -1.8570 0.9731
-4.8736 -4.3905 -1.8570 0.9731
-4.7128 -4.5627 -1.8570 0.9731
-4.3729 -4.8894 -1.8570 0.9731
-4.1944 -5.0433 -1.8570 0.9731
-4.0105 -5.1908 -1.8570 0.9731
-3.6274 -5.4654 -1.8570 0.9731
-3.4287 -5.5922 -1.8570 0.9731
-3.4767 -6.1565 -2.0016 0.9710
-3.2533 -6.2774 -2.0016 0.9710
-3.0256 -6.3902 -2.0016 0.9710
-2.3205 -6.6787 -2.0016 0.9710
-2.0790 -6.7578 -2.0016 0.9710
-1.5884 -6.8896 -2.0016 0.9710
-1.3398 -6.9422 -2.0016 0.9710
-0.8378 -7.0205 -2.0016 0.9710
-0.0776 -7.0699 -2.0016 0.9710
0.1765 -7.0681 -2.0016 0.9710
0.9360 -7.0081 -2.0016 0.9710
1.6846 -6.8667 -2.0016 0.9710
2.4137 -6.6456 -2.0016 0.9710
2.0943 -4.2678 -1.3458 0.9804
2.1968 -4.0975 -1.3162 0.9809
3.9919 -5.8356 -2.0016 0.9710
4.7867 -5.2036 -2.0016 0.9710
5.1480 -4.8464 -2.0016 0.9710
5.6396 -4.2643 -2.0016 0.9710
6.1923 -3.4125 -2.0016 0.9710
6.4214 -2.9590 -2.0016 0.9710
6.7790 -2.0086 -2.0016 0.9710
6.9558 -1.2675 -2.0016 0.9710
7.0518 -0.5117 -2.0016 0.9710
7.0656 -0.2580 -2.0016 0.9710
7.0703 -0.0040 -2.0016 0.9710
7.0659 0.2500 -2.0016 0.9710
7.0297 0.7568 -2.0016 0.9710
6.9572 1.2596 -2.0016 0.9710
6.9075 1.5088 -2.0016 0.9710
6.7813 2.0009 -2.0016 0.9710
6.7050 2.2433 -2.0016 0.9710
6.6201 2.4827 -2.0016 0.9710
6.5266 2.7190 -2.0016 0.9710
6.4247 2.9517 -2.0016 0.9710
5.9356 3.8416 -2.0016 0.9710
5.6444 4.2579 -2.0016 0.9710
5.4878 4.4580 -2.0016 0.9710
5.3241 4.6523 -2.0016 0.9710
5.1535 4.8405 -2.0016 0.9710
4.2054 5.6836 -2.0016 0.9710
2.6584 6.5515 -2.0016 0.9710
2.1810 6.7255 -2.0016 0.9710
1.9380 6.7995 -2.0016 0.9710
1.6925 6.8648 -2.0016 0.9710
1.4447 6.9212 -2.0016 0.9710
0.6916 7.0364 -2.0016 0.9710
-0.3235 7.0629 -2.0016 0.9710
-0.5771 7.0467 -2.0016 0.9710
-1.3319 6.9437 -2.0016 0.9710
-1.8271 6.8302 -2.0016 0.9710
-2.5515 6.5939 -2.0016 0.9710
-3.0184 6.3937 -2.0016 0.9710
-3.2461 6.2811 -2.0016 0.9710
-3.6888 6.0318 -2.0016 0.9710
-4.1124 5.7513 -2.0016 0.9710
-4.3164 5.5998 -2.0016 0.9710
-4.5148 5.4411 -2.0016 0.9710
-4.8939 5.1028 -2.0016 0.9710
-5.2477 4.7383 -2.0016 0.9710
-5.4146 4.5467 -2.0016 0.9710
-5.7271 4.1461 -2.0016 0.9710
-5.8723 3.9377 -2.0016 0.9710
-6.1400 3.5058 -2.0016 0.9710
-6.2620 3.2829 -2.0016 0.9710
-6.3759 3.0558 -2.0016 0.9710
-6.4815 2.8248 -2.0016 0.9710
-6.5788 2.5901 -2.0016 0.9710
-6.6676 2.3520 -2.0016 0.9710
-6.7478 2.1110 -2.0016 0.9710
-6.8820 1.6209 -2.0016 0.9710
-7.0695 0.1110 -2.0016 0.9710
-7.0689 -0.1431 -2.0016 0.9710
-6.9755 -1.1542 -2.0016 0.9710
-6.9295 -1.4041 -2.0016 0.9710
-6.8746 -1.6522 -2.0016 0.9710
-6.8108 -1.8981 -2.0016 0.9710
-6.0927 -2.4307 -1.8570 0.9731
-5.9024 -2.8619 -1.8570 0.9731
-5.7957 -3.0721 -1.8570 0.9731
-5.6816 -3.2784 -1.8570 0.9731
-5.5602 -3.4804 -1.8570 0.9731
-5.4315 -3.6779 -1.8570 0.9731
-5.2959 -3.8707 -1.8570 0.9731
-5.1534 -4.0585 -1.8570 0.9731
-4.8486 -4.4181 -1.8570 0.9731
-3.7911 -5.3531 -1.8570 0.9731
-3.4417 -6.1761 -2.0016 0.9710
-3.2176 -6.2958 -2.0016 0.9710
-2.9893 -6.4073 -2.0016 0.9710
-2.7572 -6.5106 -2.0016 0.9710
-2.5215 -6.6054 -2.0016 0.9710
-2.0406 -6.7694 -2.0016 0.9710
-1.3004 -6.9497 -2.0016 0.9710
-1.0499 -6.9919 -2.0016 0.9710
-0.2914 -7.0643 -2.0016 0.9710
-0.0374 -7.0702 -2.0016 0.9710
0.2166 -7.0670 -2.0016 0.9710
0.7235 -7.0332 -2.0016 0.9710
0.9758 -7.0027 -2.0016 0.9710
1.4761 -6.9145 -2.0016 0.9710
2.2115 -6.7156 -2.0016 0.9710
2.2266 -4.0971 -1.3201 0.9808
2.4208 -4.0964 -1.3470 0.9804
3.8135 -5.9537 -2.0016 0.9710
4.0250 -5.8129 -2.0016 0.9710
4.2312 -5.6645 -2.0016 0.9710
4.6270 -5.3460 -2.0016 0.9710
4.9990 -5.0000 -2.0016 0.9710
5.1754 -4.8171 -2.0016 0.9710
5.3451 -4.6281 -2.0016 0.9710
5.5080 -4.4330 -2.0016 0.9710
5.8121 -4.0261 -2.0016 0.9710
5.9530 -3.8146 -2.0016 0.9710
6.0862 -3.5983 -2.0016 0.9710
6.2116 -3.3773 -2.0016 0.9710
6.3289 -3.1519 -2.0016 0.9710
6.4380 -2.9225 -2.0016 0.9710
6.5389 -2.6893 -2.0016 0.9710
6.6313 -2.4527 -2.0016 0.9710
6.7151 -2.2128 -2.0016 0.9710
6.9142 -1.4774 -2.0016 0.9710
6.9629 -1.2280 -2.0016 0.9710
7.0025 -0.9771 -2.0016 0.9710
7.0546 -0.4717 -2.0016 0.9710
7.0670 -0.2179 -2.0016 0.9710
7.0702 0.0361 -2.0016 0.9710
7.0644 0.2901 -2.0016 0.9710
7.0494 0.5437 -2.0016 0.9710
7.0253 0.7967 -2.0016 0.9710
6.9922 1.0486 -2.0016 0.9710
6.8988 1.5480 -2.0016 0.9710
6.7698 2.0394 -2.0016 0.9710
6.6922 2.2813 -2.0016 0.9710
6.5111 2.7560 -2.0016 0.9710
6.4079 2.9881 -2.0016 0.9710
6.0491 3.6603 -2.0016 0.9710
5.9137 3.8752 -2.0016 0.9710
5.7707 4.0852 -2.0016 0.9710
5.6202 4.2899 -2.0016 0.9710
5.4624 4.4891 -2.0016 0.9710
5.2976 4.6824 -2.0016 0.9710
5.1260 4.8697 -2.0016 0.9710
4.9477 5.0508 -2.0016 0.9710
4.7630 5.2252 -2.0016 0.9710
-6.2880 -1.6757 -2.0016 0.9731
-6.2238 -1.9006 -2.0016 0.9731
-5.7894 -2.2338 -1.9087 0.9744
-5.5509 -2.3743 -1.8570 0.9751
-5.2632 -2.9578 -1.8570 0.9751
-5.1536 -3.1450 -1.8570 0.9751
-4.9144 -3.5070 -1.8570 0.9751
-4.6499 -3.8508 -1.8570 0.9751
-4.5085 -4.0154 -1.8570 0.9751
-4.2085 -4.3288 -1.8570 0.9751
-3.8868 -4.6199 -1.8570 0.9751
-3.7183 -4.7565 -1.8570 0.9751
-3.3671 -5.0113 -1.8570 0.9751
-2.9986 -5.2401 -1.8570 0.9751
-2.8084 -5.3445 -1.8570 0.9751
-2.6146 -5.4419 -1.8570 0.9751
-2.4173 -5.5323 -1.8570 0.9751
-2.2170 -5.6156 -1.8570 0.9751
-2.1706 -6.1348 -2.0016 0.9731
-1.2694 -6.3825 -2.0016 0.9731
-0.8078 -6.4571 -2.0016 0.9731
-0.5753 -6.4820 -2.0016 0.9731
-0.3420 -6.4985 -2.0016 0.9731
-0.1083 -6.5066 -2.0016 0.9731
0.3592 -6.4976 -2.0016 0.9731
0.5924 -6.4805 -2.0016 0.9731
0.8249 -6.4550 -2.0016 0.9731
1.0563 -6.4212 -2.0016 0.9731
1.5146 -6.3288 -2.0016 0.9731
1.7410 -6.2703 -2.0016 0.9731
2.2318 -5.6097 -1.8570 0.9751
4.0214 -5.1162 -2.0016 0.9731
4.3784 -4.8143 -2.0016 0.9731
5.0229 -4.1374 -2.0016 0.9731
5.4389 -3.5729 -2.0016 0.9731
5.6814 -3.1731 -2.0016 0.9731
5.8946 -2.7569 -2.0016 0.9731
6.1570 -2.1067 -2.0016 0.9731
6.2288 -1.8841 -2.0016 0.9731
6.2924 -1.6591 -2.0016 0.9731
6.3480 -1.4319 -2.0016 0.9731
6.3953 -1.2029 -2.0016 0.9731
6.4344 -0.9724 -2.0016 0.9731
6.4876 -0.5078 -2.0016 0.9731
6.4739 0.6598 -2.0016 0.9731
6.4098 1.1230 -2.0016 0.9731
6.2518 1.8062 -2.0016 0.9731
6.1829 2.0296 -2.0016 0.9731
6.1060 2.2505 -2.0016 0.9731
6.0212 2.4684 -2.0016 0.9731
5.9286 2.6831 -2.0016 0.9731
5.8284 2.8944 -2.0016 0.9731
5.4831 3.5047 -2.0016 0.9731
5.3536 3.6995 -2.0016 0.9731
5.2173 3.8894 -2.0016 0.9731
5.0741 4.0744 -2.0016 0.9731
4.7685 4.4282 -2.0016 0.9731
4.6063 4.5967 -2.0016 0.9731
4.4382 4.7592 -2.0016 0.9731
3.9003 5.2091 -2.0016 0.9731
3.7106 5.3459 -2.0016 0.9731
3.1139 5.7141 -2.0016 0.9731
2.6955 5.9230 -2.0016 0.9731
2.4809 6.0160 -2.0016 0.9731
2.2632 6.1013 -2.0016 0.9731
2.0425 6.1786 -2.0016 0.9731
1.8192 6.2480 -2.0016 0.9731
1.1363 6.4075 -2.0016 0.9731
0.9054 6.4442 -2.0016 0.9731
0.6733 6.4726 -2.0016 0.9731
0.4403 6.4926 -2.0016 0.9731
-0.0271 6.5074 -2.0016 0.9731
-0.2609 6.5023 -2.0016 0.9731
-0.7271 6.4667 -2.0016 0.9731
-0.9590 6.4364 -2.0016 0.9731
-1.1896 6.3978 -2.0016 0.9731
-1.4187 6.3509 -2.0016 0.9731
-1.6460 6.2959 -2.0016 0.9731
-1.8711 6.2327 -2.0016 0.9731
-2.3139 6.0822 -2.0016 0.9731
-2.5309 5.9952 -2.0016 0.9731
-3.1613 5.6880 -2.0016 0.9731
-4.1269 5.0315 -2.0016 0.9731
-4.3050 4.8800 -2.0016 0.9731
-4.8051 4.3884 -2.0016 0.9731
-5.3842 3.6548 -2.0016 0.9731
-5.6328 3.2587 -2.0016 0.9731
-5.9507 2.6337 -2.0016 0.9731
-6.1245 2.1996 -2.0016 0.9731
-6.2666 1.7541 -2.0016 0.9731
-6.4190 1.0696 -2.0016 0.9731
-6.4792 0.6059 -2.0016 0.9731
-6.4968 0.3727 -2.0016 0.9731
-6.4992 -0.3285 -2.0016 0.9731
-6.3358 -1.4847 -2.0016 0.9731
-5.5374 -2.4058 -1.8570 0.9751
-5.3503 -2.7972 -1.8570 0.9751
-5.0183 -3.3567 -1.8570 0.9751
-4.8944 -3.5348 -1.8570 0.9751
-4.7643 -3.7084 -1.8570 0.9751
-4.6280 -3.8772 -1.8570 0.9751
-4.4857 -4.0409 -1.8570 0.9751
-4.3376 -4.1995 -1.8570 0.9751
-4.0248 -4.5001 -1.8570 0.9751
-3.8605 -4.6418 -1.8570 0.9751
-3.3387 -5.0303 -1.8570 0.9751
-2.9688 -5.2571 -1.8570 0.9751
-2.7780 -5.3603 -1.8570 0.9751
-2.5836 -5.4567 -1.8570 0.9751
-2.3860 -5.5463 -1.8571 0.9750
-1.9135 -6.2198 -2.0016 0.9731
-1.6888 -6.2845 -2.0016 0.9731
-1.4619 -6.3411 -2.0016 0.9731
-1.2332 -6.3896 -2.0016 0.9731
-1.0028 -6.4297 -2.0016 0.9731
-0.7711 -6.4616 -2.0016 0.9731
-0.5385 -6.4852 -2.0016 0.9731
-0.3051 -6.5003 -2.0016 0.9731
0.1624 -6.5055 -2.0016 0.9731
0.3961 -6.4954 -2.0016 0.9731
0.6292 -6.4770 -2.0016 0.9731
0.8615 -6.4502 -2.0016 0.9731
1.0927 -6.4151 -2.0016 0.9731
1.3225 -6.3717 -2.0016 0.9731
1.5505 -6.3201 -2.0016 0.9731
2.0004 -6.1924 -2.0016 0.9731
2.2636 -5.5970 -1.8570 0.9751
2.1891 -4.0832 -1.4250 0.9808
2.3800 -4.0801 -1.4528 0.9804
3.8647 -5.2356 -2.0016 0.9731
4.0503 -5.0933 -2.0016 0.9731
4.5748 -4.6280 -2.0016 0.9731
4.7382 -4.4606 -2.0016 0.9731
5.1906 -3.9249 -2.0016 0.9731
5.4591 -3.5420 -2.0016 0.9731
5.6993 -3.1408 -2.0016 0.9731
6.0042 -2.5093 -2.0016 0.9731
6.0905 -2.2920 -2.0016 0.9731
6.1689 -2.0717 -2.0016 0.9731
6.4021 -1.1666 -2.0016 0.9731
6.4398 -0.9359 -2.0016 0.9731
6.4693 -0.7039 -2.0016 0.9731
6.4904 -0.4710 -2.0016 0.9731
6.5075 -0.0037 -2.0016 0.9731
6.5034 0.2301 -2.0016 0.9731
6.4909 0.4636 -2.0016 0.9731
6.3576 1.3887 -2.0016 0.9731
6.0931 2.2851 -2.0016 0.9731
6.0071 2.5025 -2.0016 0.9731
5.5866 3.3372 -2.0016 0.9731
5.3325 3.7298 -2.0016 0.9731
5.0509 4.1031 -2.0016 0.9731
4.9003 4.2819 -2.0016 0.9731
4.5801 4.6228 -2.0016 0.9731
4.4111 4.7843 -2.0016 0.9731
4.2363 4.9397 -2.0016 0.9731
3.8707 5.2312 -2.0016 0.9731
3.4850 5.4956 -2.0016 0.9731
2.8735 5.8387 -2.0016 0.9731
2.6618 5.9382 -2.0016 0.9731
2.2285 6.1140 -2.0016 0.9731
2.0074 6.1901 -2.0016 0.9731
1.3297 6.3702 -2.0016 0.9731
0.8688 6.4492 -2.0016 0.9731
0.1698 6.5053 -2.0016 0.9731
-0.2978 6.5007 -2.0016 0.9731
-0.7638 6.4625 -2.0016 0.9731
-1.4547 6.3428 -2.0016 0.9731
-1.6817 6.2864 -2.0016 0.9731
-2.3483 6.0690 -2.0016 0.9731
-3.1935 5.6700 -2.0016 0.9731
-3.3952 5.5516 -2.0016 0.9731
-3.5924 5.4260 -2.0016 0.9731
-3.7851 5.2935 -2.0016 0.9731
-4.5043 4.6966 -2.0016 0.9731
-4.6701 4.5318 -2.0016 0.9731
-5.1307 4.0030 -2.0016 0.9731
-5.2712 3.8160 -2.0016 0.9731
-5.4049 3.6242 -2.0016 0.9731
-5.7634 3.0216 -2.0016 0.9731
-5.8683 2.8126 -2.0016 0.9731
-5.9656 2.5999 -2.0016 0.9731
-6.4249 1.0332 -2.0016 0.9731
-6.5061 -0.1317 -2.0016 0.9731
-6.4972 -0.3654 -2.0016 0.9731
-6.4799 -0.5986 -2.0016 0.9731
-6.3779 -1.2923 -2.0016 0.9731
-6.2686 -1.7470 -2.0016 0.9731
-6.2018 -1.9711 -2.0016 0.9731
-6.1270 -2.1926 -2.0016 0.9731
-5.6247 -2.2440 -1.8626 0.9750
-5.3344 -2.8276 -1.8570 0.9751
-5.2293 -3.0174 -1.8570 0.9751
-5.1175 -3.2033 -1.8570 0.9751
-4.8743 -3.5625 -1.8570 0.9751
-4.6059 -3.9034 -1.8570 0.9751
-4.4627 -4.0663 -1.8570 0.9751
-3.9992 -4.5229 -1.8570 0.9751
-3.4893 -4.9270 -1.8570 0.9751
-3.1265 -5.1648 -1.8570 0.9751
-2.7475 -5.3760 -1.8570 0.9751
-2.3544 -5.5594 -1.8570 0.9751
-1.8782 -6.2305 -2.0016 0.9731
-1.4259 -6.3493 -2.0016 0.9731
-1.1969 -6.3965 -2.0016 0.9731
-0.9663 -6.4353 -2.0016 0.9731
-0.7345 -6.4659 -2.0016 0.9731
0.8981 -6.4452 -2.0016 0.9731
1.3586 -6.3641 -2.0016 0.9731
2.2562 -6.1038 -2.0016 0.9731
2.2954 -5.5841 -1.8570 0.9751
2.4109 -4.0795 -1.4575 0.9804
3.7045 -5.3501 -2.0016 0.9731
4.0792 -5.0703 -2.0016 0.9731
4.6010 -4.6019 -2.0016 0.9731
4.7634 -4.4336 -2.0016 0.9731
5.6017 -3.3118 -2.0016 0.9731
5.7171 -3.1084 -2.0016 0.9731
5.9255 -2.6899 -2.0016 0.9731
6.0183 -2.4752 -2.0016 0.9731
6.1034 -2.2574 -2.0016 0.9731
6.2497 -1.8133 -2.0016 0.9731
6.3109 -1.5876 -2.0016 0.9731
6.3638 -1.3598 -2.0016 0.9731
6.4086 -1.1303 -2.0016 0.9731
6.4732 -0.6672 -2.0016 0.9731
6.5044 -0.2006 -2.0016 0.9731
6.5074 0.0332 -2.0016 0.9731
6.5020 0.2670 -2.0016 0.9731
6.4882 0.5004 -2.0016 0.9731
6.3967 1.1957 -2.0016 0.9731
6.3496 1.4247 -2.0016 0.9731
6.2943 1.6519 -2.0016 0.9731
6.2309 1.8770 -2.0016 0.9731
6.1594 2.0997 -2.0016 0.9731
6.0800 2.3196 -2.0016 0.9731
5.9928 2.5366 -2.0016 0.9731
5.1728 3.9484 -2.0016 0.9731
5.0276 4.1317 -2.0016 0.9731
4.8759 4.3097 -2.0016 0.9731
4.5538 4.6487 -2.0016 0.9731
4.3839 4.8093 -2.0016 0.9731
-5.8184 -1.5506 -2.0016 0.9749
-5.7589 -1.7586 -2.0016 0.9749
-5.6920 -1.9644 -2.0016 0.9749
-5.6178 -2.1676 -2.0016 0.9749
-5.2302 -2.2371 -1.8909 0.9763
-4.9653 -2.5602 -1.8570 0.9767
-4.8701 -2.7369 -1.8570 0.9767
-4.7686 -2.9101 -1.8570 0.9767
-4.5474 -3.2451 -1.8570 0.9767
-4.4278 -3.4063 -1.8570 0.9767
-4.3026 -3.5632 -1.8570 0.9767
-4.0356 -3.8630 -1.8570 0.9767
-3.5965 -4.2748 -1.8570 0.9767
-3.4406 -4.4013 -1.8570 0.9767
-3.2802 -4.5220 -1.8570 0.9767
-3.1157 -4.6370 -1.8570 0.9767
-2.2368 -5.1191 -1.8570 0.9767
-1.8634 -5.2666 -1.8570 0.9767
-1.2859 -5.4365 -1.8570 0.9767
-0.8922 -5.5148 -1.8570 0.9767
-0.6938 -5.5456 -1.8578 0.9767
-0.4939 -5.5646 -1.8570 0.9767
-0.2936 -5.5788 -1.8570 0.9767
0.3084 -5.5780 -1.8570 0.9767
0.5086 -5.5633 -1.8570 0.9767
0.9068 -5.5124 -1.8570 0.9767
1.3003 -5.4331 -1.8570 0.9767
1.8773 -5.2616 -1.8570 0.9767
2.1521 -4.0693 -1.5302 0.9808
2.9596 -4.7381 -1.8570 0.9767
3.2922 -4.5134 -1.8570 0.9767
3.4522 -4.3922 -1.8570 0.9767
3.8887 -4.5974 -2.0016 0.9749
4.0514 -4.4547 -2.0016 0.9749
4.3608 -4.1523 -2.0016 0.9749
4.7823 -3.6589 -2.0016 0.9749
4.9106 -3.4847 -2.0016 0.9749
5.1482 -3.1231 -2.0016 0.9749
5.2571 -2.9361 -2.0016 0.9749
5.3592 -2.7453 -2.0016 0.9749
5.5425 -2.3534 -2.0016 0.9749
5.6235 -2.1528 -2.0016 0.9749
5.9538 -0.8998 -2.0016 0.9749
5.9823 -0.6853 -2.0016 0.9749
6.0031 -0.4699 -2.0016 0.9749
6.0213 -0.0376 -2.0016 0.9749
6.0085 0.3949 -2.0016 0.9749
5.9646 0.8254 -2.0016 0.9749
5.5714 2.2840 -2.0016 0.9749
5.3931 2.6782 -2.0016 0.9749
5.2933 2.8703 -2.0016 0.9749
5.0736 3.2430 -2.0016 0.9749
4.9538 3.4232 -2.0016 0.9749
4.8276 3.5989 -2.0016 0.9749
4.6952 3.7700 -2.0016 0.9749
4.5567 3.9363 -2.0016 0.9749
4.2622 4.2534 -2.0016 0.9749
3.0694 5.1804 -2.0016 0.9749
2.8813 5.2873 -2.0016 0.9749
2.6895 5.3874 -2.0016 0.9749
2.0941 5.6456 -2.0016 0.9749
1.4745 5.8381 -2.0016 0.9749
1.2638 5.8873 -2.0016 0.9749
0.1913 6.0184 -2.0016 0.9749
-0.0250 6.0214 -2.0016 0.9749
-1.1008 5.9200 -2.0016 0.9749
-1.3127 5.8766 -2.0016 0.9749
-1.7314 5.7672 -2.0016 0.9749
-2.5397 5.4597 -2.0016 0.9749
-2.7342 5.3649 -2.0016 0.9749
-2.9252 5.2632 -2.0016 0.9749
-4.2975 4.2178 -2.0016 0.9749
-4.4462 4.0606 -2.0016 0.9749
-4.5893 3.8983 -2.0016 0.9749
-4.8573 3.5586 -2.0016 0.9749
-4.9821 3.3818 -2.0016 0.9749
-5.1004 3.2006 -2.0016 0.9749
-5.3170 2.8261 -2.0016 0.9749
-5.5903 2.2376 -2.0016 0.9749
-5.6670 2.0353 -2.0016 0.9749
-5.7986 1.6231 -2.0016 0.9749
-5.9713 0.7757 -2.0016 0.9749
-5.9953 0.5607 -2.0016 0.9749
-6.0201 0.1287 -2.0016 0.9749
-5.9764 -0.7350 -2.0016 0.9749
-5.9082 -1.1623 -2.0016 0.9749
-5.8095 -1.5836 -2.0016 0.9749
-5.6054 -2.1995 -2.0016 0.9749
-5.1583 -2.2411 -1.8695 0.9766
-4.8545 -2.7645 -1.8570 0.9767
-4.7521 -2.9372 -1.8570 0.9767
-4.6435 -3.1060 -1.8570 0.9767
-4.5289 -3.2708 -1.8570 0.9767
-4.1506 -3.7391 -1.8570 0.9767
-4.0136 -3.8858 -1.8570 0.9767
-3.4156 -4.4207 -1.8570 0.9767
-3.0893 -4.6546 -1.8570 0.9767
-2.9201 -4.7626 -1.8570 0.9767
-2.5705 -4.9600 -1.8570 0.9767
-2.3907 -5.0491 -1.8570 0.9767
-2.2077 -5.1318 -1.8570 0.9767
-2.0219 -5.2078 -1.8570 0.9767
-1.8335 -5.2770 -1.8570 0.9767
-1.0586 -5.4853 -1.8570 0.9767
-0.6620 -5.5471 -1.8570 0.9767
-0.4623 -5.5673 -1.8570 0.9767
-0.2620 -5.5803 -1.8570 0.9767
-0.0613 -5.5862 -1.8570 0.9767
0.5401 -5.5603 -1.8570 0.9767
0.7405 -5.5441 -1.8593 0.9767
0.9380 -5.5072 -1.8570 0.9767
1.1353 -5.4699 -1.8570 0.9767
1.3311 -5.4256 -1.8570 0.9767
1.7173 -5.3160 -1.8570 0.9767
1.9072 -5.2509 -1.8570 0.9767
2.2793 -5.1004 -1.8570 0.9767
2.0664 -4.2110 -1.5592 0.9804
2.1814 -4.0688 -1.5346 0.9807
3.1541 -4.6109 -1.8570 0.9767
3.4771 -4.3725 -1.8570 0.9767
4.3843 -4.1274 -2.0016 0.9749
4.6694 -3.8019 -2.0016 0.9749
4.8029 -3.6317 -2.0016 0.9749
5.0513 -3.2775 -2.0016 0.9749
5.1658 -3.0938 -2.0016 0.9749
5.4688 -2.5200 -2.0016 0.9749
5.8813 -1.2916 -2.0016 0.9749
5.9239 -1.0795 -2.0016 0.9749
6.0174 -0.2198 -2.0016 0.9749
5.8827 1.2849 -2.0016 0.9749
5.7103 1.9105 -2.0016 0.9749
5.6380 2.1144 -2.0016 0.9749
5.4716 2.5138 -2.0016 0.9749
5.2770 2.9002 -2.0016 0.9749
5.1694 3.0880 -2.0016 0.9749
5.0551 3.2717 -2.0016 0.9749
4.9343 3.4512 -2.0016 0.9749
4.6737 3.7966 -2.0016 0.9749
4.5343 3.9621 -2.0016 0.9749
4.2380 4.2775 -2.0016 0.9749
3.4053 4.9660 -2.0016 0.9749
3.0399 5.1977 -2.0016 0.9749
2.8512 5.3036 -2.0016 0.9749
2.6588 5.4026 -2.0016 0.9749
2.4630 5.4947 -2.0016 0.9749
2.2640 5.5796 -2.0016 0.9749
1.8575 5.7278 -2.0016 0.9749
1.6505 5.7908 -2.0016 0.9749
1.4414 5.8464 -2.0016 0.9749
1.2304 5.8944 -2.0016 0.9749
0.8039 5.9675 -2.0016 0.9749
0.5890 5.9926 -2.0016 0.9749
0.1572 6.0194 -2.0016 0.9749
-0.0592 6.0212 -2.0016 0.9749
-0.7067 5.9798 -2.0016 0.9749
-1.3461 5.8691 -2.0016 0.9749
-1.7641 5.7572 -2.0016 0.9749
-1.9698 5.6901 -2.0016 0.9749
-2.1729 5.6157 -2.0016 0.9749
-2.5706 5.4452 -2.0016 0.9749
-3.6761 4.7691 -2.0016 0.9749
-4.6113 3.8722 -2.0016 0.9749
-4.8775 3.5310 -2.0016 0.9749
-5.0012 3.3535 -2.0016 0.9749
-5.4300 2.6025 -2.0016 0.9749
-5.6785 2.0031 -2.0016 0.9749
-5.8077 1.5902 -2.0016 0.9749
-5.9069 1.1690 -2.0016 0.9749
-5.9756 0.7418 -2.0016 0.9749
-6.0134 0.3108 -2.0016 0.9749
-5.9959 -0.5539 -2.0016 0.9749
-5.9721 -0.7689 -2.0016 0.9749
-5.9407 -0.9830 -2.0016 0.9749
-5.8547 -1.4071 -2.0016 0.9749
-5.6693 -2.0289 -2.0016 0.9749
-5.1111 -2.2552 -1.8570 0.9767
-5.0268 -2.4373 -1.8570 0.9767
-4.9359 -2.6164 -1.8570 0.9767
-4.6258 -3.1323 -1.8570 0.9767
-4.5102 -3.2965 -1.8570 0.9767
-4.2619 -3.6118 -1.8570 0.9767
-3.9915 -3.9086 -1.8570 0.9767
-3.8485 -4.0494 -1.8570 0.9767
-3.7005 -4.1851 -1.8570 0.9767
-3.5478 -4.3154 -1.8570 0.9767
-3.3904 -4.4400 -1.8570 0.9767
-3.0628 -4.6720 -1.8570 0.9767
-1.8035 -5.2874 -1.8570 0.9767
-1.6124 -5.3487 -1.8570 0.9767
-1.4192 -5.4032 -1.8570 0.9767
-1.2241 -5.4507 -1.8570 0.9767
-0.8295 -5.5246 -1.8570 0.9767
-0.2303 -5.5817 -1.8570 0.9767
-0.0296 -5.5864 -1.8570 0.9767
0.1711 -5.5839 -1.8570 0.9767
0.7724 -5.5431 -1.8603 0.9767
1.3619 -5.4180 -1.8570 0.9767
1.9369 -5.2400 -1.8570 0.9767
2.1239 -5.1670 -1.8570 0.9767
2.0416 -4.4998 -1.6425 0.9794
2.0687 -4.1558 -1.5431 0.9806
3.0132 -4.7042 -1.8570 0.9767
3.3432 -4.4757 -1.8570 0.9767
3.9406 -4.5529 -2.0016 0.9749
4.1017 -4.4084 -2.0016 0.9749
4.4076 -4.1025 -2.0016 0.9749
4.8235 -3.6044 -2.0016 0.9749
5.0699 -3.2487 -2.0016 0.9749
5.2901 -2.8763 -2.0016 0.9749
5.4830 -2.4890 -2.0016 0.9749
5.6475 -2.0888 -2.0016 0.9749
5.7189 -1.8845 -2.0016 0.9749
5.8885 -1.2582 -2.0016 0.9749
5.9897 -0.6173 -2.0016 0.9749
6.0080 -0.4017 -2.0016 0.9749
6.0186 -0.1856 -2.0016 0.9749
6.0214 0.0308 -2.0016 0.9749
6.0164 0.2471 -2.0016 0.9749
6.0036 0.4631 -2.0016 0.9749
5.9831 0.6785 -2.0016 0.9749
5.8242 1.5286 -2.0016 0.9749
5.7655 1.7368 -2.0016 0.9749
5.6994 1.9429 -2.0016 0.9749
5.3623 2.7393 -2.0016 0.9749
5.2604 2.9301 -2.0016 0.9749
5.0364 3.3003 -2.0016 0.9749
4.7864 3.6535 -2.0016 0.9749
4.6521 3.8231 -2.0016 0.9749
4.5117 3.9878 -2.0016 0.9749
4.3655 4.1473 -2.0016 0.9749
4.2137 4.3015 -2.0016 0.9749
4.0564 4.4501 -2.0016 0.9749
-5.4083 -1.4413 -2.0016 0.9765
-5.2909 -1.8259 -2.0016 0.9765
-5.2219 -2.0149 -2.0016 0.9765
-5.1461 -2.2012 -2.0016 0.9765
-4.7549 -2.2392 -1.8795 0.9779
-4.5269 -2.5440 -1.8570 0.9782
-3.9994 -3.3121 -1.8570 0.9782
-3.1981 -4.0911 -1.8570 0.9782
-3.0491 -4.2034 -1.8570 0.9782
-2.7394 -4.4115 -1.8570 0.9782
-2.4155 -4.5968 -1.8570 0.9782
-2.0792 -4.7584 -1.8570 0.9782
-1.9069 -4.8300 -1.8570 0.9782
-1.5551 -4.9545 -1.8570 0.9782
-1.3761 -5.0071 -1.8570 0.9782
-0.6446 -5.1526 -1.8570 0.9782
-0.4591 -5.1725 -1.8570 0.9782
-0.2729 -5.1856 -1.8570 0.9782
-0.0864 -5.1921 -1.8570 0.9782
0.1002 -5.1918 -1.8570 0.9782
0.2866 -5.1849 -1.8570 0.9782
0.4727 -5.1712 -1.8570 0.9782
0.8429 -5.1239 -1.8570 0.9782
1.2086 -5.0502 -1.8570 0.9782
1.5682 -4.9503 -1.8570 0.9782
1.7450 -4.8908 -1.8570 0.9782
2.0917 -4.7529 -1.8570 0.9782
2.0464 -4.2306 -1.6806 0.9802
2.3294 -4.0459 -1.6695 0.9804
2.9075 -4.3025 -1.8570 0.9782
4.3202 -3.5586 -2.0016 0.9765
4.4452 -3.4011 -2.0016 0.9765
4.6780 -3.0731 -2.0016 0.9765
4.7854 -2.9030 -2.0016 0.9765
4.8866 -2.7292 -2.0016 0.9765
4.9815 -2.5519 -2.0016 0.9765
5.1519 -2.1876 -2.0016 0.9765
5.2957 -1.8120 -2.0016 0.9765
5.4599 -1.2316 -2.0016 0.9765
5.5342 -0.8364 -2.0016 0.9765
5.5607 -0.6370 -2.0016 0.9765
5.5921 -0.2360 -2.0016 0.9765
5.5970 -0.0349 -2.0016 0.9765
5.5946 0.1662 -2.0016 0.9765
5.5850 0.3671 -2.0016 0.9765
5.5683 0.5675 -2.0016 0.9765
5.5443 0.7672 -2.0016 0.9765
5.4295 1.3593 -2.0016 0.9765
5.3179 1.7457 -2.0016 0.9765
5.2517 1.9356 -2.0016 0.9765
5.1788 2.1231 -2.0016 0.9765
5.0992 2.3078 -2.0016 0.9765
4.6047 3.1819 -2.0016 0.9765
4.2356 3.6589 -2.0016 0.9765
4.1014 3.8087 -2.0016 0.9765
3.5135 4.3570 -2.0016 0.9765
2.6782 4.9147 -2.0016 0.9765
2.3184 5.0944 -2.0016 0.9765
1.7568 5.3142 -2.0016 0.9765
1.5647 5.3739 -2.0016 0.9765
1.3706 5.4267 -2.0016 0.9765
1.1748 5.4724 -2.0016 0.9765
0.9774 5.5111 -2.0016 0.9765
0.3787 5.5843 -2.0016 0.9765
-0.0233 5.5970 -2.0016 0.9765
-0.6254 5.5620 -2.0016 0.9765
-1.0232 5.5028 -2.0016 0.9765
-1.2202 5.4625 -2.0016 0.9765
-1.8009 5.2995 -2.0016 0.9765
-1.9901 5.2313 -2.0016 0.9765
-2.1768 5.1564 -2.0016 0.9765
-2.3607 5.0749 -2.0016 0.9765
-2.8930 4.7914 -2.0016 0.9765
-3.0633 4.6844 -2.0016 0.9765
-3.2296 4.5713 -2.0016 0.9765
-3.3918 4.4523 -2.0016 0.9765
-3.5496 4.3276 -2.0016 0.9765
-3.7028 4.1973 -2.0016 0.9765
-4.3933 3.4679 -2.0016 0.9765
-4.5150 3.3079 -2.0016 0.9765
-4.7409 2.9751 -2.0016 0.9765
-4.8447 2.8028 -2.0016 0.9765
-5.0335 2.4477 -2.0016 0.9765
-5.1963 2.0799 -2.0016 0.9765
-5.4406 1.3141 -2.0016 0.9765
-5.4843 1.1178 -2.0016 0.9765
-5.5210 0.9200 -2.0016 0.9765
-5.5504 0.7210 -2.0016 0.9765
-5.5879 0.3206 -2.0016 0.9765
-5.5958 0.1196 -2.0016 0.9765
-5.5900 -0.2825 -2.0016 0.9765
-5.5762 -0.4832 -2.0016 0.9765
-5.4918 -1.0804 -2.0016 0.9765
-5.4495 -1.2770 -2.0016 0.9765
-5.2103 -2.0445 -2.0016 0.9765
-4.6974 -2.2448 -1.8618 0.9781
-4.6018 -2.4059 -1.8570 0.9782
-4.5124 -2.5697 -1.8570 0.9782
-4.4172 -2.7302 -1.8570 0.9782
-4.3162 -2.8871 -1.8570 0.9782
-3.8581 -3.4756 -1.8570 0.9782
-3.3204 -3.9925 -1.8570 0.9782
-3.1749 -4.1092 -1.8570 0.9782
-3.0252 -4.2206 -1.8570 0.9782
-2.7143 -4.4269 -1.8570 0.9782
-2.5535 -4.5216 -1.8570 0.9782
-2.3894 -4.6104 -1.8570 0.9782
-1.8794 -4.8408 -1.8570 0.9782
-1.7043 -4.9052 -1.8570 0.9782
-1.3476 -5.0149 -1.8570 0.9782
-0.2435 -5.1871 -1.8570 0.9782
-0.0570 -5.1925 -1.8570 0.9782
0.1296 -5.1912 -1.8570 0.9782
0.3160 -5.1832 -1.8570 0.9782
0.5021 -5.1685 -1.8570 0.9782
0.6874 -5.1471 -1.8570 0.9782
1.2373 -5.0432 -1.8570 0.9782
1.9470 -4.8140 -1.8570 0.9782
2.3602 -4.0460 -1.6751 0.9803
2.7760 -4.3885 -1.8570 0.9782
2.9318 -4.2860 -1.8570 0.9782
3.0839 -4.1778 -1.8570 0.9782
3.9348 -3.9805 -2.0016 0.9765
4.3403 -3.5340 -2.0016 0.9765
4.4645 -3.3758 -2.0016 0.9765
4.5829 -3.2132 -2.0016 0.9765
4.9959 -2.5236 -2.0016 0.9765
5.1642 -2.1583 -2.0016 0.9765
5.2384 -1.9714 -2.0016 0.9765
5.3059 -1.7819 -2.0016 0.9765
5.3665 -1.5901 -2.0016 0.9765
5.4201 -1.3963 -2.0016 0.9765
5.4668 -1.2006 -2.0016 0.9765
5.5064 -1.0034 -2.0016 0.9765
5.5389 -0.8049 -2.0016 0.9765
5.5643 -0.6054 -2.0016 0.9765
5.5824 -0.4051 -2.0016 0.9765
5.5829 0.3988 -2.0016 0.9765
5.5398 0.7986 -2.0016 0.9765
5.4682 1.1944 -2.0016 0.9765
5.4217 1.3901 -2.0016 0.9765
5.3683 1.5840 -2.0016 0.9765
5.3079 1.7758 -2.0016 0.9765
4.9051 2.6959 -2.0016 0.9765
4.6988 3.0411 -2.0016 0.9765
4.5865 3.2080 -2.0016 0.9765
4.3443 3.5291 -2.0016 0.9765
4.0797 3.8319 -2.0016 0.9765
3.7940 4.1150 -2.0016 0.9765
3.4887 4.3768 -2.0016 0.9765
3.3292 4.4993 -2.0016 0.9765
3.1654 4.6160 -2.0016 0.9765
2.9975 4.7268 -2.0016 0.9765
2.6503 4.9298 -2.0016 0.9765
1.7266 5.3241 -2.0016 0.9765
1.1437 5.4790 -2.0016 0.9765
0.9461 5.5166 -2.0016 0.9765
0.7473 5.5470 -2.0016 0.9765
0.3470 5.5863 -2.0016 0.9765
0.1461 5.5952 -2.0016 0.9765
-0.4568 5.5784 -2.0016 0.9765
-1.0544 5.4969 -2.0016 0.9765
-1.4464 5.4070 -2.0016 0.9765
-2.0198 5.2199 -2.0016 0.9765
-2.3894 5.0614 -2.0016 0.9765
-3.0898 4.6669 -2.0016 0.9765
-3.7265 4.1762 -2.0016 0.9765
-4.0168 3.8978 -2.0016 0.9765
-4.1542 3.7510 -2.0016 0.9765
-4.2863 3.5993 -2.0016 0.9765
-4.6487 3.1172 -2.0016 0.9765
-4.8606 2.7753 -2.0016 0.9765
-4.9571 2.5989 -2.0016 0.9765
-5.0473 2.4191 -2.0016 0.9765
-5.1310 2.2362 -2.0016 0.9765
-5.3418 1.6711 -2.0016 0.9765
-5.4480 1.2832 -2.0016 0.9765
-5.4906 1.0866 -2.0016 0.9765
-5.5756 0.4895 -2.0016 0.9765
-5.5896 0.2889 -2.0016 0.9765
-5.5964 0.0879 -2.0016 0.9765
-5.5959 -0.1133 -2.0016 0.9765
-5.5883 -0.3142 -2.0016 0.9765
-5.5734 -0.5148 -2.0016 0.9765
-5.5513 -0.7147 -2.0016 0.9765
-5.5220 -0.9137 -2.0016 0.9765
-5.3916 -1.5026 -2.0016 0.9765
-5.3342 -1.6953 -2.0016 0.9765
-5.2698 -1.8859 -2.0016 0.9765
-5.0375 -2.2227 -1.9690 0.9769
-4.6725 -2.2656 -1.8570 0.9782
-4.0796 -3.2128 -1.8570 0.9782
-3.8383 -3.4975 -1.8570 0.9782
-3.7102 -3.6331 -1.8570 0.9782
-3.4397 -3.8902 -1.8570 0.9782
-3.2977 -4.0112 -1.8570 0.9782
-3.0012 -4.2377 -1.8570 0.9782
-2.8470 -4.3428 -1.8570 0.9782
-2.6891 -4.4423 -1.8570 0.9782
-2.0250 -4.7817 -1.8570 0.9782
-1.6764 -4.9147 -1.8570 0.9782
-1.4988 -4.9718 -1.8570 0.9782
-0.9551 -5.1042 -1.8570 0.9782
-0.7711 -5.1352 -1.8570 0.9782
-0.4003 -5.1773 -1.8570 0.9782
-0.0275 -5.1927 -1.8570 0.9782
0.1591 -5.1904 -1.8570 0.9782
0.3455 -5.1813 -1.8570 0.9782
0.5314 -5.1655 -1.8570 0.9782
1.2659 -5.0361 -1.8570 0.9782
1.6243 -4.9322 -1.8570 0.9782
1.9743 -4.8029 -1.8570 0.9782
3.3983 -3.9264 -1.8570 0.9782
3.9574 -3.9581 -2.0016 0.9765
4.0970 -3.8134 -2.0016 0.9765
4.2314 -3.6637 -2.0016 0.9765
4.3603 -3.5093 -2.0016 0.9765
4.4836 -3.3504 -2.0016 0.9765
4.8180 -2.8485 -2.0016 0.9765
5.0101 -2.4952 -2.0016 0.9765
5.3159 -1.7517 -2.0016 0.9765
5.3754 -1.5596 -2.0016 0.9765
5.4735 -1.1696 -2.0016 0.9765
5.5120 -0.9722 -2.0016 0.9765
5.5846 -0.3734 -2.0016 0.9765
5.5352 0.8301 -2.0016 0.9765
5.3592 1.6144 -2.0016 0.9765
5.1544 2.1817 -2.0016 0.9765
4.9844 2.5462 -2.0016 0.9765
4.8897 2.7237 -2.0016 0.9765
4.6815 3.0678 -2.0016 0.9765
4.5682 3.2340 -2.0016 0.9765
4.4491 3.3960 -2.0016 0.9765
3.9167 3.9983 -2.0016 0.9765
3.7706 4.1365 -2.0016 0.9765
-4.9953 -1.5254 -2.0016 0.9779
-4.9373 -1.7039 -2.0016 0.9779
-4.8729 -1.8802 -2.0016 0.9779
-4.7096 -2.2179 -1.9949 0.9779
-4.3451 -2.2404 -1.8734 0.9793
-4.2244 -2.3740 -1.8570 0.9795
-4.0430 -2.6712 -1.8570 0.9795
-3.8407 -2.9547 -1.8570 0.9795
-3.6186 -3.2229 -1.8570 0.9795
-3.5005 -3.3508 -1.8570 0.9795
-3.2508 -3.5935 -1.8570 0.9795
-2.9844 -3.8177 -1.8570 0.9795
-2.8453 -3.9224 -1.8570 0.9795
-2.5563 -4.1166 -1.8570 0.9795
-2.4067 -4.2058 -1.8570 0.9795
-2.2541 -4.2896 -1.8570 0.9795
-1.9402 -4.4404 -1.8570 0.9795
-1.6163 -4.5682 -1.8570 0.9795
-1.2841 -4.6725 -1.8570 0.9795
-0.9453 -4.7527 -1.8570 0.9795
-0.7739 -4.7836 -1.8570 0.9795
-0.2547 -4.8391 -1.8570 0.9795
0.0935 -4.8449 -1.8570 0.9795
0.4411 -4.8256 -1.8570 0.9795
0.7865 -4.7815 -1.8570 0.9795
0.9578 -4.7501 -1.8570 0.9795
1.2965 -4.6691 -1.8570 0.9795
1.6284 -4.5640 -1.8570 0.9795
1.7913 -4.5025 -1.8570 0.9795
2.1154 -4.0000 -1.7340 0.9808
2.3033 -4.0005 -1.7690 0.9804
2.5001 -4.0025 -1.8085 0.9800
2.7132 -4.0150 -1.8570 0.9795
2.8557 -3.9149 -1.8570 0.9795
2.9945 -3.8098 -1.8570 0.9795
3.1294 -3.6997 -1.8570 0.9795
3.2603 -3.5849 -1.8570 0.9795
3.7826 -3.6017 -2.0016 0.9779
3.9095 -3.4635 -2.0016 0.9779
4.0315 -3.3208 -2.0016 0.9779
4.1482 -3.1738 -2.0016 0.9779
4.4656 -2.7090 -2.0016 0.9779
4.5600 -2.5468 -2.0016 0.9779
4.6486 -2.3813 -2.0016 0.9779
4.8076 -2.0414 -2.0016 0.9779
4.8778 -1.8673 -2.0016 0.9779
4.9418 -1.6909 -2.0016 0.9779
4.9993 -1.5122 -2.0016 0.9779
5.0950 -1.1493 -2.0016 0.9779
5.1330 -0.9655 -2.0016 0.9779
5.1644 -0.7805 -2.0016 0.9779
5.1891 -0.5944 -2.0016 0.9779
5.2184 -0.2202 -2.0016 0.9779
5.2229 -0.0326 -2.0016 0.9779
5.2207 0.1551 -2.0016 0.9779
5.2118 0.3425 -2.0016 0.9779
5.1961 0.5296 -2.0016 0.9779
5.1737 0.7159 -2.0016 0.9779
5.1447 0.9013 -2.0016 0.9779
5.0178 1.4497 -2.0016 0.9779
4.9625 1.6290 -2.0016 0.9779
4.7584 2.1535 -2.0016 0.9779
4.5915 2.4897 -2.0016 0.9779
4.4991 2.6530 -2.0016 0.9779
4.4008 2.8130 -2.0016 0.9779
4.1875 3.1217 -2.0016 0.9779
3.5621 3.8198 -2.0016 0.9779
3.2786 4.0658 -2.0016 0.9779
2.8221 4.3950 -2.0016 0.9779
2.6624 4.4935 -2.0016 0.9779
2.4992 4.5863 -2.0016 0.9779
2.3328 4.6731 -2.0016 0.9779
1.9912 4.8286 -2.0016 0.9779
1.6394 4.9591 -2.0016 0.9779
0.9121 5.1428 -2.0016 0.9779
0.7267 5.1722 -2.0016 0.9779
0.5404 5.1950 -2.0016 0.9779
-0.0217 5.2230 -2.0016 0.9779
-0.2094 5.2188 -2.0016 0.9779
-1.1387 5.0974 -2.0016 0.9779
-1.5018 5.0025 -2.0016 0.9779
-1.6806 4.9453 -2.0016 0.9779
-1.8571 4.8817 -2.0016 0.9779
-2.0313 4.8118 -2.0016 0.9779
-2.3716 4.6535 -2.0016 0.9779
-2.5373 4.5653 -2.0016 0.9779
-3.0138 4.2658 -2.0016 0.9779
-3.3123 4.0384 -2.0016 0.9779
-3.4553 3.9167 -2.0016 0.9779
-3.5938 3.7901 -2.0016 0.9779
-3.9807 3.3814 -2.0016 0.9779
-4.0997 3.2362 -2.0016 0.9779
-4.4241 2.7763 -2.0016 0.9779
-4.6120 2.4514 -2.0016 0.9779
-4.6971 2.2841 -2.0016 0.9779
-4.9156 1.7654 -2.0016 0.9779
-4.9759 1.5877 -2.0016 0.9779
-5.1520 0.8585 -2.0016 0.9779
-5.2164 -0.2636 -2.0016 0.9779
-5.1840 -0.6376 -2.0016 0.9779
-5.1577 -0.8234 -2.0016 0.9779
-5.1248 -1.0082 -2.0016 0.9779
-5.0853 -1.1917 -2.0016 0.9779
-4.7904 -2.0813 -2.0016 0.9779
-4.6489 -2.2216 -1.9745 0.9782
-4.2108 -2.3980 -1.8570 0.9795
-4.1220 -2.5477 -1.8570 0.9795
-3.9284 -2.8371 -1.8570 0.9795
-3.8239 -2.9764 -1.8570 0.9795
-3.7145 -3.1119 -1.8570 0.9795
-3.3581 -3.4935 -1.8570 0.9795
-2.9627 -3.8346 -1.8570 0.9795
-2.8230 -3.9385 -1.8570 0.9795
-2.6797 -4.0374 -1.8570 0.9795
-2.5329 -4.1311 -1.8570 0.9795
-2.2297 -4.3023 -1.8570 0.9795
-1.9150 -4.4513 -1.8570 0.9795
-1.7538 -4.5172 -1.8570 0.9795
-1.5904 -4.5773 -1.8570 0.9795
-1.4249 -4.6315 -1.8570 0.9795
-1.2576 -4.6797 -1.8570 0.9795
-1.0886 -4.7219 -1.8570 0.9795
-0.9183 -4.7580 -1.8570 0.9795
-0.7467 -4.7879 -1.8570 0.9795
-0.5742 -4.8116 -1.8570 0.9795
0.4685 -4.8231 -1.8570 0.9795
0.9848 -4.7446 -1.8570 0.9795
1.1546 -4.7062 -1.8570 0.9795
1.4896 -4.6111 -1.8570 0.9795
1.6543 -4.5546 -1.8570 0.9795
1.9771 -4.4241 -1.8570 0.9795
2.0015 -4.0785 -1.7410 0.9807
2.1446 -4.0001 -1.7393 0.9807
2.3337 -4.0006 -1.7749 0.9804
2.5513 -4.0333 -1.8289 0.9798
2.7359 -3.9995 -1.8570 0.9795
3.4066 -3.4462 -1.8570 0.9795
3.8030 -3.5802 -2.0016 0.9779
3.9291 -3.4412 -2.0016 0.9779
4.0502 -3.2978 -2.0016 0.9779
4.4809 -2.6836 -2.0016 0.9779
4.6620 -2.3549 -2.0016 0.9779
4.8883 -1.8396 -2.0016 0.9779
5.1015 -1.1204 -2.0016 0.9779
5.1384 -0.9364 -2.0016 0.9779
5.1687 -0.7511 -2.0016 0.9779
5.1924 -0.5650 -2.0016 0.9779
5.2093 -0.3780 -2.0016 0.9779
5.2196 -0.1906 -2.0016 0.9779
5.2198 0.1847 -2.0016 0.9779
5.2098 0.3721 -2.0016 0.9779
5.1395 0.9305 -2.0016 0.9779
5.0594 1.2972 -2.0016 0.9779
5.0095 1.4781 -2.0016 0.9779
4.9532 1.6572 -2.0016 0.9779
4.8904 1.8340 -2.0016 0.9779
4.8214 2.0086 -2.0016 0.9779
4.7461 2.1805 -2.0016 0.9779
4.6647 2.3496 -2.0016 0.9779
4.5773 2.5157 -2.0016 0.9779
4.1697 3.1454 -2.0016 0.9779
4.0540 3.2932 -2.0016 0.9779
3.9330 3.4368 -2.0016 0.9779
3.6761 3.7103 -2.0016 0.9779
3.1067 4.1987 -2.0016 0.9779
2.9538 4.3076 -2.0016 0.9779
2.4732 4.6004 -2.0016 0.9779
2.3063 4.6863 -2.0016 0.9779
2.1364 4.7661 -2.0016 0.9779
1.9638 4.8398 -2.0016 0.9779
1.2503 5.0712 -2.0016 0.9779
0.8829 5.1479 -2.0016 0.9779
0.5109 5.1980 -2.0016 0.9779
0.1363 5.2213 -2.0016 0.9779
-0.0514 5.2228 -2.0016 0.9779
-0.2390 5.2176 -2.0016 0.9779
-0.4263 5.2056 -2.0016 0.9779
-0.6130 5.1869 -2.0016 0.9779
-0.7990 5.1616 -2.0016 0.9779
-1.3498 5.0456 -2.0016 0.9779
-1.5302 4.9939 -2.0016 0.9779
-1.8848 4.8711 -2.0016 0.9779
-2.0586 4.8002 -2.0016 0.9779
-2.2297 4.7232 -2.0016 0.9779
-2.8834 4.3550 -2.0016 0.9779
-3.0380 4.2486 -2.0016 0.9779
-3.1886 4.1367 -2.0016 0.9779
-3.3352 4.0195 -2.0016 0.9779
-3.6152 3.7696 -2.0016 0.9779
-3.8766 3.5003 -2.0016 0.9779
-3.9999 3.3587 -2.0016 0.9779
-4.2307 3.0628 -2.0016 0.9779
-4.5357 2.5898 -2.0016 0.9779
-4.8599 1.9134 -2.0016 0.9779
-5.0376 1.3793 -2.0016 0.9779
-5.1832 0.6435 -2.0016 0.9779
-5.2030 0.4568 -2.0016 0.9779
-5.2220 -0.1057 -2.0016 0.9779
-5.2148 -0.2932 -2.0016 0.9779
-5.1530 -0.8527 -2.0016 0.9779
-5.1190 -1.0372 -2.0016 0.9779
-4.1972 -2.4218 -1.8570 0.9795
-4.1074 -2.5711 -1.8570 0.9795
-4.0124 -2.7170 -1.8570 0.9795
-3.9122 -2.8594 -1.8570 0.9795
-3.8069 -2.9981 -1.8570 0.9795
-3.5818 -3.2637 -1.8570 0.9795
-3.4622 -3.3903 -1.8570 0.9795
-3.3382 -3.5125 -1.8570 0.9795
-2.8006 -3.9545 -1.8570 0.9795
-2.6567 -4.0526 -1.8570 0.9795
-2.5094 -4.1454 -1.8570 0.9795
-2.3588 -4.2329 -1.8570 0.9795
-2.2052 -4.3149 -1.8570 0.9795
-1.7281 -4.5271 -1.8570 0.9795
-1.5644 -4.5863 -1.8570 0.9795
-1.0618 -4.7280 -1.8570 0.9795
-0.8913 -4.7631 -1.8570 0.9795
-0.3736 -4.8313 -1.8570 0.9795
-0.0257 -4.8457 -1.8570 0.9795
0.6687 -4.7994 -1.8570 0.9795
1.0117 -4.7390 -1.8570 0.9795
1.1813 -4.6996 -1.8570 0.9795
1.3494 -4.6541 -1.8570 0.9795
1.5157 -4.6026 -1.8570 0.9795
1.6801 -4.5452 -1.8570 0.9795
1.8423 -4.4819 -1.8570 0.9795
2.0095 -4.0369 -1.7281 0.9809
2.6136 -4.0805 -1.8570 0.9795
2.7586 -3.9839 -1.8570 0.9795
3.1712 -3.6640 -1.8570 0.9795
3.4261 -3.4268 -1.8570 0.9795
3.9486 -3.4189 -2.0016 0.9779
4.0689 -3.2748 -2.0016 0.9779
4.1839 -3.1265 -2.0016 0.9779
4.2935 -2.9741 -2.0016 0.9779
4.3976 -2.8180 -2.0016 0.9779
4.4960 -2.6581 -2.0016 0.9779
4.5886 -2.4949 -2.0016 0.9779
4.6753 -2.3284 -2.0016 0.9779
4.7559 -2.1589 -2.0016 0.9779
4.8304 -1.9867 -2.0016 0.9779
4.9606 -1.6347 -2.0016 0.9779
5.0652 -1.2742 -2.0016 0.9779
5.1077 -1.0914 -2.0016 0.9779
5.1955 -0.5355 -2.0016 0.9779
5.2114 -0.3485 -2.0016 0.9779
5.2206 -0.1610 -2.0016 0.9779
5.2230 0.0267 -2.0016 0.9779
5.2186 0.2143 -2.0016 0.9779
5.1898 0.5885 -2.0016 0.9779
5.1653 0.7746 -2.0016 0.9779
5.1341 0.9597 -2.0016 0.9779
5.0963 1.1435 -2.0016 0.9779
5.0010 1.5065 -2.0016 0.9779
4.9437 1.6852 -2.0016 0.9779
4.8799 1.8618 -2.0016 0.9779
4.7337 2.2074 -2.0016 0.9779
4.6513 2.3760 -2.0016 0.9779
4.5629 2.5416 -2.0016 0.9779
3.7867 3.5974 -2.0016 0.9779
3.6550 3.7311 -2.0016 0.9779
-4.7256 -1.2593 -2.0016 0.9791
-4.6773 -1.4283 -2.0016 0.9791
-4.5626 -1.7605 -2.0016 0.9791
-4.4964 -1.9233 -2.0016 0.9791
-4.4244 -2.0836 -2.0016 0.9791
-4.3058 -2.2201 -1.9827 0.9793
-3.8730 -2.3636 -1.8570 0.9806
-3.7856 -2.5012 -1.8570 0.9806
-3.6933 -2.6356 -1.8570 0.9806
-3.5962 -2.7666 -1.8570 0.9806
-3.4945 -2.8940 -1.8570 0.9806
-3.3883 -3.0177 -1.8570 0.9806
-3.2776 -3.1375 -1.8570 0.9806
-3.1628 -3.2532 -1.8570 0.9806
-2.7944 -3.5746 -1.8570 0.9806
-2.6642 -3.6727 -1.8570 0.9806
-2.5305 -3.7661 -1.8570 0.9806
-2.3935 -3.8546 -1.8570 0.9806
-2.2535 -3.9381 -1.8570 0.9806
-2.1106 -4.0165 -1.8570 0.9806
-1.8167 -4.1577 -1.8570 0.9806
-1.5134 -4.2774 -1.8570 0.9806
-1.2024 -4.3750 -1.8570 0.9806
-1.0444 -4.4154 -1.8570 0.9806
-0.7246 -4.4790 -1.8570 0.9806
-0.5632 -4.5022 -1.8570 0.9806
0.2504 -4.5303 -1.8570 0.9806
0.4131 -4.5184 -1.8570 0.9806
0.7365 -4.4771 -1.8570 0.9806
0.8968 -4.4477 -1.8570 0.9806
1.3702 -4.3254 -1.8570 0.9806
2.1154 -4.0000 -1.8519 0.9806
2.2639 -3.9321 -1.8570 0.9806
2.5404 -3.7594 -1.8570 0.9806
2.8038 -3.5672 -1.8570 0.9806
2.9302 -3.4642 -1.8570 0.9806
3.0528 -3.3567 -1.8570 0.9806
3.8841 -2.9717 -2.0016 0.9791
3.9883 -2.8302 -2.0016 0.9791
4.0874 -2.6851 -2.0016 0.9791
4.2697 -2.3847 -2.0016 0.9791
4.4299 -2.0719 -2.0016 0.9791
4.5015 -1.9114 -2.0016 0.9791
4.6810 -1.4159 -2.0016 0.9791
4.7706 -1.0761 -2.0016 0.9791
4.8062 -0.9040 -2.0016 0.9791
4.8587 -0.5566 -2.0016 0.9791
4.8756 -0.3816 -2.0016 0.9791
4.8904 -0.0305 -2.0016 0.9791
4.8883 0.1452 -2.0016 0.9791
4.8800 0.3207 -2.0016 0.9791
4.8171 0.8440 -2.0016 0.9791
4.7441 1.1877 -2.0016 0.9791
4.6984 1.3574 -2.0016 0.9791
4.6466 1.5253 -2.0016 0.9791
4.1206 2.6339 -2.0016 0.9791
4.0233 2.7802 -2.0016 0.9791
3.9209 2.9230 -2.0016 0.9791
3.8133 3.0620 -2.0016 0.9791
3.3354 3.5766 -2.0016 0.9791
3.2047 3.6942 -2.0016 0.9791
2.9311 3.9148 -2.0016 0.9791
2.4929 4.2074 -2.0016 0.9791
2.3401 4.2943 -2.0016 0.9791
2.0257 4.4512 -2.0016 0.9791
1.8645 4.5211 -2.0016 0.9791
1.7008 4.5852 -2.0016 0.9791
1.5350 4.6434 -2.0016 0.9791
1.0265 4.7816 -2.0016 0.9791
0.6804 4.8429 -2.0016 0.9791
0.5060 4.8643 -2.0016 0.9791
0.3309 4.8793 -2.0016 0.9791
0.1554 4.8880 -2.0016 0.9791
-0.0203 4.8905 -2.0016 0.9791
-0.5464 4.8599 -2.0016 0.9791
-0.7207 4.8371 -2.0016 0.9791
-0.8940 4.8081 -2.0016 0.9791
-1.2370 4.7315 -2.0016 0.9791
-1.4062 4.6840 -2.0016 0.9791
-1.7389 4.5709 -2.0016 0.9791
-2.0627 4.4342 -2.0016 0.9791
-2.2206 4.3573 -2.0016 0.9791
-2.3758 4.2747 -2.0016 0.9791
-2.5278 4.1865 -2.0016 0.9791
-2.8219 3.9942 -2.0016 0.9791
-3.4903 3.4256 -2.0016 0.9791
-3.6111 3.2980 -2.0016 0.9791
-3.7273 3.1661 -2.0016 0.9791
-4.0463 2.7467 -2.0016 0.9791
-4.2331 2.4490 -2.0016 0.9791
-4.5403 1.8173 -2.0016 0.9791
-4.6027 1.6530 -2.0016 0.9791
-4.6591 1.4866 -2.0016 0.9791
-4.7538 1.1482 -2.0016 0.9791
-1.9511 0.2535 -0.8052 0.9915
-1.9579 0.1831 -0.8048 0.9915
-1.9453 0.1116 -0.7975 0.9916
-1.9189 0.0410 -0.7855 0.9917
-1.9126 -0.0279 -0.7828 0.9918
-4.7985 -0.9440 -2.0016 0.9791
-4.7183 -1.2861 -2.0016 0.9791
-4.6138 -1.6216 -2.0016 0.9791
-4.4855 -1.9488 -2.0016 0.9791
-4.4125 -2.1087 -2.0016 0.9791
-3.8595 -2.3855 -1.8570 0.9806
-3.6783 -2.6565 -1.8570 0.9806
-3.2598 -3.1560 -1.8570 0.9806
-3.0247 -3.3820 -1.8570 0.9806
-2.6433 -3.6878 -1.8570 0.9806
-2.5091 -3.7804 -1.8570 0.9806
-2.2311 -3.9508 -1.8570 0.9806
-2.0877 -4.0284 -1.8570 0.9806
-1.3342 -4.3367 -1.8570 0.9806
-1.1775 -4.3818 -1.8570 0.9806
-0.6992 -4.4830 -1.8570 0.9806
-0.3755 -4.5217 -1.8570 0.9806
-0.2128 -4.5323 -1.8570 0.9806
-0.0498 -4.5370 -1.8570 0.9806
0.9221 -4.4426 -1.8570 0.9806
1.2387 -4.3649 -1.8570 0.9806
1.3947 -4.3176 -1.8570 0.9806
1.5490 -4.2647 -1.8570 0.9806
1.7012 -4.2063 -1.8570 0.9806
1.8512 -4.1424 -1.8570 0.9806
2.2862 -3.9192 -1.8570 0.9806
2.4255 -3.8345 -1.8570 0.9806
2.5617 -3.7449 -1.8570 0.9806
2.6946 -3.6504 -1.8570 0.9806
2.8240 -3.5513 -1.8570 0.9806
2.9498 -3.4475 -1.8570 0.9806
3.0718 -3.3393 -1.8570 0.9806
3.1898 -3.2268 -1.8570 0.9806
3.3036 -3.1101 -1.8570 0.9806
3.6790 -3.2221 -2.0016 0.9791
4.0043 -2.8076 -2.0016 0.9791
4.1026 -2.6619 -2.0016 0.9791
4.1956 -2.5128 -2.0016 0.9791
4.5771 -1.7225 -2.0016 0.9791
4.7359 -1.2200 -2.0016 0.9791
4.8113 -0.8767 -2.0016 0.9791
4.8397 -0.7033 -2.0016 0.9791
4.8777 -0.3540 -2.0016 0.9791
4.8624 0.5235 -2.0016 0.9791
4.8405 0.6978 -2.0016 0.9791
4.7779 1.0436 -2.0016 0.9791
4.7373 1.2146 -2.0016 0.9791
4.6906 1.3840 -2.0016 0.9791
4.6378 1.5517 -2.0016 0.9791
4.5791 1.7173 -2.0016 0.9791
4.3677 2.2000 -2.0016 0.9791
4.2859 2.3555 -2.0016 0.9791
4.1056 2.6572 -2.0016 0.9791
4.0075 2.8030 -2.0016 0.9791
3.6826 3.2179 -2.0016 0.9791
3.5647 3.3482 -2.0016 0.9791
3.4421 3.4741 -2.0016 0.9791
3.3150 3.5955 -2.0016 0.9791
3.1837 3.7123 -2.0016 0.9791
2.6191 4.1301 -2.0016 0.9791
2.4690 4.2215 -2.0016 0.9791
1.5086 4.6520 -2.0016 0.9791
1.3405 4.7032 -2.0016 0.9791
1.1707 4.7483 -2.0016 0.9791
0.9993 4.7873 -2.0016 0.9791
0.8267 4.8201 -2.0016 0.9791
0.6529 4.8467 -2.0016 0.9791
0.4784 4.8670 -2.0016 0.9791
0.3032 4.8811 -2.0016 0.9791
0.1276 4.8888 -2.0016 0.9791
-0.5740 4.8567 -2.0016 0.9791
-0.9213 4.8029 -2.0016 0.9791
-1.2638 4.7244 -2.0016 0.9791
-1.4327 4.6759 -2.0016 0.9791
-1.7648 4.5610 -2.0016 0.9791
-1.9275 4.4946 -2.0016 0.9791
-2.0878 4.4225 -2.0016 0.9791
-2.4000 4.2611 -2.0016 0.9791
-2.6998 4.0778 -2.0016 0.9791
-2.9856 3.8734 -2.0016 0.9791
-3.1229 3.7636 -2.0016 0.9791
-3.2561 3.6490 -2.0016 0.9791
-3.6298 3.2774 -2.0016 0.9791
-4.0619 2.7237 -2.0016 0.9791
-4.2470 2.4249 -2.0016 0.9791
-4.3313 2.2708 -2.0016 0.9791
-4.4832 1.9539 -2.0016 0.9791
-4.5505 1.7915 -2.0016 0.9791
