ply
format ascii 1.0
element vertex 1535
property float32 x
property float32 y
property float32 z
property float32 I
end_header
28.3148 14.7065 2.7010 0.8798
30.0703 17.0174 2.9249 0.8705
27.6206 16.9695 2.7442 0.8780
25.7831 18.5165 2.6871 0.8804
30.6294 23.7106 3.2790 0.8560
28.3556 27.3081 3.3325 0.8538
2.7825 22.8265 1.9466 0.9118
-0.3050 13.5700 1.1490 0.9470
-0.7937 13.5714 1.1508 0.9469
-1.2846 13.5728 1.1541 0.9467
-1.7804 13.5863 1.1600 0.9465
-2.2883 13.6375 1.1706 0.9460
-6.0468 15.0559 1.3735 0.9369
-6.1920 13.9463 1.2917 0.9406
-6.8029 13.9480 1.3137 0.9396
-7.4358 13.9497 1.3382 0.9385
-8.9549 15.4363 1.5107 0.9309
-10.0405 14.7532 1.5107 0.9309
-10.5642 14.3829 1.5107 0.9309
-12.0507 13.1624 1.5107 0.9309
-16.3258 15.4418 1.9023 0.9137
-17.7581 15.6264 2.0024 0.9094
-20.7191 15.7425 2.2028 0.9008
-35.1716 17.8674 3.3395 0.8535
-27.6277 -22.3480 3.0081 0.8671
-25.6886 -22.3534 2.8826 0.8722
-22.3764 -22.4919 2.6858 0.8804
-16.2070 -21.8108 2.3003 0.8967
-15.0204 -21.8094 2.2417 0.8992
-13.1237 -22.3358 2.1930 0.9012
-12.1902 -22.5665 2.1712 0.9022
-8.2157 -22.4019 2.0199 0.9087
-6.4326 -22.4019 1.9730 0.9107
-3.0635 -22.4113 1.9148 0.9132
-2.2468 -22.4135 1.9069 0.9135
0.1776 -22.4203 1.8980 0.9139
0.9842 -22.4225 1.9000 0.9138
1.7935 -22.4248 1.9044 0.9137
2.1895 -4.2555 0.4051 0.9810
33.2088 -30.0913 3.7936 0.8354
38.1818 -25.6986 3.8962 0.8313
43.8991 -3.9269 3.7310 0.8378
2.1105 22.8283 1.4216 0.9122
0.2755 13.5684 0.8416 0.9471
-0.2123 13.5698 0.8416 0.9471
-1.6846 13.5739 0.8482 0.9467
-2.6866 13.5767 0.8582 0.9460
-3.1978 13.5781 0.8650 0.9456
-3.7180 13.5795 0.8731 0.9451
-4.2485 13.5810 0.8824 0.9446
-4.7913 13.5825 0.8931 0.9439
-5.3482 13.5841 0.9053 0.9432
-6.6852 13.9476 0.9591 0.9399
-10.9897 17.7336 1.2937 0.9198
-11.8941 17.7361 1.3242 0.9180
-12.7793 17.6503 1.3512 0.9164
-13.2082 16.9269 1.3314 0.9176
-13.2115 15.7312 1.2739 0.9210
-13.2145 14.6331 1.2226 0.9240
-16.5696 15.8883 1.4235 0.9121
-17.3350 14.3809 1.3967 0.9137
-18.9738 14.6220 1.4854 0.9085
-30.2047 -4.0769 1.8900 0.8850
-28.0158 -22.3469 2.2222 0.8662
-26.0448 -22.3524 2.1283 0.8715
-24.2314 -22.3574 2.0445 0.8762
-15.2152 -21.7722 1.6471 0.8990
-8.3896 -22.4014 1.4833 0.9086
-6.5985 -22.4014 1.4481 0.9107
-5.7329 -22.4038 1.4340 0.9115
-4.8748 -22.3689 1.4197 0.9123
-4.0392 -22.3712 1.4097 0.9129
-3.2082 -22.3316 1.3990 0.9136
-2.4015 -22.4131 1.3978 0.9136
-0.7817 -22.4176 1.3910 0.9140
2.3126 -4.1904 0.2968 0.9810
32.6002 -37.1736 3.0660 0.8202
32.6141 -32.1970 2.8419 0.8322
32.7487 -30.0844 2.7576 0.8368
32.6283 -25.9102 2.5836 0.8462
34.7781 -25.6348 2.6791 0.8410
48.0037 12.9441 3.0830 0.8193
41.9317 12.9400 2.7212 0.8387
36.3928 12.6800 2.3898 0.8569
34.6184 14.9292 2.3378 0.8598
29.0175 15.0714 2.0276 0.8772
35.0597 23.3158 2.6109 0.8447
34.7692 24.9699 2.6544 0.8424
-0.3050 13.5700 0.8417 0.9471
-0.7937 13.5714 0.8430 0.9470
-2.7831 13.5769 0.8594 0.9460
-3.2960 13.5783 0.8664 0.9455
-4.3507 13.5813 0.8843 0.9444
-4.8960 13.5828 0.8953 0.9438
-6.0468 15.0559 1.0061 0.9370
-6.8029 13.9480 0.9623 0.9397
-7.4359 13.9497 0.9802 0.9386
-12.0709 17.7366 1.3304 0.9176
-12.9080 17.5739 1.3521 0.9163
-13.2088 16.6914 1.3199 0.9182
-12.9261 14.1186 1.1870 0.9262
-13.7371 13.9621 1.2146 0.9245
-16.1475 14.2092 1.3338 0.9174
-27.6277 -22.3480 2.2035 0.8673
-22.2481 -22.3629 1.9561 0.8812
-15.1119 -21.9423 1.6521 0.8987
-13.9333 -21.8740 1.6082 0.9013
-13.1237 -22.3358 1.6064 0.9014
-12.0955 -22.3911 1.5781 0.9030
-9.1407 -22.3994 1.5002 0.9076
-7.3129 -22.3994 1.4611 0.9099
-3.0635 -22.4113 1.4027 0.9133
-2.2468 -22.4135 1.3968 0.9137
-0.6284 -22.4180 1.3907 0.9140
0.9842 -22.4225 1.3918 0.9140
1.7935 -22.4248 1.3950 0.9138
32.8828 -36.9829 3.0687 0.8201
33.3448 -34.8925 2.9928 0.8241
32.6293 -25.5494 2.5698 0.8470
34.4509 -4.3345 2.1532 0.8701
49.6839 -2.6492 3.0853 0.8192
2.1105 22.8283 0.9040 0.9123
0.3221 15.8635 0.6256 0.9385
-0.2482 15.8650 0.6257 0.9385
-0.8192 15.8666 0.6265 0.9384
-1.9695 15.8698 0.6306 0.9380
-2.5518 15.8714 0.6339 0.9377
-3.7387 15.8747 0.6431 0.9368
-6.0459 15.3564 0.6508 0.9361
-6.6852 13.9476 0.6099 0.9400
-7.3137 13.9494 0.6211 0.9389
-13.2115 15.7312 0.8100 0.9211
-13.2145 14.6331 0.7775 0.9241
-13.5501 13.9616 0.7672 0.9251
-16.5696 15.8883 0.9052 0.9122
-17.8126 15.8917 0.9413 0.9089
-16.3397 13.5552 0.8371 0.9185
-18.9720 13.5625 0.9196 0.9109
-30.2035 -4.0767 1.2018 0.8851
-26.0448 -22.3524 1.3533 0.8716
-24.3735 -22.4885 1.3077 0.8757
-20.9922 -22.3664 1.2095 0.8844
-16.5187 -18.9189 0.9903 0.9043
-14.2645 -18.9252 0.9345 0.9095
-13.9598 -19.9759 0.9609 0.9071
-13.1729 -22.0729 1.0136 0.9022
-12.3656 -22.5219 1.0131 0.9023
-11.2675 -22.3934 0.9885 0.9045
-10.2776 -22.3962 0.9717 0.9061
-7.4825 -22.3989 0.9312 0.9098
-6.6147 -22.4564 0.9231 0.9105
-4.8813 -22.3989 0.9039 0.9123
-4.0647 -22.5128 0.9021 0.9125
-3.2082 -22.3316 0.8896 0.9136
-0.7817 -22.4176 0.8845 0.9141
1.6393 -22.4243 0.8866 0.9139
6.8782 -47.1497 1.8790 0.8263
32.6002 -37.1736 1.9496 0.8204
32.8886 -30.2129 1.7610 0.8363
37.6770 -25.7347 1.7991 0.8331
37.8105 13.1740 1.5788 0.8519
35.0369 15.1097 1.5045 0.8584
35.1766 18.2704 1.5630 0.8533
35.1812 19.9097 1.5940 0.8506
35.4754 31.7885 1.8783 0.8264
2.7825 22.8265 0.9067 0.9121
1.9533 22.8288 0.9035 0.9124
0.7844 15.8622 0.6262 0.9384
0.2136 15.8638 0.6256 0.9385
-0.3566 15.8653 0.6257 0.9384
-0.9280 15.8669 0.6267 0.9384
-1.5018 15.8685 0.6285 0.9382
-2.6632 15.8717 0.6346 0.9376
-3.2539 15.8734 0.6389 0.9372
-3.8535 15.8751 0.6441 0.9367
-5.0866 15.8785 0.6574 0.9354
-5.7242 15.8802 0.6656 0.9347
-6.0468 15.0559 0.6398 0.9371
-6.1920 13.9463 0.6017 0.9407
-6.8029 13.9480 0.6119 0.9398
-7.4359 13.9497 0.6233 0.9387
-10.1907 17.5664 0.8008 0.9219
-12.9080 17.5739 0.8598 0.9164
-13.2121 15.5154 0.8035 0.9217
-12.9261 14.1186 0.7548 0.9262
-13.7371 13.9621 0.7723 0.9246
-16.7986 15.8889 0.9117 0.9116
-15.4014 13.5526 0.8089 0.9212
-19.2497 13.5633 0.9285 0.9100
-20.8055 13.5676 0.9794 0.9054
-27.6277 -22.3480 1.4012 0.8674
-25.6886 -22.3534 1.3427 0.8726
-23.9026 -22.3583 1.2906 0.8772
-22.3026 -22.4177 1.2469 0.8811
-20.7074 -22.3672 1.2019 0.8851
-13.9333 -21.8740 1.0226 0.9014
-13.0921 -22.2821 1.0190 0.9017
-12.1902 -22.5665 1.0113 0.9024
-10.0931 -22.3967 0.9687 0.9063
-9.1631 -22.4543 0.9563 0.9075
-8.2157 -22.4019 0.9409 0.9089
-5.5702 -22.4043 0.9103 0.9117
-3.8816 -22.3716 0.8953 0.9131
-0.6284 -22.4180 0.8843 0.9141
0.1790 -22.5959 0.8910 0.9135
1.7934 -22.4248 0.8871 0.9139
2.1894 -4.2555 0.1887 0.9810
32.8886 -36.9895 1.9517 0.8203
32.6120 -31.7580 1.7949 0.8334
33.1130 -30.0045 1.7620 0.8362
38.1818 -25.6986 1.8148 0.8317
43.8654 -3.9239 1.7366 0.8384
3.6312 15.1026 0.2624 0.9398
2.7624 13.6262 0.2349 0.9459
0.2524 12.4329 0.2101 0.9515
-0.8192 15.8666 0.2684 0.9384
-1.9398 12.0648 0.2064 0.9523
-3.1410 15.8731 0.2733 0.9373
-6.0459 15.3564 0.2788 0.9361
-6.0782 13.9459 0.2570 0.9410
-5.9124 12.3353 0.2311 0.9467
-10.9897 17.7336 0.3524 0.9199
-8.4126 12.5446 0.2551 0.9414
-10.2779 12.2381 0.2700 0.9381
-13.2145 14.6331 0.3331 0.9242
-17.8126 15.8917 0.4032 0.9089
-33.2604 23.7770 0.6906 0.8491
-33.2653 22.0183 0.6738 0.8525
-30.2033 -4.0767 0.5148 0.8852
-26.0448 -22.3524 0.5797 0.8717
-20.9922 -22.3664 0.5181 0.8845
-19.6854 -22.5457 0.5056 0.8872
-16.6942 -22.1487 0.4685 0.8950
-12.3656 -22.5219 0.4340 0.9023
-9.3424 -22.4538 0.4108 0.9073
-8.3896 -22.4014 0.4041 0.9087
-5.7329 -22.4038 0.3906 0.9116
-4.8813 -22.3989 0.3872 0.9124
-4.0647 -22.5128 0.3864 0.9125
-3.2082 -22.3316 0.3811 0.9137
-0.7817 -22.4176 0.3789 0.9142
1.6393 -22.4243 0.3798 0.9140
6.8776 -47.1453 0.8048 0.8265
2.3126 -4.1903 0.0809 0.9810
32.6141 -32.1970 0.7742 0.8325
32.6283 -25.9102 0.7038 0.8465
40.7448 -25.7330 0.8140 0.8247
43.4493 13.4083 0.7681 0.8337
38.5113 13.4182 0.6889 0.8495
36.0478 15.5457 0.6631 0.8547
35.1456 18.2543 0.6690 0.8535
35.3863 21.7406 0.7015 0.8469
35.1961 25.2765 0.7320 0.8408
35.3603 27.3728 0.7553 0.8362
30.2344 27.0922 0.6857 0.8501
4.6868 17.2654 0.3022 0.9309
2.6712 13.6550 0.2350 0.9459
2.7825 22.8265 0.3884 0.9121
0.7844 15.8622 0.2683 0.9384
-3.2539 15.8734 0.2737 0.9372
-4.4638 15.8767 0.2786 0.9362
-5.0866 15.8785 0.2816 0.9355
-4.4414 12.3214 0.2212 0.9490
-6.0768 12.4592 0.2342 0.9461
-10.1907 17.5664 0.3430 0.9220
-11.1584 17.7341 0.3539 0.9196
-12.9080 17.5739 0.3683 0.9165
-9.8891 12.4964 0.2692 0.9382
-10.2892 12.0829 0.2681 0.9385
-12.9261 14.1186 0.3234 0.9263
-12.1496 12.3486 0.2926 0.9330
-16.7986 15.8889 0.3906 0.9116
-18.0603 15.8924 0.4064 0.9082
-19.4303 15.8962 0.4241 0.9044
-33.2614 23.4359 0.6873 0.8498
-34.5621 22.5385 0.6970 0.8478
-27.6277 -22.3480 0.6002 0.8675
-22.3026 -22.4177 0.5342 0.8812
-17.5004 -21.8641 0.4731 0.8940
-15.5354 -22.5572 0.4627 0.8962
-13.9333 -21.8740 0.4381 0.9014
-13.0921 -22.2821 0.4365 0.9018
-12.1902 -22.5665 0.4332 0.9025
-11.0766 -22.3940 0.4220 0.9049
-9.1631 -22.4543 0.4097 0.9075
-7.3558 -22.5308 0.4004 0.9095
-6.4326 -22.4019 0.3937 0.9110
-5.5702 -22.4043 0.3900 0.9118
-3.8816 -22.3716 0.3835 0.9132
-3.0635 -22.4113 0.3821 0.9135
-2.2644 -22.5891 0.3835 0.9132
-0.6284 -22.4180 0.3788 0.9142
0.1790 -22.5959 0.3817 0.9136
2.1894 -4.2554 0.0808 0.9810
32.8852 -36.9856 0.8360 0.8204
33.1150 -30.0063 0.7549 0.8363
32.6293 -25.5494 0.7000 0.8472
38.1818 -25.6987 0.7774 0.8318
43.8580 -3.9232 0.7438 0.8385
3.2649 13.5791 -0.0786 0.9457
2.1451 12.9567 -0.0739 0.9488
1.1472 12.4089 -0.0702 0.9514
0.7136 12.6733 -0.0715 0.9505
0.2444 12.0375 -0.0678 0.9530
-0.1875 11.9868 -0.0675 0.9532
-0.6325 12.2497 -0.0691 0.9521
-1.9071 11.8617 -0.0676 0.9531
-2.3606 11.9295 -0.0685 0.9525
-3.7979 12.1405 -0.0716 0.9504
-5.8343 12.1723 -0.0760 0.9474
-6.9179 12.1149 -0.0785 0.9457
-8.2139 12.2483 -0.0830 0.9427
-15.8106 12.1843 -0.1124 0.9233
-18.2563 12.0838 -0.1233 0.9162
-19.7907 12.0998 -0.1306 0.9114
-23.5619 12.1729 -0.1493 0.8993
-30.1830 -4.0740 -0.1715 0.8853
-22.5534 -22.3621 -0.1788 0.8807
-20.9922 -22.3664 -0.1727 0.8845
-19.6854 -22.5457 -0.1685 0.8872
-16.6942 -22.1487 -0.1562 0.8950
-13.1729 -22.0729 -0.1447 0.9023
-11.2675 -22.3934 -0.1411 0.9046
-9.3925 -22.5743 -0.1377 0.9068
-8.3896 -22.4014 -0.1347 0.9088
-7.4825 -22.3989 -0.1330 0.9099
-4.8813 -22.3988 -0.1291 0.9124
-4.0647 -22.5128 -0.1288 0.9126
-3.2082 -22.3316 -0.1270 0.9137
-2.4015 -22.4131 -0.1269 0.9138
-1.6021 -22.5909 -0.1275 0.9134
0.8372 -22.5977 -0.1273 0.9135
32.6141 -32.1970 -0.2580 0.8325
32.6283 -25.9102 -0.2346 0.8465
32.9132 8.8750 -0.1919 0.8725
43.4493 13.4083 -0.2560 0.8337
38.3739 13.3703 -0.2288 0.8500
35.1329 13.6757 -0.2123 0.8600
35.7448 16.9633 -0.2228 0.8536
35.1961 25.2765 -0.2440 0.8409
30.0726 26.9473 -0.2273 0.8508
3.8406 14.1482 -0.0825 0.9430
3.1619 13.5576 -0.0784 0.9458
2.5601 13.0869 -0.0751 0.9481
1.5512 12.7252 -0.0722 0.9500
1.0746 12.5593 -0.0710 0.9508
0.6007 12.1463 -0.0685 0.9525
-1.1571 12.2256 -0.0691 0.9521
-1.1618 8.8652 -0.0503 0.9649
-1.9855 11.8326 -0.0676 0.9531
-2.4500 11.9519 -0.0687 0.9524
-2.9608 12.1973 -0.0707 0.9510
-3.4135 12.1411 -0.0710 0.9508
-3.9270 12.2585 -0.0725 0.9498
-4.8592 12.0990 -0.0734 0.9492
-5.3522 12.0548 -0.0743 0.9486
-5.9830 12.2668 -0.0768 0.9469
-6.4790 12.1546 -0.0775 0.9464
-6.9482 11.9770 -0.0780 0.9461
-8.2850 12.1737 -0.0829 0.9428
-8.7335 11.8905 -0.0831 0.9427
-12.0249 12.2219 -0.0965 0.9337
-13.8110 12.1531 -0.1036 0.9291
-14.5137 11.8739 -0.1056 0.9277
-16.8994 11.9072 -0.1164 0.9206
-21.9720 12.1744 -0.1414 0.9044
-23.9026 -22.3583 -0.1843 0.8773
-20.7074 -22.3672 -0.1716 0.8852
-16.5884 -22.3240 -0.1566 0.8947
-13.9333 -21.8740 -0.1460 0.9015
-13.0921 -22.2821 -0.1455 0.9018
-11.0766 -22.3940 -0.1407 0.9049
-10.0931 -22.3967 -0.1383 0.9064
-8.2157 -22.4019 -0.1343 0.9090
-7.3558 -22.5308 -0.1335 0.9095
-4.7448 -22.5109 -0.1295 0.9121
-3.8816 -22.3716 -0.1278 0.9132
-3.0635 -22.4113 -0.1274 0.9135
-2.2644 -22.5891 -0.1278 0.9132
-1.4358 -22.4158 -0.1265 0.9141
-0.6284 -22.4180 -0.1263 0.9142
2.1894 -4.2554 -0.0269 0.9810
38.1818 -25.6987 -0.2591 0.8319
43.8506 -3.9225 -0.2479 0.8385
3.2619 13.5666 -0.3929 0.9457
2.7184 13.4090 -0.3852 0.9467
2.1364 12.9040 -0.3683 0.9490
1.6539 12.8373 -0.3645 0.9495
1.1445 12.3794 -0.3501 0.9515
-0.1886 12.0576 -0.3396 0.9529
-1.4841 11.9590 -0.3393 0.9529
-3.2466 11.8581 -0.3462 0.9520
-4.6581 11.8314 -0.3580 0.9504
-5.6521 11.7922 -0.3682 0.9490
-7.3322 11.8317 -0.3919 0.9458
-10.0314 11.9446 -0.4392 0.9395
-11.6123 11.9649 -0.4695 0.9355
-12.4006 11.8907 -0.4838 0.9336
-14.4091 11.9536 -0.5272 0.9278
-17.9269 11.8658 -0.6053 0.9176
-19.4692 11.9032 -0.6426 0.9127
-21.1047 11.8831 -0.6820 0.9076
-22.9291 11.8459 -0.7267 0.9019
-25.2259 11.9043 -0.7854 0.8944
-30.2030 -4.0767 -0.8582 0.8852
-27.9918 -22.3278 -1.0082 0.8665
-25.9883 -22.3039 -0.9643 0.8719
-20.8805 -22.2473 -0.8591 0.8851
-15.7633 -22.5566 -0.7749 0.8957
-12.2015 -22.2229 -0.7139 0.9035
-10.2135 -22.2566 -0.6895 0.9067
-9.2702 -22.2802 -0.6795 0.9080
-7.4547 -22.3159 -0.6625 0.9101
-5.7186 -22.3479 -0.6495 0.9118
-3.2127 -22.3630 -0.6362 0.9136
-2.3990 -22.3896 -0.6340 0.9138
-1.5882 -22.3957 -0.6322 0.9141
0.8300 -22.4043 -0.6313 0.9142
6.8655 -47.0625 -1.3392 0.8267
33.9087 -35.9713 -1.3920 0.8205
32.8225 -30.1522 -1.2550 0.8366
37.5769 -25.6663 -1.2813 0.8335
32.6419 -4.3336 -0.9272 0.8765
35.8977 12.5075 -1.0704 0.8589
35.0828 13.6562 -1.0601 0.8602
36.0478 15.5457 -1.1054 0.8546
35.6981 16.9412 -1.1126 0.8537
34.0543 17.6875 -1.0805 0.8577
33.4618 18.9367 -1.0826 0.8574
33.6586 20.6791 -1.1123 0.8538
34.3721 22.8585 -1.1623 0.8477
34.1943 24.5571 -1.1854 0.8450
3.6931 13.6046 -0.3969 0.9452
3.0984 13.2853 -0.3841 0.9469
0.6065 12.2650 -0.3458 0.9520
0.1605 11.9196 -0.3357 0.9534
-0.7018 11.9999 -0.3385 0.9530
-1.1613 8.8621 -0.2517 0.9649
-1.9738 11.7632 -0.3359 0.9534
-2.4299 11.8535 -0.3407 0.9527
-4.3132 11.9660 -0.3582 0.9504
-4.8642 12.1115 -0.3675 0.9491
-5.8227 11.9383 -0.3740 0.9482
-8.1093 11.9155 -0.4058 0.9440
-10.1272 11.8927 -0.4398 0.9394
-11.7918 11.9849 -0.4734 0.9349
-12.5670 11.8865 -0.4871 0.9331
-14.5906 11.9368 -0.5308 0.9273
-15.5635 11.8252 -0.5504 0.9248
-33.4016 -23.2584 -1.1461 0.8497
-25.6269 -22.2997 -0.9565 0.8729
-23.8178 -22.2790 -0.9183 0.8777
-22.1464 -22.2607 -0.8842 0.8819
-19.1436 -22.2299 -0.8261 0.8892
-17.5004 -21.8641 -0.7886 0.8940
-16.5884 -22.3241 -0.7831 0.8947
-15.5354 -22.5572 -0.7712 0.8962
-13.9333 -21.8740 -0.7303 0.9014
-13.0559 -22.2205 -0.7257 0.9020
-12.0049 -22.2234 -0.7112 0.9039
-10.9983 -22.2356 -0.6985 0.9055
-10.0321 -22.2613 -0.6875 0.9069
-8.1803 -22.3053 -0.6690 0.9093
-7.2867 -22.3193 -0.6611 0.9103
-5.5568 -22.3505 -0.6485 0.9120
-4.7448 -22.5109 -0.6478 0.9121
-3.0597 -22.3834 -0.6361 0.9136
-0.6279 -22.4009 -0.6310 0.9142
0.9834 -22.4044 -0.6315 0.9142
2.1894 -4.2554 -0.1347 0.9810
33.0529 -29.9500 -1.2559 0.8365
37.1242 -26.9746 -1.2921 0.8322
38.1498 -25.6771 -1.2949 0.8319
41.2027 -5.1839 -1.1693 0.8469
25.5226 30.1044 -2.0016 0.8538
20.9460 33.4506 -2.0016 0.8538
19.7304 34.1817 -2.0016 0.8538
17.2244 35.5105 -2.0016 0.8538
14.6294 36.6559 -2.0016 0.8538
13.3027 37.1580 -2.0016 0.8538
2.6248 12.9477 -0.6700 0.9485
1.6258 12.6190 -0.6453 0.9503
0.6923 12.2960 -0.6246 0.9519
-0.6287 12.1761 -0.6183 0.9523
-1.0450 11.9086 -0.6063 0.9532
-1.4708 11.8512 -0.6056 0.9533
-2.3564 11.9081 -0.6156 0.9525
-2.8385 12.0523 -0.6279 0.9516
-3.7093 11.8573 -0.6301 0.9515
-4.6729 11.8690 -0.6469 0.9502
-5.1457 11.8064 -0.6531 0.9497
-5.6930 11.8775 -0.6680 0.9486
-6.2905 11.9979 -0.6870 0.9472
-6.7513 11.8231 -0.6905 0.9469
-7.9395 11.8392 -0.7229 0.9445
-8.5781 11.8477 -0.7418 0.9431
-9.2289 11.8274 -0.7608 0.9417
-9.9179 11.8094 -0.7821 0.9401
-10.8588 12.0245 -0.8217 0.9372
-11.5553 11.9062 -0.8414 0.9357
-13.4829 12.0289 -0.9163 0.9302
-15.3460 11.8262 -0.9825 0.9253
-16.4760 11.7782 -1.0271 0.9221
-17.8746 11.8312 -1.0871 0.9177
-19.5496 11.9524 -1.1621 0.9123
-24.5170 11.5698 -1.3749 0.8971
-33.5165 14.3677 -1.8494 0.8641
-36.8103 14.2366 -2.0016 0.8538
-37.2981 12.9046 -2.0016 0.8538
-38.1286 10.1924 -2.0016 0.8538
-39.1956 4.6243 -2.0016 0.8538
-39.3364 3.2128 -2.0016 0.8538
-39.4265 1.7971 -2.0016 0.8538
-39.4656 0.3792 -2.0016 0.8538
-38.8977 -6.6814 -2.0016 0.8538
-38.3174 -9.4580 -2.0016 0.8538
-37.0770 -13.5267 -2.0016 0.8538
-36.0097 -16.1548 -2.0016 0.8538
-35.4059 -17.4384 -2.0016 0.8538
-34.7564 -18.6994 -2.0016 0.8538
-34.0620 -19.9364 -2.0016 0.8538
-30.7896 -19.5394 -1.8494 0.8641
-30.0676 -20.6332 -1.8494 0.8641
-26.0448 -22.3524 -1.7406 0.8716
-24.2314 -22.3574 -1.6720 0.8763
-22.5534 -22.3621 -1.6107 0.8806
-16.6942 -22.1487 -1.4066 0.8949
-15.7633 -22.5566 -1.3956 0.8956
-10.2776 -22.3962 -1.2497 0.9060
-8.3896 -22.4014 -1.2131 0.9086
-7.4825 -22.3990 -1.1977 0.9098
-6.5985 -22.4014 -1.1843 0.9107
-4.8829 -22.4062 -1.1630 0.9122
-4.0647 -22.5128 -1.1602 0.9124
-3.2127 -22.3630 -1.1458 0.9135
-2.4015 -22.4131 -1.1432 0.9137
-1.5896 -22.4154 -1.1396 0.9139
0.0244 -22.4198 -1.1370 0.9141
0.7981 -21.5429 -1.0933 0.9173
7.8422 -35.6131 -1.8494 0.8641
15.2405 -36.4061 -2.0016 0.8538
16.5389 -35.8349 -2.0016 0.8538
2.3125 -4.1902 -0.2427 0.9810
22.6780 -32.3014 -2.0016 0.8538
23.8241 -31.4656 -2.0016 0.8538
24.9395 -30.5892 -2.0016 0.8538
26.9476 -28.5868 -1.9924 0.8544
27.7240 -23.6891 -1.8494 0.8641
28.5573 -22.6775 -1.8494 0.8641
29.3538 -21.6366 -1.8494 0.8641
32.1510 -17.2077 -1.8494 0.8641
36.5992 -14.7708 -2.0016 0.8538
38.3379 -9.3746 -2.0016 0.8538
38.6500 -7.9909 -2.0016 0.8538
38.9122 -6.5968 -2.0016 0.8538
39.4225 1.8828 -2.0016 0.8538
38.9909 6.1146 -2.0016 0.8538
35.6818 8.2583 -1.8574 0.8636
32.7532 8.8318 -1.7204 0.8730
34.8448 10.7530 -1.8494 0.8641
34.4359 11.9982 -1.8494 0.8641
33.9825 13.2279 -1.8494 0.8641
33.4852 14.4405 -1.8494 0.8641
32.9447 15.6345 -1.8494 0.8641
29.9605 16.9552 -1.7459 0.8712
29.5865 18.1773 -1.7610 0.8702
28.8359 22.3222 -1.8494 0.8641
28.0151 23.3440 -1.8494 0.8641
27.2692 24.4352 -1.8569 0.8636
26.3880 29.3488 -2.0016 0.8538
24.2119 31.1683 -2.0016 0.8538
23.0762 32.0182 -2.0016 0.8538
21.9107 32.8268 -2.0016 0.8538
20.7169 33.5929 -2.0016 0.8538
19.4964 34.3157 -2.0016 0.8538
18.2506 34.9941 -2.0016 0.8538
16.9814 35.6274 -2.0016 0.8538
15.6901 36.2146 -2.0016 0.8538
14.3786 36.7550 -2.0016 0.8538
13.0485 37.2480 -2.0016 0.8538
3.6550 13.4645 -0.7076 0.9457
3.1366 13.4490 -0.7004 0.9462
2.5551 13.0613 -0.6750 0.9481
2.0606 12.9968 -0.6674 0.9487
1.0669 12.4695 -0.6347 0.9511
0.5967 12.0656 -0.6126 0.9528
0.1600 11.8777 -0.6024 0.9535
-2.0150 12.0088 -0.6175 0.9524
-2.4207 11.8091 -0.6113 0.9529
-5.7921 11.8754 -0.6701 0.9485
-6.8697 11.8418 -0.6943 0.9466
-7.3925 11.7489 -0.7040 0.9459
-8.0649 11.8504 -0.7270 0.9442
-8.7228 11.8759 -0.7473 0.9427
-9.3704 11.8409 -0.7658 0.9413
-12.5457 11.8663 -0.8758 0.9332
-13.5221 11.8989 -0.9135 0.9304
-19.6172 11.8103 -1.1613 0.9124
-36.9067 13.9847 -2.0016 0.8538
-37.3854 12.6494 -2.0016 0.8538
-38.1974 9.9316 -2.0016 0.8538
-38.8120 7.1624 -2.0016 0.8538
-39.2263 4.3563 -2.0016 0.8538
-39.3575 2.9439 -2.0016 0.8538
-39.4378 1.5277 -2.0016 0.8538
-39.4673 0.1095 -2.0016 0.8538
-39.4457 -1.3089 -2.0016 0.8538
-39.2498 -4.1386 -2.0016 0.8538
-39.0757 -5.5464 -2.0016 0.8538
-38.5764 -8.3387 -2.0016 0.8538
-37.4550 -12.4418 -2.0016 0.8538
-36.4646 -15.0999 -2.0016 0.8538
-35.2859 -17.6799 -2.0016 0.8538
-34.6278 -18.9365 -2.0016 0.8538
-33.9250 -20.1686 -2.0016 0.8538
-30.6554 -19.7493 -1.8494 0.8641
-29.1577 -21.9001 -1.8494 0.8641
-27.6277 -22.3480 -1.8021 0.8673
-23.9026 -22.3583 -1.6599 0.8771
-17.5004 -21.8641 -1.4203 0.8939
-16.5884 -22.3241 -1.4105 0.8946
-15.5354 -22.5572 -1.3890 0.8961
-13.1237 -22.3358 -1.3138 0.9014
-10.0931 -22.3967 -1.2458 0.9063
-9.1407 -22.3994 -1.2269 0.9077
-8.2157 -22.4019 -1.2101 0.9089
-7.3129 -22.3994 -1.1950 0.9099
-6.4326 -22.4019 -1.1820 0.9109
-5.5702 -22.4043 -1.1708 0.9117
-4.7448 -22.5109 -1.1667 0.9120
-3.0635 -22.4113 -1.1471 0.9134
-2.2468 -22.4135 -1.1424 0.9137
-1.4358 -22.4158 -1.1391 0.9140
-0.6284 -22.4180 -1.1374 0.9141
0.1776 -22.4203 -1.1371 0.9141
0.9484 -21.6080 -1.0969 0.9170
4.2115 -36.2223 -1.8494 0.8641
5.5104 -36.0475 -1.8494 0.8641
6.8023 -35.8262 -1.8494 0.8641
8.7507 -38.4851 -2.0016 0.8538
10.1280 -38.1458 -2.0016 0.8538
11.4923 -37.7572 -2.0016 0.8538
12.8417 -37.3198 -2.0016 0.8538
14.1745 -36.8342 -2.0016 0.8538
19.3057 -34.4233 -2.0016 0.8538
20.5303 -33.7073 -2.0016 0.8538
24.0386 -31.3021 -2.0016 0.8538
26.9523 -28.2033 -1.9784 0.8554
26.9759 -26.2694 -1.9096 0.8600
27.0227 -24.4860 -1.8494 0.8641
29.5010 -21.4355 -1.8494 0.8641
30.2522 -20.3616 -1.8494 0.8641
30.0082 -18.6665 -1.7922 0.8680
32.2678 -16.9876 -1.8494 0.8641
33.8294 -16.2849 -1.9041 0.8604
36.1232 -15.8164 -1.9999 0.8539
36.6992 -14.5204 -2.0016 0.8538
37.1973 -13.1922 -2.0016 0.8538
38.0488 -10.4865 -2.0016 0.8538
38.7037 -7.7266 -2.0016 0.8538
32.5029 -4.0894 -1.6614 0.8770
34.9410 -3.1255 -1.7791 0.8689
39.4114 -2.1015 -2.0016 0.8538
39.4615 -0.6839 -2.0016 0.8538
39.4606 0.7346 -2.0016 0.8538
39.4087 2.1522 -2.0016 0.8538
39.3059 3.5670 -2.0016 0.8538
17.6531 20.8221 -2.0016 0.8963
16.8934 21.4430 -2.0016 0.8963
16.1119 22.0362 -2.0016 0.8963
14.4876 23.1365 -2.0016 0.8963
13.6468 23.6422 -2.0016 0.8963
11.9135 24.5613 -2.0016 0.8963
10.1186 25.3536 -2.0016 0.8963
9.2010 25.7008 -2.0016 0.8963
7.6425 24.0367 -1.8494 0.9038
3.9265 14.0833 -1.0720 0.9430
3.2500 13.5168 -1.0193 0.9458
2.6936 13.2871 -0.9941 0.9471
2.1316 12.8750 -0.9569 0.9490
1.6382 12.7154 -0.9400 0.9499
0.6845 12.1577 -0.8928 0.9523
-0.1881 12.0213 -0.8815 0.9529
-0.6196 12.0012 -0.8811 0.9529
-1.4740 11.8775 -0.8776 0.9531
-1.9128 11.8974 -0.8835 0.9528
-2.3634 11.9437 -0.8927 0.9523
-3.2330 11.8082 -0.8977 0.9521
-4.1720 11.8270 -0.9196 0.9509
-4.7493 12.0629 -0.9506 0.9493
-5.1572 11.8328 -0.9464 0.9495
-5.6612 11.8112 -0.9604 0.9488
-6.1920 11.8100 -0.9777 0.9479
-6.8106 11.9269 -1.0070 0.9464
-7.3768 11.9037 -1.0268 0.9454
-8.6104 11.8923 -1.0765 0.9428
-9.3046 11.9244 -1.1090 0.9411
-9.9171 11.8085 -1.1307 0.9400
-10.7180 11.8686 -1.1726 0.9379
-13.8623 11.4999 -1.3206 0.9303
-14.9317 11.5070 -1.3822 0.9272
-16.1073 11.5147 -1.4518 0.9237
-18.8632 11.5327 -1.6211 0.9151
-20.5016 11.5435 -1.7251 0.9100
-22.3673 11.5557 -1.8460 0.9040
-22.8101 10.7643 -1.8494 0.9038
-23.5243 9.0981 -1.8494 0.9038
-23.8811 8.2625 -1.8529 0.9036
-26.8104 5.1373 -2.0016 0.8963
-26.9777 4.1706 -2.0016 0.8963
-27.2076 2.2222 -2.0016 0.8963
-27.2699 1.2430 -2.0016 0.8963
-27.2887 -0.7188 -2.0016 0.8963
-27.2453 -1.6990 -2.0016 0.8963
-25.0987 -3.3877 -1.8570 0.9034
-25.9645 -8.4284 -2.0016 0.8963
-24.9066 -11.1737 -2.0016 0.8963
-24.0397 -12.9337 -2.0016 0.8963
-23.5594 -13.7893 -2.0016 0.8963
-22.5082 -15.4458 -2.0016 0.8963
-21.8332 -16.1666 -1.9919 0.8968
-20.2883 -16.1831 -1.9029 0.9011
-19.1400 -16.4265 -1.8494 0.9038
-18.5373 -17.1037 -1.8494 0.9038
-17.9107 -17.7588 -1.8494 0.9038
-16.5890 -18.9994 -1.8494 0.9038
-15.8955 -19.5832 -1.8494 0.9038
-15.1815 -20.1418 -1.8494 0.9038
-14.4479 -20.6743 -1.8494 0.9038
-10.2776 -22.3962 -1.8068 0.9059
-8.3896 -22.4014 -1.7539 0.9085
-7.4825 -22.3990 -1.7316 0.9096
-6.5985 -22.4014 -1.7123 0.9106
-4.8099 -22.0712 -1.6563 0.9134
-3.2127 -22.3630 -1.6565 0.9134
-2.4015 -22.4131 -1.6528 0.9136
-0.7817 -22.4176 -1.6447 0.9140
0.0244 -22.4198 -1.6439 0.9140
0.7981 -21.5436 -1.5807 0.9172
3.6411 -24.9582 -1.8494 0.9038
4.5355 -24.8113 -1.8494 0.9038
5.4242 -24.6323 -1.8494 0.9038
6.3058 -24.4214 -1.8494 0.9038
9.6296 -25.5433 -2.0016 0.8963
12.3227 -24.3586 -2.0016 0.8963
2.3125 -4.1902 -0.3509 0.9810
15.6856 -22.3417 -2.0016 0.8963
16.4783 -21.7636 -2.0016 0.8963
17.9989 -20.5239 -2.0016 0.8963
18.7248 -19.8638 -2.0016 0.8963
19.4265 -19.1781 -2.0016 0.8963
20.1031 -18.4676 -2.0016 0.8963
21.3776 -16.9761 -2.0016 0.8963
23.5894 -13.7380 -2.0016 0.8963
24.9308 -11.1195 -2.0016 0.8963
25.3143 -10.2164 -2.0016 0.8963
25.9827 -8.3719 -2.0016 0.8963
26.7328 -5.5270 -2.0016 0.8963
26.9142 -4.5628 -2.0016 0.8963
27.0607 -3.5927 -2.0016 0.8963
27.1724 -2.6179 -2.0016 0.8963
27.2489 -1.6398 -2.0016 0.8963
27.2027 2.2813 -2.0016 0.8963
26.7992 5.1956 -2.0016 0.8963
26.3568 7.1070 -2.0016 0.8963
26.0844 8.0495 -2.0016 0.8963
25.7783 8.9817 -2.0016 0.8963
25.4389 9.9022 -2.0016 0.8963
24.6619 11.7038 -2.0016 0.8963
23.7576 13.4449 -2.0016 0.8963
23.2591 14.2899 -2.0016 0.8963
17.5104 20.9422 -2.0016 0.8963
13.4849 23.7349 -2.0016 0.8963
11.7454 24.6422 -2.0016 0.8963
9.9452 25.4221 -2.0016 0.8963
7.4781 24.0883 -1.8494 0.9038
3.0807 13.2094 -0.9945 0.9471
1.5400 12.6341 -0.9332 0.9502
1.0620 12.4117 -0.9134 0.9513
0.6035 12.2029 -0.8958 0.9522
0.1617 12.0072 -0.8805 0.9530
-0.6961 11.9031 -0.8743 0.9533
-1.1605 8.8558 -0.6549 0.9648
-2.9075 11.9781 -0.9038 0.9518
-5.7835 11.8579 -0.9673 0.9485
-6.2680 11.7589 -0.9770 0.9480
-6.9049 11.9025 -1.0089 0.9463
-7.4603 11.8566 -1.0271 0.9454
-8.0969 11.8973 -1.0552 0.9439
-13.6288 11.9928 -1.3311 0.9298
-14.0582 11.5012 -1.3318 0.9297
-21.0318 8.8462 -1.6730 0.9126
-23.5859 8.9372 -1.8494 0.9038
-26.4197 6.8693 -2.0016 0.8963
-26.6495 5.9155 -2.0016 0.8963
-26.8449 4.9540 -2.0016 0.8963
-27.0056 3.9861 -2.0016 0.8963
-27.1314 3.0131 -2.0016 0.8963
-27.2221 2.0362 -2.0016 0.8963
-27.2832 -0.9053 -2.0016 0.8963
-27.2330 -1.8851 -2.0016 0.8963
-25.0750 -3.5592 -1.8570 0.9034
-26.4574 -6.7227 -2.0016 0.8963
-25.9062 -8.6056 -2.0016 0.8963
-25.5803 -9.5310 -2.0016 0.8963
-25.2213 -10.4440 -2.0016 0.8963
-24.8297 -11.3436 -2.0016 0.8963
-23.9508 -13.0977 -2.0016 0.8963
-23.4647 -13.9499 -2.0016 0.8963
-22.9482 -14.7841 -2.0016 0.8963
-22.4021 -15.5992 -2.0016 0.8963
-21.5285 -16.1699 -1.9742 0.8976
-17.7890 -17.8808 -1.8494 0.9038
-15.0435 -20.2450 -1.8494 0.9038
-12.7774 -21.7464 -1.8494 0.9038
-11.9877 -22.1916 -1.8494 0.9038
-11.0766 -22.3940 -1.8319 0.9047
-10.0931 -22.3967 -1.8012 0.9062
-9.1407 -22.3994 -1.7739 0.9075
-8.2157 -22.4019 -1.7495 0.9087
-5.5702 -22.4043 -1.6927 0.9116
-4.6522 -22.0717 -1.6539 0.9135
-3.0635 -22.4113 -1.6585 0.9133
-2.2468 -22.4135 -1.6516 0.9136
0.9485 -21.6100 -1.5860 0.9169
1.7935 -22.4248 -1.6495 0.9137
5.5924 -24.5946 -1.8494 0.9038
10.7131 -25.1081 -2.0016 0.8963
11.6085 -24.7069 -2.0016 0.8963
2.1893 -4.2553 -0.3509 0.9810
15.8379 -22.2340 -2.0016 0.8963
17.3939 -21.0391 -2.0016 0.8963
18.1387 -20.4004 -2.0016 0.8963
18.8601 -19.7354 -2.0016 0.8963
19.5571 -19.0449 -2.0016 0.8963
20.2289 -18.3299 -2.0016 0.8963
20.8745 -17.5911 -2.0016 0.8963
21.4931 -16.8296 -2.0016 0.8963
22.0840 -16.0464 -2.0016 0.8963
23.1795 -14.4188 -2.0016 0.8963
23.6827 -13.5765 -2.0016 0.8963
24.1553 -12.7167 -2.0016 0.8963
24.5966 -11.8404 -2.0016 0.8963
25.3835 -10.0432 -2.0016 0.8963
25.7280 -9.1246 -2.0016 0.8963
26.0393 -8.1941 -2.0016 0.8963
26.3170 -7.2531 -2.0016 0.8963
26.5606 -6.3027 -2.0016 0.8963
26.7699 -5.3442 -2.0016 0.8963
27.1896 -2.4322 -2.0016 0.8963
27.2941 -0.4730 -2.0016 0.8963
27.2576 1.4886 -2.0016 0.8963
27.1865 2.4671 -2.0016 0.8963
12.9020 16.3767 -2.0016 0.9196
11.6925 17.2611 -2.0016 0.9196
9.0987 18.7583 -2.0016 0.9196
5.8368 18.3576 -1.8494 0.9255
2.1094 12.7407 -1.2398 0.9494
0.2441 12.0212 -1.1543 0.9528
-0.1898 12.1304 -1.1647 0.9524
-0.6282 12.1678 -1.1697 0.9522
-1.0332 11.7743 -1.1347 0.9536
-4.2338 12.0021 -1.2219 0.9501
-4.6560 11.8260 -1.2202 0.9502
-5.2031 11.9383 -1.2503 0.9490
-6.8481 11.9926 -1.3258 0.9460
-8.2999 11.4635 -1.3587 0.9447
-8.9483 11.4677 -1.3965 0.9432
-11.9803 11.4876 -1.5935 0.9355
-12.8828 11.4935 -1.6575 0.9330
-14.9317 11.5070 -1.8098 0.9270
-16.0632 10.6322 -1.8494 0.9255
-16.4349 10.0481 -1.8494 0.9255
-17.4997 8.2582 -1.8577 0.9252
-19.4449 7.5204 -2.0016 0.9196
-20.1413 5.3841 -2.0016 0.9196
-20.3218 4.6568 -2.0016 0.9196
-20.6038 3.1852 -2.0016 0.9196
-20.7049 2.4427 -2.0016 0.9196
-20.7793 1.6971 -2.0016 0.9196
-20.8475 0.2003 -2.0016 0.9196
-20.8081 -1.2976 -2.0016 0.9196
-20.4075 -4.2655 -2.0016 0.9196
-20.2410 -4.9961 -2.0016 0.9196
-20.0484 -5.7203 -2.0016 0.9196
-19.5858 -7.1454 -2.0016 0.9196
-19.3164 -7.8446 -2.0016 0.9196
-19.0220 -8.5337 -2.0016 0.9196
-18.3599 -9.8779 -2.0016 0.9196
-17.6030 -11.1711 -2.0016 0.9196
-15.8209 -13.5779 -2.0016 0.9196
-15.3227 -14.1377 -2.0016 0.9196
-14.8048 -14.6792 -2.0016 0.9196
-14.2677 -15.2017 -2.0016 0.9196
-13.7122 -15.7046 -2.0016 0.9196
-12.1919 -16.1754 -1.9446 0.9218
-7.3999 -17.7851 -1.8494 0.9255
-6.7560 -18.0396 -1.8494 0.9255
-5.5134 -16.5045 -1.6706 0.9325
-4.7754 -18.6619 -1.8494 0.9255
-4.1017 -18.8214 -1.8494 0.9255
-2.0523 -19.1535 -1.8494 0.9255
-1.3627 -19.2149 -1.8494 0.9255
-0.6713 -19.2515 -1.8494 0.9255
0.0209 -19.2631 -1.8494 0.9255
1.4044 -19.2119 -1.8494 0.9255
2.7807 -19.0614 -1.8494 0.9255
5.8333 -19.6458 -1.9675 0.9209
6.6487 -19.7599 -2.0016 0.9196
7.3545 -19.5082 -2.0016 0.9196
8.0507 -19.2314 -2.0016 0.9196
2.3125 -4.1902 -0.4594 0.9810
11.9796 -17.0631 -2.0016 0.9196
13.1742 -16.1586 -2.0016 0.9196
14.8367 -14.6470 -2.0016 0.9196
15.3534 -14.1043 -2.0016 0.9196
15.8503 -13.5435 -2.0016 0.9196
16.3267 -12.9652 -2.0016 0.9196
16.7822 -12.3701 -2.0016 0.9196
17.2158 -11.7590 -2.0016 0.9196
18.0160 -10.4921 -2.0016 0.9196
18.3814 -9.8380 -2.0016 0.9196
18.7230 -9.1711 -2.0016 0.9196
19.0405 -8.4923 -2.0016 0.9196
19.3334 -7.8026 -2.0016 0.9196
19.6013 -7.1028 -2.0016 0.9196
19.8438 -6.3939 -2.0016 0.9196
20.0608 -5.6767 -2.0016 0.9196
20.7524 -1.9994 -2.0016 0.9196
20.8471 0.2456 -2.0016 0.9196
20.7756 1.7423 -2.0016 0.9196
20.6995 2.4877 -2.0016 0.9196
20.5968 3.2300 -2.0016 0.9196
20.4674 3.9681 -2.0016 0.9196
20.1296 5.4279 -2.0016 0.9196
19.9215 6.1477 -2.0016 0.9196
19.6877 6.8596 -2.0016 0.9196
18.5017 9.6096 -2.0016 0.9196
18.1445 10.2683 -2.0016 0.9196
17.3601 11.5450 -2.0016 0.9196
16.9340 12.1614 -2.0016 0.9196
16.4861 12.7620 -2.0016 0.9196
16.0168 13.3462 -2.0016 0.9196
15.5269 13.9132 -2.0016 0.9196
14.4875 14.9924 -2.0016 0.9196
13.9393 15.5034 -2.0016 0.9196
13.3732 15.9943 -2.0016 0.9196
10.2989 18.1271 -2.0016 0.9196
9.6408 18.4855 -2.0016 0.9196
8.9703 18.8200 -2.0016 0.9196
7.0179 17.9393 -1.8494 0.9255
6.3687 18.1799 -1.8494 0.9255
5.7113 18.3970 -1.8494 0.9255
2.5766 13.1715 -1.2885 0.9475
1.5554 12.7600 -1.2341 0.9497
0.1622 12.0422 -1.1562 0.9528
-0.2713 12.0694 -1.1590 0.9526
-1.1199 11.8326 -1.1411 0.9534
-3.3043 11.7527 -1.1721 0.9521
-3.7804 11.8011 -1.1897 0.9514
-4.2847 11.8868 -1.2131 0.9505
-5.2131 11.7415 -1.2334 0.9497
-5.8245 11.9420 -1.2756 0.9480
-6.3674 11.9453 -1.2996 0.9471
-6.8910 11.8786 -1.3184 0.9463
-8.4205 11.4643 -1.3656 0.9444
-9.7699 11.4731 -1.4467 0.9412
-11.2981 11.4831 -1.5466 0.9373
-14.0582 11.5012 -1.7438 0.9296
-15.7469 11.0952 -1.8494 0.9255
-17.1742 8.7246 -1.8494 0.9255
-19.4958 7.3874 -2.0016 0.9196
-19.9761 5.9680 -2.0016 0.9196
-20.1776 5.2463 -2.0016 0.9196
-20.3531 4.5179 -2.0016 0.9196
-20.5023 3.7835 -2.0016 0.9196
-20.7904 1.5551 -2.0016 0.9196
-20.8329 0.8070 -2.0016 0.9196
-20.8370 -0.6914 -2.0016 0.9196
-20.7987 -1.4397 -2.0016 0.9196
-20.6416 -2.9299 -2.0016 0.9196
-20.5230 -3.6697 -2.0016 0.9196
-20.2064 -5.1343 -2.0016 0.9196
-20.0089 -5.8571 -2.0016 0.9196
-19.7855 -6.5724 -2.0016 0.9196
-19.5365 -7.2791 -2.0016 0.9196
-19.2623 -7.9765 -2.0016 0.9196
-18.6396 -9.3393 -2.0016 0.9196
-17.9207 -10.6540 -2.0016 0.9196
-16.6701 -12.5208 -2.0016 0.9196
-16.2094 -13.1117 -2.0016 0.9196
-15.7277 -13.6857 -2.0016 0.9196
-15.2257 -14.2421 -2.0016 0.9196
-14.7041 -14.7800 -2.0016 0.9196
-14.1635 -15.2988 -2.0016 0.9196
-13.5963 -15.7883 -2.0003 0.9197
-12.0208 -16.1772 -1.9349 0.9222
-10.3490 -16.2471 -1.8494 0.9255
-9.7585 -16.6085 -1.8494 0.9255
-8.5404 -17.2665 -1.8494 0.9255
-5.3941 -16.5221 -1.6686 0.9325
-5.3165 -18.5150 -1.8494 0.9255
-3.9730 -18.8490 -1.8494 0.9255
-2.6089 -19.0857 -1.8494 0.9255
0.1360 -17.1660 -1.6481 0.9333
1.5357 -19.2018 -1.8494 0.9255
2.9109 -19.0419 -1.8494 0.9255
3.5933 -18.9251 -1.8494 0.9255
4.2710 -18.7837 -1.8494 0.9255
4.9772 -18.7459 -1.8621 0.9250
6.0491 -19.8738 -1.9944 0.9199
7.4876 -19.4575 -2.0016 0.9196
2.1893 -4.2553 -0.4594 0.9810
10.1982 -18.1840 -2.0016 0.9196
10.8450 -17.8058 -2.0016 0.9196
11.4779 -17.4046 -2.0016 0.9196
12.0959 -16.9808 -2.0016 0.9196
14.4041 -15.0726 -2.0016 0.9196
15.4494 -13.9991 -2.0016 0.9196
15.9425 -13.4349 -2.0016 0.9196
16.4150 -12.8533 -2.0016 0.9196
16.8663 -12.2551 -2.0016 0.9196
17.7029 -11.0121 -2.0016 0.9196
18.4482 -9.7121 -2.0016 0.9196
18.7853 -9.0429 -2.0016 0.9196
19.0981 -8.3620 -2.0016 0.9196
19.3862 -7.6703 -2.0016 0.9196
19.6493 -6.9687 -2.0016 0.9196
20.4451 -4.0815 -2.0016 0.9196
20.5785 -3.3442 -2.0016 0.9196
20.6854 -2.6026 -2.0016 0.9196
20.8449 0.3881 -2.0016 0.9196
10.8966 12.8527 -2.0016 0.9344
10.4277 13.2360 -2.0016 0.9344
8.4168 14.5816 -1.9999 0.9344
7.2935 13.7548 -1.8494 0.9392
6.2868 14.2431 -1.8494 0.9392
4.7174 14.8369 -1.8494 0.9392
3.1639 13.1590 -1.6077 0.9469
2.6177 12.9126 -1.5650 0.9483
0.6777 12.0376 -1.4322 0.9526
-0.1823 11.6497 -1.3840 0.9542
-1.4171 11.4184 -1.3667 0.9547
-3.5764 11.4325 -1.4229 0.9529
-4.5035 11.4386 -1.4603 0.9517
-4.9868 11.4418 -1.4826 0.9510
-5.4857 11.4450 -1.5076 0.9502
-7.0992 11.4556 -1.6009 0.9472
-8.2999 11.4635 -1.6811 0.9446
-10.3644 11.4770 -1.8369 0.9396
-10.8430 11.1722 -1.8494 0.9392
-11.2375 10.7754 -1.8494 0.9392
-11.6174 10.3646 -1.8494 0.9392
-12.3319 9.5034 -1.8494 0.9392
-12.6654 9.0541 -1.8494 0.9392
-14.9703 7.7342 -2.0016 0.9344
-15.4872 6.6390 -2.0016 0.9344
-15.7157 6.0781 -2.0016 0.9344
-16.2786 4.3515 -2.0016 0.9344
-16.6523 2.5743 -2.0016 0.9344
-16.7942 1.3717 -2.0016 0.9344
-16.8494 0.1619 -2.0016 0.9344
-16.8443 -0.4437 -2.0016 0.9344
-16.6987 -2.2539 -2.0016 0.9344
-16.6069 -2.8525 -2.0016 0.9344
-16.4937 -3.4475 -2.0016 0.9344
-16.0269 -5.2025 -2.0016 0.9344
-15.8296 -5.7751 -2.0016 0.9344
-15.3739 -6.8971 -2.0016 0.9344
-15.1161 -7.4451 -2.0016 0.9344
-14.8388 -7.9835 -2.0016 0.9344
-14.2271 -9.0287 -2.0016 0.9344
-11.9655 -11.8640 -2.0016 0.9344
-11.5315 -12.2863 -2.0016 0.9344
-11.0825 -12.6928 -2.0016 0.9344
-10.6192 -13.0828 -2.0016 0.9344
-10.1422 -13.4560 -2.0016 0.9344
-8.6352 -14.4693 -2.0016 0.9344
-7.5736 -15.0522 -2.0016 0.9344
-6.4730 -15.5573 -2.0016 0.9344
-4.7452 -16.1097 -1.9949 0.9346
-3.5242 -16.1714 -1.9660 0.9355
-2.9202 -16.1739 -1.9523 0.9359
-2.3239 -16.1760 -1.9412 0.9363
-1.7334 -16.1776 -1.9327 0.9366
-1.1479 -16.1861 -1.9275 0.9367
-0.5656 -16.2211 -1.9280 0.9367
3.0300 -16.5755 -2.0016 0.9344
3.6237 -16.4559 -2.0016 0.9344
4.7962 -16.1531 -2.0016 0.9344
5.3736 -15.9703 -2.0016 0.9344
5.9440 -15.7669 -2.0016 0.9344
6.5068 -15.5432 -2.0016 0.9344
7.0611 -15.2993 -2.0016 0.9344
9.6821 -13.7907 -2.0016 0.9344
10.1714 -13.4339 -2.0016 0.9344
10.6476 -13.0597 -2.0016 0.9344
11.5581 -12.2612 -2.0016 0.9344
11.9913 -11.8379 -2.0016 0.9344
13.1956 -10.4787 -2.0016 0.9344
13.5637 -9.9977 -2.0016 0.9344
14.2467 -8.9977 -2.0016 0.9344
14.5608 -8.4800 -2.0016 0.9344
14.8562 -7.9512 -2.0016 0.9344
15.1323 -7.4122 -2.0016 0.9344
15.6256 -6.3062 -2.0016 0.9344
15.8421 -5.7406 -2.0016 0.9344
16.0382 -5.1676 -2.0016 0.9344
16.2135 -4.5880 -2.0016 0.9344
16.5012 -3.4116 -2.0016 0.9344
16.8197 -1.0122 -2.0016 0.9344
16.8490 0.1985 -2.0016 0.9344
16.8310 0.8039 -2.0016 0.9344
16.7912 1.4082 -2.0016 0.9344
16.7298 2.0106 -2.0016 0.9344
16.6467 2.6105 -2.0016 0.9344
16.5421 3.2071 -2.0016 0.9344
16.4162 3.7994 -2.0016 0.9344
16.1009 4.9687 -2.0016 0.9344
15.9120 5.5441 -2.0016 0.9344
15.7025 6.1123 -2.0016 0.9344
15.2229 7.2243 -2.0016 0.9344
14.9535 7.7667 -2.0016 0.9344
14.6647 8.2990 -2.0016 0.9344
14.3570 8.8206 -2.0016 0.9344
14.0308 9.3309 -2.0016 0.9344
13.6864 9.8290 -2.0016 0.9344
13.3244 10.3145 -2.0016 0.9344
12.9451 10.7867 -2.0016 0.9344
12.5491 11.2449 -2.0016 0.9344
12.1369 11.6886 -2.0016 0.9344
10.3370 13.3069 -2.0016 0.9344
6.6987 14.0541 -1.8494 0.9392
5.6720 14.4989 -1.8494 0.9392
4.6159 14.8688 -1.8494 0.9392
3.6290 13.3688 -1.6455 0.9457
3.0578 13.1111 -1.5992 0.9472
2.0033 12.6355 -1.5197 0.9498
1.0441 12.2028 -1.4548 0.9519
-0.2611 11.6141 -1.3799 0.9543
-1.0804 11.4162 -1.3621 0.9549
-1.1597 8.8495 -1.0602 0.9647
-1.9165 11.4217 -1.3757 0.9544
-2.3419 11.4244 -1.3853 0.9541
-2.7739 11.4273 -1.3968 0.9537
-3.2136 11.4302 -1.4104 0.9533
-3.6626 11.4331 -1.4261 0.9528
-4.1222 11.4361 -1.4440 0.9522
-5.5825 11.4457 -1.5127 0.9500
-6.6439 11.4526 -1.5728 0.9481
-7.2084 11.4563 -1.6078 0.9469
-10.5085 11.4780 -1.8485 0.9392
-10.9191 11.0979 -1.8494 0.9392
-11.6880 10.2850 -1.8494 0.9392
-13.0410 8.5042 -1.8494 0.9392
-14.6941 8.1418 -1.9955 0.9346
-15.0228 7.6317 -2.0016 0.9344
-16.1450 4.8235 -2.0016 0.9344
-16.4498 3.6514 -2.0016 0.9344
-16.5704 3.0579 -2.0016 0.9344
-16.7472 1.8599 -2.0016 0.9344
-16.8501 0.0467 -2.0016 0.9344
-16.3312 -4.1496 -2.0016 0.9344
-15.9910 -5.3119 -2.0016 0.9344
-15.3264 -7.0020 -2.0016 0.9344
-15.0649 -7.5482 -2.0016 0.9344
-13.1007 -10.5971 -2.0016 0.9344
-12.7114 -11.0611 -2.0016 0.9344
-12.3057 -11.5107 -2.0016 0.9344
-11.4472 -12.3648 -2.0016 0.9344
-10.9955 -12.7682 -2.0016 0.9344
-10.0500 -13.5250 -2.0016 0.9344
-9.5575 -13.8774 -2.0016 0.9344
-9.0527 -14.2119 -2.0016 0.9344
-8.5361 -14.5280 -2.0016 0.9344
-8.0085 -14.8254 -2.0016 0.9344
-6.9230 -15.3623 -2.0016 0.9344
-4.0200 -16.1690 -1.9791 0.9351
-3.4087 -16.1719 -1.9632 0.9356
-2.8063 -16.1744 -1.9500 0.9360
-2.2112 -16.1763 -1.9394 0.9363
-1.6217 -16.1778 -1.9313 0.9366
-1.0370 -16.1893 -1.9270 0.9367
-0.4549 -16.2302 -1.9287 0.9367
0.1292 -16.3072 -1.9371 0.9364
0.7210 -16.4260 -1.9531 0.9359
1.3266 -16.5877 -1.9767 0.9352
1.9403 -16.6882 -1.9957 0.9346
3.1432 -16.5544 -2.0016 0.9344
3.7360 -16.4308 -2.0016 0.9344
4.3241 -16.2859 -2.0016 0.9344
2.1893 -4.2552 -0.5684 0.9809
8.2424 -14.6966 -2.0016 0.9344
8.7652 -14.3910 -2.0016 0.9344
10.2630 -13.3641 -2.0016 0.9344
11.1964 -12.5924 -2.0016 0.9344
12.0719 -11.7557 -2.0016 0.9344
12.4865 -11.3143 -2.0016 0.9344
12.8850 -10.8583 -2.0016 0.9344
13.6317 -9.9048 -2.0016 0.9344
14.3079 -8.9002 -2.0016 0.9344
14.9101 -7.8495 -2.0016 0.9344
15.1826 -7.3087 -2.0016 0.9344
15.4354 -6.7583 -2.0016 0.9344
15.8810 -5.6323 -2.0016 0.9344
16.0731 -5.0579 -2.0016 0.9344
16.6320 -2.7029 -2.0016 0.9344
16.7183 -2.1034 -2.0016 0.9344
16.8263 -0.8972 -2.0016 0.9344
16.8476 -0.2920 -2.0016 0.9344
16.8472 0.3136 -2.0016 0.9344
16.8251 0.9188 -2.0016 0.9344
16.7812 1.5229 -2.0016 0.9344
16.7156 2.1249 -2.0016 0.9344
8.7421 11.0965 -2.0016 0.9445
8.3377 11.4034 -2.0016 0.9445
7.4971 11.9728 -2.0016 0.9445
6.6919 11.5933 -1.8967 0.9474
6.1146 11.5314 -1.8494 0.9486
5.2706 11.9408 -1.8494 0.9486
4.8380 12.1225 -1.8494 0.9486
3.5054 12.5727 -1.8494 0.9486
2.5933 12.7920 -1.8494 0.9486
2.0991 12.6787 -1.8209 0.9494
0.6777 12.0376 -1.7083 0.9525
-0.1823 11.6497 -1.6508 0.9540
-0.5893 11.4130 -1.6192 0.9549
-1.0017 11.4157 -1.6237 0.9548
-1.0867 8.7566 -1.2502 0.9650
-1.8363 11.4211 -1.6390 0.9543
-2.2606 11.4239 -1.6500 0.9540
-2.6912 11.4267 -1.6633 0.9537
-3.1293 11.4296 -1.6791 0.9533
-4.0340 11.4355 -1.7182 0.9522
-5.4857 11.4450 -1.7983 0.9500
-6.0024 11.4484 -1.8316 0.9491
-6.8754 11.0946 -1.8494 0.9486
-7.2697 10.8403 -1.8494 0.9486
-7.6545 10.5721 -1.8494 0.9486
-8.0295 10.2902 -1.8494 0.9486
-8.3941 9.9950 -1.8494 0.9486
-8.7478 9.6869 -1.8494 0.9486
-9.0903 9.3663 -1.8494 0.9486
-9.4210 9.0336 -1.8494 0.9486
-9.7395 8.6892 -1.8494 0.9486
-10.7024 8.2477 -1.9145 0.9469
-12.5504 6.4840 -2.0016 0.9445
-12.9837 5.5658 -2.0016 0.9445
-13.1753 5.0956 -2.0016 0.9445
-13.5073 4.1362 -2.0016 0.9445
-13.6472 3.6481 -2.0016 0.9445
-13.7695 3.1553 -2.0016 0.9445
-13.8740 2.6585 -2.0016 0.9445
-14.1117 0.6432 -2.0016 0.9445
-14.1258 0.1357 -2.0016 0.9445
-14.0990 -0.8792 -2.0016 0.9445
-14.0583 -1.3853 -2.0016 0.9445
-13.9995 -1.8896 -2.0016 0.9445
-12.8288 -2.6814 -1.8570 0.9484
-12.7241 -3.1407 -1.8570 0.9484
-12.6030 -3.5959 -1.8570 0.9484
-12.1429 -4.9314 -1.8570 0.9484
-11.9578 -5.3645 -1.8570 0.9484
-12.6727 -6.2416 -2.0016 0.9445
-12.4402 -6.6930 -2.0016 0.9445
-11.9274 -7.5692 -2.0016 0.9445
-11.6477 -7.9930 -2.0016 0.9445
-11.0435 -8.8089 -2.0016 0.9445
-10.7198 -9.2001 -2.0016 0.9445
-10.3823 -9.5793 -2.0016 0.9445
-10.0313 -9.9462 -2.0016 0.9445
-9.6674 -10.3003 -2.0016 0.9445
-9.2911 -10.6410 -2.0016 0.9445
-8.5028 -11.2809 -2.0016 0.9445
-8.0919 -11.5791 -2.0016 0.9445
-7.6706 -11.8624 -2.0016 0.9445
-6.3494 -12.6191 -2.0016 0.9445
-5.8918 -12.8391 -2.0016 0.9445
-3.9915 -13.5508 -2.0016 0.9445
-3.5020 -13.6854 -2.0016 0.9445
-2.5100 -13.9016 -2.0016 0.9445
-2.0088 -13.9828 -2.0016 0.9445
-0.9993 -14.0910 -2.0016 0.9445
-0.4923 -14.1178 -2.0016 0.9445
0.0154 -14.1264 -2.0016 0.9445
1.5356 -14.0427 -2.0016 0.9445
2.0392 -13.9784 -2.0016 0.9445
3.5317 -13.6778 -2.0016 0.9445
4.0209 -13.5421 -2.0016 0.9445
4.5050 -13.3888 -2.0016 0.9445
6.3768 -12.6052 -2.0016 0.9445
8.9265 -10.9487 -2.0016 0.9445
9.6898 -10.2792 -2.0016 0.9445
10.0529 -9.9244 -2.0016 0.9445
10.7398 -9.1767 -2.0016 0.9445
11.0626 -8.7849 -2.0016 0.9445
12.2071 -7.1092 -2.0016 0.9445
12.6862 -6.2141 -2.0016 0.9445
12.9013 -5.7542 -2.0016 0.9445
13.0998 -5.2868 -2.0016 0.9445
13.2813 -4.8127 -2.0016 0.9445
13.7221 -3.3554 -2.0016 0.9445
14.1103 0.6739 -2.0016 0.9445
13.9558 2.1886 -2.0016 0.9445
13.8682 2.6887 -2.0016 0.9445
13.7626 3.1853 -2.0016 0.9445
13.6392 3.6778 -2.0016 0.9445
13.4983 4.1655 -2.0016 0.9445
13.3399 4.6479 -2.0016 0.9445
13.1642 5.1243 -2.0016 0.9445
12.9716 5.5940 -2.0016 0.9445
12.5363 6.5112 -2.0016 0.9445
12.2942 6.9575 -2.0016 0.9445
11.4741 8.2402 -2.0016 0.9445
10.5206 9.4272 -2.0016 0.9445
9.8163 10.1585 -2.0016 0.9445
9.4449 10.5047 -2.0016 0.9445
9.0614 10.8373 -2.0016 0.9445
8.6660 11.1559 -2.0016 0.9445
7.8424 11.7495 -2.0016 0.9445
6.0356 11.5729 -1.8494 0.9486
5.6159 11.7823 -1.8494 0.9486
5.1888 11.9765 -1.8494 0.9486
4.3152 12.3183 -1.8494 0.9486
3.8698 12.4654 -1.8494 0.9486
2.9645 12.7111 -1.8494 0.9486
2.5058 12.8094 -1.8494 0.9486
1.5132 12.4145 -1.7720 0.9507
1.0441 12.2028 -1.7353 0.9517
0.5934 11.9995 -1.7023 0.9526
-1.0804 11.4162 -1.6248 0.9547
-1.1445 8.7334 -1.2480 0.9650
-1.9165 11.4217 -1.6410 0.9543
-2.7739 11.4273 -1.6661 0.9536
-3.6626 11.4331 -1.7010 0.9527
-4.1223 11.4361 -1.7224 0.9521
-5.5825 11.4457 -1.8043 0.9499
-6.1029 11.4491 -1.8383 0.9489
-6.9511 11.0473 -1.8494 0.9486
-7.7266 10.5195 -1.8494 0.9486
-8.0996 10.2351 -1.8494 0.9486
-9.1541 9.3040 -1.8494 0.9486
-9.4825 8.9690 -1.8494 0.9486
-10.8510 8.2447 -1.9309 0.9464
-11.5155 8.1138 -1.9960 0.9447
-12.1024 7.2861 -2.0016 0.9445
-12.3564 6.8465 -2.0016 0.9445
-12.5944 6.3981 -2.0016 0.9445
-13.0215 5.4770 -2.0016 0.9445
-13.7907 3.0612 -2.0016 0.9445
-14.0401 1.5592 -2.0016 0.9445
-14.1158 0.5468 -2.0016 0.9445
-14.1186 -0.4685 -2.0016 0.9445
-14.0485 -1.4813 -2.0016 0.9445
-13.9862 -1.9852 -2.0016 0.9445
-13.9058 -2.4865 -2.0016 0.9445
-12.7024 -3.2276 -1.8570 0.9484
-12.5782 -3.6820 -1.8570 0.9484
-12.4377 -4.1316 -1.8570 0.9484
-12.2812 -4.5759 -1.8570 0.9484
-11.9209 -5.4461 -1.8570 0.9484
-12.6297 -6.3281 -2.0016 0.9445
-12.3942 -6.7779 -2.0016 0.9445
-12.1426 -7.2189 -2.0016 0.9445
-11.2952 -8.4837 -2.0016 0.9445
-10.3166 -9.6501 -2.0016 0.9445
-9.5968 -10.3661 -2.0016 0.9445
-9.2181 -10.7043 -2.0016 0.9445
-8.8275 -11.0286 -2.0016 0.9445
-8.4255 -11.3387 -2.0016 0.9445
-8.0126 -11.6342 -2.0016 0.9445
-6.7140 -12.4289 -2.0016 0.9445
-5.8039 -12.8790 -2.0016 0.9445
-5.3374 -13.0793 -2.0016 0.9445
-3.8988 -13.5777 -2.0016 0.9445
-1.9132 -13.9962 -2.0016 0.9445
-1.4090 -14.0560 -2.0016 0.9445
-0.9030 -14.0975 -2.0016 0.9445
-0.3958 -14.1209 -2.0016 0.9445
0.1119 -14.1260 -2.0016 0.9445
1.1262 -14.0814 -2.0016 0.9445
1.6315 -14.0319 -2.0016 0.9445
3.1321 -13.7748 -2.0016 0.9445
3.6251 -13.6533 -2.0016 0.9445
4.5963 -13.3577 -2.0016 0.9445
2.1893 -4.2552 -0.6780 0.9809
6.9100 -12.3210 -2.0016 0.9445
7.3483 -12.0647 -2.0016 0.9445
8.6040 -11.2038 -2.0016 0.9445
10.4681 -9.4854 -2.0016 0.9445
11.4282 -8.3038 -2.0016 0.9445
11.7192 -7.8877 -2.0016 0.9445
12.5000 -6.5807 -2.0016 0.9445
12.7284 -6.1272 -2.0016 0.9445
13.4750 -4.2403 -2.0016 0.9445
13.6186 -3.7534 -2.0016 0.9445
13.7447 -3.2616 -2.0016 0.9445
13.9435 -2.2659 -2.0016 0.9445
14.1243 -0.2448 -2.0016 0.9445
14.1240 0.2629 -2.0016 0.9445
14.1054 0.7703 -2.0016 0.9445
14.0136 1.7814 -2.0016 0.9445
7.5189 9.5439 -2.0016 0.9519
7.1711 9.8079 -2.0016 0.9519
4.8992 10.1005 -1.8494 0.9555
4.1611 10.4263 -1.8494 0.9555
3.7838 10.5691 -1.8494 0.9555
3.4015 10.6982 -1.8494 0.9555
2.6244 10.9149 -1.8494 0.9555
1.8336 11.0752 -1.8494 0.9555
0.6311 11.2082 -1.8494 0.9555
-0.9813 11.1830 -1.8494 0.9555
-1.0821 8.7195 -1.4475 0.9650
-1.7820 11.0837 -1.8494 0.9555
-2.1792 11.0125 -1.8494 0.9555
-2.9645 10.8275 -1.8494 0.9555
-4.4852 10.2910 -1.8494 0.9555
-5.2128 9.9423 -1.8494 0.9555
-5.5667 9.7486 -1.8494 0.9555
-5.9134 9.5422 -1.8494 0.9555
-6.5835 9.0929 -1.8494 0.9555
-6.9060 8.8504 -1.8494 0.9555
-9.0443 8.0689 -1.9967 0.9521
-9.8840 7.0658 -2.0016 0.9519
-10.3660 6.3376 -2.0016 0.9519
-10.5870 5.9611 -2.0016 0.9519
-10.7944 5.5768 -2.0016 0.9519
-10.9878 5.1853 -2.0016 0.9519
-11.1671 4.7870 -2.0016 0.9519
-11.4821 3.9726 -2.0016 0.9519
-11.6174 3.5575 -2.0016 0.9519
-11.9328 2.2865 -2.0016 0.9519
-12.0662 1.4236 -2.0016 0.9519
-12.1263 -0.7562 -2.0016 0.9519
-12.0913 -1.1915 -2.0016 0.9519
-11.0338 -2.3063 -1.8570 0.9553
-10.9438 -2.7013 -1.8570 0.9553
-10.8396 -3.0928 -1.8570 0.9553
-10.4439 -4.2414 -1.8570 0.9553
-10.2847 -4.6140 -1.8570 0.9553
-10.1122 -4.9806 -1.8570 0.9553
-9.9267 -5.3407 -1.8570 0.9553
-10.0179 -6.8746 -2.0016 0.9519
-9.7644 -7.2302 -2.0016 0.9519
-9.4983 -7.5764 -2.0016 0.9519
-8.9296 -8.2390 -2.0016 0.9519
-8.6278 -8.5546 -2.0016 0.9519
-8.3148 -8.8591 -2.0016 0.9519
-7.9911 -9.1522 -2.0016 0.9519
-7.6570 -9.4334 -2.0016 0.9519
-7.3131 -9.7025 -2.0016 0.9519
-6.9597 -9.9590 -2.0016 0.9519
-6.5973 -10.2027 -2.0016 0.9519
-5.8475 -10.6502 -2.0016 0.9519
-5.4610 -10.8534 -2.0016 0.9519
-4.6673 -11.2176 -2.0016 0.9519
-4.2612 -11.3781 -2.0016 0.9519
-3.8496 -11.5239 -2.0016 0.9519
-3.4330 -11.6548 -2.0016 0.9519
-2.5871 -11.8712 -2.0016 0.9519
-2.1588 -11.9565 -2.0016 0.9519
-1.7277 -12.0264 -2.0016 0.9519
-0.4234 -12.1425 -2.0016 0.9519
0.0132 -12.1499 -2.0016 0.9519
0.8858 -12.1175 -2.0016 0.9519
1.3207 -12.0779 -2.0016 0.9519
1.7539 -12.0226 -2.0016 0.9519
2.6129 -11.8656 -2.0016 0.9519
3.0376 -11.7640 -2.0016 0.9519
3.4583 -11.6473 -2.0016 0.9519
3.8747 -11.5155 -2.0016 0.9519
5.0914 -11.0316 -2.0016 0.9519
6.2491 -10.4196 -2.0016 0.9519
7.6775 -9.4168 -2.0016 0.9519
8.3340 -8.8410 -2.0016 0.9519
8.9475 -8.2196 -2.0016 0.9519
9.2371 -7.8927 -2.0016 0.9519
9.5148 -7.5557 -2.0016 0.9519
10.0329 -6.8528 -2.0016 0.9519
10.2726 -6.4878 -2.0016 0.9519
10.4992 -6.1145 -2.0016 0.9519
10.7121 -5.7333 -2.0016 0.9519
10.9112 -5.3446 -2.0016 0.9519
11.2669 -4.5471 -2.0016 0.9519
11.5644 -3.7261 -2.0016 0.9519
11.9789 -2.0308 -2.0016 0.9519
12.1463 -0.2935 -2.0016 0.9519
12.1074 1.0154 -2.0016 0.9519
12.0631 1.4498 -2.0016 0.9519
11.8370 2.7396 -2.0016 0.9519
10.7823 5.6002 -2.0016 0.9519
10.5741 5.9841 -2.0016 0.9519
10.1169 6.7281 -2.0016 0.9519
9.8686 7.0873 -2.0016 0.9519
9.3341 7.7778 -2.0016 0.9519
9.0486 8.1082 -2.0016 0.9519
8.7514 8.4281 -2.0016 0.9519
8.4429 8.7371 -2.0016 0.9519
7.4535 9.5950 -2.0016 0.9519
6.7451 10.1056 -2.0016 0.9519
5.9842 10.5328 -1.9957 0.9521
5.2035 9.9773 -1.8538 0.9554
4.4629 10.3008 -1.8494 0.9555
4.0898 10.4545 -1.8494 0.9555
3.3284 10.7212 -1.8494 0.9555
2.5497 10.9326 -1.8494 0.9555
2.1552 11.0172 -1.8494 0.9555
1.3583 11.1435 -1.8494 0.9555
0.9570 11.1851 -1.8494 0.9555
0.5545 11.2123 -1.8494 0.9555
0.1512 11.2250 -1.8494 0.9555
-0.6554 11.2068 -1.8494 0.9555
-2.2543 10.9973 -1.8494 0.9555
-3.4248 10.6908 -1.8494 0.9555
-3.8067 10.5608 -1.8494 0.9555
-4.1838 10.4172 -1.8494 0.9555
-4.5554 10.2602 -1.8494 0.9555
-4.9212 10.0898 -1.8494 0.9555
-5.6332 9.7103 -1.8494 0.9555
-5.9785 9.5016 -1.8494 0.9555
-6.3161 9.2806 -1.8494 0.9555
-6.9663 8.8030 -1.8494 0.9555
-7.2782 8.5470 -1.8494 0.9555
-7.5806 8.2799 -1.8494 0.9555
-9.4038 7.6934 -2.0016 0.9519
-10.1771 6.6367 -2.0016 0.9519
-10.8323 5.5029 -2.0016 0.9519
-11.3616 4.3051 -2.0016 0.9519
-11.7589 3.0574 -2.0016 0.9519
-11.8612 2.6329 -2.0016 0.9519
-12.0756 1.3411 -2.0016 0.9519
-12.1498 0.0337 -2.0016 0.9519
-12.1432 -0.4029 -2.0016 0.9519
-12.0829 -1.2741 -2.0016 0.9519
-12.0293 -1.7074 -2.0016 0.9519
