ply
format ascii 1.0
element vertex 1546
property float32 x
property float32 y
property float32 z
property float32 I
end_header
2.2559 13.4832 0.2309 0.9468
0.7418 12.7410 0.2156 0.9502
0.3536 15.8634 0.2680 0.9385
-0.2156 15.8650 0.2680 0.9385
-1.4947 12.2718 0.2088 0.9517
-1.9137 12.0828 0.2066 0.9522
-3.1013 15.8730 0.2732 0.9373
-4.3034 15.8763 0.2779 0.9363
-6.0456 15.4806 0.2807 0.9357
-6.0498 13.9886 0.2574 0.9408
-10.0536 17.7310 0.3443 0.9217
-10.9134 17.7334 0.3517 0.9201
-13.2078 17.0429 0.3642 0.9174
-14.4584 13.9641 0.3395 0.9227
-20.4692 15.8991 0.4378 0.9015
-33.2599 23.9722 0.6925 0.8487
-33.2648 22.2075 0.6756 0.8521
-30.3917 -3.9365 0.5177 0.8846
-1.5361 -22.5911 -0.1275 0.9134
0.8982 -22.5978 -0.1273 0.9135
1.6985 -22.4245 -0.1266 0.9140
2.1901 -4.3094 -0.0272 0.9808
2.3258 -4.1966 -0.0270 0.9810
32.6005 -37.0720 -0.2780 0.8208
32.8811 -30.1364 -0.2511 0.8366
40.8100 -25.7286 -0.2716 0.8245
43.5854 13.4079 -0.2567 0.8333
38.4916 13.3699 -0.2294 0.8496
35.1328 13.6341 -0.2122 0.8601
36.0124 15.4835 -0.2207 0.8549
35.7753 16.9266 -0.2228 0.8536
34.2612 17.7411 -0.2172 0.8570
34.4718 21.1133 -0.2276 0.8507
35.1907 23.3293 -0.2377 0.8446
30.0983 26.8764 -0.2272 0.8509
2.6929 13.5501 -0.0778 0.9462
2.0934 12.9466 -0.0738 0.9489
0.6428 12.1893 -0.0687 0.9523
-1.0962 12.0389 -0.0681 0.9528
-1.9431 11.8483 -0.0676 0.9531
-2.4006 11.9395 -0.0686 0.9525
-2.9128 12.2039 -0.0706 0.9511
-3.3538 12.1104 -0.0708 0.9510
-3.8825 12.2879 -0.0726 0.9498
-4.2965 12.0727 -0.0721 0.9500
-4.8399 12.1959 -0.0739 0.9489
-5.8619 12.1496 -0.0760 0.9475
-6.2468 11.8423 -0.0754 0.9479
-7.5199 12.0708 -0.0801 0.9447
-8.6937 11.9515 -0.0832 0.9426
-10.1891 12.0813 -0.0890 0.9387
-10.8281 11.9422 -0.0908 0.9376
-11.7246 12.0338 -0.0946 0.9350
-13.6993 12.1778 -0.1032 0.9293
-15.8317 12.1588 -0.1124 0.9233
-18.1508 11.9744 -0.1224 0.9167
-19.9335 12.1475 -0.1314 0.9109
-21.5197 12.0777 -0.1389 0.9060
-23.5002 12.1021 -0.1488 0.8997
-30.1830 -4.0774 -0.1715 0.8853
-22.6054 -22.3619 -0.1790 0.8806
-21.0437 -22.3663 -0.1729 0.8844
-19.7368 -22.5455 -0.1687 0.8870
-16.7440 -22.1485 -0.1563 0.8949
-14.3142 -22.0603 -0.1481 0.9002
-13.1727 -21.9901 -0.1443 0.9025
-11.3176 -22.3933 -0.1413 0.9045
-9.4251 -22.5300 -0.1375 0.9069
-8.4406 -22.4013 -0.1348 0.9087
-7.5339 -22.3988 -0.1331 0.9098
-3.2749 -22.4107 -0.1275 0.9134
-0.0362 -22.4197 -0.1262 0.9142
6.9176 -27.1486 -0.1577 0.8940
32.6133 -32.4710 -0.2591 0.8319
32.6276 -26.1477 -0.2354 0.8460
34.5594 -25.7160 -0.2425 0.8417
35.1951 17.9813 -0.2225 0.8538
34.1306 19.0109 -0.2200 0.8553
35.1899 23.0528 -0.2369 0.8451
3.2776 13.5386 -0.0784 0.9458
2.1625 12.9249 -0.0738 0.9489
1.1955 12.6768 -0.0717 0.9503
0.2670 11.9777 -0.0675 0.9532
-0.6023 12.1664 -0.0686 0.9524
-1.0464 12.2330 -0.0691 0.9521
-1.4908 12.2394 -0.0694 0.9519
-3.7702 12.1634 -0.0717 0.9503
-5.2934 12.2397 -0.0751 0.9481
-5.8032 12.1980 -0.0761 0.9474
-6.1776 11.8680 -0.0753 0.9479
-6.9053 12.1785 -0.0788 0.9455
-7.5235 12.2250 -0.0808 0.9442
-10.1771 12.2018 -0.0895 0.9384
-10.6635 11.8906 -0.0899 0.9381
-11.6757 12.1155 -0.0947 0.9349
-12.3233 11.9020 -0.0965 0.9338
-15.2713 11.8617 -0.1089 0.9256
-16.5586 11.9347 -0.1149 0.9216
-30.4005 -3.9376 -0.1726 0.8846
-1.5229 -22.3961 -0.6321 0.9141
-0.7175 -22.4005 -0.6311 0.9142
6.9825 -47.0457 -1.3392 0.8267
2.3258 -4.1966 -0.1351 0.9810
32.2041 -31.7148 -1.2727 0.8345
32.8216 -30.0818 -1.2536 0.8368
32.6285 -25.8567 -1.1723 0.8465
37.6490 -25.6677 -1.2830 0.8333
39.0626 -24.6270 -1.3002 0.8313
44.4100 -2.6807 -1.2528 0.8369
42.7800 13.1602 -1.2603 0.8360
37.9155 13.1698 -1.1302 0.8516
35.0827 13.6146 -1.0596 0.8602
36.0477 15.4986 -1.1049 0.8547
33.4617 18.8787 -1.0818 0.8575
34.4832 22.8603 -1.1650 0.8474
34.1907 24.4757 -1.1840 0.8451
34.9799 26.9894 -1.2441 0.8379
3.1338 13.2615 -0.3837 0.9469
2.6368 13.2676 -0.3809 0.9473
2.0841 12.8894 -0.3677 0.9491
1.1073 12.4704 -0.3525 0.9511
0.2025 12.0430 -0.3391 0.9529
-1.0589 11.6302 -0.3288 0.9543
-1.5205 11.9392 -0.3389 0.9530
-1.9439 11.8533 -0.3382 0.9531
-3.7652 11.9165 -0.3519 0.9512
-4.6846 11.8046 -0.3576 0.9504
-5.6738 11.7599 -0.3677 0.9491
-6.2254 11.8018 -0.3757 0.9480
-7.4435 11.9482 -0.3964 0.9452
-9.2696 11.8269 -0.4231 0.9416
-10.0606 11.9290 -0.4394 0.9395
-11.7180 12.0271 -0.4728 0.9350
-12.4094 11.8547 -0.4832 0.9336
-13.4828 11.9853 -0.5080 0.9304
-15.5533 11.9449 -0.5522 0.9245
-16.6975 11.8966 -0.5773 0.9212
-19.4779 11.8699 -0.6423 0.9128
-21.1134 11.8497 -0.6817 0.9077
-25.2537 11.8793 -0.7858 0.8943
-30.2037 -4.0802 -0.8582 0.8852
-28.0470 -22.3285 -1.0094 0.8664
-22.5070 -22.2646 -0.8914 0.8810
-19.4632 -22.2331 -0.8320 0.8885
-17.7958 -21.8633 -0.7938 0.8933
-16.7440 -22.1485 -0.7818 0.8948
-15.8138 -22.5564 -0.7757 0.8956
-13.1727 -21.9901 -0.7218 0.9025
-11.2346 -22.2291 -0.7013 0.9051
-10.2630 -22.2553 -0.6901 0.9066
-8.4026 -22.3004 -0.6710 0.9090
-7.5057 -22.3148 -0.6629 0.9101
-6.6300 -22.3319 -0.6559 0.9110
-3.2706 -22.3812 -0.6369 0.9135
-2.4554 -22.3891 -0.6342 0.9138
-0.8401 -22.3999 -0.6312 0.9142
6.9168 -27.1455 -0.7888 0.8940
2.2899 -4.1857 -0.1344 0.9811
32.5994 -37.4820 -1.3987 0.8197
33.6365 -35.9825 -1.3869 0.8211
34.4811 -25.6577 -1.2102 0.8420
38.9424 -24.8498 -1.3008 0.8312
41.1031 -2.7067 -1.1599 0.8480
43.6196 13.1578 -1.2829 0.8333
38.5895 13.1679 -1.1481 0.8495
36.0470 15.2654 -1.1023 0.8550
35.0485 17.9064 -1.1082 0.8543
33.6577 20.3624 -1.1077 0.8544
34.9791 26.6849 -1.2388 0.8386
30.3766 26.8279 -1.1412 0.8503
3.2833 13.5623 -0.3929 0.9457
2.7055 13.2348 -0.3804 0.9474
2.1637 12.9324 -0.3692 0.9489
1.6769 12.8359 -0.3645 0.9495
1.1720 12.4273 -0.3515 0.9513
0.7194 12.3552 -0.3485 0.9517
0.2683 12.0369 -0.3390 0.9530
-0.1641 12.0758 -0.3401 0.9528
-1.0298 12.0383 -0.3402 0.9528
-2.8128 12.0771 -0.3492 0.9516
-4.1381 11.8318 -0.3529 0.9511
-5.6275 11.8288 -0.3688 0.9489
-6.1932 11.8979 -0.3777 0.9477
-7.8652 11.8093 -0.3995 0.9448
-8.5305 11.8629 -0.4114 0.9432
-9.8345 11.7911 -0.4323 0.9404
-10.6119 11.8331 -0.4476 0.9384
-14.3240 11.9737 -0.5257 0.9280
-19.2857 11.8979 -0.6381 0.9133
-21.0789 11.9824 -0.6827 0.9075
-24.9925 11.9238 -0.7797 0.8951
-1.5242 -22.4155 -1.1394 0.9139
-0.7180 -22.4178 -1.1375 0.9141
0.0864 -22.4200 -1.1370 0.9141
0.8569 -21.5578 -1.0942 0.9172
4.0565 -36.2399 -1.8494 0.8641
6.6439 -35.8559 -1.8494 0.8641
7.9256 -35.5946 -1.8494 0.8641
7.0466 -27.0362 -1.4169 0.8941
11.3174 -37.8100 -2.0016 0.8538
15.3131 -36.3756 -2.0016 0.8538
22.7288 -32.2657 -2.0016 0.8538
23.8714 -31.4298 -2.0016 0.8538
26.9485 -28.5140 -1.9897 0.8546
27.7495 -23.6591 -1.8494 0.8641
28.5802 -22.6486 -1.8494 0.8641
29.3741 -21.6090 -1.8494 0.8641
31.5252 -18.3289 -1.8494 0.8641
32.1623 -17.1865 -1.8494 0.8641
33.4548 -16.3627 -1.8887 0.8614
37.1114 -13.4321 -2.0016 0.8538
37.9788 -10.7373 -2.0016 0.8538
38.3394 -9.3682 -2.0016 0.8538
32.4741 -4.3128 -1.6614 0.8770
39.4556 -0.9636 -2.0016 0.8538
39.4648 0.4521 -2.0016 0.8538
39.4232 1.8672 -2.0016 0.8538
39.3309 3.2799 -2.0016 0.8538
35.7988 8.2572 -1.8632 0.8632
30.0522 16.9552 -1.7499 0.8709
29.5879 18.1220 -1.7596 0.8703
29.6517 21.2265 -1.8494 0.8641
28.0539 23.2974 -1.8494 0.8641
27.2715 24.3522 -1.8542 0.8638
27.2679 26.1660 -1.9166 0.8595
27.2715 28.1166 -1.9865 0.8548
26.4450 29.2974 -2.0016 0.8538
23.1451 31.9684 -2.0016 0.8538
21.9837 32.7779 -2.0016 0.8538
18.3358 34.9496 -2.0016 0.8538
17.0705 35.5847 -2.0016 0.8538
15.7833 36.1741 -2.0016 0.8538
14.4758 36.7169 -2.0016 0.8538
13.1496 37.2124 -2.0016 0.8538
3.1630 13.3851 -0.6975 0.9464
1.5787 12.6213 -0.6451 0.9503
1.1061 12.4564 -0.6342 0.9511
0.6450 12.2303 -0.6211 0.9521
-0.6699 12.1837 -0.6188 0.9523
-1.0757 11.8137 -0.6016 0.9536
-1.9757 12.0472 -0.6191 0.9523
-2.3745 11.8097 -0.6109 0.9529
-3.7344 11.8191 -0.6286 0.9516
-4.6993 11.8418 -0.6461 0.9503
-7.3720 11.8334 -0.7071 0.9457
-8.0355 11.9232 -0.7292 0.9440
-8.5906 11.8098 -0.7406 0.9432
-9.2520 11.8046 -0.7606 0.9417
-11.5540 11.8587 -0.8397 0.9358
-12.3696 11.8167 -0.8676 0.9338
-13.4817 11.9844 -0.9148 0.9303
-21.1450 11.8674 -1.2297 0.9075
-33.5333 14.3286 -1.8494 0.8641
-36.8258 14.1963 -2.0016 0.8538
-38.1376 10.1587 -2.0016 0.8538
-38.4774 8.7843 -2.0016 0.8538
-38.7677 7.3987 -2.0016 0.8538
-39.0081 6.0035 -2.0016 0.8538
-39.3381 3.1918 -2.0016 0.8538
-39.4657 0.3637 -2.0016 0.8538
-39.3903 -2.4663 -2.0016 0.8538
-38.8975 -6.6830 -2.0016 0.8538
-38.6328 -8.0737 -2.0016 0.8538
-36.5726 -14.8364 -2.0016 0.8538
-36.0170 -16.1385 -2.0016 0.8538
-35.4150 -17.4199 -2.0016 0.8538
-30.8039 -19.5168 -1.8494 0.8641
-30.0841 -20.6091 -1.8494 0.8641
-28.0699 -22.3468 -1.8196 0.8661
-26.0981 -22.3522 -1.7426 0.8714
-24.2840 -22.3573 -1.6740 0.8762
-22.6054 -22.3619 -1.6126 0.8804
-21.0437 -22.3663 -1.5574 0.8843
-16.7440 -22.1485 -1.4081 0.8948
-15.8138 -22.5564 -1.3971 0.8955
-13.1727 -21.9901 -1.3000 0.9024
-11.3176 -22.3933 -1.2725 0.9044
-8.4406 -22.4013 -1.2140 0.9086
-5.7856 -22.4037 -1.1735 0.9115
-4.9364 -22.4061 -1.1636 0.9122
-4.1193 -22.5126 -1.1607 0.9124
-3.2749 -22.4107 -1.1486 0.9133
-1.6473 -22.4152 -1.1398 0.9139
-0.8407 -22.4174 -1.1377 0.9141
1.5752 -22.4242 -1.1400 0.9139
5.1564 -36.0999 -1.8494 0.8641
7.7309 -35.6374 -1.8494 0.8641
11.1105 -37.8713 -2.0016 0.8538
12.4616 -37.4484 -2.0016 0.8538
13.7966 -36.9774 -2.0016 0.8538
15.1140 -36.4588 -2.0016 0.8538
2.2899 -4.1857 -0.2420 0.9811
20.1722 -33.9228 -2.0016 0.8538
21.3759 -33.1775 -2.0016 0.8538
24.8158 -30.6896 -2.0016 0.8538
26.8674 -28.7413 -1.9953 0.8542
27.6198 -23.8105 -1.8494 0.8641
28.4559 -22.8046 -1.8494 0.8641
30.7408 -19.6162 -1.8494 0.8641
31.4245 -18.5010 -1.8494 0.8641
32.0679 -17.3621 -1.8494 0.8641
35.7703 -16.1668 -1.9907 0.8545
36.5246 -14.9543 -2.0016 0.8538
37.5026 -12.2977 -2.0016 0.8538
37.9195 -10.9447 -2.0016 0.8538
38.2876 -9.5777 -2.0016 0.8538
32.4674 -4.4927 -1.6623 0.8770
36.5374 -2.4061 -1.8570 0.8636
39.4667 0.2363 -2.0016 0.8538
39.0273 5.8776 -2.0016 0.8538
38.7914 7.2735 -2.0016 0.8538
36.6786 8.2492 -1.9066 0.8602
34.9125 10.5313 -1.8494 0.8641
34.5123 11.7767 -1.8494 0.8641
34.0677 13.0069 -1.8494 0.8641
33.5793 14.2204 -1.8494 0.8641
30.3423 16.9008 -1.7614 0.8701
29.5967 17.9057 -1.7543 0.8706
29.7674 21.0640 -1.8494 0.8641
28.9928 22.1181 -1.8494 0.8641
28.1808 23.1437 -1.8494 0.8641
27.3326 24.1395 -1.8494 0.8641
27.2681 25.8814 -1.9066 0.8602
26.6048 29.1524 -2.0016 0.8538
24.4465 30.9846 -2.0016 0.8538
23.3195 31.8414 -2.0016 0.8538
19.7645 34.1620 -2.0016 0.8538
17.2648 35.4908 -2.0016 0.8538
14.6763 36.6372 -2.0016 0.8538
12.0123 37.5950 -2.0016 0.8538
3.2119 13.2673 -0.6923 0.9468
2.6413 12.9208 -0.6688 0.9486
2.1614 12.9185 -0.6643 0.9489
1.6461 12.6000 -0.6444 0.9504
0.2670 11.9779 -0.6076 0.9531
-1.0221 11.9484 -0.6082 0.9531
-1.4548 11.9442 -0.6102 0.9530
-1.9125 12.0751 -0.6200 0.9522
-3.1781 11.7248 -0.6161 0.9525
-3.6796 11.8711 -0.6303 0.9514
-4.2038 12.0198 -0.6458 0.9503
-5.1315 11.8653 -0.6556 0.9495
-5.6788 11.9365 -0.6704 0.9484
-7.3466 11.9376 -0.7109 0.9454
-7.9250 11.8991 -0.7250 0.9443
-8.5590 11.9025 -0.7435 0.9430
-10.6260 11.8489 -0.8072 0.9382
-11.4272 11.8577 -0.8351 0.9362
-12.3443 11.9223 -0.8703 0.9336
-13.2556 11.9138 -0.9039 0.9311
-14.2060 11.8751 -0.9390 0.9285
-21.1248 12.0085 -1.2323 0.9073
-22.8384 11.9197 -1.3065 0.9020
-33.4544 14.5118 -1.8494 0.8641
-38.0815 10.3671 -2.0016 0.8538
-38.9747 6.2167 -2.0016 0.8538
-39.1726 4.8149 -2.0016 0.8538
-39.3201 3.4069 -2.0016 0.8538
-39.4170 1.9945 -2.0016 0.8538
-39.4632 0.5795 -2.0016 0.8538
-38.6763 -7.8624 -2.0016 0.8538
-37.1545 -13.3122 -2.0016 0.8538
-36.1047 -15.9413 -2.0016 0.8538
-34.1835 -19.7272 -2.0016 0.8538
-2.3341 -22.4133 -1.6523 0.9136
-1.5242 -22.4155 -1.6474 0.9138
-0.7180 -22.4178 -1.6446 0.9140
0.0864 -22.4200 -1.6439 0.9140
1.6985 -22.4245 -1.6489 0.9138
2.8058 -25.0659 -1.8494 0.9038
4.5956 -24.8002 -1.8494 0.9038
6.3613 -24.4070 -1.8494 0.9038
7.2326 -24.1632 -1.8494 0.9038
10.5915 -25.1597 -2.0016 0.8963
11.4870 -24.7636 -2.0016 0.8963
2.3257 -4.1965 -0.3518 0.9809
14.0805 -23.3865 -2.0016 0.8963
17.2800 -21.1327 -2.0016 0.8963
18.0268 -20.4994 -2.0016 0.8963
21.3948 -16.9545 -2.0016 0.8963
22.5551 -15.3772 -2.0016 0.8963
23.0921 -14.5584 -2.0016 0.8963
24.5222 -11.9938 -2.0016 0.8963
25.6686 -9.2905 -2.0016 0.8963
25.9853 -8.3639 -2.0016 0.8963
26.2685 -7.4266 -2.0016 0.8963
26.5180 -6.4797 -2.0016 0.8963
26.9143 -4.5621 -2.0016 0.8963
27.2900 -0.6665 -2.0016 0.8963
27.2964 0.3127 -2.0016 0.8963
27.2037 2.2686 -2.0016 0.8963
26.9711 4.2128 -2.0016 0.8963
26.5998 6.1354 -2.0016 0.8963
26.0915 8.0264 -2.0016 0.8963
25.7869 8.9570 -2.0016 0.8963
25.4490 9.8761 -2.0016 0.8963
25.0785 10.7824 -2.0016 0.8963
23.7752 13.4138 -2.0016 0.8963
22.7525 15.0835 -2.0016 0.8963
22.1969 15.8899 -2.0016 0.8963
21.6127 16.6757 -2.0016 0.8963
20.3618 18.1821 -2.0016 0.8963
18.2910 20.2640 -2.0016 0.8963
15.2053 22.6713 -2.0016 0.8963
14.3824 23.2021 -2.0016 0.8963
12.6822 24.1734 -2.0016 0.8963
10.0124 25.3957 -2.0016 0.8963
9.0951 25.7385 -2.0016 0.8963
7.5452 24.0674 -1.8494 0.9038
3.7464 13.6468 -1.0376 0.9448
2.6018 13.0919 -0.9787 0.9479
0.6424 12.1812 -0.8944 0.9523
-0.2277 11.9496 -0.8763 0.9532
-0.6693 12.1730 -0.8939 0.9523
-1.0864 11.9319 -0.8785 0.9531
-1.5284 12.0011 -0.8871 0.9526
-1.9512 11.8977 -0.8840 0.9528
-3.2760 11.8295 -0.9000 0.9520
-4.2399 11.9136 -0.9272 0.9505
-5.7320 11.8804 -0.9672 0.9485
-6.2199 11.7913 -0.9775 0.9479
-6.8773 11.9761 -1.0126 0.9461
-7.3790 11.8446 -1.0232 0.9456
-8.6261 11.8586 -1.0752 0.9429
-9.3103 11.8789 -1.1066 0.9413
-9.9296 11.7736 -1.1293 0.9401
-10.8142 11.9268 -1.1805 0.9375
-12.5108 11.9516 -1.2686 0.9330
-16.1619 11.5150 -1.4550 0.9235
-22.8234 10.7361 -1.8494 0.9038
-23.5343 9.0724 -1.8494 0.9038
-23.9483 8.2583 -1.8574 0.9034
-26.0720 7.9565 -1.9987 0.8964
-26.3784 7.0264 -2.0016 0.8963
-26.6134 6.0758 -2.0016 0.8963
-26.8142 5.1174 -2.0016 0.8963
-27.1121 3.1821 -2.0016 0.8963
-27.2885 -0.7276 -2.0016 0.8963
-27.2448 -1.7058 -2.0016 0.8963
-25.0984 -3.3905 -1.8570 0.9034
-24.9606 -4.2885 -1.8570 0.9034
-25.0126 -5.2273 -1.8736 0.9026
-26.2518 -7.4854 -2.0016 0.8963
-25.2959 -10.2618 -2.0016 0.8963
-24.4953 -12.0487 -2.0016 0.8963
-23.5686 -13.7736 -2.0016 0.8963
-22.5206 -15.4277 -2.0016 0.8963
-21.8696 -16.1640 -1.9940 0.8967
-20.3272 -16.1827 -1.9051 0.9010
-18.5559 -17.0836 -1.8494 0.9038
-17.9312 -17.7381 -1.8494 0.9038
-17.2835 -18.3698 -1.8494 0.9038
-16.6136 -18.9779 -1.8494 0.9038
-15.9222 -19.5615 -1.8494 0.9038
-15.2104 -20.1200 -1.8494 0.9038
-12.9614 -21.6373 -1.8494 0.9038
-10.3279 -22.3961 -1.8083 0.9058
-9.3702 -22.3987 -1.7802 0.9072
-8.4406 -22.4013 -1.7552 0.9085
-7.5340 -22.3988 -1.7327 0.9096
-4.8626 -22.0711 -1.6571 0.9133
-4.0390 -22.0734 -1.6453 0.9139
-3.2749 -22.4107 -1.6607 0.9132
-2.4580 -22.4129 -1.6532 0.9135
0.7381 -21.5361 -1.5800 0.9172
2.6687 -25.0808 -1.8494 0.9038
4.4598 -24.8250 -1.8494 0.9038
5.3473 -24.6491 -1.8494 0.9038
6.2278 -24.4415 -1.8494 0.9038
8.6192 -25.9017 -2.0016 0.8963
10.4538 -25.2172 -2.0016 0.8963
2.2899 -4.1856 -0.3499 0.9810
13.9524 -23.4632 -2.0016 0.8963
14.7849 -22.9477 -2.0016 0.8963
15.5984 -22.4027 -2.0016 0.8963
16.3918 -21.8288 -2.0016 0.8963
17.1642 -21.2269 -2.0016 0.8963
17.9145 -20.5976 -2.0016 0.8963
18.6417 -19.9419 -2.0016 0.8963
19.3449 -19.2605 -2.0016 0.8963
20.0232 -18.5543 -2.0016 0.8963
21.3018 -17.0712 -2.0016 0.8963
21.9003 -16.2962 -2.0016 0.8963
22.4707 -15.5003 -2.0016 0.8963
24.0056 -12.9970 -2.0016 0.8963
24.8755 -11.2428 -2.0016 0.8963
25.2627 -10.3434 -2.0016 0.8963
25.6174 -9.4307 -2.0016 0.8963
25.9392 -8.5058 -2.0016 0.8963
26.2276 -7.5701 -2.0016 0.8963
26.4822 -6.6246 -2.0016 0.8963
27.1573 -2.7696 -2.0016 0.8963
27.2392 -1.7938 -2.0016 0.8963
27.1222 3.0946 -2.0016 0.8963
26.9938 4.0653 -2.0016 0.8963
26.1350 7.8836 -2.0016 0.8963
25.8355 8.8159 -2.0016 0.8963
25.5027 9.7368 -2.0016 0.8963
24.3093 12.4197 -2.0016 0.8963
23.8482 13.2836 -2.0016 0.8963
23.3565 14.1303 -2.0016 0.8963
22.2835 15.7683 -2.0016 0.8963
20.4609 18.0705 -2.0016 0.8963
18.4016 20.1637 -2.0016 0.8963
16.1293 22.0235 -2.0016 0.8963
14.5091 23.1231 -2.0016 0.8963
13.6704 23.6286 -2.0016 0.8963
7.4764 16.8829 -1.3538 0.9286
9.2357 25.6884 -2.0016 0.8963
3.2683 13.5002 -1.0185 0.9458
2.7119 13.2660 -0.9928 0.9471
1.1560 12.2572 -0.9027 0.9518
0.7071 12.1451 -0.8920 0.9524
0.2715 12.1812 -0.8934 0.9523
-0.1639 12.0575 -0.8842 0.9528
-0.5998 12.1175 -0.8896 0.9525
-1.4491 11.8973 -0.8788 0.9531
-2.3705 12.1327 -0.9064 0.9516
-3.6881 11.8987 -0.9134 0.9513
-4.1550 11.8804 -0.9228 0.9508
-5.1440 11.8942 -0.9502 0.9494
-9.2023 11.8743 -1.1015 0.9415
-9.8917 11.8596 -1.1323 0.9399
-12.4574 12.0315 -1.2699 0.9329
-13.7599 11.5022 -1.3150 0.9306
-15.9746 11.5138 -1.4438 0.9241
-17.2592 11.5222 -1.5216 0.9201
-18.6920 11.5316 -1.6104 0.9157
-22.7643 10.8607 -1.8494 0.9038
-23.4843 9.2009 -1.8494 0.9038
-23.7992 8.3527 -1.8494 0.9038
-26.5798 6.2212 -2.0016 0.8963
-26.7858 5.2639 -2.0016 0.8963
-27.0531 3.3252 -1.9985 0.8964
-27.1963 2.3564 -2.0016 0.8963
-27.2633 1.3795 -2.0016 0.8963
-27.2952 0.4008 -2.0016 0.8963
-27.2537 -1.5569 -2.0016 0.8963
-25.1165 -3.2532 -1.8570 0.9034
-24.9837 -4.1519 -1.8570 0.9034
-24.8670 -5.0551 -1.8606 0.9032
-26.5388 -6.3940 -2.0016 0.8963
-26.0121 -8.2800 -2.0016 0.8963
-25.3517 -10.1234 -2.0016 0.8963
-24.5608 -11.9146 -2.0016 0.8963
-24.1177 -12.7878 -2.0016 0.8963
-1.9952 -19.1595 -1.8494 0.9255
-1.3068 -19.2188 -1.8494 0.9255
2.1429 -19.1436 -1.8494 0.9255
3.5096 -18.9407 -1.8494 0.9255
4.1867 -18.8027 -1.8494 0.9255
4.8606 -18.6491 -1.8502 0.9255
5.9055 -19.7296 -1.9772 0.9206
8.0891 -19.2153 -2.0016 0.9196
2.3257 -4.1964 -0.4606 0.9809
11.3874 -17.4639 -2.0016 0.9196
14.3203 -15.1522 -2.0016 0.9196
14.8545 -14.6288 -2.0016 0.9196
15.3696 -14.0867 -2.0016 0.9196
15.8650 -13.5264 -2.0016 0.9196
16.3399 -12.9487 -2.0016 0.9196
17.2260 -11.7441 -2.0016 0.9196
18.0236 -10.4790 -2.0016 0.9196
18.3879 -9.8259 -2.0016 0.9196
19.3369 -7.7940 -2.0016 0.9196
19.8458 -6.3878 -2.0016 0.9196
20.2527 -4.9487 -2.0016 0.9196
20.4171 -4.2192 -2.0016 0.9196
20.5553 -3.4842 -2.0016 0.9196
20.6670 -2.7447 -2.0016 0.9196
20.7522 -2.0018 -2.0016 0.9196
20.8106 -1.2562 -2.0016 0.9196
20.8423 -0.5090 -2.0016 0.9196
20.8252 0.9863 -2.0016 0.9196
20.4701 3.9542 -2.0016 0.9196
20.1340 5.4114 -2.0016 0.9196
19.9269 6.1300 -2.0016 0.9196
19.1532 8.2349 -2.0016 0.9196
18.5136 9.5867 -2.0016 0.9196
16.5063 12.7358 -2.0016 0.9196
15.5509 13.8863 -2.0016 0.9196
15.0429 14.4351 -2.0016 0.9196
13.4054 15.9673 -2.0016 0.9196
12.8241 16.4378 -2.0016 0.9196
12.2263 16.8872 -2.0016 0.9196
10.9843 17.7202 -2.0016 0.9196
7.7036 17.6558 -1.8494 0.9255
7.0653 17.9207 -1.8494 0.9255
5.7625 18.3811 -1.8494 0.9255
3.6759 13.3899 -1.3331 0.9457
3.1008 13.1216 -1.2944 0.9473
2.6748 13.4590 -1.3174 0.9464
1.0910 12.2870 -1.1843 0.9516
0.2025 12.0381 -1.1559 0.9528
-1.0746 11.8022 -1.1378 0.9535
-1.5012 11.7876 -1.1408 0.9534
-2.3942 11.9076 -1.1661 0.9524
-2.8717 12.0318 -1.1876 0.9515
-3.2900 11.8800 -1.1835 0.9517
-3.7175 11.7657 -1.1846 0.9516
-4.2532 11.9509 -1.2178 0.9503
-5.2070 11.8616 -1.2437 0.9493
-7.2425 11.6255 -1.3150 0.9464
-7.7231 11.4597 -1.3267 0.9460
-8.3389 11.4637 -1.3610 0.9446
-8.9882 11.4680 -1.3989 0.9431
-9.6757 11.4725 -1.4408 0.9415
-10.4066 11.4773 -1.4874 0.9396
-11.1873 11.4824 -1.5391 0.9376
-12.0254 11.4879 -1.5966 0.9354
-12.9299 11.4938 -1.6609 0.9328
-14.9834 11.5073 -1.8138 0.9269
-16.4494 10.0243 -1.8494 0.9255
-16.7983 9.4279 -1.8494 0.9255
-17.1257 8.8194 -1.8494 0.9255
-19.4531 7.4991 -2.0016 0.9196
-19.9407 6.0854 -2.0016 0.9196
-20.3255 4.6403 -2.0016 0.9196
-20.4789 3.9083 -2.0016 0.9196
-20.6059 3.1713 -2.0016 0.9196
-20.7064 2.4303 -2.0016 0.9196
-20.7802 1.6861 -2.0016 0.9196
-20.8476 0.1921 -2.0016 0.9196
-20.8078 -1.3028 -2.0016 0.9196
-20.5475 -3.5303 -2.0016 0.9196
-20.4076 -4.2649 -2.0016 0.9196
-20.0494 -5.7168 -2.0016 0.9196
-19.8314 -6.4322 -2.0016 0.9196
-19.3193 -7.8373 -2.0016 0.9196
-19.0258 -8.5251 -2.0016 0.9196
-18.7079 -9.2020 -2.0016 0.9196
-17.6112 -11.1582 -2.0016 0.9196
-16.7661 -12.3919 -2.0016 0.9196
-16.3108 -12.9852 -2.0016 0.9196
-15.3380 -14.1211 -2.0016 0.9196
-14.2863 -15.1842 -2.0016 0.9196
-12.2281 -16.1750 -1.9467 0.9218
-10.5084 -16.1951 -1.8534 0.9254
-9.8990 -16.5251 -1.8494 0.9255
-8.0667 -17.4928 -1.8494 0.9255
-7.4342 -17.7708 -1.8494 0.9255
-6.7921 -18.0260 -1.8494 0.9255
-6.1412 -18.2580 -1.8494 0.9255
-4.8166 -18.6513 -1.8494 0.9255
-3.4672 -18.9486 -1.8494 0.9255
-2.1000 -19.1484 -1.8494 0.9255
-1.4119 -19.2114 -1.8494 0.9255
-0.7219 -19.2496 -1.8494 0.9255
-0.0311 -19.2631 -1.8494 0.9255
2.7238 -19.0696 -1.8494 0.9255
3.4060 -18.9597 -1.8494 0.9255
5.7300 -19.5313 -1.9541 0.9215
6.5828 -19.7820 -2.0016 0.9196
8.6695 -18.9605 -2.0016 0.9196
11.2917 -17.5259 -2.0016 0.9196
12.5190 -16.6714 -2.0016 0.9196
13.1089 -16.2117 -2.0016 0.9196
13.6819 -15.7311 -2.0016 0.9196
14.2373 -15.2303 -2.0016 0.9196
14.7743 -14.7098 -2.0016 0.9196
15.2924 -14.1705 -2.0016 0.9196
15.7908 -13.6129 -2.0016 0.9196
16.7260 -12.4459 -2.0016 0.9196
17.1616 -11.8381 -2.0016 0.9196
17.5751 -11.2150 -2.0016 0.9196
18.3338 -9.9262 -2.0016 0.9196
19.8106 -6.4962 -2.0016 0.9196
20.3937 -4.3308 -2.0016 0.9196
20.6517 -2.8577 -2.0016 0.9196
20.8034 -1.3700 -2.0016 0.9196
20.8392 -0.6230 -2.0016 0.9196
20.6160 3.1048 -2.0016 0.9196
20.4914 3.8422 -2.0016 0.9196
20.1633 5.3012 -2.0016 0.9196
19.9602 6.0210 -2.0016 0.9196
19.7314 6.7330 -2.0016 0.9196
19.4772 7.4363 -2.0016 0.9196
18.5658 9.4853 -2.0016 0.9196
17.8381 10.7918 -2.0016 0.9196
16.5757 12.6453 -2.0016 0.9196
15.6266 13.8010 -2.0016 0.9196
14.5971 14.8857 -2.0016 0.9196
11.7073 17.2511 -2.0016 0.9196
10.4405 18.0459 -2.0016 0.9196
7.4516 16.8268 -1.7668 0.9287
6.5172 18.1272 -1.8494 0.9255
5.8629 18.3493 -1.8494 0.9255
3.7661 13.4307 -1.3391 0.9455
3.2227 13.3123 -1.3150 0.9464
2.7203 13.3072 -1.3040 0.9469
1.6553 12.6706 -1.2268 0.9499
1.1885 12.6026 -1.2153 0.9504
0.7004 12.0289 -1.1568 0.9527
-3.2044 11.8219 -1.1759 0.9520
-6.2781 12.0610 -1.3054 0.9468
-7.6319 11.4591 -1.3218 0.9462
-8.2430 11.4631 -1.3555 0.9448
-8.8869 11.4673 -1.3928 0.9434
-9.5682 11.4718 -1.4342 0.9417
-10.2921 11.4765 -1.4800 0.9399
-11.0648 11.4816 -1.5308 0.9379
-11.8937 11.4870 -1.5875 0.9357
-14.8136 11.5062 -1.8008 0.9274
-16.0210 10.6956 -1.8494 0.9255
-16.3943 10.1141 -1.8494 0.9255
-16.7465 9.5196 -1.8494 0.9255
-17.0772 8.9129 -1.8494 0.9255
-19.9071 6.1943 -2.0016 0.9196
-20.2999 4.7514 -2.0016 0.9196
-20.6928 2.5434 -2.0016 0.9196
-20.8219 1.0536 -2.0016 0.9196
-20.8438 -0.4418 -2.0016 0.9196
-20.8146 -1.1890 -2.0016 0.9196
-20.7585 -1.9348 -2.0016 0.9196
-20.6758 -2.6780 -2.0016 0.9196
-20.4306 -4.1533 -2.0016 0.9196
-20.2685 -4.8833 -2.0016 0.9196
-19.8663 -6.3237 -2.0016 0.9196
-19.6267 -7.0321 -2.0016 0.9196
-19.3619 -7.7315 -2.0016 0.9196
-19.0722 -8.4209 -2.0016 0.9196
-18.7579 -9.0996 -2.0016 0.9196
-18.4195 -9.7665 -2.0016 0.9196
-18.0573 -10.4209 -2.0016 0.9196
-17.6720 -11.0617 -2.0016 0.9196
-1.1007 -16.1875 -1.9273 0.9367
-0.5197 -16.2249 -1.9283 0.9367
0.0628 -16.2976 -1.9359 0.9365
0.6522 -16.4089 -1.9507 0.9360
3.0700 -16.5681 -2.0016 0.9344
3.6622 -16.4474 -2.0016 0.9344
4.2498 -16.3054 -2.0016 0.9344
4.8318 -16.1425 -2.0016 0.9344
7.0905 -15.2857 -2.0016 0.9344
8.6914 -14.4356 -2.0016 0.9344
11.1273 -12.6535 -2.0016 0.9344
11.5739 -12.2463 -2.0016 0.9344
12.8224 -10.9323 -2.0016 0.9344
13.2062 -10.4654 -2.0016 0.9344
13.9224 -9.4918 -2.0016 0.9344
14.2539 -8.9863 -2.0016 0.9344
14.5670 -8.4693 -2.0016 0.9344
14.8614 -7.9414 -2.0016 0.9344
15.3924 -6.8557 -2.0016 0.9344
15.6284 -6.2992 -2.0016 0.9344
16.6132 -2.8160 -2.0016 0.9344
16.7723 -1.6179 -2.0016 0.9344
16.8195 -1.0153 -2.0016 0.9344
16.8451 -0.4114 -2.0016 0.9344
16.8313 0.7972 -2.0016 0.9344
16.7919 1.4003 -2.0016 0.9344
16.7308 2.0017 -2.0016 0.9344
16.6483 2.6004 -2.0016 0.9344
15.9173 5.5288 -2.0016 0.9344
15.7088 6.0961 -2.0016 0.9344
15.4800 6.6556 -2.0016 0.9344
15.2313 7.2065 -2.0016 0.9344
14.3692 8.8008 -2.0016 0.9344
13.7013 9.8082 -2.0016 0.9344
13.3407 10.2933 -2.0016 0.9344
12.9630 10.7652 -2.0016 0.9344
12.5685 11.2232 -2.0016 0.9344
10.8345 12.9051 -2.0016 0.9344
10.3647 13.2854 -2.0016 0.9344
9.8815 13.6485 -2.0016 0.9344
8.8777 14.3218 -2.0016 0.9344
5.7103 14.4838 -1.8494 0.9392
5.1872 14.6793 -1.8494 0.9392
4.6574 14.8559 -1.8494 0.9392
3.6759 13.3899 -1.6494 0.9456
2.5611 12.8871 -1.5607 0.9485
-0.2217 11.6319 -1.3820 0.9542
-0.6275 11.4132 -1.3578 0.9550
-1.0394 11.4159 -1.3617 0.9549
-1.4542 11.4186 -1.3673 0.9547
-2.2970 11.4242 -1.3842 0.9541
-3.1653 11.4298 -1.4088 0.9533
-4.5394 11.4388 -1.4619 0.9516
-5.0229 11.4420 -1.4843 0.9509
-6.0391 11.4487 -1.5375 0.9492
-6.5765 11.4522 -1.5687 0.9482
-7.1368 11.4559 -1.6033 0.9471
-8.9882 11.4680 -1.7308 0.9430
-9.6757 11.4725 -1.7827 0.9413
-10.8646 11.1512 -1.8494 0.9392
-11.2576 10.7544 -1.8494 0.9392
-11.6360 10.3437 -1.8494 0.9392
-12.6797 9.0340 -1.8494 0.9392
-14.6402 8.2167 -1.9942 0.9346
-15.2475 7.1724 -2.0016 0.9344
-15.4949 6.6209 -2.0016 0.9344
-15.7224 6.0609 -2.0016 0.9344
-16.4275 3.7504 -2.0016 0.9344
-16.5514 3.1588 -2.0016 0.9344
-16.6541 2.5631 -2.0016 0.9344
-16.7353 1.9642 -2.0016 0.9344
-16.7950 1.3627 -2.0016 0.9344
-16.8330 0.7595 -2.0016 0.9344
-16.8494 0.1553 -2.0016 0.9344
-16.8172 -1.0530 -2.0016 0.9344
-16.6985 -2.2558 -2.0016 0.9344
-16.4938 -3.4470 -2.0016 0.9344
-16.3596 -4.0363 -2.0016 0.9344
-16.2043 -4.6205 -2.0016 0.9344
-15.6143 -6.3342 -2.0016 0.9344
-14.8436 -7.9747 -2.0016 0.9344
-14.2337 -9.0183 -2.0016 0.9344
-13.5506 -10.0154 -2.0016 0.9344
-12.3965 -11.4129 -2.0016 0.9344
-11.9792 -11.8502 -2.0016 0.9344
-10.1615 -13.4414 -2.0016 0.9344
-9.6729 -13.7972 -2.0016 0.9344
-8.1350 -14.7563 -2.0016 0.9344
-7.0563 -15.3015 -2.0016 0.9344
-6.5029 -15.5448 -2.0016 0.9344
-5.3617 -15.9406 -1.9978 0.9345
-4.1753 -16.1681 -1.9836 0.9349
-2.9595 -16.1738 -1.9531 0.9359
-1.7742 -16.1775 -1.9332 0.9365
-1.1895 -16.1849 -1.9277 0.9367
-0.6082 -16.2176 -1.9278 0.9367
2.9794 -16.5847 -2.0016 0.9344
4.1605 -16.3284 -2.0016 0.9344
4.7435 -16.1687 -2.0016 0.9344
5.3203 -15.9882 -2.0016 0.9344
7.0068 -15.3242 -2.0016 0.9344
7.5519 -15.0631 -2.0016 0.9344
8.6123 -14.4830 -2.0016 0.9344
9.6283 -13.8283 -2.0016 0.9344
10.1181 -13.4741 -2.0016 0.9344
10.5948 -13.1026 -2.0016 0.9344
11.0579 -12.7142 -2.0016 0.9344
11.5068 -12.3094 -2.0016 0.9344
11.9409 -11.8888 -2.0016 0.9344
12.7624 -11.0022 -2.0016 0.9344
13.5182 -10.0591 -2.0016 0.9344
14.5205 -8.5489 -2.0016 0.9344
15.5937 -6.3846 -2.0016 0.9344
16.0113 -5.2503 -2.0016 0.9344
16.1893 -4.6727 -2.0016 0.9344
16.3465 -4.0891 -2.0016 0.9344
16.4826 -3.5002 -2.0016 0.9344
16.6911 -2.3097 -2.0016 0.9344
16.7632 -1.7095 -2.0016 0.9344
16.8137 -1.1072 -2.0016 0.9344
16.8499 0.1009 -2.0016 0.9344
16.8354 0.7052 -2.0016 0.9344
16.7415 1.9102 -2.0016 0.9344
16.5615 3.1053 -2.0016 0.9344
16.4395 3.6973 -2.0016 0.9344
16.2963 4.2845 -2.0016 0.9344
16.1322 4.8663 -2.0016 0.9344
15.9473 5.4417 -2.0016 0.9344
15.7418 6.0102 -2.0016 0.9344
15.5162 6.5709 -2.0016 0.9344
15.2705 7.1231 -2.0016 0.9344
15.0052 7.6662 -2.0016 0.9344
14.4171 8.7221 -2.0016 0.9344
13.7548 9.7332 -2.0016 0.9344
13.3968 10.2202 -2.0016 0.9344
13.0217 10.6941 -2.0016 0.9344
12.6297 11.1543 -2.0016 0.9344
11.3586 12.4463 -2.0016 0.9344
10.9049 12.8457 -2.0016 0.9344
10.4372 13.2285 -2.0016 0.9344
9.4621 13.9426 -2.0016 0.9344
8.9559 14.2730 -2.0016 0.9344
7.3083 13.7469 -1.8494 0.9392
6.8105 14.0002 -1.8494 0.9392
6.3040 14.2355 -1.8494 0.9392
5.7894 14.4524 -1.8494 0.9392
3.7661 13.4307 -1.6569 0.9454
3.1883 13.1700 -1.6096 0.9469
2.6419 12.9235 -1.5669 0.9483
2.1231 12.6895 -1.5283 0.9495
1.1555 12.2531 -1.4620 0.9516
0.7015 12.0483 -1.4336 0.9525
0.2641 11.8510 -1.4081 0.9534
-0.1585 11.6604 -1.3852 0.9541
-0.5650 11.4128 -1.3573 0.9550
-0.9765 11.4155 -1.3610 0.9549
-1.3908 11.4182 -1.3663 0.9547
-1.8089 11.4210 -1.3736 0.9545
-2.6613 11.4265 -1.3936 0.9538
-3.0980 11.4294 -1.4066 0.9534
-3.5436 11.4323 -1.4217 0.9529
-5.4449 11.4448 -1.5055 0.9502
-5.9591 11.4481 -1.5331 0.9493
-6.4932 11.4516 -1.5637 0.9484
-8.2430 11.4631 -1.6772 0.9447
-10.2921 11.4765 -1.8311 0.9398
-11.1986 10.8158 -1.8494 0.9392
-11.9451 9.9852 -1.8494 0.9392
-15.4585 6.7055 -2.0016 0.9344
-15.8994 5.5802 -2.0016 0.9344
-16.0893 5.0064 -2.0016 0.9344
-16.4067 3.8401 -2.0016 0.9344
-16.6398 2.6542 -2.0016 0.9344
-16.8464 -0.3570 -2.0016 0.9344
-16.6222 -2.7624 -2.0016 0.9344
-16.3814 -3.9468 -2.0016 0.9344
-16.2293 -4.5318 -2.0016 0.9344
-15.4145 -6.8060 -2.0016 0.9344
-15.1605 -7.3544 -2.0016 0.9344
-14.8870 -7.8934 -2.0016 0.9344
-14.2828 -8.9403 -2.0016 0.9344
-1.4632 -14.0504 -2.0016 0.9445
-0.9583 -14.0939 -2.0016 0.9445
-0.4522 -14.1192 -2.0016 0.9445
0.0544 -14.1263 -2.0016 0.9445
0.5610 -14.1153 -2.0016 0.9445
1.0669 -14.0861 -2.0016 0.9445
2.5737 -13.8900 -2.0016 0.9445
3.0703 -13.7887 -2.0016 0.9445
4.5335 -13.3792 -2.0016 0.9445
5.0105 -13.2080 -2.0016 0.9445
5.9444 -12.8148 -2.0016 0.9445
2.1899 -4.3089 -0.6848 0.9807
2.3256 -4.1963 -0.6798 0.9808
7.2864 -12.1022 -2.0016 0.9445
7.7158 -11.8331 -2.0016 0.9445
8.1352 -11.5487 -2.0016 0.9445
8.5442 -11.2495 -2.0016 0.9445
9.7031 -10.2667 -2.0016 0.9445
10.0650 -9.9121 -2.0016 0.9445
10.4141 -9.5448 -2.0016 0.9445
11.3790 -8.3710 -2.0016 0.9445
12.2123 -7.1003 -2.0016 0.9445
12.6899 -6.2066 -2.0016 0.9445
12.9043 -5.7475 -2.0016 0.9445
13.1022 -5.2810 -2.0016 0.9445
13.4470 -4.3282 -2.0016 0.9445
13.5936 -3.8431 -2.0016 0.9445
14.0611 -1.3563 -2.0016 0.9445
14.1007 -0.8512 -2.0016 0.9445
14.1222 -0.3449 -2.0016 0.9445
14.1255 0.1618 -2.0016 0.9445
14.0775 1.1740 -2.0016 0.9445
13.9572 2.1801 -2.0016 0.9445
13.7650 3.1750 -2.0016 0.9445
13.6423 3.6666 -2.0016 0.9445
13.5020 4.1535 -2.0016 0.9445
13.3443 4.6351 -2.0016 0.9445
12.9777 5.5798 -2.0016 0.9445
12.7693 6.0416 -2.0016 0.9445
12.5444 6.4957 -2.0016 0.9445
12.0465 7.3782 -2.0016 0.9445
11.4866 8.2228 -2.0016 0.9445
10.1927 9.7808 -2.0016 0.9445
9.0831 10.8190 -2.0016 0.9445
8.6893 11.1379 -2.0016 0.9445
8.2842 11.4423 -2.0016 0.9445
7.8685 11.7321 -2.0016 0.9445
6.4744 11.3332 -1.8494 0.9486
6.0638 11.5581 -1.8494 0.9486
4.3487 12.3065 -1.8494 0.9486
2.5442 12.8019 -1.8494 0.9486
1.0852 12.2214 -1.7384 0.9516
0.6338 12.0178 -1.7052 0.9525
-0.6275 11.4132 -1.6196 0.9549
-1.1124 8.7347 -1.2476 0.9651
-1.8730 11.4214 -1.6399 0.9543
-2.7273 11.4270 -1.6646 0.9536
-4.5394 11.4388 -1.7437 0.9515
-5.0229 11.4420 -1.7705 0.9508
-5.5220 11.4453 -1.8006 0.9500
-6.9016 11.0783 -1.8494 0.9486
-9.1084 9.3487 -1.8494 0.9486
-9.7551 8.6717 -1.8494 0.9486
-10.0599 8.3162 -1.8494 0.9486
-12.0630 7.3512 -2.0016 0.9445
-12.3188 6.9138 -2.0016 0.9445
-12.7828 6.0130 -2.0016 0.9445
-12.9902 5.5507 -2.0016 0.9445
-13.1809 5.0812 -2.0016 0.9445
-13.3547 4.6052 -2.0016 0.9445
-13.6504 3.6361 -2.0016 0.9445
-13.7721 3.1441 -2.0016 0.9445
-14.0801 1.1424 -2.0016 0.9445
-14.1121 0.6367 -2.0016 0.9445
-14.1258 0.1302 -2.0016 0.9445
-14.0988 -0.8828 -2.0016 0.9445
-14.0581 -1.3878 -2.0016 0.9445
-13.9992 -1.8911 -2.0016 0.9445
-13.9224 -2.3920 -2.0016 0.9445
-12.8288 -2.6810 -1.8570 0.9484
-12.7244 -3.1394 -1.8570 0.9484
-12.6037 -3.5938 -1.8570 0.9484
-12.4667 -4.0435 -1.8570 0.9484
-11.9602 -5.3591 -1.8570 0.9484
-12.6760 -6.2350 -2.0016 0.9445
-12.4442 -6.6856 -2.0016 0.9445
-12.1964 -7.1277 -2.0016 0.9445
-11.9329 -7.5605 -2.0016 0.9445
-11.0518 -8.7985 -2.0016 0.9445
-10.7291 -9.1892 -2.0016 0.9445
-9.6800 -10.2884 -2.0016 0.9445
-9.3048 -10.6290 -2.0016 0.9445
-8.5190 -11.2687 -2.0016 0.9445
-8.1093 -11.5669 -2.0016 0.9445
-7.6893 -11.8503 -2.0016 0.9445
-6.8200 -12.3710 -2.0016 0.9445
-6.3719 -12.6077 -2.0016 0.9445
-5.9156 -12.8281 -2.0016 0.9445
-5.4518 -13.0320 -2.0016 0.9445
-4.0205 -13.5422 -2.0016 0.9445
-3.5322 -13.6777 -2.0016 0.9445
-3.0394 -13.7956 -2.0016 0.9445
-2.5426 -13.8957 -2.0016 0.9445
-0.5294 -14.1165 -2.0016 0.9445
0.4839 -14.1181 -2.0016 0.9445
1.9975 -13.9845 -2.0016 0.9445
2.4978 -13.9038 -2.0016 0.9445
4.4603 -13.4038 -2.0016 0.9445
4.9382 -13.2352 -2.0016 0.9445
5.8742 -12.8471 -2.0016 0.9445
6.3312 -12.6282 -2.0016 0.9445
2.2899 -4.1856 -0.6760 0.9809
7.2202 -12.1419 -2.0016 0.9445
7.6510 -11.8751 -2.0016 0.9445
8.0719 -11.5931 -2.0016 0.9445
8.4825 -11.2961 -2.0016 0.9445
9.6468 -10.3196 -2.0016 0.9445
10.3617 -9.6016 -2.0016 0.9445
11.0233 -8.8341 -2.0016 0.9445
11.9084 -7.5990 -2.0016 0.9445
12.8727 -5.8180 -2.0016 0.9445
13.2566 -4.8802 -2.0016 0.9445
13.4231 -4.4016 -2.0016 0.9445
13.5724 -3.9174 -2.0016 0.9445
13.9146 -2.4369 -2.0016 0.9445
13.9931 -1.9363 -2.0016 0.9445
14.0535 -1.4332 -2.0016 0.9445
14.0959 -0.9283 -2.0016 0.9445
14.1262 0.0846 -2.0016 0.9445
14.0837 1.0970 -2.0016 0.9445
13.8844 2.6034 -2.0016 0.9445
13.6621 3.5920 -2.0016 0.9445
13.0080 5.5087 -2.0016 0.9445
12.8021 5.9717 -2.0016 0.9445
12.5797 6.4270 -2.0016 0.9445
12.3411 6.8740 -2.0016 0.9445
11.2313 8.5682 -2.0016 0.9445
10.9168 8.9655 -2.0016 0.9445
10.2460 9.7250 -2.0016 0.9445
9.5225 10.4344 -2.0016 0.9445
8.7500 11.0902 -2.0016 0.9445
7.9326 11.6889 -2.0016 0.9445
7.5082 11.9659 -2.0016 0.9445
6.7786 11.7164 -1.9179 0.9468
4.8536 12.1162 -1.8494 0.9486
4.4159 12.2825 -1.8494 0.9486
3.9726 12.4330 -1.8494 0.9486
3.5241 12.5675 -1.8494 0.9486
2.1231 12.6895 -1.8230 0.9494
1.6286 12.4665 -1.7814 0.9505
1.1555 12.2531 -1.7438 0.9515
0.7015 12.0483 -1.7100 0.9524
0.2641 11.8510 -1.6796 0.9532
-0.1585 11.6604 -1.6523 0.9540
-0.9765 11.4155 -1.6234 0.9548
-1.0868 8.9222 -1.2735 0.9643
-1.8089 11.4210 -1.6384 0.9544
-2.2320 11.4237 -1.6492 0.9541
-2.6613 11.4265 -1.6623 0.9537
-3.0980 11.4294 -1.6779 0.9533
-3.9994 11.4353 -1.7165 0.9522
-4.4670 11.4384 -1.7399 0.9516
-5.9591 11.4481 -1.8287 0.9492
-6.4378 11.3541 -1.8494 0.9486
-6.8409 11.1159 -1.8494 0.9486
-7.2352 10.8634 -1.8494 0.9486
-7.9953 10.3168 -1.8494 0.9486
-8.3601 10.0234 -1.8494 0.9486
-8.7143 9.7171 -1.8494 0.9486
-9.0572 9.3983 -1.8494 0.9486
-10.0142 8.3711 -1.8494 0.9486
-10.6207 8.2494 -1.9054 0.9471
-11.7432 7.8397 -2.0006 0.9446
-12.2809 6.9811 -2.0016 0.9445
-12.7497 6.0828 -2.0016 0.9445
-13.1529 5.1532 -2.0016 0.9445
-13.3293 4.6782 -2.0016 0.9445
-13.6304 3.7106 -2.0016 0.9445
-13.7547 3.2194 -2.0016 0.9445
-13.8613 2.7240 -2.0016 0.9445
-14.1249 0.2074 -2.0016 0.9445
-14.1232 -0.2993 -2.0016 0.9445
-14.1034 -0.8056 -2.0016 0.9445
-14.0654 -1.3109 -2.0016 0.9445
-14.0094 -1.8146 -2.0016 0.9445
-13.9353 -2.3158 -2.0016 0.9445
-13.8433 -2.8141 -2.0016 0.9445
-12.7414 -3.0698 -1.8570 0.9484
-12.4886 -3.9753 -1.8570 0.9484
-12.3380 -4.4206 -1.8570 0.9484
-11.9893 -5.2937 -1.8570 0.9484
-12.7099 -6.1656 -2.0016 0.9445
-12.4805 -6.6175 -2.0016 0.9445
-1.2585 -12.0845 -2.0016 0.9519
-0.3890 -12.1436 -2.0016 0.9519
0.0468 -12.1498 -2.0016 0.9519
0.4825 -12.1403 -2.0016 0.9519
1.3516 -12.0745 -2.0016 0.9519
2.2136 -11.9465 -2.0016 0.9519
3.8992 -11.5072 -2.0016 0.9519
4.3094 -11.3599 -2.0016 0.9519
6.2669 -10.4089 -2.0016 0.9519
7.3487 -9.6755 -2.0016 0.9519
8.0234 -9.1239 -2.0016 0.9519
8.3454 -8.8302 -2.0016 0.9519
8.6568 -8.5252 -2.0016 0.9519
8.9570 -8.2093 -2.0016 0.9519
9.7869 -7.1997 -2.0016 0.9519
10.0388 -6.8441 -2.0016 0.9519
10.2778 -6.4796 -2.0016 0.9519
10.7159 -5.7262 -2.0016 0.9519
10.9144 -5.3382 -2.0016 0.9519
11.2689 -4.5421 -2.0016 0.9519
11.8026 -2.8840 -2.0016 0.9519
11.9790 -2.0305 -2.0016 0.9519
12.0441 -1.5996 -2.0016 0.9519
12.1278 -0.7321 -2.0016 0.9519
12.0638 1.4433 -2.0016 0.9519
12.0043 1.8750 -2.0016 0.9519
11.9293 2.3044 -2.0016 0.9519
11.6128 3.5724 -2.0016 0.9519
11.4772 3.9866 -2.0016 0.9519
11.1619 4.7991 -2.0016 0.9519
10.9826 5.1963 -2.0016 0.9519
10.5819 5.9702 -2.0016 0.9519
10.1267 6.7134 -2.0016 0.9519
9.8794 7.0723 -2.0016 0.9519
8.4592 8.7213 -2.0016 0.9519
7.8123 9.3053 -2.0016 0.9519
7.4735 9.5795 -2.0016 0.9519
6.7676 10.0905 -2.0016 0.9519
6.4013 10.3268 -2.0016 0.9519
5.2562 10.0188 -1.8638 0.9552
4.8555 10.1216 -1.8494 0.9555
4.4894 10.2893 -1.8494 0.9555
4.1174 10.4436 -1.8494 0.9555
3.7402 10.5846 -1.8494 0.9555
3.3582 10.7119 -1.8494 0.9555
1.3933 11.1392 -1.8494 0.9555
0.9929 11.1820 -1.8494 0.9555
0.1888 11.2244 -1.8494 0.9555
-0.2139 11.2240 -1.8494 0.9555
-1.0179 11.1797 -1.8494 0.9555
-1.1092 8.7093 -1.4464 0.9650
-1.8167 11.0780 -1.8494 0.9555
-2.2129 11.0057 -1.8494 0.9555
-5.2376 9.9293 -1.8494 0.9555
-5.5904 9.7350 -1.8494 0.9555
-6.2738 9.3092 -1.8494 0.9555
-6.6037 9.0782 -1.8494 0.9555
-6.9250 8.8356 -1.8494 0.9555
-7.2374 8.5815 -1.8494 0.9555
-7.5406 8.3164 -1.8494 0.9555
-8.6239 8.2384 -1.9648 0.9528
-9.6360 7.4005 -2.0016 0.9519
-9.8952 7.0501 -2.0016 0.9519
-10.1417 6.6907 -2.0016 0.9519
-10.9942 5.1717 -2.0016 0.9519
-11.4861 3.9609 -2.0016 0.9519
-11.6208 3.5464 -2.0016 0.9519
-11.7405 3.1273 -2.0016 0.9519
-11.8451 2.7042 -2.0016 0.9519
-11.9345 2.2777 -2.0016 0.9519
-12.0085 1.8482 -2.0016 0.9519
-12.1101 0.9826 -2.0016 0.9519
-12.1494 0.1120 -2.0016 0.9519
-12.1456 -0.3238 -2.0016 0.9519
-11.9744 -2.0573 -2.0016 0.9519
-10.8402 -3.0909 -1.8570 0.9553
-10.5907 -3.8601 -1.8570 0.9553
-10.4455 -4.2374 -1.8570 0.9553
-10.2868 -4.6093 -1.8570 0.9553
-10.1148 -4.9753 -1.8570 0.9553
-10.4899 -6.1304 -2.0016 0.9519
-10.2633 -6.5026 -2.0016 0.9519
-9.7708 -7.2216 -2.0016 0.9519
-8.9385 -8.2293 -2.0016 0.9519
-8.6377 -8.5446 -2.0016 0.9519
-8.0029 -9.1418 -2.0016 0.9519
-7.3270 -9.6920 -2.0016 0.9519
-5.4804 -10.8437 -2.0016 0.9519
-4.6890 -11.2086 -2.0016 0.9519
-4.2840 -11.3696 -2.0016 0.9519
-3.8734 -11.5159 -2.0016 0.9519
-3.4579 -11.6474 -2.0016 0.9519
-3.0380 -11.7639 -2.0016 0.9519
-1.7568 -12.0222 -2.0016 0.9519
1.2855 -12.0817 -2.0016 0.9519
1.7180 -12.0278 -2.0016 0.9519
2.5758 -11.8737 -2.0016 0.9519
3.0000 -11.7737 -2.0016 0.9519
3.8362 -11.5283 -2.0016 0.9519
4.6528 -11.2237 -2.0016 0.9519
5.4453 -10.8613 -2.0016 0.9519
6.2099 -10.4430 -2.0016 0.9519
7.2957 -9.7156 -2.0016 0.9519
7.6394 -9.4477 -2.0016 0.9519
8.6100 -8.5724 -2.0016 0.9519
9.2024 -7.9332 -2.0016 0.9519
9.4810 -7.5980 -2.0016 0.9519
9.7474 -7.2531 -2.0016 0.9519
10.2422 -6.5357 -2.0016 0.9519
10.4701 -6.1642 -2.0016 0.9519
10.6844 -5.7847 -2.0016 0.9519
10.8850 -5.3978 -2.0016 0.9519
11.0716 -5.0039 -2.0016 0.9519
11.2439 -4.6036 -2.0016 0.9519
11.4018 -4.1974 -2.0016 0.9519
11.5450 -3.7858 -2.0016 0.9519
11.8849 -2.5238 -2.0016 0.9519
11.9677 -2.0960 -2.0016 0.9519
12.0352 -1.6654 -2.0016 0.9519
12.0872 -1.2327 -2.0016 0.9519
12.1497 0.0728 -2.0016 0.9519
12.0716 1.3773 -2.0016 0.9519
11.8538 2.6660 -2.0016 0.9519
11.7505 3.0894 -2.0016 0.9519
11.6322 3.5088 -2.0016 0.9519
11.3507 4.3336 -2.0016 0.9519
11.0109 5.1361 -2.0016 0.9519
10.1632 6.6579 -2.0016 0.9519
9.9179 7.0181 -2.0016 0.9519
9.6598 7.3693 -2.0016 0.9519
9.1067 8.0428 -2.0016 0.9519
8.8124 8.3643 -2.0016 0.9519
8.5068 8.6749 -2.0016 0.9519
7.8630 9.2624 -2.0016 0.9519
7.5258 9.5385 -2.0016 0.9519
6.4577 10.2916 -2.0016 0.9519
6.0711 10.4936 -1.9972 0.9520
5.3843 10.1280 -1.8896 0.9546
4.5456 10.2645 -1.8494 0.9555
4.1745 10.4210 -1.8494 0.9555
3.7981 10.5640 -1.8494 0.9555
3.4167 10.6934 -1.8494 0.9555
2.2484 10.9985 -1.8494 0.9555
1.4542 11.1314 -1.8494 0.9555
1.0540 11.1764 -1.8494 0.9555
0.6525 11.2070 -1.8494 0.9555
-0.1525 11.2250 -1.8494 0.9555
-0.9568 11.1851 -1.8494 0.9555
-1.3849 8.7442 -1.4585 0.9647
-2.9369 10.8350 -1.8494 0.9555
-4.0837 10.4569 -1.8494 0.9555
-5.1833 9.9577 -1.8494 0.9555
-6.2228 9.3434 -1.8494 0.9555
-6.8766 8.8733 -1.8494 0.9555
-7.4950 8.3575 -1.8494 0.9555
-9.0122 8.0999 -1.9962 0.9521
-10.1050 6.7460 -2.0016 0.9519
-10.9658 5.2317 -2.0016 0.9519
-11.4643 4.0236 -2.0016 0.9519
-11.7232 3.1915 -2.0016 0.9519
-12.0591 1.4822 -2.0016 0.9519
-12.1045 1.0488 -2.0016 0.9519
-12.1343 0.6140 -2.0016 0.9519
-12.1471 -0.2574 -2.0016 0.9519
-11.0573 -2.2478 -1.8588 0.9553
-10.8569 -3.0316 -1.8570 0.9553
-10.7412 -3.4191 -1.8570 0.9553
-10.6117 -3.8021 -1.8570 0.9553
-10.4685 -4.1802 -1.8570 0.9553
-10.1419 -4.9199 -1.8570 0.9553
-10.2987 -6.4464 -2.0016 0.9519
-0.3409 -10.6434 -2.0016 0.9576
0.4229 -10.6404 -2.0016 0.9576
0.8043 -10.6184 -2.0016 0.9576
1.1846 -10.5827 -2.0016 0.9576
1.5634 -10.5334 -2.0016 0.9576
2.3144 -10.3943 -2.0016 0.9576
2.6857 -10.3046 -2.0016 0.9576
3.0536 -10.2016 -2.0016 0.9576
4.1317 -9.8146 -2.0016 0.9576
4.4810 -9.6601 -2.0016 0.9576
6.4408 -8.4802 -2.0016 0.9576
7.0321 -7.9967 -2.0016 0.9576
7.3144 -7.7393 -2.0016 0.9576
8.5778 -6.3102 -2.0016 0.9576
9.0081 -5.6791 -2.0016 0.9576
9.2059 -5.3524 -2.0016 0.9576
9.3920 -5.0188 -2.0016 0.9576
9.8767 -3.9809 -2.0016 0.9576
10.1367 -3.2627 -2.0016 0.9576
10.4285 -2.1550 -2.0016 0.9576
10.4991 -1.7796 -2.0016 0.9576
10.5996 -1.0224 -2.0016 0.9576
10.6295 -0.6416 -2.0016 0.9576
10.6456 -0.2600 -2.0016 0.9576
10.6481 0.1220 -2.0016 0.9576
10.6120 0.8850 -2.0016 0.9576
10.5212 1.6434 -2.0016 0.9576
10.4555 2.0197 -2.0016 0.9576
10.3764 2.3934 -2.0016 0.9576
10.2839 2.7640 -2.0016 0.9576
10.0593 3.4941 -2.0016 0.9576
9.6258 4.5543 -2.0016 0.9576
9.2745 5.2326 -2.0016 0.9576
8.8756 5.8840 -2.0016 0.9576
8.1922 6.8033 -2.0016 0.9576
7.9430 7.0927 -2.0016 0.9576
6.2448 8.6255 -2.0016 0.9576
5.9315 8.8439 -2.0016 0.9576
4.5379 9.4595 -1.9720 0.9582
3.9946 9.1553 -1.8775 0.9602
3.6087 9.1534 -1.8494 0.9607
3.2781 9.2769 -1.8494 0.9607
2.6047 9.4880 -1.8494 0.9607
2.2627 9.5754 -1.8494 0.9607
1.5705 9.7129 -1.8494 0.9607
1.2212 9.7630 -1.8494 0.9607
0.8702 9.8005 -1.8494 0.9607
0.1654 9.8377 -1.8494 0.9607
-0.1875 9.8373 -1.8494 0.9607
-0.5402 9.8242 -1.8494 0.9607
-1.1063 8.6868 -1.6460 0.9650
-1.5923 9.7094 -1.8494 0.9607
-1.9395 9.6460 -1.8494 0.9607
-3.2989 9.2695 -1.8494 0.9607
-3.6293 9.1453 -1.8494 0.9607
-3.9549 9.0092 -1.8494 0.9607
-4.5906 8.7025 -1.8494 0.9607
-4.8997 8.5323 -1.8494 0.9607
-5.2026 8.3511 -1.8494 0.9607
-5.5638 8.2557 -1.8713 0.9603
-5.9992 8.2473 -1.9169 0.9593
-7.1469 7.8822 -1.9999 0.9576
-7.4312 7.6272 -2.0016 0.9576
-7.7000 7.3558 -2.0016 0.9576
-7.9588 7.0749 -2.0016 0.9576
-8.6727 6.1791 -2.0016 0.9576
-8.8887 5.8641 -2.0016 0.9576
-9.6360 4.5327 -2.0016 0.9576
-10.0671 3.4715 -2.0016 0.9576
-10.3817 2.3701 -2.0016 0.9576
-10.5249 1.6198 -2.0016 0.9576
-10.5762 1.2413 -2.0016 0.9576
-10.6139 0.8612 -2.0016 0.9576
-10.6450 -0.2838 -2.0016 0.9576
-10.5973 -1.0462 -2.0016 0.9576
-10.5530 -1.4256 -2.0016 0.9576
-9.5920 -2.3666 -1.8570 0.9606
-9.2823 -3.3832 -1.8570 0.9606
-9.1550 -3.7139 -1.8570 0.9606
-9.0159 -4.0398 -1.8570 0.9606
-8.8652 -4.3606 -1.8570 0.9606
-8.5298 -4.9849 -1.8570 0.9606
-8.3455 -5.2876 -1.8570 0.9606
-8.3311 -6.6325 -2.0016 0.9576
-8.0879 -6.9270 -2.0016 0.9576
-7.8342 -7.2126 -2.0016 0.9576
-7.5705 -7.4890 -2.0016 0.9576
-7.2971 -7.7557 -2.0016 0.9576
-6.7223 -8.2588 -2.0016 0.9576
-6.4218 -8.4946 -2.0016 0.9576
-5.7964 -8.9331 -2.0016 0.9576
-5.4722 -9.1352 -2.0016 0.9576
-3.7547 -9.9649 -2.0016 0.9576
-3.3949 -10.0932 -2.0016 0.9576
-2.6626 -10.3106 -2.0016 0.9576
-2.2911 -10.3994 -2.0016 0.9576
-1.9167 -10.4749 -2.0016 0.9576
-0.3991 -10.6413 -2.0016 0.9576
0.3647 -10.6426 -2.0016 0.9576
0.7462 -10.6226 -2.0016 0.9576
1.1267 -10.5890 -2.0016 0.9576
3.7225 -9.9770 -2.0016 0.9576
4.0779 -9.8371 -2.0016 0.9576
4.4281 -9.6845 -2.0016 0.9576
4.7726 -9.5194 -2.0016 0.9576
6.0848 -8.7391 -2.0016 0.9576
6.3943 -8.5153 -2.0016 0.9576
6.6956 -8.2804 -2.0016 0.9576
7.2720 -7.7792 -2.0016 0.9576
7.5463 -7.5134 -2.0016 0.9576
8.3097 -6.6593 -2.0016 0.9576
8.5431 -6.3570 -2.0016 0.9576
8.7656 -6.0466 -2.0016 0.9576
8.9769 -5.7283 -2.0016 0.9576
9.1765 -5.4026 -2.0016 0.9576
9.5402 -4.7309 -2.0016 0.9576
9.7037 -4.3857 -2.0016 0.9576
9.8548 -4.0349 -2.0016 0.9576
9.9932 -3.6788 -2.0016 0.9576
10.1187 -3.3181 -2.0016 0.9576
10.2312 -2.9530 -2.0016 0.9576
10.3305 -2.5842 -2.0016 0.9576
10.5483 -1.4596 -2.0016 0.9576
10.6441 -0.3182 -2.0016 0.9576
10.6486 0.0638 -2.0016 0.9576
10.5802 1.2072 -2.0016 0.9576
10.4664 1.9625 -2.0016 0.9576
10.3893 2.3366 -2.0016 0.9576
10.2988 2.7077 -2.0016 0.9576
9.4829 4.8448 -2.0016 0.9576
9.1112 5.5121 -2.0016 0.9576
8.9076 5.8354 -2.0016 0.9576
8.6926 6.1511 -2.0016 0.9576
8.2293 6.7584 -2.0016 0.9576
7.9816 7.0492 -2.0016 0.9576
7.7237 7.3309 -2.0016 0.9576
6.8916 8.1181 -2.0016 0.9576
6.5960 8.3600 -2.0016 0.9576
5.9797 8.8113 -2.0016 0.9576
4.9930 9.3919 -1.9993 0.9576
4.0741 9.1998 -1.8912 0.9599
3.3288 9.2589 -1.8494 0.9607
1.9706 9.6397 -1.8494 0.9607
1.6236 9.7042 -1.8494 0.9607
1.2745 9.7562 -1.8494 0.9607
-0.8386 9.8033 -1.8494 0.9607
-2.2318 9.5826 -1.8494 0.9607
-3.2482 9.2874 -1.8494 0.9607
-4.5429 8.7275 -1.8494 0.9607
-4.8530 8.5590 -1.8494 0.9607
-5.9315 8.2486 -1.9097 0.9595
-7.1015 7.9187 -1.9993 0.9576
-8.1702 6.8297 -2.0016 0.9576
-8.4099 6.5323 -2.0016 0.9576
-8.6388 6.2264 -2.0016 0.9576
-9.2576 5.2625 -2.0016 0.9576
-9.4404 4.9271 -2.0016 0.9576
-9.6110 4.5854 -2.0016 0.9576
-10.0479 3.5265 -2.0016 0.9576
-10.2749 2.7972 -2.0016 0.9576
-10.3686 2.4269 -2.0016 0.9576
-10.5159 1.6774 -2.0016 0.9576
-10.5693 1.2991 -2.0016 0.9576
-10.6352 0.5381 -2.0016 0.9576
-10.6315 -0.6073 -2.0016 0.9576
-10.5606 -1.3679 -2.0016 0.9576
-10.5048 -1.7457 -2.0016 0.9576
-9.6048 -2.3141 -1.8570 0.9606
-9.1752 -3.6638 -1.8570 0.9606
-9.0379 -3.9905 -1.8570 0.9606
-8.8889 -4.3121 -1.8570 0.9606
-8.3743 -5.2419 -1.8570 0.9606
-0.9808 -9.4181 -2.0016 0.9620
-0.3031 -9.4642 -2.0016 0.9620
0.3761 -9.4615 -2.0016 0.9620
0.7152 -9.4420 -2.0016 0.9620
1.7252 -9.3105 -2.0016 0.9620
2.0580 -9.2427 -2.0016 0.9620
2.3882 -9.1629 -2.0016 0.9620
3.6739 -8.7272 -2.0016 0.9620
2.1897 -4.3087 -1.0216 0.9804
2.3256 -4.1962 -1.0141 0.9806
4.8841 -8.1122 -2.0016 0.9620
5.4531 -7.7412 -2.0016 0.9620
5.7272 -7.5406 -2.0016 0.9620
6.2530 -7.1107 -2.0016 0.9620
6.7467 -6.6442 -2.0016 0.9620
6.9806 -6.3979 -2.0016 0.9620
7.4213 -5.8811 -2.0016 0.9620
7.6274 -5.6111 -2.0016 0.9620
8.3514 -4.4627 -2.0016 0.9620
8.5061 -4.1603 -2.0016 0.9620
8.7825 -3.5399 -2.0016 0.9620
8.9038 -3.2226 -2.0016 0.9620
9.0136 -2.9012 -2.0016 0.9620
9.1119 -2.5761 -2.0016 0.9620
9.2731 -1.9163 -2.0016 0.9620
9.3358 -1.5825 -2.0016 0.9620
9.3866 -1.2466 -2.0016 0.9620
9.4518 -0.5705 -2.0016 0.9620
9.4684 0.1085 -2.0016 0.9620
9.4584 0.4480 -2.0016 0.9620
9.4020 1.1248 -2.0016 0.9620
9.3556 1.4613 -2.0016 0.9620
9.2971 1.7959 -2.0016 0.9620
9.2268 2.1282 -2.0016 0.9620
9.1445 2.4578 -2.0016 0.9620
9.0505 2.7841 -2.0016 0.9620
8.9448 3.1069 -2.0016 0.9620
8.8276 3.4258 -2.0016 0.9620
8.6991 3.7401 -2.0016 0.9620
8.5593 4.0497 -2.0016 0.9620
8.4086 4.3541 -2.0016 0.9620
8.2470 4.6529 -2.0016 0.9620
7.4969 5.7844 -2.0016 0.9620
7.2846 6.0495 -2.0016 0.9620
6.8322 6.5561 -2.0016 0.9620
6.0885 7.2521 -2.0016 0.9620
5.8245 7.4658 -2.0016 0.9620
5.2743 7.8641 -2.0016 0.9620
4.6970 8.2219 -2.0016 0.9620
4.3991 8.3851 -2.0016 0.9620
4.0956 8.5375 -2.0016 0.9620
2.6969 8.6026 -1.9057 0.9638
2.3364 8.5106 -1.8655 0.9646
2.0121 8.5145 -1.8494 0.9649
1.3965 8.6368 -1.8494 0.9649
1.0859 8.6813 -1.8494 0.9649
0.4608 8.7368 -1.8494 0.9649
-0.4803 8.7358 -1.8494 0.9649
-0.7933 8.7129 -1.8494 0.9649
-1.1038 8.6673 -1.8469 0.9649
-1.4159 8.6337 -1.8494 0.9649
-1.7246 8.5773 -1.8494 0.9649
-2.0311 8.5100 -1.8494 0.9649
-2.9402 8.2617 -1.8537 0.9648
-3.9775 8.2440 -1.9348 0.9633
-4.9968 8.0208 -1.9975 0.9621
-5.2890 7.8480 -2.0005 0.9620
-5.5701 7.6574 -2.0016 0.9620
-5.8412 7.4527 -2.0016 0.9620
-6.3604 7.0148 -2.0016 0.9620
-6.8469 6.5408 -2.0016 0.9620
-7.0771 6.2911 -2.0016 0.9620
-7.2981 6.0332 -2.0016 0.9620
-7.5098 5.7676 -2.0016 0.9620
-7.9040 5.2144 -2.0016 0.9620
-8.0859 4.9276 -2.0016 0.9620
-8.2574 4.6344 -2.0016 0.9620
-8.5684 4.0306 -2.0016 0.9620
-8.8353 3.4060 -2.0016 0.9620
-8.9517 3.0869 -2.0016 0.9620
-9.0567 2.7639 -2.0016 0.9620
-9.1500 2.4373 -2.0016 0.9620
-9.2315 2.1075 -2.0016 0.9620
-9.3012 1.7751 -2.0016 0.9620
-9.3588 1.4404 -2.0016 0.9620
-9.4045 1.1038 -2.0016 0.9620
-9.4380 0.7658 -2.0016 0.9620
-9.4594 0.4268 -2.0016 0.9620
-9.4686 0.0873 -2.0016 0.9620
-9.4657 -0.2524 -2.0016 0.9620
-9.4232 -0.9303 -2.0016 0.9620
-9.3323 -1.6034 -2.0016 0.9620
-9.0136 -2.2239 -1.9624 0.9628
-8.4483 -2.4089 -1.8570 0.9647
-8.2539 -3.0083 -1.8570 0.9647
-8.1407 -3.3024 -1.8570 0.9647
-8.0170 -3.5923 -1.8570 0.9647
-7.8830 -3.8775 -1.8570 0.9647
-7.5848 -4.4326 -1.8570 0.9647
-7.2475 -4.9649 -1.8570 0.9647
-6.8730 -5.4717 -1.8570 0.9647
-6.9663 -6.4135 -2.0016 0.9620
-6.7318 -6.6593 -2.0016 0.9620
-6.2371 -7.1247 -2.0016 0.9620
