ply
format ascii 1.0
element vertex 1543
property float32 x
property float32 y
property float32 z
property float32 I
end_header
28.7456 23.1196 6.5046 0.8609
28.8244 30.9442 7.4568 0.8422
31.1213 35.9107 8.3790 0.8245
7.6170 16.7380 3.2426 0.9280
2.4813 13.9573 2.4996 0.9440
1.9680 13.9587 2.4856 0.9444
1.4561 13.9250 2.4687 0.9447
-0.0479 13.9292 2.4561 0.9450
-2.5830 13.9713 2.5053 0.9439
-3.1053 13.9728 2.5239 0.9435
-3.6362 13.9742 2.5461 0.9430
-4.7182 13.9421 2.5953 0.9420
-5.2967 13.9788 2.6359 0.9411
-5.8790 13.9805 2.6742 0.9403
-7.0822 13.9487 2.7584 0.9384
-10.6201 13.9935 3.0976 0.9311
-12.3007 13.9982 3.2858 0.9271
-14.1686 13.9633 3.5076 0.9224
-17.4832 16.0352 4.1830 0.9081
-18.7984 16.0389 4.3572 0.9045
-26.3874 -22.3514 5.2977 0.8694
-24.7430 -22.5316 5.1266 0.8733
-21.1155 -22.1989 4.6935 0.8834
-19.7403 -22.3031 4.5628 0.8865
-17.1091 -22.3772 4.3152 0.8923
-14.4849 -22.0598 4.0429 0.8987
-13.2225 -21.8035 3.9064 0.9020
-12.5024 -22.3900 3.9285 0.9014
-11.5602 -22.5682 3.8845 0.9025
-10.4755 -22.3956 3.7877 0.9048
-9.5364 -22.4532 3.7371 0.9060
-8.5795 -22.4009 3.6748 0.9075
-7.6692 -22.3984 3.6269 0.9086
-5.0636 -22.4057 3.5190 0.9112
-4.2587 -22.5835 3.5206 0.9112
-3.3987 -22.4103 3.4724 0.9124
-2.5806 -22.4126 3.4562 0.9127
-0.9619 -22.4171 3.4373 0.9132
0.6525 -22.5971 3.4632 0.9126
1.4538 -22.4238 3.4424 0.9131
2.2621 -4.1879 0.7292 0.9809
32.8711 -35.5422 7.4165 0.8221
32.2085 -30.1664 6.7604 0.8365
32.8633 -28.6375 6.6778 0.8383
36.1915 -25.2503 6.7604 0.8365
39.8722 -25.7426 7.2706 0.8253
32.4676 -8.3047 5.1340 0.8732
30.1448 -3.2353 4.6445 0.8845
29.2245 -2.0796 4.4884 0.8882
31.1918 -1.0973 4.7814 0.8813
31.3731 0.0223 4.8062 0.8808
44.4554 13.1555 7.1023 0.8289
38.6086 12.9485 6.2384 0.8481
30.6543 14.1039 5.1693 0.8724
25.8169 16.7202 4.7120 0.8830
30.2145 22.8012 5.7988 0.8580
28.2755 22.9751 5.5813 0.8629
26.0079 24.4285 5.4662 0.8655
32.2176 34.9352 7.2803 0.8251
31.9086 37.1928 7.5073 0.8201
2.5386 14.7053 2.2861 0.9414
1.4778 14.8494 2.2861 0.9414
0.4095 14.9171 2.2861 0.9414
-0.1258 14.9222 2.2861 0.9414
-0.6610 14.9081 2.2861 0.9414
-1.1953 14.8748 2.2861 0.9414
-3.3102 14.5510 2.2861 0.9414
-4.3448 14.2762 2.2861 0.9414
-5.9472 13.9474 2.3228 0.9405
-6.5479 13.9472 2.3604 0.9396
-9.2144 13.9896 2.5662 0.9345
-13.3175 13.9610 2.9558 0.9249
-14.3112 13.9637 3.0631 0.9223
-15.4199 14.0016 3.1908 0.9192
-16.5815 14.0049 3.3250 0.9159
-20.4395 16.0434 3.9806 0.9002
-30.2660 -3.7655 4.6723 0.8839
-23.0816 -22.3606 4.9231 0.8781
-21.3173 -22.1880 4.7136 0.8829
-19.9393 -22.3026 4.5830 0.8860
-18.0644 -21.7260 4.3285 0.8920
-17.0796 -22.1089 4.2799 0.8931
-15.8089 -22.0562 4.1572 0.8960
-14.6429 -22.0594 4.0561 0.8984
-13.3653 -21.7927 3.9164 0.9017
-12.6493 -22.3896 3.9395 0.9012
-11.7027 -22.5678 3.8945 0.9022
-9.6689 -22.4528 3.7450 0.9058
-8.7079 -22.4006 3.6818 0.9073
-7.7943 -22.3981 3.6331 0.9085
-6.0349 -22.4030 3.5544 0.9104
-5.1813 -22.4054 3.5230 0.9111
-3.5132 -22.4100 3.4750 0.9123
-2.6940 -22.4123 3.4582 0.9127
-1.8863 -22.4695 3.4543 0.9128
-1.0741 -22.4168 3.4381 0.9132
1.3413 -22.4235 3.4413 0.9131
33.2925 -25.3112 6.4068 0.8443
39.3795 -25.7041 7.2041 0.8267
30.0274 -3.3744 4.6290 0.8849
30.7040 -1.2337 4.7075 0.8831
35.0349 14.4154 5.8037 0.8579
29.2259 13.2702 4.9172 0.8782
29.2147 14.5507 4.9999 0.8763
27.3530 16.1683 4.8676 0.8793
25.6841 19.1818 4.9109 0.8783
28.0517 22.5616 5.5148 0.8644
27.2839 23.6046 5.5269 0.8642
26.1838 24.3487 5.4775 0.8653
27.9796 30.0372 6.2886 0.8469
31.7141 36.5947 7.4184 0.8220
7.6166 16.7371 2.8170 0.9283
1.0186 14.8880 2.2861 0.9414
0.4840 14.9149 2.2861 0.9414
-1.1209 14.8806 2.2861 0.9414
-1.6540 14.8308 2.2861 0.9414
-3.2375 14.5673 2.2861 0.9414
-3.7579 14.4418 2.2861 0.9414
-4.2735 14.2978 2.2861 0.9414
-4.7836 14.1353 2.2861 0.9414
-5.2875 13.9546 2.2861 0.9414
-6.4630 13.9470 2.3549 0.9397
-7.4213 13.4027 2.3470 0.9399
-9.8481 13.9914 2.6211 0.9331
-11.4356 13.9958 2.7688 0.9295
-12.3007 13.9982 2.8548 0.9274
-14.1686 13.9633 3.0475 0.9227
-15.2655 14.0012 3.1733 0.9196
-16.4139 14.0044 3.3054 0.9164
-24.5508 -22.3565 4.3239 0.8746
-22.8527 -22.3613 4.1635 0.8790
-19.8765 -22.4571 3.9053 0.8861
-17.9942 -21.8628 3.6873 0.8921
-15.9972 -22.5559 3.6010 0.8945
-14.6977 -22.3839 3.4871 0.8976
-12.5024 -22.3900 3.3394 0.9017
-11.5602 -22.5682 3.3020 0.9028
-10.4755 -22.3956 3.2196 0.9051
-9.5876 -22.5737 3.1937 0.9058
-7.6692 -22.3984 3.0830 0.9089
-6.7993 -22.4558 3.0553 0.9097
-5.0636 -22.4057 2.9913 0.9115
-2.5806 -22.4126 2.9379 0.9130
-1.7734 -22.4698 2.9351 0.9131
-0.1571 -22.4193 2.9195 0.9135
0.6525 -22.5971 2.9438 0.9128
1.4538 -22.4238 2.9262 0.9133
2.2621 -4.1879 0.6198 0.9810
32.9481 -35.6255 6.3191 0.8222
32.9640 -28.7253 5.6938 0.8383
32.5462 -26.3684 5.4546 0.8445
33.7113 -25.3649 5.4938 0.8435
39.1699 -25.2891 6.0714 0.8286
44.4554 13.1555 6.0372 0.8294
34.9846 14.5995 4.9365 0.8582
29.9154 13.7639 4.2882 0.8756
28.0069 15.4083 4.1626 0.8790
26.7995 16.0223 4.0660 0.8817
27.6845 19.3737 4.4002 0.8726
27.3628 20.6492 4.4640 0.8709
28.2475 24.6861 4.8851 0.8596
26.6777 25.0577 4.7661 0.8627
25.8352 28.0144 4.9625 0.8575
2.3640 17.3955 2.2861 0.9316
1.7386 17.4691 2.2861 0.9316
1.1109 17.5203 2.2861 0.9316
-0.1310 15.5344 2.0230 0.9393
-0.6893 15.5467 2.0265 0.9392
-1.8173 15.5884 2.0437 0.9387
-2.3876 15.5938 2.0543 0.9383
-2.9639 15.5954 2.0672 0.9380
-3.5482 15.5971 2.0830 0.9375
-4.1422 15.5987 2.1017 0.9370
-7.1702 13.9490 2.0424 0.9387
-7.4217 13.2470 1.9773 0.9406
-8.5948 13.0490 2.0347 0.9389
-14.3112 13.9637 2.6038 0.9225
-16.5815 14.0049 2.8264 0.9162
-20.7660 14.0165 3.2625 0.9039
-22.4150 13.9862 3.4405 0.8989
-24.7977 -22.3559 4.3477 0.8740
-23.0816 -22.3606 4.1848 0.8784
-21.4874 -22.3650 4.0387 0.8824
-19.9989 -22.3692 3.9074 0.8860
-18.6024 -22.3731 3.7890 0.8893
-16.1315 -22.5062 3.6059 0.8943
-14.8580 -22.3835 3.4985 0.8973
-10.6120 -22.3953 3.2272 0.9049
-7.7943 -22.3981 3.0883 0.9088
-6.9219 -22.4555 3.0599 0.9096
-6.0349 -22.4030 3.0213 0.9107
-1.8863 -22.4695 2.9363 0.9131
0.4119 -17.2497 2.2469 0.9328
1.3413 -22.4235 2.9252 0.9134
32.9471 -35.9833 6.3533 0.8214
32.6700 -30.9065 5.8564 0.8341
32.5454 -26.6382 5.4767 0.8440
33.3619 -25.3640 5.4574 0.8445
36.5849 -25.7973 5.8294 0.8348
38.7419 -25.2879 6.0246 0.8298
31.7549 -7.0856 4.2368 0.8770
30.5515 -5.6750 4.0465 0.8822
30.3111 -4.5124 3.9906 0.8837
29.7877 -3.3475 3.9034 0.8861
30.9943 -2.3612 4.0478 0.8822
31.3660 -1.2603 4.0878 0.8811
45.2777 13.1532 6.1399 0.8268
34.9840 14.3944 4.9262 0.8585
28.3626 15.4200 4.2040 0.8779
26.8732 15.8847 4.0651 0.8817
27.5183 17.6276 4.2556 0.8765
27.6797 19.1651 4.3841 0.8730
26.0347 19.4436 4.2314 0.8772
29.4096 23.6537 4.9147 0.8588
26.2032 26.1810 4.8235 0.8612
25.8404 27.7407 4.9369 0.8582
7.6162 16.7361 2.3945 0.9285
2.4509 17.3835 2.2861 0.9316
1.8258 17.4602 2.2861 0.9316
1.1984 17.5145 2.2861 0.9316
0.5058 15.5858 2.0307 0.9390
-0.0534 15.5332 2.0228 0.9393
-0.6114 15.5446 2.0258 0.9392
-1.7380 15.5847 2.0420 0.9387
-2.3079 15.5936 2.0527 0.9384
-2.8832 15.5952 2.0652 0.9380
-4.0589 15.5985 2.0989 0.9371
-6.0486 14.3839 2.0320 0.9390
-6.4630 13.9470 2.0017 0.9399
-7.0822 13.9487 2.0371 0.9388
-7.4213 13.4027 1.9950 0.9401
-7.8485 13.0469 1.9827 0.9404
-8.5015 13.0487 2.0280 0.9391
-9.1859 13.0506 2.0782 0.9377
-9.9060 13.0526 2.1338 0.9360
-10.6667 13.0547 2.1953 0.9343
-12.3774 13.1059 2.3475 0.9299
-15.2655 14.0012 2.6974 0.9198
-19.0328 14.0117 3.0777 0.9091
-20.5430 14.0158 3.2384 0.9046
-22.1666 13.9855 3.4131 0.8997
-22.8527 -22.3613 3.4333 0.8793
-21.2741 -22.3656 3.3146 0.8832
-19.8765 -22.4571 3.2204 0.8863
-15.9972 -22.5559 2.9694 0.8947
-14.6977 -22.3839 2.8755 0.8979
-13.2002 -21.7668 2.7336 0.9027
-12.5024 -22.3900 2.7537 0.9020
-9.5876 -22.5737 2.6336 0.9060
-6.7993 -22.4558 2.5195 0.9099
-5.9151 -22.4033 2.4881 0.9110
-5.0636 -22.4057 2.4666 0.9117
-4.2503 -22.5394 2.4630 0.9119
-3.3987 -22.4103 2.4340 0.9128
-1.7816 -22.5737 2.4315 0.9129
-0.1571 -22.4193 2.4075 0.9138
1.4538 -22.4238 2.4130 0.9136
32.9476 -35.6250 5.2107 0.8227
32.5115 -32.7168 4.9528 0.8306
32.9572 -30.8677 4.8488 0.8339
33.0489 -28.7993 4.7072 0.8383
32.6268 -26.4338 4.5091 0.8446
33.8192 -25.4461 4.5448 0.8434
36.8887 -25.7366 4.8300 0.8345
31.3094 -5.6542 3.4164 0.8799
29.6960 -4.2694 3.2216 0.8863
37.6360 -4.0392 4.0646 0.8587
48.8365 -1.7180 5.2474 0.8215
44.2851 13.1051 4.9593 0.8304
39.2154 13.1520 4.4415 0.8467
27.6447 19.3458 3.6232 0.8731
29.8474 22.5243 4.0153 0.8603
28.0384 22.7824 3.8794 0.8647
27.5913 25.9158 4.0648 0.8587
32.2506 34.9710 5.1083 0.8258
32.0817 37.3947 5.2908 0.8202
7.7104 36.7473 4.0319 0.8598
0.3998 14.5650 1.5646 0.9431
-0.1234 14.6312 1.5712 0.9428
-0.6484 14.6254 1.5720 0.9428
-2.2559 14.7339 1.6006 0.9418
-5.1412 14.9459 1.6972 0.9384
-6.0449 15.7163 1.8082 0.9345
-6.0492 14.1865 1.6561 0.9398
-6.5480 13.9472 1.6545 0.9399
-7.1702 13.9490 1.6842 0.9389
-7.4217 13.2470 1.6305 0.9407
-7.9377 13.0471 1.6399 0.9404
-8.5948 13.0490 1.6779 0.9391
-9.2839 13.0509 1.7198 0.9376
-10.0094 13.0529 1.7663 0.9360
-15.7612 14.3115 2.2861 0.9179
-16.5275 13.9593 2.3231 0.9166
-17.8022 13.9734 2.4302 0.9130
-19.2341 14.0122 2.5554 0.9087
-20.7660 14.0165 2.6903 0.9041
-23.0816 -22.3606 3.4509 0.8787
-21.5400 -22.4199 3.3386 0.8824
-19.9989 -22.3692 3.2221 0.8863
-18.6024 -22.3731 3.1244 0.8895
-17.0362 -22.0527 2.9924 0.8939
-16.1315 -22.5062 2.9734 0.8946
-14.8580 -22.3835 2.8849 0.8976
-12.6493 -22.3896 2.7614 0.9017
-7.7943 -22.3981 2.5466 0.9090
-6.9219 -22.4555 2.5233 0.9098
-5.1813 -22.4054 2.4694 0.9116
-4.3670 -22.5390 2.4653 0.9118
-2.6940 -22.4123 2.4240 0.9132
0.4146 -17.3640 1.8651 0.9325
32.7646 -30.9960 4.8432 0.8341
32.9672 -26.9834 4.5747 0.8425
31.1320 -5.7829 3.4002 0.8804
34.5182 -3.8791 3.7300 0.8696
34.9543 -2.6628 3.7643 0.8685
49.0262 -1.9699 5.2688 0.8209
45.2777 13.1532 5.0630 0.8272
35.6120 13.1801 4.0776 0.8583
35.0391 15.9097 4.1323 0.8566
28.3421 15.4088 3.4641 0.8783
27.5617 17.6555 3.5148 0.8766
27.7600 24.0165 3.9417 0.8627
27.6485 25.7108 4.0543 0.8591
27.1723 29.1705 4.2808 0.8518
2.2141 21.1739 2.2861 0.9179
1.4532 21.2397 2.2861 0.9179
0.5148 15.8629 1.7043 0.9381
-1.6372 14.6808 1.5862 0.9423
-2.1804 14.7317 1.5992 0.9418
-3.2828 14.7713 1.6249 0.9409
-6.0174 15.8810 1.8236 0.9340
-6.4630 13.9470 1.6506 0.9400
-7.0822 13.9487 1.6798 0.9390
-9.1859 13.0506 1.7137 0.9378
-9.9060 13.0526 1.7596 0.9362
-11.4736 13.0569 1.8665 0.9325
-14.1685 13.9633 2.1361 0.9231
-20.5430 14.0158 2.6705 0.9048
-22.2221 14.0205 2.8215 0.8997
-34.2245 -23.1715 3.4988 0.8471
-26.3874 -22.3514 2.9274 0.8704
-24.7430 -22.5316 2.8329 0.8743
-19.8765 -22.4571 2.5387 0.8866
-16.9230 -22.1338 2.3586 0.8942
-15.8359 -22.3285 2.3173 0.8959
-14.6977 -22.3839 2.2668 0.8981
-13.2391 -21.8309 2.1613 0.9026
-12.5024 -22.3900 2.1708 0.9022
-8.5795 -22.4009 2.0306 0.9082
-7.6692 -22.3984 2.0042 0.9093
-4.2256 -22.4080 1.9303 0.9125
-3.3987 -22.4103 1.9188 0.9130
-1.7690 -22.4149 1.9034 0.9137
-0.1571 -22.4193 1.8979 0.9139
33.1754 -35.8712 4.1362 0.8219
33.0198 -33.2284 3.9655 0.8286
33.8192 -25.4461 3.5828 0.8438
44.3950 13.1376 3.9193 0.8304
34.9814 13.1457 3.1635 0.8607
35.2589 14.7139 3.2342 0.8578
29.5736 14.9143 2.8038 0.8755
26.9419 16.1074 2.6572 0.8816
27.1835 17.6053 2.7416 0.8781
26.7931 18.7499 2.7683 0.8770
29.9239 24.3145 3.2640 0.8566
28.5418 24.9433 3.2088 0.8588
7.7098 36.7445 3.1783 0.8601
3.2778 24.1200 2.0606 0.9069
0.3725 13.5682 1.1490 0.9470
-1.0906 13.5722 1.1526 0.9468
-1.5824 13.5736 1.1568 0.9466
-3.1171 13.7021 1.1896 0.9452
-4.1826 13.7431 1.2161 0.9440
-4.7456 13.7960 1.2350 0.9431
-7.1702 13.9490 1.3277 0.9390
-9.2754 15.2459 1.5107 0.9309
-9.8162 14.9034 1.5107 0.9309
-10.3445 14.5417 1.5107 0.9309
-11.8467 13.3464 1.5107 0.9309
-14.3112 13.9637 1.6926 0.9229
-21.8274 15.9015 2.2861 0.8973
-22.3837 15.1084 2.2861 0.8973
-33.7770 17.8475 3.2339 0.8578
-34.6262 -23.1921 3.5279 0.8459
-26.8641 -22.5257 2.9678 0.8687
-17.0362 -22.0527 2.3590 0.8942
-16.0412 -22.3802 2.3309 0.8954
-14.8580 -22.3835 2.2743 0.8978
-11.7027 -22.5678 2.1520 0.9030
-9.6453 -22.3980 2.0644 0.9067
-8.7079 -22.4006 2.0345 0.9080
-7.7943 -22.3981 2.0076 0.9092
-6.9049 -22.4006 1.9843 0.9102
-6.0349 -22.4030 1.9641 0.9111
-5.1813 -22.4054 1.9467 0.9118
-3.5132 -22.4100 1.9202 0.9130
-1.8817 -22.4145 1.9041 0.9137
-0.2691 -22.4190 1.8980 0.9139
0.4145 -17.3621 1.4702 0.9327
1.3413 -22.4235 1.9016 0.9138
33.0624 -36.1092 4.1445 0.8216
32.7646 -30.9960 3.8181 0.8344
33.0187 -27.0256 3.6120 0.8426
33.4686 -25.4451 3.5591 0.8447
37.1174 -26.1728 3.8447 0.8333
39.0063 -25.4605 3.9432 0.8295
34.6198 -3.8905 2.9491 0.8695
45.2777 13.1532 3.9914 0.8276
39.9238 13.1681 3.5588 0.8447
35.6120 13.1801 3.2145 0.8586
33.0715 15.0163 3.0747 0.8643
29.4608 14.6733 2.7861 0.8762
27.0216 15.9724 2.6572 0.8816
26.8908 18.6188 2.7688 0.8770
28.4408 24.6056 3.1836 0.8599
3.4006 24.1196 2.0620 0.9068
2.3871 22.8276 1.9430 0.9120
1.5620 22.8299 1.9371 0.9122
0.4403 13.5680 1.1492 0.9470
-0.5337 13.5707 1.1497 0.9469
-1.0224 13.5720 1.1522 0.9468
-1.5137 13.5734 1.1561 0.9467
-2.0142 13.6092 1.1646 0.9463
-2.5260 13.6632 1.1762 0.9457
-3.0450 13.7010 1.1881 0.9452
-3.5678 13.7113 1.1993 0.9447
-6.0487 14.3839 1.3209 0.9393
-7.0822 13.9487 1.3243 0.9391
-10.2717 14.5932 1.5107 0.9309
-10.7885 14.2154 1.5107 0.9309
-11.2914 13.8193 1.5107 0.9309
-11.7798 13.4054 1.5107 0.9309
-12.3995 13.1293 1.5287 0.9301
-16.9188 15.5176 1.9434 0.9120
-18.4072 15.7051 2.0483 0.9074
-19.8481 15.7401 2.1444 0.9033
-22.3080 15.2200 2.2861 0.8973
-26.3874 -22.3514 2.1444 0.8706
-22.8527 -22.3613 1.9827 0.8797
-21.2741 -22.3656 1.9141 0.8836
-15.5734 -18.9215 1.5196 0.9065
-14.8089 -19.3687 1.5119 0.9069
-12.5024 -22.3900 1.5902 0.9023
-11.4704 -22.3929 1.5602 0.9041
-10.4755 -22.3956 1.5332 0.9057
-9.5131 -22.3983 1.5090 0.9071
-7.6692 -22.3984 1.4681 0.9095
-5.9151 -22.4033 1.4368 0.9113
-3.3987 -22.4103 1.4056 0.9132
-1.7690 -22.4149 1.3943 0.9138
-0.9619 -22.4171 1.3914 0.9140
0.6474 -22.4216 1.3909 0.9140
2.2620 -4.1878 0.2951 0.9811
33.4084 -36.1231 3.0511 0.8210
32.7617 -30.6846 2.7835 0.8354
37.0666 -25.8608 2.8026 0.8343
39.4372 -25.4617 2.9109 0.8285
43.6818 12.9265 2.8248 0.8331
37.7563 12.6627 2.4694 0.8525
32.5492 16.4150 2.2605 0.8641
35.0580 22.7051 2.5901 0.8459
34.7922 24.3476 2.6333 0.8435
34.8550 26.3032 2.7078 0.8395
31.3414 25.4663 2.5042 0.8506
3.2806 24.1400 1.5107 0.9070
0.3725 13.5682 0.8417 0.9471
-1.5824 13.5736 0.8474 0.9467
-2.0785 13.5750 0.8516 0.9464
-2.5802 13.5764 0.8569 0.9461
-4.1332 13.5807 0.8803 0.9447
-4.6721 13.5822 0.8907 0.9441
-9.9338 17.7307 1.2603 0.9218
-13.2073 17.2232 1.3459 0.9167
-13.2107 16.0044 1.2869 0.9202
-13.2138 14.8866 1.2343 0.9233
-13.3174 13.9609 1.1964 0.9256
-18.4907 14.5138 1.4576 0.9101
-20.2801 14.7742 1.5559 0.9043
-26.8641 -22.5257 2.1740 0.8689
-21.4874 -22.3651 1.9232 0.8831
-15.7323 -18.9211 1.5259 0.9061
-14.7018 -22.1483 1.6485 0.8989
-9.6453 -22.3980 1.5122 0.9069
-8.7079 -22.4006 1.4903 0.9082
-7.7943 -22.3981 1.4706 0.9093
-6.9049 -22.4006 1.4536 0.9103
-6.0349 -22.4030 1.4387 0.9112
-4.3343 -22.3704 1.4130 0.9127
-3.5132 -22.4100 1.4066 0.9131
-2.6940 -22.4123 1.3998 0.9135
-1.8817 -22.4145 1.3948 0.9138
-1.0741 -22.4168 1.3917 0.9140
-0.2691 -22.4190 1.3903 0.9141
1.3413 -22.4235 1.3930 0.9139
2.2388 -4.1949 0.2949 0.9811
33.9513 -29.8853 2.8048 0.8342
33.4686 -25.4451 2.6071 0.8449
39.0063 -25.4605 2.8885 0.8297
34.5887 -3.8870 2.1584 0.8698
44.7663 13.0046 2.8907 0.8296
34.6829 12.8362 2.2933 0.8622
34.6402 14.2530 2.3228 0.8606
34.5922 15.7067 2.3558 0.8588
28.2285 16.6858 2.0334 0.8769
35.0573 22.4569 2.5817 0.8463
34.8050 24.0985 2.6251 0.8440
31.2509 25.1346 2.4869 0.8515
3.4006 24.1197 1.5105 0.9070
2.3871 22.8276 1.4233 0.9121
-0.0466 13.5693 0.8414 0.9471
-0.5338 13.5707 0.8422 0.9470
-1.0224 13.5720 0.8440 0.9469
-1.5137 13.5734 0.8469 0.9467
-2.5099 13.5762 0.8561 0.9462
-3.5334 13.5790 0.8701 0.9453
-6.0487 14.3839 0.9676 0.9394
-6.4630 13.9470 0.9532 0.9403
-10.6673 17.7327 1.2832 0.9204
-12.4850 17.7377 1.3451 0.9167
-13.1482 17.3246 1.3487 0.9165
-13.2103 16.1677 1.2947 0.9197
-13.2134 15.0368 1.2413 0.9229
-16.7524 14.2933 1.3656 0.9155
-20.0210 14.7392 1.5417 0.9052
-22.8423 -16.6906 1.1160 0.8929
-21.2741 -22.3656 1.2171 0.8838
-16.7444 -18.9183 0.9962 0.9038
-15.5734 -18.9215 0.9663 0.9066
-14.4693 -18.9246 0.9393 0.9090
-13.9634 -21.2656 1.0031 0.9032
-13.2664 -21.8759 1.0088 0.9027
-11.5602 -22.5682 0.9998 0.9035
-10.4755 -22.3956 0.9749 0.9058
-9.5364 -22.4532 0.9619 0.9070
-5.9151 -22.4033 0.9137 0.9114
-5.0551 -22.3684 0.9042 0.9123
-4.2452 -22.5123 0.9033 0.9124
-3.3987 -22.4103 0.8938 0.9133
-2.5806 -22.4126 0.8896 0.9136
-1.7829 -22.5904 0.8935 0.9133
-0.9619 -22.4171 0.8847 0.9141
0.6525 -22.5971 0.8914 0.9135
1.4538 -22.4238 0.8860 0.9140
2.2620 -4.1878 0.1877 0.9811
33.3247 -36.0327 1.9353 0.8216
33.8192 -25.4461 1.6689 0.8442
37.1882 -25.9456 1.7880 0.8340
39.1342 13.1248 1.6276 0.8477
35.0768 13.1816 1.4775 0.8607
35.0355 14.6207 1.4970 0.8590
35.0397 16.1215 1.5209 0.8569
35.0440 17.6731 1.5476 0.8546
35.1796 19.3545 1.5832 0.8515
35.1843 21.0352 1.6164 0.8487
35.0851 22.7227 1.6482 0.8459
35.0631 24.5372 1.6875 0.8426
35.0684 26.4642 1.7323 0.8387
7.7085 36.7386 1.4802 0.8605
1.4475 22.8302 0.9020 0.9125
0.4355 15.8632 0.6257 0.9384
-0.1338 15.8647 0.6256 0.9385
-0.7035 15.8663 0.6262 0.9384
-2.4301 15.8711 0.6331 0.9377
-4.2159 15.8761 0.6477 0.9364
-5.4624 15.8795 0.6622 0.9350
-6.0492 14.1865 0.6081 0.9401
-6.5480 13.9473 0.6075 0.9402
-7.1702 13.9490 0.6184 0.9391
-9.9338 17.7307 0.8014 0.9219
-13.2073 17.2232 0.8558 0.9168
-13.2107 16.0044 0.8183 0.9203
-14.3112 13.9637 0.7884 0.9231
-17.5004 15.8908 0.9321 0.9097
-16.0482 13.5544 0.8283 0.9193
-18.6154 13.5616 0.9082 0.9119
-21.5400 -22.4199 1.2259 0.8830
-16.9132 -18.9178 1.0006 0.9034
-13.9584 -19.4744 0.9448 0.9085
-13.9628 -21.0349 0.9955 0.9039
-13.4692 -21.9622 1.0159 0.9020
-11.7027 -22.5678 1.0024 0.9032
-8.7079 -22.4006 0.9477 0.9083
-6.9219 -22.4555 0.9266 0.9102
-6.0349 -22.4030 0.9149 0.9113
-2.6940 -22.4123 0.8901 0.9136
-1.0741 -22.4168 0.8849 0.9141
0.4145 -17.3618 0.6848 0.9328
1.3413 -22.4235 0.8858 0.9140
2.2388 -4.1948 0.1875 0.9811
32.8842 -33.4243 1.8489 0.8289
32.7646 -30.9960 1.7785 0.8348
34.0799 -29.9986 1.7903 0.8338
33.4686 -25.4451 1.6578 0.8451
34.3832 -3.8639 1.3643 0.8707
45.2777 13.1532 1.8592 0.8280
35.6120 13.1801 1.4973 0.8590
35.0350 14.4154 1.4938 0.8593
35.0391 15.9097 1.5174 0.8572
35.0434 17.4538 1.5437 0.8549
35.1790 19.1258 1.5789 0.8519
35.1885 22.5410 1.6478 0.8460
35.0624 24.2767 1.6816 0.8431
28.0685 22.5750 1.4203 0.8657
2.3871 22.8276 0.9050 0.9122
0.5148 15.8629 0.6258 0.9384
-0.0545 15.8645 0.6256 0.9385
-0.6240 15.8661 0.6261 0.9384
-1.1953 15.8677 0.6275 0.9383
-2.9345 15.8725 0.6365 0.9374
-3.5279 15.8742 0.6412 0.9370
-4.1310 15.8758 0.6468 0.9364
-6.4630 13.9470 0.6061 0.9403
-7.0822 13.9487 0.6168 0.9393
-9.8176 17.7304 0.7991 0.9221
-12.4850 17.7377 0.8553 0.9168
-13.2103 16.1677 0.8233 0.9198
-13.2134 15.0368 0.7893 0.9230
-13.1894 13.9657 0.7574 0.9260
-14.1685 13.9633 0.7844 0.9235
-17.0956 13.5573 0.8603 0.9164
-18.4207 13.5610 0.9019 0.9125
-19.8823 13.5651 0.9491 0.9081
-24.7430 -22.5316 0.5653 0.8747
-22.8527 -22.3613 0.5401 0.8799
-19.8765 -22.4571 0.5066 0.8869
-17.9942 -21.8628 0.4783 0.8929
-16.9230 -22.1338 0.4706 0.8945
-15.9972 -22.5559 0.4671 0.8953
-13.2664 -21.8759 0.4322 0.9027
-11.5602 -22.5682 0.4283 0.9035
-10.4755 -22.3956 0.4176 0.9058
-9.5364 -22.4532 0.4121 0.9070
-6.8358 -22.5764 0.3985 0.9099
-5.0551 -22.3684 0.3874 0.9123
-4.2452 -22.5123 0.3870 0.9124
-2.5806 -22.4126 0.3811 0.9137
-0.1571 -22.4193 0.3787 0.9142
1.4538 -22.4238 0.3796 0.9140
2.2620 -4.1877 0.0804 0.9811
32.5982 -37.8875 0.8443 0.8188
33.3265 -36.0346 0.8291 0.8217
32.8885 -33.0962 0.7881 0.8297
33.8192 -25.4461 0.7149 0.8442
39.4372 -25.4617 0.7929 0.8288
36.0464 15.0426 0.6598 0.8553
36.0006 16.5636 0.6694 0.8534
35.2982 17.8013 0.6678 0.8537
35.1843 21.0352 0.6924 0.8487
35.4001 26.7145 0.7491 0.8374
2.8610 13.6355 0.2353 0.9458
2.2719 22.8279 0.3875 0.9123
0.8053 12.7008 0.2150 0.9504
0.3419 12.4557 0.2105 0.9514
-0.1338 15.8647 0.2680 0.9385
-0.7034 15.8663 0.2683 0.9384
-3.7505 12.3235 0.2176 0.9498
-6.0449 15.7164 0.2844 0.9349
-5.8303 12.4187 0.2317 0.9466
-6.3752 12.4023 0.2356 0.9457
-9.9338 17.7307 0.3433 0.9219
-10.7885 17.7331 0.3506 0.9203
-8.1252 12.3360 0.2495 0.9426
-13.2138 14.8866 0.3362 0.9235
-17.5004 15.8908 0.3993 0.9098
-14.5020 12.2485 0.3206 0.9269
-26.8641 -22.5257 0.5922 0.8691
-24.8765 -22.4268 0.5658 0.8746
-21.5400 -22.4199 0.5252 0.8830
-17.1423 -19.1740 0.4346 0.9022
-18.6025 -22.3731 0.4915 0.8901
-17.0362 -22.0527 0.4707 0.8945
-16.1668 -22.5554 0.4688 0.8949
-13.4692 -21.9622 0.4352 0.9021
-10.6120 -22.3953 0.4186 0.9056
-9.6689 -22.4528 0.4129 0.9068
-7.7943 -22.3981 0.4006 0.9095
-6.9590 -22.5760 0.3991 0.9098
-3.5132 -22.4100 0.3832 0.9132
-2.6940 -22.4123 0.3813 0.9137
-1.8965 -22.5901 0.3829 0.9133
-1.0741 -22.4168 0.3791 0.9141
-0.2691 -22.4190 0.3787 0.9142
0.4145 -17.3616 0.2934 0.9329
1.3413 -22.4235 0.3795 0.9141
2.2388 -4.1948 0.0803 0.9812
32.9050 -26.9325 0.7183 0.8436
33.4686 -25.4451 0.7102 0.8452
39.0063 -25.4605 0.7869 0.8300
40.2245 13.2673 0.7155 0.8441
36.0501 16.3687 0.6688 0.8535
35.2976 17.5804 0.6661 0.8541
35.1837 20.7969 0.6904 0.8492
35.3940 24.5063 0.7272 0.8418
35.1989 26.2878 0.7421 0.8388
7.6128 16.7287 0.3105 0.9291
3.5835 14.1704 0.2469 0.9432
2.9162 13.5612 0.2343 0.9460
2.3871 22.8276 0.3877 0.9123
0.8689 12.7000 0.2150 0.9503
0.5148 15.8629 0.2681 0.9385
-0.6240 15.8661 0.2682 0.9385
-1.1953 15.8677 0.2688 0.9383
-1.3714 12.2974 0.2090 0.9517
-2.2747 12.3038 0.2114 0.9512
-3.5279 15.8742 0.2747 0.9370
-4.1310 15.8758 0.2771 0.9365
-3.6810 12.3155 0.2171 0.9499
-6.0487 14.3839 0.2636 0.9395
-9.8176 17.7304 0.3423 0.9221
-8.0720 12.3895 0.2498 0.9426
-8.6923 12.3493 0.2551 0.9414
-10.0753 12.3309 0.2690 0.9383
-13.2134 15.0368 0.3381 0.9230
-13.1894 13.9657 0.3245 0.9260
-12.3710 12.1918 0.2934 0.9329
-16.6006 12.2211 0.3482 0.9208
-33.2634 22.6945 0.6802 0.8512
-34.5641 21.8074 0.6903 0.8492
-26.3874 -22.3514 -0.1947 0.8708
-24.7430 -22.5316 -0.1884 0.8747
-15.9972 -22.5559 -0.1557 0.8953
-14.5472 -22.1546 -0.1492 0.8994
-12.5024 -22.3900 -0.1444 0.9025
-11.5602 -22.5682 -0.1428 0.9035
-10.4755 -22.3956 -0.1392 0.9058
-8.5795 -22.4009 -0.1351 0.9085
-5.0551 -22.3684 -0.1291 0.9124
-3.3987 -22.4103 -0.1276 0.9133
-2.5806 -22.4126 -0.1270 0.9137
-1.7829 -22.5904 -0.1276 0.9133
-0.1571 -22.4193 -0.1262 0.9142
0.6525 -22.5971 -0.1273 0.9135
1.4538 -22.4238 -0.1265 0.9140
2.2620 -4.1877 -0.0268 0.9811
32.8926 -30.8072 -0.2537 0.8350
32.6268 -26.4338 -0.2364 0.8454
39.4372 -25.4617 -0.2643 0.8288
34.5321 -3.7061 -0.1955 0.8703
44.8318 13.2669 -0.2632 0.8294
39.8320 13.3588 -0.2365 0.8453
36.0006 16.5636 -0.2231 0.8534
35.2982 17.8013 -0.2226 0.8537
34.1321 18.7781 -0.2193 0.8557
35.1843 21.0352 -0.2308 0.8488
35.1892 22.7901 -0.2360 0.8456
4.3898 15.3486 -0.0899 0.9381
3.3094 13.3671 -0.0775 0.9464
2.2259 12.8941 -0.0737 0.9490
1.7497 12.8754 -0.0732 0.9494
-0.5487 12.3761 -0.0697 0.9517
-1.4104 12.0978 -0.0686 0.9524
-1.8574 12.1307 -0.0691 0.9521
-2.2743 11.9669 -0.0686 0.9524
-2.7177 11.9466 -0.0690 0.9522
-3.2463 12.2248 -0.0712 0.9507
-4.0833 11.8704 -0.0707 0.9510
-4.5970 11.9519 -0.0721 0.9501
-5.1227 12.0137 -0.0735 0.9491
-6.1129 11.8920 -0.0753 0.9479
-6.7072 11.9715 -0.0773 0.9466
-7.3146 12.0229 -0.0792 0.9453
-8.4347 11.8571 -0.0819 0.9435
-9.1540 11.9374 -0.0847 0.9416
-12.2520 11.9545 -0.0964 0.9338
-13.0946 11.8903 -0.0996 0.9317
-14.3842 12.1490 -0.1060 0.9275
-19.0527 11.8882 -0.1264 0.9141
-26.8641 -22.5257 -0.1974 0.8692
-24.8765 -22.4268 -0.1886 0.8746
-23.0816 -22.3606 -0.1809 0.8794
-21.6556 -22.5402 -0.1760 0.8825
-17.1423 -19.1740 -0.1446 0.9022
-16.1668 -22.5554 -0.1562 0.8949
-14.7058 -22.1542 -0.1497 0.8991
-13.4692 -21.9622 -0.1451 0.9021
-12.6493 -22.3896 -0.1448 0.9022
-11.7027 -22.5678 -0.1431 0.9033
-10.6120 -22.3953 -0.1395 0.9056
-6.0349 -22.4030 -0.1306 0.9114
-1.8965 -22.5901 -0.1276 0.9133
1.3413 -22.4235 -0.1265 0.9141
2.2388 -4.1948 -0.0268 0.9812
32.8780 -33.4179 -0.2639 0.8290
32.7646 -30.9960 -0.2539 0.8349
34.0839 -30.0021 -0.2556 0.8339
32.9022 -26.9302 -0.2394 0.8436
33.4686 -25.4451 -0.2367 0.8452
39.0063 -25.4605 -0.2622 0.8300
34.3641 -3.8618 -0.1947 0.8708
45.9821 13.3578 -0.2696 0.8257
35.9958 14.8107 -0.2192 0.8558
36.0148 16.3527 -0.2227 0.8537
34.4729 22.0826 -0.2305 0.8489
35.1989 26.2878 -0.2473 0.8388
4.6124 15.8273 -0.0928 0.9362
3.4510 13.6466 -0.0793 0.9453
2.3605 13.2779 -0.0759 0.9475
1.8885 13.3947 -0.0762 0.9473
0.8636 12.6216 -0.0712 0.9507
-0.4902 12.4644 -0.0702 0.9513
-1.8016 12.1723 -0.0693 0.9520
-2.6856 12.0842 -0.0697 0.9517
-3.1900 12.2595 -0.0713 0.9506
-3.6143 12.0923 -0.0711 0.9508
-4.5214 11.9329 -0.0718 0.9502
-5.5400 11.9552 -0.0742 0.9487
-6.1433 12.0995 -0.0764 0.9472
-7.7719 11.9288 -0.0802 0.9446
-8.3642 11.8833 -0.0818 0.9435
-12.3139 12.1355 -0.0973 0.9332
-13.0806 11.9972 -0.0999 0.9315
-13.9971 11.9424 -0.1036 0.9290
-16.4482 12.1089 -0.1150 0.9215
-17.3438 11.8331 -0.1182 0.9194
-18.8498 11.8928 -0.1255 0.9147
-20.6875 12.0372 -0.1348 0.9087
-22.2609 11.9051 -0.1421 0.9040
-24.4092 11.9486 -0.1530 0.8970
-22.8215 -16.6754 -0.7959 0.8931
-26.3361 -22.3080 -0.9718 0.8710
-24.4737 -22.2864 -0.9320 0.8759
-22.7566 -22.2673 -0.8965 0.8804
-21.1644 -22.2503 -0.8647 0.8844
-19.6802 -22.2352 -0.8361 0.8880
-15.9972 -22.5559 -0.7786 0.8952
-12.4087 -22.2223 -0.7167 0.9032
-11.3845 -22.2251 -0.7031 0.9049
-10.4080 -22.2515 -0.6917 0.9064
-9.4610 -22.2756 -0.6815 0.9077
-6.7611 -22.3295 -0.6569 0.9109
-5.8996 -22.3449 -0.6507 0.9117
-5.0529 -22.3583 -0.6454 0.9124
-3.3941 -22.3799 -0.6374 0.9134
-0.9612 -22.3994 -0.6313 0.9142
0.6469 -22.4042 -0.6311 0.9142
1.4525 -22.4042 -0.6322 0.9141
2.2620 -4.1877 -0.1340 0.9811
33.2739 -35.9778 -1.3799 0.8219
32.8257 -33.0331 -1.3113 0.8300
32.8304 -30.7490 -1.2666 0.8353
32.6268 -26.4338 -1.1824 0.8453
33.8192 -25.4461 -1.1917 0.8442
34.5211 -3.7049 -0.9776 0.8703
44.4554 13.1555 -1.3054 0.8307
36.0464 15.0426 -1.0998 0.8553
35.0478 17.6750 -1.1053 0.8546
34.9729 24.4741 -1.2019 0.8430
34.9783 26.3962 -1.2339 0.8392
34.3826 34.6984 -1.3755 0.8224
4.3324 15.1478 -0.4436 0.9389
3.3535 13.5451 -0.3929 0.9457
2.7616 13.1616 -0.3787 0.9476
0.7824 12.3400 -0.3482 0.9517
0.3323 12.1034 -0.3409 0.9527
-0.5277 11.9028 -0.3355 0.9534
-1.8748 12.2444 -0.3488 0.9516
-2.2620 11.9021 -0.3411 0.9527
-3.1953 12.0329 -0.3506 0.9514
-4.1046 11.9322 -0.3553 0.9508
-5.5429 11.8065 -0.3673 0.9491
-6.6765 11.9168 -0.3846 0.9468
-8.3325 11.7134 -0.4048 0.9441
-11.3724 11.9219 -0.4639 0.9362
-13.0538 11.8532 -0.4965 0.9319
-14.0624 11.8773 -0.5183 0.9290
-16.2081 11.8078 -0.5646 0.9229
-20.5992 11.8485 -0.6691 0.9093
-24.5757 11.8783 -0.7686 0.8965
-24.7238 -22.2892 -0.9373 0.8753
-21.3793 -22.2525 -0.8689 0.8838
-17.1423 -19.1740 -0.7241 0.9022
-18.4781 -22.2235 -0.8138 0.8908
-16.1668 -22.5554 -0.7814 0.8949
-13.4692 -21.9622 -0.7254 0.9020
-12.5545 -22.2219 -0.7187 0.9029
-10.5421 -22.2479 -0.6932 0.9062
-7.7635 -22.3095 -0.6651 0.9098
-6.8823 -22.3272 -0.6579 0.9107
-4.3617 -22.5119 -0.6457 0.9123
-0.2689 -22.4022 -0.6308 0.9143
1.3402 -22.4043 -0.6320 0.9141
32.8196 -33.3586 -1.3177 0.8292
32.7646 -30.9960 -1.2700 0.8349
33.4686 -25.4451 -1.1838 0.8452
39.0063 -25.4605 -1.3116 0.8299
44.8963 13.0424 -1.3164 0.8294
35.6016 13.1762 -1.0689 0.8591
35.9958 14.8107 -1.0960 0.8558
36.0501 16.3687 -1.1148 0.8535
35.0472 17.4557 -1.1025 0.8550
33.4597 18.1911 -1.0724 0.8586
29.8868 17.6660 -0.9776 0.8703
34.9775 26.1224 -1.2292 0.8397
28.0421 22.5538 -1.0133 0.8659
7.6111 16.7250 -0.5174 0.9291
4.6400 15.9221 -0.4670 0.9358
3.4101 13.4848 -0.3917 0.9459
2.8685 13.3392 -0.3842 0.9469
2.3098 12.9928 -0.3716 0.9486
1.7987 12.7581 -0.3628 0.9497
-0.4680 11.8987 -0.3353 0.9535
-1.3243 11.8748 -0.3364 0.9533
-2.2044 11.9237 -0.3414 0.9526
-2.6896 12.1020 -0.3491 0.9516
-4.5067 11.8941 -0.3581 0.9504
-5.5410 11.9574 -0.3711 0.9486
-6.5934 11.9075 -0.3833 0.9470
-7.2236 12.0081 -0.3946 0.9455
-10.3860 11.8192 -0.4430 0.9390
-12.1277 11.9520 -0.4795 0.9341
-12.9970 11.9206 -0.4966 0.9319
-16.1588 11.8959 -0.5650 0.9228
-18.7253 11.8143 -0.6234 0.9152
-24.1151 11.8047 -0.7560 0.8981
-30.1964 -20.4443 -1.8494 0.8641
-28.6530 -22.5564 -1.8494 0.8641
-26.3874 -22.3514 -1.7538 0.8707
-21.2741 -22.3656 -1.5654 0.8837
-19.7992 -22.3697 -1.5150 0.8872
-13.2664 -21.8759 -1.2975 0.9026
-11.4704 -22.3929 -1.2760 0.9041
-10.4755 -22.3956 -1.2539 0.9057
-8.5795 -22.4009 -1.2165 0.9084
-6.7827 -22.4009 -1.1870 0.9105
-5.0636 -22.4057 -1.1649 0.9121
-2.5806 -22.4126 -1.1441 0.9136
-1.7690 -22.4149 -1.1403 0.9139
-0.9619 -22.4171 -1.1379 0.9141
0.6220 -21.5403 -1.0929 0.9173
1.4538 -22.4238 -1.1396 0.9139
6.2546 -35.9259 -1.8494 0.8641
7.5391 -35.6784 -1.8494 0.8641
6.7956 -27.2821 -1.4259 0.8935
14.9181 -36.5394 -2.0016 0.8538
16.2191 -35.9808 -2.0016 0.8538
2.2620 -4.1877 -0.2414 0.9811
21.1980 -33.2914 -2.0016 0.8538
22.3785 -32.5097 -2.0016 0.8538
23.5301 -31.6861 -2.0016 0.8538
25.7411 -29.9177 -2.0016 0.8538
26.7418 -28.9149 -1.9974 0.8541
26.9654 -27.1357 -1.9401 0.8579
26.9878 -25.2768 -1.8752 0.8623
29.9068 -20.8655 -1.8494 0.8641
30.6360 -19.7794 -1.8494 0.8641
31.3257 -18.6678 -1.8494 0.8641
31.9752 -17.5323 -1.8494 0.8641
36.4447 -15.1479 -2.0016 0.8538
37.8610 -11.1455 -2.0016 0.8538
38.2364 -9.7803 -2.0016 0.8538
38.5626 -8.4026 -2.0016 0.8538
36.1355 -5.1952 -1.8514 0.8640
34.0705 -3.6566 -1.7378 0.8718
36.5242 -2.5990 -1.8570 0.8636
39.4674 0.0281 -2.0016 0.8538
39.4410 1.4437 -2.0016 0.8538
39.3638 2.8574 -2.0016 0.8538
38.8291 7.0693 -2.0016 0.8538
37.5644 8.2411 -1.9504 0.8572
34.9673 10.3478 -1.8494 0.8641
34.5737 11.5953 -1.8494 0.8641
34.1355 12.8279 -1.8494 0.8641
33.6535 14.0440 -1.8494 0.8641
30.6078 19.8230 -1.8494 0.8641
29.8771 20.9081 -1.8494 0.8641
27.8572 22.6352 -1.8204 0.8661
27.4583 23.9964 -1.8494 0.8641
27.2665 27.5170 -1.9646 0.8563
25.6985 29.9543 -2.0016 0.8538
22.3322 32.5415 -2.0016 0.8538
19.9418 34.0587 -2.0016 0.8538
18.7074 34.7521 -2.0016 0.8538
17.4489 35.4007 -2.0016 0.8538
13.5452 37.0702 -2.0016 0.8538
12.2069 37.5322 -2.0016 0.8538
4.2603 14.8958 -0.7857 0.9398
3.2886 13.2831 -0.6940 0.9467
2.7716 13.2094 -0.6845 0.9474
2.2195 12.8568 -0.6617 0.9491
1.7480 12.8623 -0.6583 0.9493
0.7803 12.3068 -0.6254 0.9518
-0.1026 12.1671 -0.6171 0.9524
-0.5380 12.1353 -0.6160 0.9525
-0.9567 11.9063 -0.6058 0.9533
-1.3926 11.9456 -0.6099 0.9530
-1.8260 11.9256 -0.6118 0.9528
-2.2694 11.9413 -0.6164 0.9525
-3.1189 11.7453 -0.6163 0.9525
-6.6862 11.9341 -0.6937 0.9467
-8.4938 11.9402 -0.7431 0.9430
-9.7694 11.8353 -0.7783 0.9404
-11.4665 12.0205 -0.8425 0.9356
-13.0229 11.8252 -0.8921 0.9320
-15.1960 11.9277 -0.9797 0.9255
-16.3308 11.8972 -1.0247 0.9223
-20.6719 11.8903 -1.2094 0.9089
-22.7895 12.0418 -1.3072 0.9019
-23.9293 11.5659 -1.3479 0.8990
-33.3804 14.6812 -1.8494 0.8641
-36.6742 14.5835 -2.0016 0.8538
-37.1737 13.2586 -2.0016 0.8538
-38.0285 10.5596 -2.0016 0.8538
-38.3828 9.1888 -2.0016 0.8538
-39.1478 5.0126 -2.0016 0.8538
-39.3024 3.6053 -2.0016 0.8538
-39.4064 2.1932 -2.0016 0.8538
-39.4623 -0.6374 -2.0016 0.8538
-39.4140 -2.0525 -2.0016 0.8538
-38.9655 -6.2744 -2.0016 0.8538
-38.7154 -7.6679 -2.0016 0.8538
-37.6677 -11.7823 -2.0016 0.8538
-36.1841 -15.7603 -2.0016 0.8538
-35.5955 -17.0480 -2.0016 0.8538
-34.2818 -19.5560 -2.0016 0.8538
-30.2981 -20.2932 -1.8494 0.8641
-22.8352 -16.5111 -1.4291 0.8933
-26.6554 -22.3507 -1.7641 0.8699
-23.0816 -22.3606 -1.6298 0.8792
-21.4874 -22.3650 -1.5729 0.8832
-16.1668 -22.5554 -1.4074 0.8948
-11.6118 -22.3925 -1.2792 0.9039
-9.6453 -22.3980 -1.2367 0.9069
-8.7079 -22.4006 -1.2188 0.9082
-7.7943 -22.3981 -1.2027 0.9094
-6.0349 -22.4030 -1.1767 0.9113
-5.1813 -22.4054 -1.1663 0.9120
-3.5132 -22.4100 -1.1504 0.9132
0.4145 -17.3611 -0.8807 0.9328
1.3413 -22.4235 -1.1392 0.9140
3.4817 -36.2997 -1.8494 0.8641
6.0750 -35.9567 -1.8494 0.8641
7.3608 -35.7157 -1.8494 0.8641
9.3479 -38.3444 -2.0016 0.8538
13.4127 -37.1184 -2.0016 0.8538
16.0392 -36.0613 -2.0016 0.8538
19.8200 -34.1298 -2.0016 0.8538
22.2158 -32.6211 -2.0016 0.8538
25.5914 -30.0459 -2.0016 0.8538
26.9621 -27.4049 -1.9497 0.8573
26.9848 -25.5282 -1.8839 0.8618
27.3724 -24.0944 -1.8494 0.8641
29.0293 -22.0701 -1.8494 0.8641
29.8023 -21.0147 -1.8494 0.8641
31.2321 -18.8241 -1.8494 0.8641
31.8872 -17.6918 -1.8494 0.8641
36.8950 -14.0155 -2.0016 0.8538
37.3740 -12.6831 -2.0016 0.8538
37.8048 -11.3345 -2.0016 0.8538
38.1871 -9.9712 -2.0016 0.8538
38.5201 -8.5951 -2.0016 0.8538
38.8036 -7.2079 -2.0016 0.8538
36.2174 -5.3917 -1.8570 0.8636
39.4670 -0.1691 -2.0016 0.8538
39.4477 1.2466 -2.0016 0.8538
39.3776 2.6607 -2.0016 0.8538
35.3609 8.9104 -1.8494 0.8641
35.0186 10.1730 -1.8494 0.8641
34.1992 12.6573 -1.8494 0.8641
32.6417 16.2576 -1.8494 0.8641
32.0376 17.4179 -1.8494 0.8641
30.7064 19.6699 -1.8494 0.8641
27.5779 23.8590 -1.8494 0.8641
27.2685 25.3574 -1.8884 0.8614
25.8478 29.8256 -2.0016 0.8538
24.7614 30.7335 -2.0016 0.8538
22.4945 32.4295 -2.0016 0.8538
20.1117 33.9587 -2.0016 0.8538
18.8807 34.6582 -2.0016 0.8538
17.6255 35.3131 -2.0016 0.8538
7.6103 16.7231 -0.9318 0.9291
13.7302 37.0021 -2.0016 0.8538
12.3942 37.4708 -2.0016 0.8538
2.8264 13.1435 -0.6818 0.9476
2.3548 13.2460 -0.6823 0.9475
0.3999 12.3224 -0.6252 0.9518
-0.0410 11.9263 -0.6048 0.9534
-0.4691 11.9274 -0.6054 0.9533
-1.7696 11.9566 -0.6130 0.9527
-2.2464 12.1508 -0.6267 0.9517
-2.6412 11.8844 -0.6174 0.9524
-3.1110 11.9558 -0.6265 0.9517
-5.0598 12.0324 -0.6620 0.9491
-5.5074 11.8848 -0.6643 0.9489
-6.1430 12.0989 -0.6881 0.9471
-6.6373 11.9868 -0.6949 0.9466
-7.2393 12.0341 -0.7122 0.9453
-7.7524 11.8989 -0.7202 0.9447
-8.3433 11.8534 -0.7351 0.9436
-9.7318 11.9105 -0.7800 0.9403
-10.4316 11.8711 -0.8014 0.9387
-11.2327 11.8938 -0.8297 0.9366
-14.9409 11.8486 -0.9671 0.9265
-16.2013 11.9271 -1.0203 0.9226
-17.2603 11.7762 -1.0597 0.9197
-18.8214 11.8749 -1.1286 0.9147
-20.5625 11.9645 -1.2065 0.9091
-22.3295 11.9418 -1.2842 0.9036
-33.3066 14.8478 -1.8494 0.8641
-37.9753 10.7494 -2.0016 0.8538
-21.9773 -16.0586 -1.9958 0.8966
-20.5535 -16.1803 -1.9180 0.9004
-19.2459 -16.3023 -1.8494 0.9038
-18.6488 -16.9821 -1.8494 0.9038
-17.3834 -18.2753 -1.8494 0.9038
-15.3197 -20.0369 -1.8494 0.9038
-13.0788 -21.5665 -1.8494 0.9038
-12.2968 -22.0218 -1.8494 0.9038
-11.4704 -22.3929 -1.8448 0.9040
-10.4755 -22.3956 -1.8129 0.9056
-8.5795 -22.4009 -1.7588 0.9083
-7.6692 -22.3985 -1.7359 0.9094
-5.0636 -22.4057 -1.6843 0.9120
-4.1624 -22.0730 -1.6470 0.9138
-3.3987 -22.4103 -1.6620 0.9131
-1.7690 -22.4149 -1.6486 0.9138
-0.1571 -22.4193 -1.6439 0.9140
4.3262 -24.8486 -1.8494 0.9038
5.2147 -24.6775 -1.8494 0.9038
6.0963 -24.4746 -1.8494 0.9038
6.9702 -24.2402 -1.8494 0.9038
12.1035 -24.4682 -2.0016 0.8963
14.6619 -23.0265 -2.0016 0.8963
15.4784 -22.4858 -2.0016 0.8963
18.5350 -20.0411 -2.0016 0.8963
21.8132 -16.4126 -2.0016 0.8963
22.3879 -15.6197 -2.0016 0.8963
22.9337 -14.8066 -2.0016 0.8963
23.4500 -13.9745 -2.0016 0.8963
23.9362 -13.1244 -2.0016 0.8963
24.3915 -12.2574 -2.0016 0.8963
24.8155 -11.3747 -2.0016 0.8963
25.2075 -10.4773 -2.0016 0.8963
25.8937 -8.6432 -2.0016 0.8963
26.4467 -6.7647 -2.0016 0.8963
26.8636 -4.8513 -2.0016 0.8963
27.0204 -3.8847 -2.0016 0.8963
27.2293 -1.9376 -2.0016 0.8963
27.2813 -0.9597 -2.0016 0.8963
27.2982 0.0194 -2.0016 0.8963
27.0148 3.9231 -2.0016 0.8963
26.8567 4.8896 -2.0016 0.8963
26.4371 6.8023 -2.0016 0.8963
25.8814 8.6801 -2.0016 0.8963
24.3740 12.2921 -2.0016 0.8963
23.9175 13.1585 -2.0016 0.8963
23.4301 14.0079 -2.0016 0.8963
20.5550 17.9634 -2.0016 0.8963
18.5064 20.0675 -2.0016 0.8963
17.7747 20.7183 -2.0016 0.8963
17.0202 21.3425 -2.0016 0.8963
15.4464 22.5078 -2.0016 0.8963
12.9392 24.0368 -2.0016 0.8963
10.2824 25.2876 -2.0016 0.8963
9.3687 25.6401 -2.0016 0.8963
4.1393 14.4728 -1.1037 0.9414
3.3287 13.4452 -1.0156 0.9460
2.7693 13.1983 -0.9888 0.9473
2.2392 12.9709 -0.9651 0.9486
1.2491 12.5512 -0.9248 0.9507
0.7842 12.3683 -0.9087 0.9515
-1.3923 11.9425 -0.8816 0.9529
-2.2459 11.8177 -0.8820 0.9529
-2.6940 11.8423 -0.8905 0.9525
-3.6129 11.8713 -0.9098 0.9514
-4.0422 11.7511 -0.9112 0.9514
-4.5959 11.9491 -0.9387 0.9499
-7.2402 11.9008 -1.0214 0.9457
-8.3530 11.7422 -1.0566 0.9438
-9.8652 11.9514 -1.1363 0.9397
-11.4385 11.9911 -1.2151 0.9357
-13.0312 11.8327 -1.2906 0.9318
-14.6577 11.5052 -1.3663 0.9280
-17.0688 11.5210 -1.5099 0.9207
-18.4789 11.5302 -1.5970 0.9163
-20.0639 11.5406 -1.6971 0.9113
-21.8632 11.5524 -1.8131 0.9056
-22.7089 10.9760 -1.8494 0.9038
-23.0880 10.1545 -1.8494 0.9038
-23.4374 9.3198 -1.8494 0.9038
-26.3030 7.3037 -2.0016 0.8963
-26.5480 6.3556 -2.0016 0.8963
-26.9354 4.4360 -2.0016 0.8963
-27.0771 3.4670 -2.0016 0.8963
-27.2929 0.5384 -2.0016 0.8963
-24.8437 -4.9205 -1.8570 0.9034
-26.5705 -6.2607 -2.0016 0.8963
-25.7443 -9.0786 -2.0016 0.8963
-25.4021 -9.9962 -2.0016 0.8963
-24.6201 -11.7915 -2.0016 0.8963
-24.1813 -12.6670 -2.0016 0.8963
-23.7115 -13.5262 -2.0016 0.8963
-22.6808 -15.1912 -2.0016 0.8963
-16.8109 -18.8033 -1.8494 0.9038
-13.9490 -21.0141 -1.8494 0.9038
-13.1863 -21.5009 -1.8494 0.9038
-12.4066 -21.9601 -1.8494 0.9038
-8.7079 -22.4006 -1.7622 0.9081
-6.0349 -22.4030 -1.7012 0.9111
-5.1813 -22.4054 -1.6862 0.9119
-4.2766 -22.0727 -1.6485 0.9138
-2.6940 -22.4123 -1.6551 0.9134
-1.8817 -22.4145 -1.6493 0.9137
-0.2691 -22.4190 -1.6439 0.9140
0.4115 -17.2331 -1.2639 0.9332
1.3413 -22.4235 -1.6471 0.9138
2.4082 -25.1072 -1.8494 0.9038
5.0913 -24.7032 -1.8494 0.9038
5.9740 -24.5047 -1.8494 0.9038
6.8491 -24.2747 -1.8494 0.9038
9.2771 -25.6734 -2.0016 0.8963
10.1920 -25.3242 -2.0016 0.8963
11.0937 -24.9423 -2.0016 0.8963
2.2388 -4.1947 -0.3486 0.9811
13.7088 -23.6063 -2.0016 0.8963
16.9438 -21.4032 -2.0016 0.8963
19.1449 -19.4593 -2.0016 0.8963
19.8305 -18.7601 -2.0016 0.8963
21.1244 -17.2902 -2.0016 0.8963
22.3096 -15.7313 -2.0016 0.8963
23.3799 -14.0915 -2.0016 0.8963
24.7583 -11.4985 -2.0016 0.8963
25.1548 -10.6031 -2.0016 0.8963
25.5190 -9.6940 -2.0016 0.8963
26.6430 -5.9449 -2.0016 0.8963
27.0006 -4.0196 -2.0016 0.8963
27.2979 -0.1169 -2.0016 0.8963
27.1525 2.8160 -2.0016 0.8963
27.0341 3.7881 -2.0016 0.8963
26.8808 4.7553 -2.0016 0.8963
26.4707 6.6702 -2.0016 0.8963
26.2144 7.6153 -2.0016 0.8963
25.2448 10.3872 -2.0016 0.8963
24.8559 11.2860 -2.0016 0.8963
24.4351 12.1702 -2.0016 0.8963
23.9829 13.0388 -2.0016 0.8963
21.8717 16.3346 -2.0016 0.8963
21.2718 17.1086 -2.0016 0.8963
20.6444 17.8605 -2.0016 0.8963
19.9905 18.5895 -2.0016 0.8963
19.3109 19.2945 -2.0016 0.8963
17.8780 20.6293 -2.0016 0.8963
15.5586 22.4303 -2.0016 0.8963
13.9106 23.4880 -2.0016 0.8963
13.0591 23.9718 -2.0016 0.8963
12.1909 24.4248 -2.0016 0.8963
7.5747 16.6449 -1.3409 0.9293
3.4069 13.4723 -1.0189 0.9458
2.3127 13.0088 -0.9688 0.9484
1.3208 12.6313 -0.9312 0.9503
0.3946 12.1600 -0.8921 0.9524
-0.0410 11.9184 -0.8739 0.9533
-0.4683 11.9069 -0.8737 0.9533
-0.8917 11.8377 -0.8704 0.9535
-2.2177 11.9954 -0.8944 0.9523
-2.6497 11.9225 -0.8955 0.9522
-3.0780 11.8289 -0.8962 0.9522
-4.5153 11.9167 -0.9344 0.9502
-5.0103 11.9146 -0.9477 0.9495
-6.0458 11.9075 -0.9792 0.9478
-7.6945 11.8101 -1.0335 0.9450
-8.2977 11.7887 -1.0570 0.9438
-8.9771 11.8286 -1.0888 0.9422
-11.3118 11.9776 -1.2080 0.9361
-16.8845 11.5198 -1.4987 0.9213
-18.2729 11.5289 -1.5842 0.9170
-19.8313 11.5391 -1.6823 0.9121
-23.0370 10.2697 -1.8494 0.9038
-23.7139 8.5918 -1.8494 0.9038
-26.2662 7.4350 -2.0016 0.8963
-16.8335 -12.3001 -2.0016 0.9196
-15.9084 -13.4752 -2.0016 0.9196
-14.9015 -14.5810 -2.0016 0.9196
-14.3689 -15.1061 -2.0016 0.9196
-12.3659 -16.1735 -1.9546 0.9214
-9.9887 -16.4711 -1.8494 0.9255
-9.3915 -16.8188 -1.8494 0.9255
-8.7822 -17.1448 -1.8494 0.9255
-4.9175 -18.6249 -1.8494 0.9255
-4.2463 -18.7893 -1.8494 0.9255
-2.2034 -19.1367 -1.8494 0.9255
-0.8258 -19.2455 -1.8494 0.9255
2.6211 -19.0840 -1.8494 0.9255
3.3039 -18.9777 -1.8494 0.9255
3.9825 -18.8470 -1.8494 0.9255
5.5630 -19.3462 -1.9326 0.9223
6.4742 -19.8101 -2.0009 0.9197
7.8804 -19.3018 -2.0016 0.9196
8.5677 -19.0067 -2.0016 0.9196
9.2439 -18.6872 -2.0016 0.9196
10.5598 -17.9764 -2.0016 0.9196
11.1978 -17.5861 -2.0016 0.9196
11.8213 -17.1731 -2.0016 0.9196
13.0220 -16.2815 -2.0016 0.9196
13.5977 -15.8039 -2.0016 0.9196
14.1558 -15.3060 -2.0016 0.9196
17.0983 -11.9292 -2.0016 0.9196
18.6286 -9.3614 -2.0016 0.9196
19.5264 -7.3062 -2.0016 0.9196
19.7759 -6.6011 -2.0016 0.9196
19.9999 -5.8876 -2.0016 0.9196
20.7295 -2.2248 -2.0016 0.9196
20.8356 -0.7330 -2.0016 0.9196
20.7938 1.5094 -2.0016 0.9196
20.7263 2.2543 -2.0016 0.9196
20.6321 2.9962 -2.0016 0.9196
20.5113 3.7343 -2.0016 0.9196
20.3642 4.4676 -2.0016 0.9196
20.1908 5.1951 -2.0016 0.9196
19.7665 6.6292 -2.0016 0.9196
19.5160 7.3340 -2.0016 0.9196
18.2665 10.0495 -2.0016 0.9196
17.8943 10.6983 -2.0016 0.9196
16.6416 12.5585 -2.0016 0.9196
16.1805 13.1473 -2.0016 0.9196
15.1963 14.2735 -2.0016 0.9196
14.1340 15.3262 -2.0016 0.9196
12.4058 16.7557 -2.0016 0.9196
11.7969 17.1899 -2.0016 0.9196
9.8821 18.3577 -2.0016 0.9196
7.2558 17.8444 -1.8494 0.9255
6.6111 18.0932 -1.8494 0.9255
3.9178 13.6983 -1.3678 0.9444
2.7780 13.2398 -1.2988 0.9471
0.7870 12.4117 -1.1940 0.9513
-0.1011 11.9958 -1.1517 0.9529
-0.9611 11.9609 -1.1520 0.9529
-1.8291 11.9460 -1.1602 0.9526
-3.1508 11.8653 -1.1786 0.9519
-4.1574 12.0857 -1.2270 0.9499
-5.0933 11.9448 -1.2467 0.9492
-5.5632 11.8497 -1.2568 0.9488
-6.2068 12.0747 -1.3034 0.9469
-11.7721 11.4862 -1.5790 0.9360
-13.6138 11.4983 -1.7108 0.9309
-14.6577 11.5052 -1.7889 0.9279
-16.3427 10.1973 -1.8494 0.9255
-16.6980 9.6046 -1.8494 0.9255
-17.0317 8.9995 -1.8494 0.9255
-19.6369 7.0038 -2.0016 0.9196
-19.8754 6.2950 -2.0016 0.9196
-20.0884 5.5781 -2.0016 0.9196
-20.4366 4.1236 -2.0016 0.9196
-20.6797 2.6479 -2.0016 0.9196
-20.7613 1.9045 -2.0016 0.9196
-20.7680 -1.8303 -2.0016 0.9196
-20.6890 -2.5740 -2.0016 0.9196
-20.4512 -4.0506 -2.0016 0.9196
-20.1082 -5.5063 -2.0016 0.9196
-19.6618 -6.9336 -2.0016 0.9196
-19.4004 -7.6344 -2.0016 0.9196
-18.8032 -9.0055 -2.0016 0.9196
-18.4681 -9.6742 -2.0016 0.9196
-17.7270 -10.9732 -2.0016 0.9196
-16.8948 -12.2159 -2.0016 0.9196
-16.4457 -12.8140 -2.0016 0.9196
-15.4848 -13.9600 -2.0016 0.9196
-14.9741 -14.5064 -2.0016 0.9196
-14.4442 -15.0342 -2.0016 0.9196
-13.8956 -15.5426 -2.0016 0.9196
-8.8677 -17.1007 -1.8494 0.9255
-7.6189 -17.6924 -1.8494 0.9255
-5.1766 -16.7935 -1.6872 0.9318
-5.0105 -18.6001 -1.8494 0.9255
-4.3401 -18.7679 -1.8494 0.9255
-1.6115 -19.1956 -1.8494 0.9255
-0.2312 -19.2618 -1.8494 0.9255
0.4103 -17.1823 -1.6501 0.9333
1.1502 -19.2288 -1.8494 0.9255
2.5258 -19.0968 -1.8494 0.9255
3.2091 -18.9940 -1.8494 0.9255
5.4109 -19.1776 -1.9130 0.9230
6.3701 -19.8265 -1.9993 0.9197
7.0852 -19.6076 -2.0016 0.9196
7.7839 -19.3409 -2.0016 0.9196
2.2388 -4.1947 -0.4565 0.9811
10.4699 -18.0289 -2.0016 0.9196
12.3459 -16.7999 -2.0016 0.9196
12.9406 -16.3463 -2.0016 0.9196
13.5185 -15.8716 -2.0016 0.9196
14.6216 -14.8617 -2.0016 0.9196
17.4585 -11.3956 -2.0016 0.9196
17.8560 -10.7621 -2.0016 0.9196
18.2305 -10.1147 -2.0016 0.9196
18.9087 -8.7818 -2.0016 0.9196
19.4896 -7.4036 -2.0016 0.9196
19.7427 -6.6998 -2.0016 0.9196
20.1722 -5.2672 -2.0016 0.9196
20.3481 -4.5403 -2.0016 0.9196
20.6212 -3.0699 -2.0016 0.9196
20.7181 -2.3283 -2.0016 0.9196
20.7883 -1.5837 -2.0016 0.9196
20.6468 2.8931 -2.0016 0.9196
20.5297 3.6318 -2.0016 0.9196
20.3863 4.3658 -2.0016 0.9196
20.0208 5.8161 -2.0016 0.9196
19.5524 7.2364 -2.0016 0.9196
19.2802 7.9330 -2.0016 0.9196
18.9833 8.6194 -2.0016 0.9196
18.6619 9.2948 -2.0016 0.9196
17.9476 10.6087 -2.0016 0.9196
17.1408 11.8681 -2.0016 0.9196
16.7041 12.4752 -2.0016 0.9196
15.2674 14.1974 -2.0016 0.9196
13.0801 16.2349 -2.0016 0.9196
12.4894 16.6936 -2.0016 0.9196
11.8826 17.1308 -2.0016 0.9196
11.2605 17.5460 -2.0016 0.9196
7.5551 16.6018 -1.7511 0.9293
7.3449 17.8079 -1.8494 0.9255
6.7014 18.0599 -1.8494 0.9255
4.2282 14.5089 -1.4509 0.9411
3.3580 13.2788 -1.3150 0.9464
2.8330 13.1742 -1.2937 0.9473
1.2936 12.3711 -1.1942 0.9512
0.4008 12.3514 -1.1864 0.9516
-0.0410 11.9188 -1.1443 0.9532
-0.4672 11.8795 -1.1414 0.9534
-0.9140 12.1331 -1.1681 0.9523
-1.3296 11.9228 -1.1517 0.9529
-1.7761 12.0006 -1.1647 0.9524
-2.2214 12.0157 -1.1731 0.9521
-3.1195 11.9886 -1.1893 0.9514
-4.0236 11.8896 -1.2050 0.9508
-5.0393 11.9837 -1.2481 0.9491
-5.9557 11.7300 -1.2630 0.9485
-6.6124 11.9419 -1.3105 0.9466
-7.4769 11.4761 -1.3150 0.9464
-8.0677 11.4620 -1.3457 0.9452
-10.0837 11.4752 -1.4666 0.9405
-10.8420 11.4802 -1.5160 0.9385
-11.6543 11.4855 -1.5709 0.9364
-14.5066 11.5042 -1.7775 0.9283
-15.5128 11.4203 -1.8494 0.9255
-16.6498 9.6878 -1.8494 0.9255
-18.4893 8.2424 -1.9435 0.9219
-19.3317 7.7993 -2.0013 0.9196
-20.0603 5.6784 -2.0016 0.9196
-13.6052 -9.9412 -2.0016 0.9344
-13.2399 -10.4228 -2.0016 0.9344
-12.4586 -11.3451 -2.0016 0.9344
-11.6132 -12.2090 -2.0016 0.9344
-10.7081 -13.0102 -2.0016 0.9344
-9.7478 -13.7444 -2.0016 0.9344
-8.7374 -14.4078 -2.0016 0.9344
-8.2150 -14.7119 -2.0016 0.9344
-6.5872 -15.5093 -2.0016 0.9344
-5.4492 -15.9148 -1.9982 0.9345
-3.0499 -16.1734 -1.9550 0.9359
-2.4531 -16.1756 -1.9434 0.9362
-1.8626 -16.1773 -1.9343 0.9365
-0.6956 -16.2104 -1.9273 0.9367
2.2889 -16.6655 -1.9982 0.9345
3.4836 -16.4861 -2.0016 0.9344
4.0727 -16.3506 -2.0016 0.9344
6.9246 -15.3616 -2.0016 0.9344
7.4711 -15.1033 -2.0016 0.9344
2.2619 -4.1876 -0.5654 0.9810
8.5346 -14.5289 -2.0016 0.9344
9.5542 -13.8796 -2.0016 0.9344
10.0459 -13.5280 -2.0016 0.9344
10.9899 -12.7730 -2.0016 0.9344
11.8773 -11.9523 -2.0016 0.9344
12.2983 -11.5186 -2.0016 0.9344
12.7036 -11.0701 -2.0016 0.9344
13.0925 -10.6073 -2.0016 0.9344
13.4645 -10.1309 -2.0016 0.9344
14.1561 -9.1396 -2.0016 0.9344
14.4748 -8.6259 -2.0016 0.9344
14.7749 -8.1012 -2.0016 0.9344
15.3177 -7.0212 -2.0016 0.9344
15.5596 -6.4672 -2.0016 0.9344
15.7816 -5.9050 -2.0016 0.9344
16.4639 -3.5874 -2.0016 0.9344
16.6787 -2.3979 -2.0016 0.9344
16.7539 -1.7981 -2.0016 0.9344
16.8077 -1.1960 -2.0016 0.9344
16.8397 -0.5924 -2.0016 0.9344
16.8501 0.0120 -2.0016 0.9344
16.7514 1.8219 -2.0016 0.9344
16.5777 3.0181 -2.0016 0.9344
15.9756 5.3579 -2.0016 0.9344
15.5504 6.4894 -2.0016 0.9344
15.0452 7.5875 -2.0016 0.9344
14.7634 8.1222 -2.0016 0.9344
14.4625 8.6465 -2.0016 0.9344
14.1431 9.1597 -2.0016 0.9344
13.4501 10.1500 -2.0016 0.9344
12.2819 11.5361 -2.0016 0.9344
11.8603 11.9692 -2.0016 0.9344
11.4233 12.3869 -2.0016 0.9344
10.9717 12.7887 -2.0016 0.9344
10.0266 13.5423 -2.0016 0.9344
9.5345 13.8932 -2.0016 0.9344
7.3796 13.7088 -1.8494 0.9392
6.8831 13.9647 -1.8494 0.9392
6.3778 14.2026 -1.8494 0.9392
4.8153 14.8055 -1.8494 0.9392
3.9178 13.6982 -1.6924 0.9442
1.6984 12.4980 -1.4982 0.9505
1.2224 12.2833 -1.4663 0.9515
0.7657 12.0773 -1.4375 0.9524
-1.3311 11.4178 -1.3655 0.9548
-2.5993 11.4261 -1.3919 0.9539
-3.4792 11.4319 -1.4194 0.9530
-3.9335 11.4349 -1.4364 0.9525
-4.3993 11.4379 -1.4557 0.9518
-5.3729 11.4443 -1.5018 0.9503
-6.4156 11.4511 -1.5592 0.9485
-8.7931 11.4667 -1.7165 0.9435
-10.1863 11.4759 -1.8227 0.9401
-12.2468 9.6128 -1.8494 0.9392
-14.8877 7.8666 -2.0002 0.9344
-15.1710 7.3327 -2.0016 0.9344
-15.6576 6.2262 -2.0016 0.9344
-16.3871 3.9231 -2.0016 0.9344
-16.7797 1.5392 -2.0016 0.9344
-16.8241 0.9364 -2.0016 0.9344
-16.8469 0.3323 -2.0016 0.9344
-16.8480 -0.2721 -2.0016 0.9344
-16.7851 -1.4793 -2.0016 0.9344
-16.7212 -2.0803 -2.0016 0.9344
-16.6359 -2.6788 -2.0016 0.9344
-16.5291 -3.2737 -2.0016 0.9344
-16.2519 -4.4503 -2.0016 0.9344
-15.6798 -6.1703 -2.0016 0.9344
-15.1971 -7.2785 -2.0016 0.9344
-14.9263 -7.8189 -2.0016 0.9344
-14.6362 -8.3492 -2.0016 0.9344
-14.3273 -8.8688 -2.0016 0.9344
-12.9117 -10.8266 -2.0016 0.9344
-11.6741 -12.1509 -2.0016 0.9344
-11.2307 -12.5618 -2.0016 0.9344
-10.3013 -13.3346 -2.0016 0.9344
-9.3188 -14.0388 -2.0016 0.9344
-7.7569 -14.9586 -2.0016 0.9344
-6.6645 -15.4762 -2.0016 0.9344
-5.5298 -15.8907 -1.9986 0.9345
-4.3551 -16.1672 -1.9889 0.9348
-3.7394 -16.1704 -1.9715 0.9353
-2.5358 -16.1753 -1.9449 0.9362
-1.9445 -16.1771 -1.9354 0.9365
-0.7764 -16.2038 -1.9270 0.9367
-0.1952 -16.2624 -1.9319 0.9366
