ply
format ascii 1.0
element vertex 1587
property float32 x
property float32 y
property float32 z
property float32 I
end_header
12.9926 5.5451 -2.0016 0.9445
12.5606 6.4643 -2.0016 0.9445
12.0636 7.3501 -2.0016 0.9445
11.5043 8.1979 -2.0016 0.9445
10.8856 9.0033 -2.0016 0.9445
9.8529 10.1230 -2.0016 0.9445
8.7058 11.1250 -2.0016 0.9445
8.3002 11.4307 -2.0016 0.9445
7.8839 11.7217 -2.0016 0.9445
7.4551 11.9939 -2.0009 0.9445
6.5062 11.3587 -1.8547 0.9485
5.2303 11.9585 -1.8494 0.9486
4.3575 12.3034 -1.8494 0.9486
3.9124 12.4521 -1.8494 0.9486
3.4622 12.5847 -1.8494 0.9486
3.0076 12.7010 -1.8494 0.9486
2.5490 12.8009 -1.8494 0.9486
2.0503 12.6567 -1.8167 0.9495
1.0867 12.2221 -1.7386 0.9516
0.1982 11.8213 -1.6752 0.9534
-0.6300 11.4132 -1.6196 0.9549
-1.1158 8.7339 -1.2476 0.9651
-2.7351 11.4270 -1.6648 0.9536
-3.6226 11.4328 -1.6993 0.9527
-11.8017 2.8877 -2.0016 0.9519
-12.0440 1.6003 -2.0016 0.9519
-12.0938 1.1663 -2.0016 0.9519
-12.1279 0.7308 -2.0016 0.9519
-11.5119 -2.2321 -1.9318 0.9536
-10.9819 -2.5421 -1.8570 0.9553
-10.6443 -3.7097 -1.8570 0.9553
-10.5041 -4.0900 -1.8570 0.9553
-10.1831 -4.8341 -1.8570 0.9553
-10.1157 -6.7299 -2.0016 0.9519
-9.8672 -7.0892 -2.0016 0.9519
-9.6060 -7.4394 -2.0016 0.9519
-9.0466 -8.1104 -2.0016 0.9519
-8.7492 -8.4304 -2.0016 0.9519
-8.4405 -8.7395 -2.0016 0.9519
-7.7907 -9.3233 -2.0016 0.9519
-7.4505 -9.5974 -2.0016 0.9519
-6.7416 -10.1079 -2.0016 0.9519
-5.2232 -10.9699 -2.0016 0.9519
-4.0118 -11.4684 -2.0016 0.9519
-3.1774 -11.7271 -2.0016 0.9519
-2.7537 -11.8337 -2.0016 0.9519
-2.3265 -11.9250 -2.0016 0.9519
-1.8963 -12.0010 -2.0016 0.9519
-1.4637 -12.0614 -2.0016 0.9519
0.2803 -12.1466 -2.0016 0.9519
1.5864 -12.0459 -2.0016 0.9519
2.0184 -11.9810 -2.0016 0.9519
2.8741 -11.8050 -2.0016 0.9519
4.1284 -11.4270 -2.0016 0.9519
4.5365 -11.2712 -2.0016 0.9519
5.3346 -10.9161 -2.0016 0.9519
2.2398 -4.1939 -0.7833 0.9809
6.1052 -10.5046 -2.0016 0.9519
6.8442 -10.0387 -2.0016 0.9519
7.2007 -9.7862 -2.0016 0.9519
7.8852 -9.2435 -2.0016 0.9519
8.2124 -8.9541 -2.0016 0.9519
9.6812 -7.3412 -2.0016 0.9519
10.1837 -6.6266 -2.0016 0.9519
10.6335 -5.8777 -2.0016 0.9519
11.2045 -4.6987 -2.0016 0.9519
11.3662 -4.2929 -2.0016 0.9519
11.5132 -3.8815 -2.0016 0.9519
11.7623 -3.0442 -2.0016 0.9519
11.8642 -2.6194 -2.0016 0.9519
11.9507 -2.1912 -2.0016 0.9519
12.1171 -0.8918 -2.0016 0.9519
12.1427 0.4180 -2.0016 0.9519
12.1198 0.8542 -2.0016 0.9519
12.0271 1.7229 -2.0016 0.9519
11.8722 2.5826 -2.0016 0.9519
11.6560 3.4290 -2.0016 0.9519
11.5252 3.8458 -2.0016 0.9519
10.8549 5.4581 -2.0016 0.9519
10.4347 6.2239 -2.0016 0.9519
9.7039 7.3112 -2.0016 0.9519
9.1535 7.9895 -2.0016 0.9519
8.5558 8.6266 -2.0016 0.9519
7.2309 9.7639 -2.0016 0.9519
6.8753 10.0175 -2.0016 0.9519
6.5107 10.2582 -2.0016 0.9519
6.1273 10.4679 -1.9982 0.9520
4.9602 10.0707 -1.8494 0.9555
4.5949 10.2425 -1.8494 0.9555
4.2238 10.4011 -1.8494 0.9555
3.8471 10.5462 -1.8494 0.9555
2.6893 10.8991 -1.8494 0.9555
1.8992 11.0642 -1.8494 0.9555
0.2937 11.2221 -1.8494 0.9555
-0.5134 11.2142 -1.8494 0.9555
-1.0574 8.9447 -1.4838 0.9641
-2.1155 11.0249 -1.8494 0.9555
-2.5105 10.9417 -1.8494 0.9555
-3.2902 10.7330 -1.8494 0.9555
-4.0529 10.4689 -1.8494 0.9555
-4.4266 10.3164 -1.8494 0.9555
-4.7946 10.1506 -1.8494 0.9555
-6.2000 9.3585 -1.8494 0.9555
-6.5325 9.1296 -1.8494 0.9555
-7.1716 8.6366 -1.8494 0.9555
-7.9217 8.2533 -1.8846 0.9547
-8.4999 8.2411 -1.9504 0.9531
-10.0948 6.7612 -2.0016 0.9519
-10.3313 6.3940 -2.0016 0.9519
-10.5545 6.0184 -2.0016 0.9519
-10.7641 5.6351 -2.0016 0.9519
-10.9597 5.2445 -2.0016 0.9519
-11.1411 4.8471 -2.0016 0.9519
-11.4606 4.0340 -2.0016 0.9519
-11.8283 2.7767 -2.0016 0.9519
-12.0585 1.4871 -2.0016 0.9519
-12.1042 1.0526 -2.0016 0.9519
-12.1485 0.1802 -2.0016 0.9519
-12.1472 -0.2567 -2.0016 0.9519
-12.1301 -0.6932 -2.0016 0.9519
-12.0489 -1.5630 -2.0016 0.9519
-11.0455 -2.2496 -1.8570 0.9553
-10.8553 -3.0374 -1.8570 0.9553
-10.7391 -3.4257 -1.8570 0.9553
-10.6090 -3.8096 -1.8570 0.9553
-10.3078 -4.5620 -1.8570 0.9553
-10.1372 -4.9296 -1.8570 0.9553
-9.9534 -5.2909 -1.8570 0.9553
-9.7568 -5.6453 -1.8570 0.9553
-10.2909 -6.4589 -2.0016 0.9519
-10.0520 -6.8247 -2.0016 0.9519
-8.6696 -8.5122 -2.0016 0.9519
-8.3580 -8.8184 -2.0016 0.9519
-8.0355 -9.1132 -2.0016 0.9519
-7.3600 -9.6670 -2.0016 0.9519
-7.0077 -9.9253 -2.0016 0.9519
-6.2764 -10.4032 -2.0016 0.9519
-5.8983 -10.6221 -2.0016 0.9519
-5.5127 -10.8273 -2.0016 0.9519
-4.7204 -11.1954 -2.0016 0.9519
-4.3149 -11.3579 -2.0016 0.9519
-3.4877 -11.6385 -2.0016 0.9519
-3.0670 -11.7564 -2.0016 0.9519
-2.2144 -11.9464 -2.0016 0.9519
-1.3502 -12.0746 -2.0016 0.9519
-0.4792 -12.1404 -2.0016 0.9519
-0.0424 -12.1498 -2.0016 0.9519
1.6995 -12.0304 -2.0016 0.9519
2.1309 -11.9615 -2.0016 0.9519
2.5596 -11.8772 -2.0016 0.9519
3.4064 -11.6626 -2.0016 0.9519
4.2355 -11.3877 -2.0016 0.9519
5.4370 -10.8655 -2.0016 0.9519
2.2856 -4.1847 -0.7855 0.9809
6.2036 -10.4467 -2.0016 0.9519
6.5752 -10.2170 -2.0016 0.9519
6.9382 -9.9740 -2.0016 0.9519
7.2923 -9.7181 -2.0016 0.9519
7.6370 -9.4497 -2.0016 0.9519
7.9717 -9.1690 -2.0016 0.9519
9.7498 -7.2499 -2.0016 0.9519
10.2455 -6.5306 -2.0016 0.9519
10.4737 -6.1580 -2.0016 0.9519
10.6883 -5.7775 -2.0016 0.9519
10.8891 -5.3896 -2.0016 0.9519
11.4060 -4.1859 -2.0016 0.9519
12.0892 -1.2133 -2.0016 0.9519
12.1250 -0.7779 -2.0016 0.9519
12.1382 0.5321 -2.0016 0.9519
12.0686 1.4029 -2.0016 0.9519
11.9366 2.2664 -2.0016 0.9519
11.8474 2.6941 -2.0016 0.9519
11.4885 3.9539 -2.0016 0.9519
11.3389 4.3644 -2.0016 0.9519
11.1747 4.7692 -2.0016 0.9519
10.9960 5.1679 -2.0016 0.9519
10.8031 5.5598 -2.0016 0.9519
10.5963 5.9446 -2.0016 0.9519
10.3757 6.3217 -2.0016 0.9519
9.6348 7.4020 -2.0016 0.9519
9.0780 8.0752 -2.0016 0.9519
8.7819 8.3963 -2.0016 0.9519
8.4743 8.7066 -2.0016 0.9519
8.1559 9.0056 -2.0016 0.9519
7.4877 9.5684 -2.0016 0.9519
7.1389 9.8314 -2.0016 0.9519
6.4140 10.3189 -2.0016 0.9519
6.0231 10.5153 -1.9963 0.9521
5.2807 10.0397 -1.8688 0.9551
4.4985 10.2853 -1.8494 0.9555
4.1258 10.4403 -1.8494 0.9555
3.7478 10.5819 -1.8494 0.9555
3.3650 10.7098 -1.8494 0.9555
2.9778 10.8238 -1.8494 0.9555
2.5868 10.9239 -1.8494 0.9555
2.1924 11.0098 -1.8494 0.9555
1.7952 11.0815 -1.8494 0.9555
0.9943 11.1819 -1.8494 0.9555
-0.2154 11.2239 -1.8494 0.9555
-0.6187 11.2089 -1.8494 0.9555
-1.0213 11.1794 -1.8494 0.9555
-1.1125 8.7088 -1.4463 0.9650
-1.8220 11.0772 -1.8494 0.9555
-2.2190 11.0045 -1.8494 0.9555
-2.6132 10.9176 -1.8494 0.9555
-10.4988 1.7812 -2.0016 0.9576
-10.5560 1.4026 -2.0016 0.9576
-10.5996 1.0222 -2.0016 0.9576
-10.6295 0.6405 -2.0016 0.9576
-10.6481 -0.1249 -2.0016 0.9576
-10.6367 -0.5076 -2.0016 0.9576
-10.6116 -0.8897 -2.0016 0.9576
-10.5727 -1.2706 -2.0016 0.9576
-10.5202 -1.6499 -2.0016 0.9576
-10.4541 -2.0270 -2.0016 0.9576
-9.6825 -2.2414 -1.8681 0.9604
-9.5388 -2.5726 -1.8570 0.9606
-9.3293 -3.2514 -1.8570 0.9606
-8.4169 -5.1732 -1.8570 0.9606
-8.2255 -5.4724 -1.8570 0.9606
-8.6482 -6.2134 -2.0016 0.9576
-8.4192 -6.5203 -2.0016 0.9576
-8.1794 -6.8187 -2.0016 0.9576
-7.9289 -7.1084 -2.0016 0.9576
-7.3977 -7.6597 -2.0016 0.9576
-7.1175 -7.9207 -2.0016 0.9576
-6.5300 -8.4117 -2.0016 0.9576
-6.2234 -8.6410 -2.0016 0.9576
-4.9206 -9.4438 -2.0016 0.9576
-4.5779 -9.6146 -2.0016 0.9576
-3.8752 -9.9187 -2.0016 0.9576
-3.5161 -10.0516 -2.0016 0.9576
-2.7848 -10.2782 -2.0016 0.9576
-2.4135 -10.3717 -2.0016 0.9576
-2.0391 -10.4518 -2.0016 0.9576
-1.2828 -10.5713 -2.0016 0.9576
-0.9020 -10.6105 -2.0016 0.9576
-0.5199 -10.6361 -2.0016 0.9576
-0.1372 -10.6479 -2.0016 0.9576
0.2457 -10.6460 -2.0016 0.9576
0.6282 -10.6303 -2.0016 0.9576
1.0100 -10.6008 -2.0016 0.9576
1.3904 -10.5576 -2.0016 0.9576
2.8893 -10.2493 -2.0016 0.9576
3.2559 -10.1388 -2.0016 0.9576
3.6183 -10.0152 -2.0016 0.9576
4.3286 -9.7294 -2.0016 0.9576
5.6785 -9.0085 -2.0016 0.9576
5.9986 -8.7985 -2.0016 0.9576
6.3111 -8.5772 -2.0016 0.9576
6.9110 -8.1015 -2.0016 0.9576
7.4753 -7.5841 -2.0016 0.9576
7.7431 -7.3104 -2.0016 0.9576
8.0009 -7.0273 -2.0016 0.9576
9.4990 -4.8132 -2.0016 0.9576
9.6659 -4.4686 -2.0016 0.9576
9.8203 -4.1182 -2.0016 0.9576
10.2066 -3.0370 -2.0016 0.9576
10.3984 -2.2958 -2.0016 0.9576
10.5851 -1.1629 -2.0016 0.9576
10.6488 -0.0165 -2.0016 0.9576
10.6425 0.3664 -2.0016 0.9576
10.6225 0.7487 -2.0016 0.9576
10.5887 1.1301 -2.0016 0.9576
10.4801 1.8880 -2.0016 0.9576
10.4055 2.2636 -2.0016 0.9576
10.3174 2.6362 -2.0016 0.9576
10.2159 3.0054 -2.0016 0.9576
9.9736 3.7316 -2.0016 0.9576
9.8330 4.0878 -2.0016 0.9576
9.6797 4.4386 -2.0016 0.9576
9.5138 4.7837 -2.0016 0.9576
9.1455 5.4550 -2.0016 0.9576
8.9435 5.7802 -2.0016 0.9576
8.5051 6.4079 -2.0016 0.9576
8.2692 6.7095 -2.0016 0.9576
7.4987 7.5608 -2.0016 0.9576
6.9361 8.0801 -2.0016 0.9576
6.6411 8.3242 -2.0016 0.9576
6.3376 8.5576 -2.0016 0.9576
6.0258 8.7799 -2.0016 0.9576
5.0417 9.3705 -2.0000 0.9576
4.6885 9.5190 -1.9945 0.9577
4.1450 9.2396 -1.9034 0.9596
3.0373 9.3585 -1.8494 0.9607
2.6989 9.4617 -1.8494 0.9607
2.0121 9.6311 -1.8494 0.9607
1.6646 9.6972 -1.8494 0.9607
1.3149 9.7508 -1.8494 0.9607
0.9635 9.7918 -1.8494 0.9607
0.6108 9.8201 -1.8494 0.9607
-0.0963 9.8386 -1.8494 0.9607
-0.4500 9.8288 -1.8494 0.9607
-1.8541 9.6628 -1.8494 0.9607
-2.2003 9.5899 -1.8494 0.9607
-2.5436 9.5046 -1.8494 0.9607
-2.8837 9.4070 -1.8494 0.9607
-3.2200 9.2973 -1.8494 0.9607
-3.5522 9.1755 -1.8494 0.9607
-3.8797 9.0419 -1.8494 0.9607
-4.2023 8.8965 -1.8494 0.9607
-4.8306 8.5716 -1.8494 0.9607
-5.4706 8.2575 -1.8618 0.9605
-5.9025 8.2492 -1.9066 0.9596
-6.3560 8.2400 -1.9560 0.9585
-7.6454 7.4125 -2.0016 0.9576
-7.9069 7.1329 -2.0016 0.9576
-8.8476 5.9259 -2.0016 0.9576
-9.0550 5.6040 -2.0016 0.9576
-9.9111 3.8945 -2.0016 0.9576
-10.1653 3.1723 -2.0016 0.9576
-10.2728 2.8048 -2.0016 0.9576
-10.4478 2.0594 -2.0016 0.9576
-10.5688 1.3034 -2.0016 0.9576
-10.6088 0.9226 -2.0016 0.9576
-10.6476 0.1579 -2.0016 0.9576
-10.6315 -0.6076 -2.0016 0.9576
-10.5603 -1.3699 -2.0016 0.9576
-9.1723 -3.6710 -1.8570 0.9606
-9.0344 -3.9984 -1.8570 0.9606
-8.8848 -4.3206 -1.8570 0.9606
-8.7237 -4.6372 -1.8570 0.9606
-8.5514 -4.9478 -1.8570 0.9606
-8.1737 -5.5495 -1.8570 0.9606
-8.3576 -6.5991 -2.0016 0.9576
-8.1149 -6.8953 -2.0016 0.9576
-7.8618 -7.1826 -2.0016 0.9576
-7.0428 -7.9873 -2.0016 0.9576
-6.4507 -8.4727 -2.0016 0.9576
-4.8316 -9.4896 -2.0016 0.9576
-4.4873 -9.6572 -2.0016 0.9576
-4.1373 -9.8123 -2.0016 0.9576
-3.7818 -9.9546 -2.0016 0.9576
-3.0568 -10.2007 -2.0016 0.9576
-2.6881 -10.3039 -2.0016 0.9576
-2.3159 -10.3939 -2.0016 0.9576
-1.9408 -10.4705 -2.0016 0.9576
-0.4200 -10.6405 -2.0016 0.9576
-0.0372 -10.6488 -2.0016 0.9576
0.3457 -10.6432 -2.0016 0.9576
1.1095 -10.5909 -2.0016 0.9576
1.4896 -10.5441 -2.0016 0.9576
1.8677 -10.4838 -2.0016 0.9576
2.9855 -10.2217 -2.0016 0.9576
3.3511 -10.1078 -2.0016 0.9576
3.7123 -9.9808 -2.0016 0.9576
4.0687 -9.8409 -2.0016 0.9576
2.2856 -4.1846 -0.8962 0.9808
5.4372 -9.1561 -2.0016 0.9576
5.7629 -8.9547 -2.0016 0.9576
6.3914 -8.5175 -2.0016 0.9576
6.9869 -8.0362 -2.0016 0.9576
7.5462 -7.5134 -2.0016 0.9576
8.7682 -6.0429 -2.0016 0.9576
8.9797 -5.7238 -2.0016 0.9576
9.3678 -5.0637 -2.0016 0.9576
9.9969 -3.6687 -2.0016 0.9576
10.2347 -2.9409 -2.0016 0.9576
10.3338 -2.5711 -2.0016 0.9576
10.5956 -1.0634 -2.0016 0.9576
10.6270 -0.6818 -2.0016 0.9576
10.6446 -0.2993 -2.0016 0.9576
10.6485 0.0836 -2.0016 0.9576
10.6150 0.8485 -2.0016 0.9576
10.4619 1.9864 -2.0016 0.9576
10.3837 2.3612 -2.0016 0.9576
10.0692 3.4655 -2.0016 0.9576
9.6375 4.5294 -2.0016 0.9576
8.8888 5.8640 -2.0016 0.9576
8.6722 6.1798 -2.0016 0.9576
8.4445 6.4876 -2.0016 0.9576
8.2058 6.7869 -2.0016 0.9576
7.6969 7.3590 -2.0016 0.9576
7.4274 7.6309 -2.0016 0.9576
7.1482 7.8930 -2.0016 0.9576
6.2569 8.6168 -2.0016 0.9576
5.2928 9.2403 -2.0016 0.9576
3.2848 9.2746 -1.8494 0.9607
2.9493 9.3866 -1.8494 0.9607
2.2672 9.5743 -1.8494 0.9607
1.9215 9.6496 -1.8494 0.9607
1.5734 9.7125 -1.8494 0.9607
0.1650 9.8377 -1.8494 0.9607
-0.5423 9.8241 -1.8494 0.9607
-0.8951 9.7983 -1.8494 0.9607
-1.5969 9.7086 -1.8494 0.9607
-1.9448 9.6449 -1.8494 0.9607
-2.2903 9.5688 -1.8494 0.9607
-9.2727 1.9184 -2.0016 0.9620
-9.4253 0.9090 -2.0016 0.9620
-9.4359 -0.7911 -2.0016 0.9620
-9.4014 -1.1298 -2.0016 0.9620
-9.3547 -1.4671 -2.0016 0.9620
-9.2959 -1.8024 -2.0016 0.9620
-9.2251 -2.1355 -2.0016 0.9620
-8.4820 -2.2876 -1.8570 0.9647
-8.1864 -3.1875 -1.8570 0.9647
-8.0665 -3.4798 -1.8570 0.9647
-7.3142 -4.8661 -1.8570 0.9647
-6.9457 -5.3791 -1.8570 0.9647
-6.7478 -5.6253 -1.8570 0.9647
-6.8187 -6.5702 -2.0016 0.9620
-6.5781 -6.8111 -2.0016 0.9620
-6.3290 -7.0432 -2.0016 0.9620
-6.0717 -7.2662 -2.0016 0.9620
-5.8065 -7.4797 -2.0016 0.9620
-5.5339 -7.6836 -2.0016 0.9620
-4.9675 -8.0614 -2.0016 0.9620
-4.0707 -8.5494 -2.0016 0.9620
-3.7607 -8.6902 -2.0016 0.9620
-2.1461 -9.2226 -2.0016 0.9620
-1.8132 -9.2938 -2.0016 0.9620
-0.8020 -9.4350 -2.0016 0.9620
-0.1220 -9.4682 -2.0016 0.9620
0.8981 -9.4263 -2.0016 0.9620
1.2364 -9.3880 -2.0016 0.9620
1.5731 -9.3374 -2.0016 0.9620
2.2399 -9.2003 -2.0016 0.9620
3.2174 -8.9056 -2.0016 0.9620
3.5355 -8.7842 -2.0016 0.9620
4.1575 -8.5075 -2.0016 0.9620
5.3340 -7.8237 -2.0016 0.9620
5.6119 -7.6269 -2.0016 0.9620
5.8824 -7.4202 -2.0016 0.9620
6.6471 -6.7438 -2.0016 0.9620
6.8853 -6.5004 -2.0016 0.9620
7.5451 -5.7214 -2.0016 0.9620
7.7459 -5.4464 -2.0016 0.9620
7.9367 -5.1644 -2.0016 0.9620
8.1172 -4.8758 -2.0016 0.9620
8.2873 -4.5808 -2.0016 0.9620
8.9728 -3.0250 -2.0016 0.9620
9.1670 -2.3725 -2.0016 0.9620
9.2464 -2.0414 -2.0016 0.9620
9.4634 0.3258 -2.0016 0.9620
9.4456 0.6658 -2.0016 0.9620
9.4156 1.0049 -2.0016 0.9620
9.2526 2.0128 -2.0016 0.9620
9.1743 2.3441 -2.0016 0.9620
9.0841 2.6724 -2.0016 0.9620
8.9821 2.9972 -2.0016 0.9620
8.6072 3.9469 -2.0016 0.9620
8.1323 4.8506 -2.0016 0.9620
7.9526 5.1398 -2.0016 0.9620
7.3530 5.9662 -2.0016 0.9620
6.9053 6.4791 -2.0016 0.9620
6.4219 6.9585 -2.0016 0.9620
5.6354 7.6095 -2.0016 0.9620
5.3582 7.8071 -2.0016 0.9620
5.0741 7.9947 -2.0016 0.9620
3.8740 8.6354 -2.0006 0.9620
3.5537 8.7511 -1.9965 0.9621
3.1986 8.7684 -1.9729 0.9626
2.8035 8.6379 -1.9196 0.9636
1.7892 8.5641 -1.8494 0.9649
1.1692 8.6705 -1.8494 0.9649
0.8567 8.7069 -1.8494 0.9649
0.5432 8.7321 -1.8494 0.9649
-0.0857 8.7486 -1.8494 0.9649
-0.4001 8.7398 -1.8494 0.9649
-0.7140 8.7198 -1.8494 0.9649
-1.0271 8.6885 -1.8494 0.9649
-1.9565 8.5274 -1.8494 0.9649
-2.2618 8.4516 -1.8494 0.9649
-2.5642 8.3648 -1.8494 0.9649
-3.1961 8.2557 -1.8713 0.9645
-3.5403 8.2508 -1.8978 0.9640
-4.6318 8.2188 -1.9942 0.9622
-5.7834 7.4977 -2.0016 0.9620
-6.3071 7.0627 -2.0016 0.9620
-6.7983 6.5913 -2.0016 0.9620
-7.0309 6.3426 -2.0016 0.9620
-7.6729 5.5488 -2.0016 0.9620
-7.8674 5.2694 -2.0016 0.9620
-8.2257 4.6905 -2.0016 0.9620
-8.3890 4.3917 -2.0016 0.9620
-8.5414 4.0873 -2.0016 0.9620
-8.9319 3.1439 -2.0016 0.9620
-9.1347 2.4940 -2.0016 0.9620
-9.3501 1.4960 -2.0016 0.9620
-9.3978 1.1590 -2.0016 0.9620
-9.4334 0.8203 -2.0016 0.9620
-9.4568 0.4807 -2.0016 0.9620
-9.4680 0.1404 -2.0016 0.9620
-9.4669 -0.2001 -2.0016 0.9620
-9.4281 -0.8798 -2.0016 0.9620
-8.3695 -2.6698 -1.8570 0.9647
-7.7572 -4.1234 -1.8570 0.9647
-7.0861 -5.1927 -1.8570 0.9647
-6.2625 -7.1023 -2.0016 0.9620
-6.0031 -7.3229 -2.0016 0.9620
-5.7360 -7.5340 -2.0016 0.9620
-5.1798 -7.9266 -2.0016 0.9620
-4.8915 -8.1077 -2.0016 0.9620
-4.5969 -8.2783 -2.0016 0.9620
-3.9902 -8.5872 -2.0016 0.9620
-3.6789 -8.7251 -2.0016 0.9620
-3.3628 -8.8518 -2.0016 0.9620
-3.0425 -8.9669 -2.0016 0.9620
-2.7181 -9.0705 -2.0016 0.9620
-2.0594 -9.2424 -2.0016 0.9620
0.6474 -9.4469 -2.0016 0.9620
1.3245 -9.3759 -2.0016 0.9620
1.9948 -9.2565 -2.0016 0.9620
3.6179 -8.7506 -2.0016 0.9620
2.2856 -4.1846 -1.0079 0.9807
4.8348 -8.1417 -2.0016 0.9620
5.1244 -7.9626 -2.0016 0.9620
5.4073 -7.7732 -2.0016 0.9620
5.9519 -7.3646 -2.0016 0.9620
6.2128 -7.1459 -2.0016 0.9620
6.7102 -6.6810 -2.0016 0.9620
6.9460 -6.4354 -2.0016 0.9620
7.7967 -5.3734 -2.0016 0.9620
8.6319 -3.8926 -2.0016 0.9620
8.7663 -3.5797 -2.0016 0.9620
8.8893 -3.2623 -2.0016 0.9620
9.0009 -2.9406 -2.0016 0.9620
9.1007 -2.6151 -2.0016 0.9620
9.1889 -2.2862 -2.0016 0.9620
9.2651 -1.9544 -2.0016 0.9620
9.3294 -1.6201 -2.0016 0.9620
9.3816 -1.2836 -2.0016 0.9620
9.4217 -0.9455 -2.0016 0.9620
9.4653 -0.2661 -2.0016 0.9620
9.4599 0.4147 -2.0016 0.9620
9.4389 0.7545 -2.0016 0.9620
9.4057 1.0933 -2.0016 0.9620
9.3603 1.4308 -2.0016 0.9620
9.3028 1.7663 -2.0016 0.9620
9.1519 2.4302 -2.0016 0.9620
9.0586 2.7576 -2.0016 0.9620
8.9536 3.0815 -2.0016 0.9620
8.5698 4.0276 -2.0016 0.9620
8.4194 4.3331 -2.0016 0.9620
8.0863 4.9268 -2.0016 0.9620
7.0750 6.2934 -2.0016 0.9620
6.6045 6.7855 -2.0016 0.9620
6.3563 7.0186 -2.0016 0.9620
6.0998 7.2425 -2.0016 0.9620
5.8355 7.4571 -2.0016 0.9620
4.9988 8.0421 -2.0016 0.9620
4.7064 8.2166 -2.0016 0.9620
4.1039 8.5335 -2.0016 0.9620
3.7906 8.6667 -1.9995 0.9621
3.4695 8.7796 -1.9955 0.9621
3.0932 8.7336 -1.9585 0.9628
2.7036 8.6048 -1.9066 0.9638
2.3417 8.5119 -1.8661 0.9646
2.0160 8.5136 -1.8494 0.9649
1.7086 8.5805 -1.8494 0.9649
1.3991 8.6364 -1.8494 0.9649
1.0877 8.6811 -1.8494 0.9649
0.7749 8.7146 -1.8494 0.9649
0.4611 8.7368 -1.8494 0.9649
0.1467 8.7478 -1.8494 0.9649
-0.1679 8.7474 -1.8494 0.9649
-0.4822 8.7357 -1.8494 0.9649
-1.1073 8.6681 -1.8471 0.9649
-1.4199 8.6330 -1.8494 0.9649
-2.3411 8.4299 -1.8494 0.9649
-8.2724 2.0241 -2.0016 0.9656
-8.3398 1.7254 -2.0016 0.9656
-8.3965 1.4245 -2.0016 0.9656
-8.4422 1.1217 -2.0016 0.9656
-8.5139 0.2063 -2.0016 0.9656
-8.4136 -1.3195 -2.0016 0.9656
-8.3607 -1.6211 -2.0016 0.9656
-8.2970 -1.9206 -2.0016 0.9656
-8.2193 -2.2168 -2.0008 0.9656
-7.4611 -2.6003 -1.8570 0.9681
-6.7315 -4.1373 -1.8570 0.9681
-6.5784 -4.3766 -1.8570 0.9681
-6.2469 -4.8380 -1.8570 0.9681
-6.0690 -5.0594 -1.8570 0.9681
-5.8832 -5.2743 -1.8570 0.9681
-5.4890 -5.6834 -1.8570 0.9681
-5.2224 -6.7273 -2.0016 0.9656
-4.9772 -6.9107 -2.0016 0.9656
-4.4678 -7.2504 -2.0016 0.9656
-4.2042 -7.4064 -2.0016 0.9656
-3.9352 -7.5527 -2.0016 0.9656
-3.6612 -7.6893 -2.0016 0.9656
-3.3824 -7.8160 -2.0016 0.9656
-2.8120 -8.0388 -2.0016 0.9656
-2.5212 -8.1347 -2.0016 0.9656
-2.2272 -8.2201 -2.0016 0.9656
-1.9302 -8.2948 -2.0016 0.9656
-1.6308 -8.3589 -2.0016 0.9656
-1.3292 -8.4121 -2.0016 0.9656
-0.7213 -8.4858 -2.0016 0.9656
-0.1097 -8.5157 -2.0016 0.9656
0.1965 -8.5142 -2.0016 0.9656
1.1120 -8.4435 -2.0016 0.9656
1.4148 -8.3981 -2.0016 0.9656
1.7158 -8.3418 -2.0016 0.9656
2.3108 -8.1970 -2.0016 0.9656
2.2239 -4.1641 -1.1095 0.9808
4.2794 -7.3632 -2.0016 0.9656
4.5414 -7.2046 -2.0016 0.9656
5.2906 -6.6737 -2.0016 0.9656
5.7565 -6.2763 -2.0016 0.9656
5.9784 -6.0653 -2.0016 0.9656
6.1926 -5.8465 -2.0016 0.9656
6.5967 -5.3864 -2.0016 0.9656
6.7861 -5.1458 -2.0016 0.9656
6.9667 -4.8985 -2.0016 0.9656
7.5969 -3.8494 -2.0016 0.9656
7.7303 -3.5738 -2.0016 0.9656
7.8538 -3.2936 -2.0016 0.9656
7.9671 -3.0091 -2.0016 0.9656
8.0702 -2.7207 -2.0016 0.9656
8.1628 -2.4288 -2.0016 0.9656
8.3162 -1.8360 -2.0016 0.9656
8.4935 -0.6251 -2.0016 0.9656
8.5164 -0.0132 -2.0016 0.9656
8.4954 0.5988 -2.0016 0.9656
8.3815 1.5100 -2.0016 0.9656
8.3218 1.8103 -2.0016 0.9656
7.9764 2.9844 -2.0016 0.9656
7.8640 3.2692 -2.0016 0.9656
7.6087 3.8258 -2.0016 0.9656
7.4663 4.0969 -2.0016 0.9656
7.1526 4.6228 -2.0016 0.9656
6.9818 4.8769 -2.0016 0.9656
6.8020 5.1248 -2.0016 0.9656
6.2107 5.8273 -2.0016 0.9656
5.9972 6.0468 -2.0016 0.9656
5.7759 6.2585 -2.0016 0.9656
5.3113 6.6573 -2.0016 0.9656
4.8192 7.0218 -2.0016 0.9656
4.5637 7.1905 -2.0016 0.9656
4.3022 7.3499 -2.0016 0.9656
3.7630 7.6400 -2.0016 0.9656
3.4859 7.7704 -2.0016 0.9656
2.6290 8.1002 -2.0015 0.9656
1.7357 8.3079 -1.9947 0.9657
1.4263 8.3093 -1.9814 0.9660
1.1155 8.2723 -1.9618 0.9663
0.8127 8.2594 -1.9505 0.9665
-0.3774 8.2431 -1.9394 0.9667
-0.9742 8.2411 -1.9503 0.9665
-1.2758 8.2394 -1.9595 0.9663
-1.5806 8.2372 -1.9713 0.9661
-2.1940 8.1980 -1.9945 0.9657
-3.0708 7.9321 -1.9990 0.9657
-3.6374 7.7006 -2.0016 0.9656
-3.9118 7.5649 -2.0016 0.9656
-4.1813 7.4194 -2.0016 0.9656
-4.4453 7.2642 -2.0016 0.9656
-4.9558 6.9260 -2.0016 0.9656
-5.2016 6.7434 -2.0016 0.9656
-5.6726 6.3522 -2.0016 0.9656
-6.1144 5.9282 -2.0016 0.9656
-6.3236 5.7046 -2.0016 0.9656
-6.5246 5.4736 -2.0016 0.9656
-6.7171 5.2355 -2.0016 0.9656
-7.0759 4.7393 -2.0016 0.9656
-7.2417 4.4818 -2.0016 0.9656
-7.8094 3.3976 -2.0016 0.9656
-7.9265 3.1146 -2.0016 0.9656
-8.0333 2.8277 -2.0016 0.9656
-8.1298 2.5370 -2.0016 0.9656
-8.2911 1.9463 -2.0016 0.9656
-8.3557 1.6470 -2.0016 0.9656
-8.4844 0.7378 -2.0016 0.9656
-8.5055 0.4323 -2.0016 0.9656
-8.4796 -0.7913 -2.0016 0.9656
-8.4457 -1.0956 -2.0016 0.9656
-8.3451 -1.6996 -2.0016 0.9656
-7.9608 -2.2275 -1.9428 0.9666
-7.5276 -2.4012 -1.8570 0.9681
-7.4364 -2.6703 -1.8570 0.9681
-7.2253 -3.1977 -1.8570 0.9681
-7.1056 -3.4554 -1.8570 0.9681
-6.9768 -3.7086 -1.8570 0.9681
-6.8390 -3.9571 -1.8570 0.9681
-6.3732 -4.6704 -1.8570 0.9681
-6.2012 -4.8965 -1.8570 0.9681
-6.0212 -5.1162 -1.8570 0.9681
-5.8333 -5.3294 -1.8570 0.9681
-5.8585 -6.1812 -2.0016 0.9656
-5.6325 -6.3879 -2.0016 0.9656
-5.3992 -6.5862 -2.0016 0.9656
-5.1590 -6.7761 -2.0016 0.9656
-4.9120 -6.9571 -2.0016 0.9656
-4.3994 -7.2921 -2.0016 0.9656
-3.8641 -7.5894 -2.0016 0.9656
-3.5888 -7.7234 -2.0016 0.9656
-2.7364 -8.0649 -2.0016 0.9656
-2.4447 -8.1580 -2.0016 0.9656
-2.1498 -8.2406 -2.0016 0.9656
-1.8522 -8.3126 -2.0016 0.9656
-1.5522 -8.3738 -2.0016 0.9656
-0.6416 -8.4922 -2.0016 0.9656
-0.0297 -8.5164 -2.0016 0.9656
0.2765 -8.5120 -2.0016 0.9656
0.8874 -8.4701 -2.0016 0.9656
1.7941 -8.3253 -2.0016 0.9656
2.0923 -8.2554 -2.0016 0.9656
3.2540 -7.8703 -2.0016 0.9656
3.5348 -7.7482 -2.0016 0.9656
4.3484 -7.3226 -2.0016 0.9656
4.6089 -7.1616 -2.0016 0.9656
4.8634 -6.9913 -2.0016 0.9656
5.3531 -6.6237 -2.0016 0.9656
6.2473 -5.7880 -2.0016 0.9656
6.4513 -5.5597 -2.0016 0.9656
6.8341 -5.0818 -2.0016 0.9656
7.6327 -3.7778 -2.0016 0.9656
7.7636 -3.5009 -2.0016 0.9656
8.0954 -2.6448 -2.0016 0.9656
8.1852 -2.3520 -2.0016 0.9656
8.2645 -2.0562 -2.0016 0.9656
8.4378 -1.1545 -2.0016 0.9656
8.4739 -0.8504 -2.0016 0.9656
8.4990 -0.5452 -2.0016 0.9656
8.5131 -0.2393 -2.0016 0.9656
8.5162 0.0668 -2.0016 0.9656
8.4595 0.9833 -2.0016 0.9656
8.4187 1.2868 -2.0016 0.9656
8.3044 1.8884 -2.0016 0.9656
8.0529 2.7715 -2.0016 0.9656
7.9480 3.0592 -2.0016 0.9656
7.7077 3.6224 -2.0016 0.9656
7.4275 4.1669 -2.0016 0.9656
6.9357 4.9423 -2.0016 0.9656
6.5626 5.4279 -2.0016 0.9656
6.1556 5.8854 -2.0016 0.9656
5.7168 6.3125 -2.0016 0.9656
5.4862 6.5139 -2.0016 0.9656
4.7530 7.0667 -2.0016 0.9656
4.4959 7.2330 -2.0016 0.9656
4.2330 7.3900 -2.0016 0.9656
3.9646 7.5374 -2.0016 0.9656
3.6910 7.6750 -2.0016 0.9656
3.4127 7.8028 -2.0016 0.9656
3.1300 7.9204 -2.0016 0.9656
2.8432 8.0278 -2.0016 0.9656
1.9570 8.2644 -1.9960 0.9657
1.6572 8.3220 -1.9943 0.9657
1.3443 8.2982 -1.9757 0.9660
0.1383 8.2434 -1.9377 0.9667
-0.4550 8.2430 -1.9402 0.9666
-1.0527 8.2407 -1.9525 0.9664
-2.2713 8.1784 -1.9949 0.9657
-2.5656 8.0971 -1.9962 0.9657
-7.5702 1.5662 -2.0016 0.9686
-7.6216 1.2930 -2.0016 0.9686
-7.6948 0.7421 -2.0016 0.9686
-7.7165 0.4650 -2.0016 0.9686
-7.7300 -0.0907 -2.0016 0.9686
-7.7217 -0.3685 -2.0016 0.9686
-7.6753 -0.9224 -2.0016 0.9686
-7.4638 -2.0130 -2.0016 0.9686
-7.2099 -2.2255 -1.9537 0.9693
-6.7726 -2.3603 -1.8570 0.9708
-6.4791 -3.0758 -1.8570 0.9708
-6.2413 -3.5334 -1.8570 0.9708
-6.1103 -3.7555 -1.8570 0.9708
-5.9713 -3.9727 -1.8570 0.9708
-5.8246 -4.1848 -1.8570 0.9708
-5.6704 -4.3915 -1.8570 0.9708
-5.5089 -4.5925 -1.8570 0.9708
-5.1647 -4.9765 -1.8570 0.9708
-4.3980 -5.6653 -1.8570 0.9708
-4.5179 -6.2729 -2.0016 0.9686
-4.2894 -6.4313 -2.0016 0.9686
-3.8162 -6.7229 -2.0016 0.9686
-3.3233 -6.9797 -2.0016 0.9686
-3.0702 -7.0947 -2.0016 0.9686
-2.8132 -7.2004 -2.0016 0.9686
-2.2886 -7.3840 -2.0016 0.9686
-2.0216 -7.4615 -2.0016 0.9686
-1.7521 -7.5293 -2.0016 0.9686
-1.2066 -7.6357 -2.0016 0.9686
-0.9313 -7.6742 -2.0016 0.9686
-0.3774 -7.7213 -2.0016 0.9686
-0.0996 -7.7298 -2.0016 0.9686
1.0094 -7.6643 -2.0016 0.9686
1.2842 -7.6231 -2.0016 0.9686
1.5575 -7.5720 -2.0016 0.9686
1.8287 -7.5111 -2.0016 0.9686
3.1423 -7.0630 -2.0016 0.9686
2.1077 -4.3129 -1.2429 0.9804
2.3883 -4.1093 -1.2306 0.9806
4.1223 -6.5397 -2.0016 0.9686
4.3547 -6.3872 -2.0016 0.9686
4.8024 -6.0578 -2.0016 0.9686
5.0171 -5.8813 -2.0016 0.9686
5.2252 -5.6971 -2.0016 0.9686
5.4267 -5.5056 -2.0016 0.9686
5.9879 -4.8893 -2.0016 0.9686
6.1598 -4.6709 -2.0016 0.9686
6.3237 -4.4464 -2.0016 0.9686
6.4795 -4.2162 -2.0016 0.9686
6.6269 -3.9806 -2.0016 0.9686
6.7657 -3.7398 -2.0016 0.9686
7.0169 -3.2440 -2.0016 0.9686
7.2319 -2.7314 -2.0016 0.9686
7.3254 -2.4696 -2.0016 0.9686
7.4094 -2.2047 -2.0016 0.9686
7.4839 -1.9369 -2.0016 0.9686
7.5487 -1.6666 -2.0016 0.9686
7.6037 -1.3941 -2.0016 0.9686
7.6489 -1.1199 -2.0016 0.9686
7.6843 -0.8442 -2.0016 0.9686
7.7250 -0.2899 -2.0016 0.9686
7.7114 0.5435 -2.0016 0.9686
7.6868 0.8204 -2.0016 0.9686
7.6524 1.0962 -2.0016 0.9686
7.4899 1.9137 -2.0016 0.9686
7.4162 2.1817 -2.0016 0.9686
7.0269 3.2222 -2.0016 0.9686
6.7772 3.7188 -2.0016 0.9686
6.6392 3.9600 -2.0016 0.9686
6.4925 4.1962 -2.0016 0.9686
6.3375 4.4268 -2.0016 0.9686
5.2429 5.6809 -2.0016 0.9686
5.0353 5.8657 -2.0016 0.9686
4.8211 6.0429 -2.0016 0.9686
4.6008 6.2124 -2.0016 0.9686
4.3745 6.3737 -2.0016 0.9686
4.1425 6.5269 -2.0016 0.9686
3.6628 6.8077 -2.0016 0.9686
3.1642 7.0532 -2.0016 0.9686
2.3864 7.3529 -2.0016 0.9686
2.1205 7.4340 -2.0016 0.9686
1.5809 7.5671 -2.0016 0.9686
1.0331 7.6611 -2.0016 0.9686
0.4799 7.7156 -2.0016 0.9686
-0.0757 7.7301 -2.0016 0.9686
-0.3535 7.7224 -2.0016 0.9686
-0.6309 7.7047 -2.0016 0.9686
-1.4568 7.5920 -2.0016 0.9686
-1.9985 7.4677 -2.0016 0.9686
-2.5299 7.3048 -2.0016 0.9686
-2.7909 7.2091 -2.0016 0.9686
-3.0483 7.1041 -2.0016 0.9686
-3.3017 6.9899 -2.0016 0.9686
-4.2695 6.4445 -2.0016 0.9686
-5.1491 5.7660 -2.0016 0.9686
-5.3531 5.5772 -2.0016 0.9686
-5.9224 4.9684 -2.0016 0.9686
-6.0972 4.7523 -2.0016 0.9686
-6.2641 4.5300 -2.0016 0.9686
-6.5734 4.0682 -2.0016 0.9686
-6.7154 3.8293 -2.0016 0.9686
-6.8488 3.5854 -2.0016 0.9686
-6.9732 3.3369 -2.0016 0.9686
-7.2919 2.5667 -2.0016 0.9686
-7.3795 2.3029 -2.0016 0.9686
-7.4575 2.0361 -2.0016 0.9686
-7.6724 0.9462 -2.0016 0.9686
-7.7296 0.1146 -2.0016 0.9686
-7.6970 -0.7182 -2.0016 0.9686
-7.6663 -0.9945 -2.0016 0.9686
-7.6255 -1.2695 -2.0016 0.9686
-7.4445 -2.0831 -2.0016 0.9686
-6.7501 -2.4239 -1.8570 0.9708
-6.6586 -2.6650 -1.8570 0.9708
-6.5585 -2.9026 -1.8570 0.9708
-6.4499 -3.1365 -1.8570 0.9708
-6.3330 -3.3664 -1.8570 0.9708
-6.0747 -3.8127 -1.8570 0.9708
-5.9337 -4.0286 -1.8570 0.9708
-5.7850 -4.2393 -1.8570 0.9708
-5.1177 -5.0248 -1.8570 0.9708
-4.5469 -5.5465 -1.8570 0.9708
-4.4587 -6.3151 -2.0016 0.9686
-3.5075 -6.8890 -2.0016 0.9686
-3.2576 -7.0106 -2.0016 0.9686
-3.0034 -7.1232 -2.0016 0.9686
-2.7454 -7.2266 -2.0016 0.9686
-2.4839 -7.3206 -2.0016 0.9686
-2.2191 -7.4051 -2.0016 0.9686
-1.6813 -7.5454 -2.0016 0.9686
-1.4089 -7.6010 -2.0016 0.9686
-0.5824 -7.7085 -2.0016 0.9686
-0.3049 -7.7245 -2.0016 0.9686
0.8055 -7.6884 -2.0016 0.9686
1.3558 -7.6107 -2.0016 0.9686
1.6285 -7.5570 -2.0016 0.9686
1.8992 -7.4936 -2.0016 0.9686
2.1673 -7.4204 -2.0016 0.9686
2.4327 -7.3377 -2.0016 0.9686
2.1108 -4.2183 -1.2213 0.9807
4.1835 -6.5006 -2.0016 0.9686
4.4145 -6.3461 -2.0016 0.9686
4.6398 -6.1832 -2.0016 0.9686
4.8591 -6.0124 -2.0016 0.9686
5.4782 -5.4544 -2.0016 0.9686
6.9283 -3.4292 -2.0016 0.9686
7.1568 -2.9225 -2.0016 0.9686
7.4298 -2.1350 -2.0016 0.9686
7.5018 -1.8665 -2.0016 0.9686
7.6165 -1.3226 -2.0016 0.9686
7.7274 -0.2173 -2.0016 0.9686
7.7303 0.0607 -2.0016 0.9686
7.7231 0.3385 -2.0016 0.9686
7.7059 0.6160 -2.0016 0.9686
7.6788 0.8926 -2.0016 0.9686
7.6417 1.1681 -2.0016 0.9686
7.4716 1.9840 -2.0016 0.9686
7.3954 2.2513 -2.0016 0.9686
7.1100 3.0345 -2.0016 0.9686
6.8736 3.5375 -2.0016 0.9686
6.7420 3.7823 -2.0016 0.9686
6.6017 4.0223 -2.0016 0.9686
6.2956 4.4862 -2.0016 0.9686
5.9570 4.9270 -2.0016 0.9686
5.7760 5.1379 -2.0016 0.9686
5.5876 5.3423 -2.0016 0.9686
5.3919 5.5397 -2.0016 0.9686
3.8423 6.7080 -2.0016 0.9686
3.5987 6.8418 -2.0016 0.9686
3.3504 6.9667 -2.0016 0.9686
3.0978 7.0827 -2.0016 0.9686
2.8411 7.1895 -2.0016 0.9686
2.0506 7.4536 -2.0016 0.9686
1.7813 7.5225 -2.0016 0.9686
0.1296 7.7294 -2.0016 0.9686
-0.1483 7.7291 -2.0016 0.9686
-0.7033 7.6984 -2.0016 0.9686
-1.2546 7.6280 -2.0016 0.9686
-1.5281 7.5780 -2.0016 0.9686
-6.9237 1.4325 -2.0016 0.9710
-6.9707 1.1826 -2.0016 0.9710
-7.0087 0.9313 -2.0016 0.9710
-7.0377 0.6787 -2.0016 0.9710
-7.0683 0.1713 -2.0016 0.9710
-7.0698 -0.0829 -2.0016 0.9710
-7.0198 -0.8436 -2.0016 0.9710
-6.9849 -1.0955 -2.0016 0.9710
-6.9411 -1.3459 -2.0016 0.9710
-6.8264 -1.8411 -2.0016 0.9710
-6.7558 -2.0853 -2.0016 0.9710
-6.4037 -2.2318 -1.9198 0.9722
-6.1126 -2.3801 -1.8570 0.9731
-6.0231 -2.5983 -1.8570 0.9731
-5.9258 -2.8131 -1.8570 0.9731
-5.4614 -3.6334 -1.8570 0.9731
-5.3272 -3.8274 -1.8570 0.9731
-5.0384 -4.2003 -1.8570 0.9731
-4.7236 -4.5515 -1.8570 0.9731
-4.5569 -4.7184 -1.8570 0.9731
-4.0225 -5.1816 -1.8570 0.9731
-3.6397 -5.4572 -1.8570 0.9731
-3.4412 -5.5845 -1.8570 0.9731
-3.4903 -6.1487 -2.0016 0.9710
-3.0395 -6.3836 -2.0016 0.9710
-2.8081 -6.4888 -2.0016 0.9710
-2.5730 -6.5855 -2.0016 0.9710
-2.3346 -6.6738 -2.0016 0.9710
-2.0931 -6.7534 -2.0016 0.9710
-1.3539 -6.9395 -2.0016 0.9710
-1.1035 -6.9837 -2.0016 0.9710
-0.5989 -7.0449 -2.0016 0.9710
-0.3452 -7.0619 -2.0016 0.9710
-0.0911 -7.0697 -2.0016 0.9710
0.4171 -7.0580 -2.0016 0.9710
0.6706 -7.0385 -2.0016 0.9710
0.9232 -7.0098 -2.0016 0.9710
1.1746 -6.9721 -2.0016 0.9710
1.4245 -6.9253 -2.0016 0.9710
1.6725 -6.8697 -2.0016 0.9710
1.9184 -6.8051 -2.0016 0.9710
2.4024 -6.6497 -2.0016 0.9710
2.6399 -6.5590 -2.0016 0.9710
2.3799 -4.0948 -1.3408 0.9805
3.9828 -5.8418 -2.0016 0.9710
4.3923 -5.5405 -2.0016 0.9710
4.5886 -5.3790 -2.0016 0.9710
4.7790 -5.2106 -2.0016 0.9710
5.4766 -4.4718 -2.0016 0.9710
5.9262 -3.8562 -2.0016 0.9710
6.0610 -3.6406 -2.0016 0.9710
6.1879 -3.4204 -2.0016 0.9710
6.5202 -2.7343 -2.0016 0.9710
6.6998 -2.2587 -2.0016 0.9710
6.7767 -2.0164 -2.0016 0.9710
6.9041 -1.5243 -2.0016 0.9710
6.9544 -1.2751 -2.0016 0.9710
7.0280 -0.7721 -2.0016 0.9710
7.0513 -0.5189 -2.0016 0.9710
7.0703 -0.0109 -2.0016 0.9710
7.0304 0.7503 -2.0016 0.9710
6.9989 1.0026 -2.0016 0.9710
6.9583 1.2536 -2.0016 0.9710
6.9088 1.5029 -2.0016 0.9710
6.8503 1.7503 -2.0016 0.9710
6.7829 1.9954 -2.0016 0.9710
6.4269 2.9470 -2.0016 0.9710
6.3168 3.1762 -2.0016 0.9710
6.1985 3.4012 -2.0016 0.9710
5.6470 4.2546 -2.0016 0.9710
5.4904 4.4548 -2.0016 0.9710
5.3267 4.6493 -2.0016 0.9710
5.1561 4.8378 -2.0016 0.9710
4.9788 5.0200 -2.0016 0.9710
4.7951 5.1958 -2.0016 0.9710
3.5717 6.1019 -2.0016 0.9710
3.3500 6.2263 -2.0016 0.9710
2.8940 6.4509 -2.0016 0.9710
2.4230 6.6422 -2.0016 0.9710
2.1826 6.7250 -2.0016 0.9710
1.6938 6.8645 -2.0016 0.9710
1.1962 6.9684 -2.0016 0.9710
-0.0692 7.0700 -2.0016 0.9710
-0.5770 7.0467 -2.0016 0.9710
-1.0819 6.9871 -2.0016 0.9710
-1.3324 6.9437 -2.0016 0.9710
-2.5526 6.5935 -2.0016 0.9710
-3.0197 6.3930 -2.0016 0.9710
-3.2476 6.2803 -2.0016 0.9710
-4.1143 5.7500 -2.0016 0.9710
-4.3183 5.5984 -2.0016 0.9710
-4.7094 5.2736 -2.0016 0.9710
-4.8959 5.1009 -2.0016 0.9710
-5.2498 4.7359 -2.0016 0.9710
-5.5765 4.3465 -2.0016 0.9710
-5.7292 4.1432 -2.0016 0.9710
-6.0121 3.7208 -2.0016 0.9710
-6.1420 3.5023 -2.0016 0.9710
-6.3777 3.0519 -2.0016 0.9710
-6.4833 2.8207 -2.0016 0.9710
-6.5805 2.5858 -2.0016 0.9710
-6.6692 2.3475 -2.0016 0.9710
-6.9815 1.1171 -2.0016 0.9710
-7.0172 0.8654 -2.0016 0.9710
-7.0437 0.6125 -2.0016 0.9710
-7.0688 -0.1494 -2.0016 0.9710
-7.0588 -0.4034 -2.0016 0.9710
-7.0397 -0.6569 -2.0016 0.9710
-7.0116 -0.9096 -2.0016 0.9710
-6.9281 -1.4110 -2.0016 0.9710
-6.8729 -1.6592 -2.0016 0.9710
-5.9984 -2.6547 -1.8570 0.9731
-5.6777 -3.2851 -1.8570 0.9731
-5.4270 -3.6846 -1.8570 0.9731
-5.1482 -4.0650 -1.8570 0.9731
-4.9987 -4.2475 -1.8570 0.9731
-4.6806 -4.5957 -1.8570 0.9731
-4.3383 -4.9201 -1.8570 0.9731
-4.1586 -5.0729 -1.8570 0.9731
-3.9736 -5.2191 -1.8570 0.9731
-3.3886 -5.6166 -1.8570 0.9731
-3.4324 -6.1813 -2.0016 0.9710
-2.9794 -6.4119 -2.0016 0.9710
-2.7470 -6.5149 -2.0016 0.9710
-2.0296 -6.7728 -2.0016 0.9710
-1.7848 -6.8414 -2.0016 0.9710
-1.5377 -6.9011 -2.0016 0.9710
-1.2886 -6.9519 -2.0016 0.9710
-1.0378 -6.9937 -2.0016 0.9710
-0.5326 -7.0502 -2.0016 0.9710
-0.0247 -7.0703 -2.0016 0.9710
0.2295 -7.0666 -2.0016 0.9710
0.4834 -7.0538 -2.0016 0.9710
0.9890 -7.0008 -2.0016 0.9710
1.4895 -6.9117 -2.0016 0.9710
1.7370 -6.8536 -2.0016 0.9710
1.9823 -6.7868 -2.0016 0.9710
2.2250 -6.7111 -2.0016 0.9710
2.7014 -6.5339 -2.0016 0.9710
2.9346 -6.4326 -2.0016 0.9710
3.8263 -5.9455 -2.0016 0.9710
4.2436 -5.6552 -2.0016 0.9710
4.8278 -5.1655 -2.0016 0.9710
5.8217 -4.0122 -2.0016 0.9710
5.9621 -3.8003 -2.0016 0.9710
6.0949 -3.5835 -2.0016 0.9710
6.3366 -3.1363 -2.0016 0.9710
6.4453 -2.9065 -2.0016 0.9710
6.9181 -1.4593 -2.0016 0.9710
7.0051 -0.9585 -2.0016 0.9710
7.0558 -0.4527 -2.0016 0.9710
7.0701 0.0555 -2.0016 0.9710
7.0635 0.3096 -2.0016 0.9710
6.9892 1.0683 -2.0016 0.9710
6.9462 1.3189 -2.0016 0.9710
6.8943 1.5678 -2.0016 0.9710
6.8335 1.8146 -2.0016 0.9710
6.7639 2.0591 -2.0016 0.9710
6.6855 2.3009 -2.0016 0.9710
6.5984 2.5398 -2.0016 0.9710
6.5029 2.7753 -2.0016 0.9710
6.2866 3.2354 -2.0016 0.9710
6.1663 3.4593 -2.0016 0.9710
6.0379 3.6788 -2.0016 0.9710
5.6067 4.3074 -2.0016 0.9710
5.2827 4.6992 -2.0016 0.9710
4.7461 5.2406 -2.0016 0.9710
4.1543 5.7211 -2.0016 0.9710
3.7325 6.0048 -2.0016 0.9710
1.6292 6.8801 -2.0016 0.9710
1.3808 6.9342 -2.0016 0.9710
1.1306 6.9793 -2.0016 0.9710
0.3726 7.0605 -2.0016 0.9710
-0.3897 7.0596 -2.0016 0.9710
-1.1475 6.9766 -2.0016 0.9710
-1.3976 6.9308 -2.0016 0.9710
-1.6458 6.8761 -2.0016 0.9710
-6.3210 1.5467 -2.0016 0.9731
-6.3725 1.3184 -2.0016 0.9731
-6.4158 1.0885 -2.0016 0.9731
-6.4957 0.3914 -2.0016 0.9731
-6.5056 0.1576 -2.0016 0.9731
-6.5070 -0.0763 -2.0016 0.9731
-6.5001 -0.3102 -2.0016 0.9731
-6.4610 -0.7765 -2.0016 0.9731
-6.4289 -1.0082 -2.0016 0.9731
-6.3885 -1.2387 -2.0016 0.9731
-6.3398 -1.4676 -2.0016 0.9731
-6.2180 -1.9193 -2.0016 0.9731
-6.1450 -2.1416 -2.0016 0.9731
-5.3574 -2.7836 -1.8570 0.9751
-5.2539 -2.9744 -1.8570 0.9751
-5.0266 -3.3442 -1.8570 0.9751
-4.7733 -3.6967 -1.8570 0.9751
-4.3476 -4.1892 -1.8570 0.9751
-4.1942 -4.3427 -1.8570 0.9751
-3.7022 -4.7691 -1.8570 0.9751
-3.3500 -5.0227 -1.8570 0.9751
-3.1673 -5.1399 -1.8570 0.9751
-2.9804 -5.2505 -1.8570 0.9751
-2.7898 -5.3542 -1.8570 0.9751
-2.5955 -5.4511 -1.8570 0.9751
-2.1971 -5.6235 -1.8570 0.9751
-2.1487 -6.1425 -2.0016 0.9731
-1.9265 -6.2158 -2.0016 0.9731
-1.7018 -6.2810 -2.0016 0.9731
-1.4749 -6.3381 -2.0016 0.9731
-0.7839 -6.4601 -2.0016 0.9731
-0.5512 -6.4841 -2.0016 0.9731
-0.3177 -6.4997 -2.0016 0.9731
0.6172 -6.4781 -2.0016 0.9731
1.0811 -6.4171 -2.0016 0.9731
1.3111 -6.3740 -2.0016 0.9731
1.5394 -6.3228 -2.0016 0.9731
1.7657 -6.2634 -2.0016 0.9731
1.9897 -6.1958 -2.0016 0.9731
2.2111 -6.1203 -2.0016 0.9731
2.2542 -5.6008 -1.8570 0.9751
2.4541 -5.5161 -1.8570 0.9751
2.0798 -4.2557 -1.4569 0.9804
3.4701 -5.5051 -2.0016 0.9731
4.0426 -5.0995 -2.0016 0.9731
4.8894 -4.2944 -2.0016 0.9731
5.0406 -4.1158 -2.0016 0.9731
5.4544 -3.5492 -2.0016 0.9731
5.5785 -3.3508 -2.0016 0.9731
6.0011 -2.5166 -2.0016 0.9731
6.2372 -1.8559 -2.0016 0.9731
6.2999 -1.6305 -2.0016 0.9731
6.3545 -1.4029 -2.0016 0.9731
6.4388 -0.9427 -2.0016 0.9731
6.4686 -0.7106 -2.0016 0.9731
6.4899 -0.4776 -2.0016 0.9731
6.5036 0.2239 -2.0016 0.9731
6.4914 0.4575 -2.0016 0.9731
6.4044 1.1538 -2.0016 0.9731
6.3588 1.3833 -2.0016 0.9731
6.1729 2.0598 -2.0016 0.9731
6.0948 2.2804 -2.0016 0.9731
6.0089 2.4980 -2.0016 0.9731
5.7050 3.1305 -2.0016 0.9731
5.5888 3.3335 -2.0016 0.9731
5.4654 3.5323 -2.0016 0.9731
5.0533 4.1002 -2.0016 0.9731
4.7456 4.4527 -2.0016 0.9731
3.8729 5.2295 -2.0016 0.9731
3.2874 5.6161 -2.0016 0.9731
3.0833 5.7306 -2.0016 0.9731
2.8753 5.8378 -2.0016 0.9731
2.2301 6.1134 -2.0016 0.9731
1.3308 6.3700 -2.0016 0.9731
0.6372 6.4762 -2.0016 0.9731
0.1703 6.5053 -2.0016 0.9731
-0.0637 6.5072 -2.0016 0.9731
-0.5311 6.4858 -2.0016 0.9731
-0.7639 6.4625 -2.0016 0.9731
-1.2263 6.3909 -2.0016 0.9731
-1.6823 6.2863 -2.0016 0.9731
-1.9072 6.2217 -2.0016 0.9731
-2.3494 6.0686 -2.0016 0.9731
-2.5660 5.9802 -2.0016 0.9731
-2.7793 5.8841 -2.0016 0.9731
-3.3967 5.5507 -2.0016 0.9731
-3.5940 5.4250 -2.0016 0.9731
-3.7867 5.2922 -2.0016 0.9731
-3.9745 5.1527 -2.0016 0.9731
-4.1572 5.0065 -2.0016 0.9731
-4.3345 4.8538 -2.0016 0.9731
-5.1326 4.0005 -2.0016 0.9731
-5.2731 3.8133 -2.0016 0.9731
-5.5335 3.4246 -2.0016 0.9731
-5.6530 3.2235 -2.0016 0.9731
-5.9672 2.5961 -2.0016 0.9731
-6.2120 1.9386 -2.0016 0.9731
-6.2777 1.7140 -2.0016 0.9731
-6.3353 1.4872 -2.0016 0.9731
-6.4257 1.0281 -2.0016 0.9731
-6.5068 0.0965 -2.0016 0.9731
-6.4969 -0.3713 -2.0016 0.9731
-6.4191 -1.0686 -2.0016 0.9731
-6.3766 -1.2987 -2.0016 0.9731
-6.3258 -1.5271 -2.0016 0.9731
-6.1997 -1.9777 -2.0016 0.9731
-5.6137 -2.2468 -1.8598 0.9750
-5.5209 -2.4434 -1.8570 0.9751
-5.4295 -2.6403 -1.8570 0.9751
-5.3311 -2.8338 -1.8570 0.9751
-5.2257 -3.0236 -1.8570 0.9751
-4.9950 -3.3913 -1.8570 0.9751
-4.8698 -3.5687 -1.8570 0.9751
-4.7384 -3.7414 -1.8570 0.9751
-4.6008 -3.9093 -1.8570 0.9751
-4.4573 -4.0722 -1.8570 0.9751
-4.3080 -4.2298 -1.8570 0.9751
-4.1532 -4.3820 -1.8570 0.9751
-3.9930 -4.5284 -1.8570 0.9751
-3.8276 -4.6691 -1.8570 0.9751
-2.9310 -5.2783 -1.8570 0.9751
-2.3456 -5.5631 -1.8570 0.9751
-1.8680 -6.2336 -2.0016 0.9731
-0.7232 -6.4672 -2.0016 0.9731
-0.4902 -6.4890 -2.0016 0.9731
-0.2566 -6.5024 -2.0016 0.9731
-0.0227 -6.5074 -2.0016 0.9731
0.2112 -6.5040 -2.0016 0.9731
0.4449 -6.4923 -2.0016 0.9731
1.8245 -6.2465 -2.0016 0.9731
2.0478 -6.1769 -2.0016 0.9731
2.2686 -6.0993 -2.0016 0.9731
2.5058 -5.4928 -1.8570 0.9751
2.2299 -4.0825 -1.4308 0.9807
3.7161 -5.3421 -2.0016 0.9731
3.9058 -5.2050 -2.0016 0.9731
4.0904 -5.0612 -2.0016 0.9731
4.9295 -4.2482 -2.0016 0.9731
5.3582 -3.6928 -2.0016 0.9731
5.8322 -2.8866 -2.0016 0.9731
5.9322 -2.6751 -2.0016 0.9731
6.0245 -2.4601 -2.0016 0.9731
6.1091 -2.2420 -2.0016 0.9731
6.2544 -1.7972 -2.0016 0.9731
6.3150 -1.5712 -2.0016 0.9731
6.3674 -1.3432 -2.0016 0.9731
6.4115 -1.1134 -2.0016 0.9731
6.4941 -0.4166 -2.0016 0.9731
6.5049 -0.1829 -2.0016 0.9731
6.4868 0.5185 -2.0016 0.9731
6.4640 0.7514 -2.0016 0.9731
6.4328 0.9833 -2.0016 0.9731
6.3933 1.2139 -2.0016 0.9731
6.3455 1.4429 -2.0016 0.9731
6.2895 1.6701 -2.0016 0.9731
6.2254 1.8952 -2.0016 0.9731
6.0731 2.3376 -2.0016 0.9731
5.9852 2.5544 -2.0016 0.9731
5.6754 3.1839 -2.0016 0.9731
5.4319 3.5835 -2.0016 0.9731
5.2996 3.7765 -2.0016 0.9731
5.0145 4.1475 -2.0016 0.9731
4.8622 4.3251 -2.0016 0.9731
4.7036 4.4971 -2.0016 0.9731
4.5389 4.6633 -2.0016 0.9731
4.1921 4.9773 -2.0016 0.9731
3.8236 5.2657 -2.0016 0.9731
3.6318 5.3997 -2.0016 0.9731
3.4353 5.5268 -2.0016 0.9731
3.2344 5.6467 -2.0016 0.9731
3.0293 5.7594 -2.0016 0.9731
2.8203 5.8646 -2.0016 0.9731
2.6077 5.9622 -2.0016 0.9731
2.3917 6.0520 -2.0016 0.9731
0.3430 6.4984 -2.0016 0.9731
-0.3587 6.4976 -2.0016 0.9731
-0.8246 6.4550 -2.0016 0.9731
-1.0562 6.4212 -2.0016 0.9731
-1.5148 6.3287 -2.0016 0.9731
-1.9656 6.2035 -2.0016 0.9731
-5.8489 1.4311 -2.0016 0.9749
-5.8966 1.2200 -2.0016 0.9749
-5.9366 1.0072 -2.0016 0.9749
-5.9936 0.5780 -2.0016 0.9749
-6.0146 -0.2871 -2.0016 0.9749
-5.9113 -1.1462 -2.0016 0.9749
-5.8137 -1.5680 -2.0016 0.9749
-5.7536 -1.7760 -2.0016 0.9749
-5.6860 -1.9817 -2.0016 0.9749
-5.6111 -2.1848 -2.0016 0.9749
-5.1910 -2.2393 -1.8792 0.9765
-5.0541 -2.3993 -1.8597 0.9767
-4.9573 -2.5757 -1.8570 0.9767
-4.8615 -2.7522 -1.8570 0.9767
-4.7594 -2.9252 -1.8570 0.9767
-4.6512 -3.0944 -1.8570 0.9767
-4.4168 -3.4206 -1.8570 0.9767
-4.1596 -3.7291 -1.8570 0.9767
-4.0229 -3.8763 -1.8570 0.9767
-3.8809 -4.0184 -1.8570 0.9767
-3.7339 -4.1553 -1.8570 0.9767
-3.4257 -4.4129 -1.8570 0.9767
-2.9307 -4.7560 -1.8570 0.9767
-2.7578 -4.8583 -1.8570 0.9767
-2.5814 -4.9543 -1.8570 0.9767
-2.4016 -5.0439 -1.8570 0.9767
-1.2662 -5.4411 -1.8570 0.9767
-0.6730 -5.5463 -1.8571 0.9767
-0.4732 -5.5664 -1.8570 0.9767
-0.2728 -5.5798 -1.8570 0.9767
0.1289 -5.5850 -1.8570 0.9767
0.9281 -5.5089 -1.8570 0.9767
1.1255 -5.4719 -1.8570 0.9767
1.5158 -5.3769 -1.8570 0.9767
1.8982 -5.2541 -1.8570 0.9767
2.0859 -5.1825 -1.8570 0.9767
2.2708 -5.1041 -1.8570 0.9767
2.9790 -4.7259 -1.8570 0.9767
3.3109 -4.4997 -1.8570 0.9767
4.0701 -4.4376 -2.0016 0.9749
4.2270 -4.2884 -2.0016 0.9749
4.3784 -4.1337 -2.0016 0.9749
4.5242 -3.9736 -2.0016 0.9749
4.9257 -3.4634 -2.0016 0.9749
5.0470 -3.2841 -2.0016 0.9749
5.1618 -3.1005 -2.0016 0.9749
5.2699 -2.9130 -2.0016 0.9749
5.7714 -1.7173 -2.0016 0.9749
5.9579 -0.8723 -2.0016 0.9749
6.0214 -0.0093 -2.0016 0.9749
6.0179 0.2072 -2.0016 0.9749
5.8838 1.2799 -2.0016 0.9749
5.7118 1.9060 -2.0016 0.9749
5.5601 2.3115 -2.0016 0.9749
5.4734 2.5098 -2.0016 0.9749
5.3797 2.7050 -2.0016 0.9749
5.1714 3.0846 -2.0016 0.9749
4.8092 3.6234 -2.0016 0.9749
4.5365 3.9596 -2.0016 0.9749
4.3912 4.1201 -2.0016 0.9749
4.2402 4.2753 -2.0016 0.9749
3.9221 4.5689 -2.0016 0.9749
3.7553 4.7070 -2.0016 0.9749
3.5836 4.8389 -2.0016 0.9749
3.4074 4.9646 -2.0016 0.9749
2.4646 5.4939 -2.0016 0.9749
2.2656 5.5790 -2.0016 0.9749
2.0635 5.6568 -2.0016 0.9749
1.8588 5.7273 -2.0016 0.9749
1.6517 5.7905 -2.0016 0.9749
0.5897 5.9925 -2.0016 0.9749
0.3738 6.0098 -2.0016 0.9749
0.1576 6.0194 -2.0016 0.9749
-0.0590 6.0212 -2.0016 0.9749
-0.2754 6.0151 -2.0016 0.9749
-0.4914 6.0014 -2.0016 0.9749
-0.7069 5.9798 -2.0016 0.9749
-1.5567 5.8167 -2.0016 0.9749
-1.9706 5.6899 -2.0016 0.9749
-2.1739 5.6153 -2.0016 0.9749
-2.3744 5.5336 -2.0016 0.9749
-2.5717 5.4446 -2.0016 0.9749
-3.1430 5.1361 -2.0016 0.9749
-3.3256 5.0198 -2.0016 0.9749
-3.5039 4.8970 -2.0016 0.9749
-3.6777 4.7678 -2.0016 0.9749
-3.8467 4.6326 -2.0016 0.9749
-4.1696 4.3442 -2.0016 0.9749
-4.3231 4.1915 -2.0016 0.9749
-4.4710 4.0333 -2.0016 0.9749
-4.8793 3.5285 -2.0016 0.9749
-5.1202 3.1688 -2.0016 0.9749
-5.2308 2.9827 -2.0016 0.9749
-5.4316 2.5991 -2.0016 0.9749
-5.5215 2.4022 -2.0016 0.9749
-5.7481 1.7938 -2.0016 0.9749
-5.8621 1.3761 -2.0016 0.9749
-5.9458 0.9514 -2.0016 0.9749
-6.0208 0.0893 -2.0016 0.9749
-6.0201 -0.1272 -2.0016 0.9749
-5.9954 -0.5595 -2.0016 0.9749
-5.9397 -0.9888 -2.0016 0.9749
-5.7366 -1.8300 -2.0016 0.9749
-5.6671 -2.0350 -2.0016 0.9749
-5.5458 -2.2196 -1.9856 0.9751
-5.1085 -2.2609 -1.8570 0.9767
-5.0240 -2.4431 -1.8570 0.9767
-4.9329 -2.6221 -1.8570 0.9767
-4.8354 -2.7978 -1.8570 0.9767
-4.6219 -3.1380 -1.8570 0.9767
-4.2572 -3.6174 -1.8570 0.9767
-4.1244 -3.7681 -1.8570 0.9767
-3.9863 -3.9139 -1.8570 0.9767
-3.3841 -4.4449 -1.8570 0.9767
-3.2221 -4.5636 -1.8570 0.9767
-2.8859 -4.7834 -1.8570 0.9767
-2.7120 -4.8840 -1.8570 0.9767
-1.9840 -5.2223 -1.8570 0.9767
-1.4102 -5.4056 -1.8570 0.9767
-1.0182 -5.4929 -1.8570 0.9767
-0.6208 -5.5519 -1.8570 0.9767
-0.4208 -5.5706 -1.8570 0.9767
-0.2203 -5.5821 -1.8570 0.9767
0.1813 -5.5835 -1.8570 0.9767
0.7815 -5.5316 -1.8570 0.9767
0.9798 -5.4999 -1.8570 0.9767
1.1769 -5.4611 -1.8570 0.9767
1.5662 -5.3624 -1.8570 0.9767
1.7580 -5.3027 -1.8570 0.9767
1.9475 -5.2360 -1.8570 0.9767
3.0233 -4.6977 -1.8570 0.9767
3.3530 -4.4684 -1.8570 0.9767
3.7849 -4.6832 -2.0016 0.9749
4.2671 -4.2485 -2.0016 0.9749
4.6997 -3.7644 -2.0016 0.9749
4.8320 -3.5930 -2.0016 0.9749
4.9580 -3.4170 -2.0016 0.9749
5.1907 -3.0519 -2.0016 0.9749
5.3966 -2.6710 -2.0016 0.9749
5.4891 -2.4753 -2.0016 0.9749
5.5746 -2.2764 -2.0016 0.9749
5.6528 -2.0745 -2.0016 0.9749
5.7237 -1.8699 -2.0016 0.9749
5.8433 -1.4538 -2.0016 0.9749
5.8918 -1.2428 -2.0016 0.9749
5.9659 -0.8163 -2.0016 0.9749
6.0091 -0.3855 -2.0016 0.9749
6.0191 -0.1692 -2.0016 0.9749
6.0212 0.0473 -2.0016 0.9749
6.0157 0.2637 -2.0016 0.9749
6.0023 0.4798 -2.0016 0.9749
5.9523 0.9098 -2.0016 0.9749
5.9158 1.1232 -2.0016 0.9749
5.8715 1.3352 -2.0016 0.9749
5.4496 2.5612 -2.0016 0.9749
5.2515 2.9461 -2.0016 0.9749
5.1422 3.1330 -2.0016 0.9749
4.9038 3.4944 -2.0016 0.9749
4.7750 3.6684 -2.0016 0.9749
4.6400 3.8377 -2.0016 0.9749
4.4990 4.0020 -2.0016 0.9749
4.0420 4.4632 -2.0016 0.9749
3.7109 4.7421 -2.0016 0.9749
3.3606 4.9964 -2.0016 0.9749
3.1788 5.1140 -2.0016 0.9749
2.9929 5.2250 -2.0016 0.9749
2.8031 5.3292 -2.0016 0.9749
2.6097 5.4265 -2.0016 0.9749
2.4129 5.5169 -2.0016 0.9749
2.0103 5.6760 -2.0016 0.9749
1.5972 5.8057 -2.0016 0.9749
1.1760 5.9055 -2.0016 0.9749
0.5333 5.9978 -2.0016 0.9749
-1.1902 5.9026 -2.0016 0.9749
-1.4017 5.8560 -2.0016 0.9749
-1.6113 5.8019 -2.0016 0.9749
-1.8188 5.7402 -2.0016 0.9749
-5.4367 1.3303 -2.0016 0.9765
-5.4810 1.1340 -2.0016 0.9765
-5.5483 0.7372 -2.0016 0.9765
-5.5954 0.1356 -2.0016 0.9765
-5.5967 -0.0657 -2.0016 0.9765
-5.5907 -0.2668 -2.0016 0.9765
-5.5775 -0.4676 -2.0016 0.9765
-5.5571 -0.6678 -2.0016 0.9765
-5.4948 -1.0654 -2.0016 0.9765
-5.4529 -1.2623 -2.0016 0.9765
-5.3481 -1.6508 -2.0016 0.9765
-5.1386 -2.2167 -2.0013 0.9765
-4.5189 -2.5583 -1.8570 0.9782
-4.4240 -2.7191 -1.8570 0.9782
-4.3234 -2.8763 -1.8570 0.9782
-3.8665 -3.4663 -1.8570 0.9782
-3.7394 -3.6031 -1.8570 0.9782
-3.6074 -3.7352 -1.8570 0.9782
-3.1843 -4.1019 -1.8570 0.9782
-2.5635 -4.5159 -1.8570 0.9782
-2.2324 -4.6885 -1.8570 0.9782
-1.8897 -4.8367 -1.8570 0.9782
-1.7146 -4.9016 -1.8570 0.9782
-0.8105 -5.1292 -1.8570 0.9782
-0.2535 -5.1866 -1.8570 0.9782
-0.0669 -5.1924 -1.8570 0.9782
0.1198 -5.1914 -1.8570 0.9782
0.4925 -5.1694 -1.8570 0.9782
0.6780 -5.1483 -1.8570 0.9782
0.8627 -5.1206 -1.8570 0.9782
1.2284 -5.0454 -1.8570 0.9782
1.7644 -4.8838 -1.8570 0.9782
2.0025 -4.5009 -1.7617 0.9793
2.0465 -4.1877 -1.6668 0.9804
2.1653 -4.0544 -1.6437 0.9807
2.5354 -4.0223 -1.7003 0.9800
2.9252 -4.2905 -1.8570 0.9782
3.0775 -4.1826 -1.8570 0.9782
3.3701 -3.9506 -1.8570 0.9782
3.9291 -3.9862 -2.0016 0.9765
4.6913 -3.0527 -2.0016 0.9765
4.7980 -2.8820 -2.0016 0.9765
4.9927 -2.5298 -2.0016 0.9765
5.0805 -2.3487 -2.0016 0.9765
5.3646 -1.5963 -2.0016 0.9765
5.4655 -1.2067 -2.0016 0.9765
5.5380 -0.8108 -2.0016 0.9765
5.5636 -0.6112 -2.0016 0.9765
5.5931 -0.2099 -2.0016 0.9765
5.5971 -0.0087 -2.0016 0.9765
5.5832 0.3935 -2.0016 0.9765
5.5655 0.5940 -2.0016 0.9765
5.5084 0.9924 -2.0016 0.9765
5.4692 1.1897 -2.0016 0.9765
5.4229 1.3856 -2.0016 0.9765
5.0877 2.3330 -2.0016 0.9765
5.0005 2.5144 -2.0016 0.9765
4.8069 2.8672 -2.0016 0.9765
4.5885 3.2052 -2.0016 0.9765
4.4703 3.3680 -2.0016 0.9765
4.2168 3.6805 -2.0016 0.9765
4.0817 3.8298 -2.0016 0.9765
3.9414 3.9740 -2.0016 0.9765
3.7960 4.1131 -2.0016 0.9765
3.6457 4.2470 -2.0016 0.9765
3.4906 4.3753 -2.0016 0.9765
3.1672 4.6148 -2.0016 0.9765
2.8275 4.8304 -2.0016 0.9765
2.2910 5.1068 -2.0016 0.9765
2.1059 5.1858 -2.0016 0.9765
1.9181 5.2582 -2.0016 0.9765
1.7278 5.3237 -2.0016 0.9765
1.5353 5.3824 -2.0016 0.9765
1.3408 5.4341 -2.0016 0.9765
1.1446 5.4788 -2.0016 0.9765
0.5481 5.5702 -2.0016 0.9765
0.1464 5.5952 -2.0016 0.9765
-0.2560 5.5912 -2.0016 0.9765
-0.6571 5.5584 -2.0016 0.9765
-0.8565 5.5312 -2.0016 0.9765
-1.2517 5.4553 -2.0016 0.9765
-1.4470 5.4068 -2.0016 0.9765
-1.6404 5.3513 -2.0016 0.9765
-1.8317 5.2889 -2.0016 0.9765
-2.0207 5.2196 -2.0016 0.9765
-2.3905 5.0609 -2.0016 0.9765
-2.7480 4.8761 -2.0016 0.9765
-3.4185 4.4318 -2.0016 0.9765
-3.5756 4.3061 -2.0016 0.9765
-3.7281 4.1748 -2.0016 0.9765
-3.8758 4.0380 -2.0016 0.9765
-4.0184 3.8961 -2.0016 0.9765
-4.1559 3.7491 -2.0016 0.9765
-4.2880 3.5973 -2.0016 0.9765
-4.7593 2.9455 -2.0016 0.9765
-5.0488 2.4160 -2.0016 0.9765
-5.3430 1.6674 -2.0016 0.9765
-5.3995 1.4742 -2.0016 0.9765
-5.4914 1.0824 -2.0016 0.9765
-5.5268 0.8843 -2.0016 0.9765
-5.5899 0.2841 -2.0016 0.9765
-5.5880 -0.3194 -2.0016 0.9765
-5.5729 -0.5200 -2.0016 0.9765
-5.5506 -0.7200 -2.0016 0.9765
-5.5211 -0.9191 -2.0016 0.9765
-5.4408 -1.3134 -2.0016 0.9765
-5.3901 -1.5082 -2.0016 0.9765
-5.3324 -1.7010 -2.0016 0.9765
-5.2678 -1.8916 -2.0016 0.9765
-5.1964 -2.0797 -2.0016 0.9765
-4.6699 -2.2709 -1.8570 0.9782
-4.2962 -2.9168 -1.8570 0.9782
-4.1885 -3.0694 -1.8570 0.9782
-4.0755 -3.2180 -1.8570 0.9782
-3.8337 -3.5025 -1.8570 0.9782
-3.7053 -3.6381 -1.8570 0.9782
-3.5722 -3.7689 -1.8570 0.9782
-3.4344 -3.8949 -1.8570 0.9782
-3.1456 -4.1316 -1.8570 0.9782
-2.8406 -4.3470 -1.8570 0.9782
-2.6825 -4.4463 -1.8570 0.9782
-2.5209 -4.5398 -1.8570 0.9782
-2.3561 -4.6275 -1.8570 0.9782
-2.1882 -4.7092 -1.8570 0.9782
-2.0175 -4.7849 -1.8570 0.9782
-1.6685 -4.9174 -1.8570 0.9782
-1.4906 -4.9743 -1.8570 0.9782
