ply
format ascii 1.0
element vertex 1561
property float32 x
property float32 y
property float32 z
property float32 I
end_header
23.1146 -14.5226 -2.0016 0.8963
23.6214 -13.6829 -2.0016 0.8963
24.0977 -12.8255 -2.0016 0.8963
24.9563 -11.0622 -2.0016 0.8963
25.3376 -10.1586 -2.0016 0.8963
26.0016 -8.3132 -2.0016 0.8963
27.0686 -3.5332 -2.0016 0.8963
27.2916 -0.6006 -2.0016 0.8963
27.2955 0.3802 -2.0016 0.8963
27.2642 1.3605 -2.0016 0.8963
27.1978 2.3390 -2.0016 0.8963
27.0962 3.3145 -2.0016 0.8963
26.7883 5.2514 -2.0016 0.8963
26.0679 8.1029 -2.0016 0.8963
25.7600 9.0341 -2.0016 0.8963
25.4188 9.9537 -2.0016 0.8963
25.0448 10.8603 -2.0016 0.8963
24.2004 12.6305 -2.0016 0.8963
23.7311 13.4917 -2.0016 0.8963
22.7011 15.1607 -2.0016 0.8963
21.5540 16.7515 -2.0016 0.8963
20.9384 17.5150 -2.0016 0.8963
20.2957 18.2558 -2.0016 0.8963
19.6268 18.9731 -2.0016 0.8963
18.9325 19.6659 -2.0016 0.8963
17.4717 20.9745 -2.0016 0.8963
16.7069 21.5886 -2.0016 0.8963
15.9206 22.1748 -2.0016 0.8963
15.1138 22.7324 -2.0016 0.8963
14.2874 23.2607 -2.0016 0.8963
10.8085 25.0672 -2.0016 0.8963
9.9011 25.4393 -2.0016 0.8963
8.2979 23.8184 -1.8494 0.9038
3.6992 13.7193 -1.0419 0.9446
3.0637 13.2372 -0.9962 0.9470
2.5279 13.0378 -0.9738 0.9481
1.9998 12.7497 -0.9463 0.9496
0.1427 12.0282 -0.8820 0.9529
-0.7181 11.9549 -0.8781 0.9531
-1.1538 11.9906 -0.8832 0.9528
-2.5059 12.1300 -0.9082 0.9515
-2.9305 11.9929 -0.9052 0.9517
-4.2917 11.8511 -0.9242 0.9507
-8.1299 11.9101 -1.0573 0.9438
-9.3903 11.8329 -1.1076 0.9412
-10.2094 11.9564 -1.1528 0.9389
-13.6575 11.9865 -1.3324 0.9297
-14.0957 11.5015 -1.3339 0.9296
-15.1871 11.5086 -1.3972 0.9264
-16.3889 11.5165 -1.4687 0.9228
-17.7221 11.5252 -1.5500 0.9187
-19.2139 11.5350 -1.6432 0.9140
-24.4813 8.2515 -1.8942 0.9016
-26.1648 7.7841 -2.0016 0.8963
-26.4276 6.8392 -2.0016 0.8963
-27.0100 3.9563 -2.0016 0.8963
-27.1347 2.9835 -2.0016 0.8963
-27.2243 2.0068 -2.0016 0.8963
-25.0714 -3.5843 -1.8570 0.9034
-23.9393 -13.1187 -2.0016 0.8963
-23.4526 -13.9702 -2.0016 0.8963
-22.9356 -14.8037 -2.0016 0.8963
-22.3890 -15.6181 -2.0016 0.8963
-21.4919 -16.1703 -1.9721 0.8977
-19.9771 -16.1864 -1.8852 0.9020
-19.0140 -16.5722 -1.8494 0.9038
-18.4064 -17.2445 -1.8494 0.9038
-17.7750 -17.8946 -1.8494 0.9038
-15.7467 -19.7031 -1.8494 0.9038
-15.0288 -20.2560 -1.8494 0.9038
-13.5356 -21.2828 -1.8494 0.9038
-11.0581 -22.3940 -1.8313 0.9047
-9.1240 -22.3994 -1.7734 0.9076
-5.3957 -16.5616 -1.2772 0.9325
-5.5562 -22.4043 -1.6925 0.9116
-4.6389 -22.0717 -1.6537 0.9135
0.1888 -22.4203 -1.6440 0.9140
15.0355 -22.7843 -2.0016 0.8963
15.8443 -22.2295 -2.0016 0.8963
17.3995 -21.0345 -2.0016 0.8963
18.1439 -20.3959 -2.0016 0.8963
20.2328 -18.3255 -2.0016 0.8963
20.8780 -17.5869 -2.0016 0.8963
21.4963 -16.8255 -2.0016 0.8963
22.6489 -15.2387 -2.0016 0.8963
23.1817 -14.4152 -2.0016 0.8963
24.1569 -12.7136 -2.0016 0.8963
24.5980 -11.8376 -2.0016 0.8963
25.0073 -10.9464 -2.0016 0.8963
25.3844 -10.0410 -2.0016 0.8963
26.0398 -8.1925 -2.0016 0.8963
26.3173 -7.2518 -2.0016 0.8963
26.7701 -5.3435 -2.0016 0.8963
26.9448 -4.3784 -2.0016 0.8963
27.0847 -3.4076 -2.0016 0.8963
27.1896 -2.4325 -2.0016 0.8963
27.2594 -1.4542 -2.0016 0.8963
27.2577 1.4869 -2.0016 0.8963
27.1866 2.4651 -2.0016 0.8963
27.0805 3.4401 -2.0016 0.8963
26.9395 4.4107 -2.0016 0.8963
26.7637 5.3756 -2.0016 0.8963
26.5533 6.3336 -2.0016 0.8963
26.3086 7.2833 -2.0016 0.8963
24.9942 10.9763 -2.0016 0.8963
24.5838 11.8671 -2.0016 0.8963
24.1416 12.7426 -2.0016 0.8963
23.6683 13.6016 -2.0016 0.8963
23.1644 14.4430 -2.0016 0.8963
22.0676 16.0689 -2.0016 0.8963
21.4761 16.8513 -2.0016 0.8963
20.2108 18.3498 -2.0016 0.8963
18.8412 19.7535 -2.0016 0.8963
18.1194 20.4176 -2.0016 0.8963
17.3742 21.0553 -2.0016 0.8963
14.1794 23.3267 -2.0016 0.8963
13.3323 23.8210 -2.0016 0.8963
12.4680 24.2846 -2.0016 0.8963
11.5876 24.7168 -2.0016 0.8963
10.6922 25.1171 -2.0016 0.8963
8.1874 23.8566 -1.8494 0.9038
-4.2594 11.9345 -1.2166 0.9504
-5.2085 11.8324 -1.2412 0.9494
-5.8095 12.0082 -1.2807 0.9478
-6.3479 12.0012 -1.3034 0.9469
-6.8709 11.9321 -1.3219 0.9462
-7.2569 11.6165 -1.3150 0.9464
-7.7449 11.4599 -1.3279 0.9459
-10.4388 11.4775 -1.4895 0.9396
-11.2232 11.4826 -1.5415 0.9375
-12.0654 11.4882 -1.5994 0.9352
-13.9619 11.5006 -1.7366 0.9299
-15.0405 11.5077 -1.8181 0.9267
-15.7095 11.1482 -1.8494 0.9255
-16.4693 9.9915 -1.8494 0.9255
-16.8176 9.3934 -1.8494 0.9255
-17.1442 8.7832 -1.8494 0.9255
-17.6499 8.2558 -1.8707 0.9247
-19.1342 8.1257 -1.9958 0.9199
-19.4702 7.4547 -2.0016 0.9196
-19.7254 6.7505 -2.0016 0.9196
-19.9552 6.0376 -2.0016 0.9196
-20.6142 3.1172 -2.0016 0.9196
-20.7847 1.6291 -2.0016 0.9196
-20.8481 0.1325 -2.0016 0.9196
-20.8038 -1.3647 -2.0016 0.9196
-20.7413 -2.1112 -2.0016 0.9196
-20.6521 -2.8549 -2.0016 0.9196
-20.5362 -3.5949 -2.0016 0.9196
-20.2251 -5.0601 -2.0016 0.9196
-20.0303 -5.7834 -2.0016 0.9196
-19.5633 -7.2066 -2.0016 0.9196
-19.2919 -7.9047 -2.0016 0.9196
-18.6745 -9.2695 -2.0016 0.9196
-17.5689 -11.2247 -2.0016 0.9196
-16.7176 -12.4572 -2.0016 0.9196
-16.2593 -13.0497 -2.0016 0.9196
-15.7801 -13.6254 -2.0016 0.9196
-15.2804 -14.1834 -2.0016 0.9196
-13.6629 -15.7417 -2.0011 0.9197
-12.1185 -16.1761 -1.9405 0.9220
-11.2407 -16.1851 -1.8918 0.9239
-9.8240 -16.5698 -1.8494 0.9255
-8.6089 -17.2324 -1.8494 0.9255
-5.3912 -18.4934 -1.8494 0.9255
-4.7233 -18.6751 -1.8494 0.9255
-1.9999 -19.1591 -1.8494 0.9255
-1.3103 -19.2185 -1.8494 0.9255
0.7649 -19.2480 -1.8494 0.9255
1.4558 -19.2081 -1.8494 0.9255
2.1449 -19.1434 -1.8494 0.9255
2.8312 -19.0540 -1.8494 0.9255
7.4046 -19.4893 -2.0016 0.9196
8.7848 -18.9073 -2.0016 0.9196
2.3322 -4.2008 -0.4613 0.9809
10.7680 -17.8525 -2.0016 0.9196
11.4023 -17.4542 -2.0016 0.9196
12.6261 -16.5904 -2.0016 0.9196
13.2139 -16.1262 -2.0016 0.9196
14.8721 -14.6110 -2.0016 0.9196
15.8828 -13.5055 -2.0016 0.9196
16.3577 -12.9262 -2.0016 0.9196
18.0404 -10.4500 -2.0016 0.9196
18.4042 -9.7952 -2.0016 0.9196
19.0599 -8.4486 -2.0016 0.9196
19.3511 -7.7584 -2.0016 0.9196
19.6174 -7.0583 -2.0016 0.9196
19.8582 -6.3490 -2.0016 0.9196
20.0735 -5.6316 -2.0016 0.9196
20.6731 -2.6984 -2.0016 0.9196
20.7567 -1.9540 -2.0016 0.9196
20.8226 1.0391 -2.0016 0.9196
20.6943 2.5314 -2.0016 0.9196
20.5900 3.2732 -2.0016 0.9196
20.4591 4.0107 -2.0016 0.9196
20.1183 5.4693 -2.0016 0.9196
19.6737 6.8996 -2.0016 0.9196
19.1275 8.2944 -2.0016 0.9196
18.4827 9.6463 -2.0016 0.9196
18.1242 10.3040 -2.0016 0.9196
17.3376 11.5788 -2.0016 0.9196
16.4615 12.7937 -2.0016 0.9196
15.9913 13.3768 -2.0016 0.9196
15.5005 13.9426 -2.0016 0.9196
14.9896 14.4904 -2.0016 0.9196
14.4594 15.0195 -2.0016 0.9196
13.3437 16.0189 -2.0016 0.9196
12.7596 16.4879 -2.0016 0.9196
11.5429 17.3615 -2.0016 0.9196
9.6081 18.5025 -2.0016 0.9196
8.2576 17.4035 -1.8494 0.9255
7.6271 17.6889 -1.8494 0.9255
6.9868 17.9514 -1.8494 0.9255
5.5107 17.8587 -1.7943 0.9276
3.6013 13.3563 -1.3281 0.9459
2.0015 12.7606 -1.2401 0.9494
1.0279 12.2485 -1.1801 0.9518
0.5773 12.0694 -1.1600 0.9526
-1.1307 11.7508 -1.1333 0.9537
-2.0270 11.9668 -1.1652 0.9524
-2.4669 11.9412 -1.1706 0.9522
-3.3268 11.7648 -1.1738 0.9521
-3.7900 11.7704 -1.1872 0.9515
-4.2944 11.8587 -1.2108 0.9506
-4.7819 11.8560 -1.2273 0.9499
-5.2145 11.6987 -1.2297 0.9498
-6.3761 11.9204 -1.2978 0.9471
-7.8229 11.4604 -1.3321 0.9458
-9.1014 11.4687 -1.4056 0.9429
-11.3284 11.4833 -1.5486 0.9372
-14.0957 11.5015 -1.7466 0.9295
-15.7610 11.0752 -1.8494 0.9255
-16.1487 10.5020 -1.8494 0.9255
-17.8581 8.2525 -1.8887 0.9240
-19.1852 8.0426 -1.9972 0.9198
-19.5045 7.3644 -2.0016 0.9196
-19.7565 6.6590 -2.0016 0.9196
-20.1836 5.2233 -2.0016 0.9196
-20.3582 4.4949 -2.0016 0.9196
-20.5065 3.7606 -2.0016 0.9196
-20.7236 2.2786 -2.0016 0.9196
-20.7921 1.5326 -2.0016 0.9196
-20.8337 0.7848 -2.0016 0.9196
-20.8363 -0.7131 -2.0016 0.9196
-20.5194 -3.6901 -2.0016 0.9196
-20.3735 -4.4248 -2.0016 0.9196
-20.2014 -5.1539 -2.0016 0.9196
-20.0033 -5.8762 -2.0016 0.9196
-19.5297 -7.2972 -2.0016 0.9196
-18.6313 -9.3560 -2.0016 0.9196
-18.2832 -10.0192 -2.0016 0.9196
-17.9114 -10.6696 -2.0016 0.9196
-17.0992 -11.9280 -2.0016 0.9196
-16.6597 -12.5346 -2.0016 0.9196
-15.7167 -13.6984 -2.0016 0.9196
-13.5834 -15.7974 -2.0002 0.9197
-12.9211 -16.1675 -1.9870 0.9202
-11.1306 -16.1862 -1.8859 0.9241
-8.5289 -17.2721 -1.8494 0.9255
-7.2668 -17.8399 -1.8494 0.9255
-6.6212 -18.0895 -1.8494 0.9255
-5.3828 -16.5221 -1.6683 0.9326
-5.3054 -18.5182 -1.8494 0.9255
-3.2823 -18.9815 -1.8494 0.9255
-1.9110 -19.1681 -1.8494 0.9255
-1.2212 -19.2244 -1.8494 0.9255
-0.5298 -19.2559 -1.8494 0.9255
0.8541 -19.2442 -1.8494 0.9255
1.5449 -19.2011 -1.8494 0.9255
4.9881 -18.7556 -1.8632 0.9250
6.0574 -19.8726 -1.9945 0.9199
6.7912 -19.7114 -2.0016 0.9196
7.4949 -19.4547 -2.0016 0.9196
2.1898 -4.2527 -0.4592 0.9810
10.8506 -17.8024 -2.0016 0.9196
11.4831 -17.4011 -2.0016 0.9196
12.1008 -16.9773 -2.0016 0.9196
12.7029 -16.5317 -2.0016 0.9196
14.9397 -14.5418 -2.0016 0.9196
15.4524 -13.9958 -2.0016 0.9196
16.4175 -12.8502 -2.0016 0.9196
17.2977 -11.6383 -2.0016 0.9196
18.4494 -9.7098 -2.0016 0.9196
18.7863 -9.0408 -2.0016 0.9196
20.0994 -5.5384 -2.0016 0.9196
20.2854 -4.8128 -2.0016 0.9196
20.4452 -4.0810 -2.0016 0.9196
20.5786 -3.3439 -2.0016 0.9196
20.6854 -2.6025 -2.0016 0.9196
20.8189 -1.1106 -2.0016 0.9196
20.8454 -0.3620 -2.0016 0.9196
20.8449 0.3870 -2.0016 0.9196
20.7633 1.8827 -2.0016 0.9196
20.2796 4.8371 -2.0016 0.9196
20.0927 5.5625 -2.0016 0.9196
19.0889 8.3830 -2.0016 0.9196
17.2837 11.6590 -2.0016 0.9196
16.4020 12.8699 -2.0016 0.9196
15.9291 13.4508 -2.0016 0.9196
14.3896 15.0864 -2.0016 0.9196
13.8384 15.5936 -2.0016 0.9196
13.2693 16.0806 -2.0016 0.9196
12.0804 16.9918 -2.0016 0.9196
11.4623 17.4148 -2.0016 0.9196
9.5222 18.5469 -2.0016 0.9196
6.9035 17.9837 -1.8494 0.9255
6.2530 18.2200 -1.8494 0.9255
-4.5521 11.4389 -1.4624 0.9516
-5.5372 11.4454 -1.5103 0.9501
-6.5946 11.4523 -1.5698 0.9482
-7.7449 11.4599 -1.6430 0.9458
-9.7048 11.4727 -1.7850 0.9413
-10.4388 11.4775 -1.8429 0.9394
-10.8823 11.1339 -1.8494 0.9392
-11.2753 10.7358 -1.8494 0.9392
-11.6537 10.3239 -1.8494 0.9392
-12.3648 9.4605 -1.8494 0.9392
-12.6967 9.0102 -1.8494 0.9392
-13.0122 8.5483 -1.8494 0.9392
-15.7361 6.0250 -2.0016 0.9344
-16.1281 4.8797 -2.0016 0.9344
-16.2930 4.2971 -2.0016 0.9344
-16.4369 3.7091 -2.0016 0.9344
-16.5595 3.1162 -2.0016 0.9344
-16.7405 1.9192 -2.0016 0.9344
-16.7986 1.3166 -2.0016 0.9344
-16.8498 0.1071 -2.0016 0.9344
-16.8428 -0.4983 -2.0016 0.9344
-16.6914 -2.3074 -2.0016 0.9344
-16.5978 -2.9055 -2.0016 0.9344
-16.4827 -3.4998 -2.0016 0.9344
-16.1889 -4.6742 -2.0016 0.9344
-16.0105 -5.2528 -2.0016 0.9344
-15.8115 -5.8245 -2.0016 0.9344
-15.5920 -6.3888 -2.0016 0.9344
-14.8142 -8.0291 -2.0016 0.9344
-14.5162 -8.5561 -2.0016 0.9344
-13.8645 -9.5763 -2.0016 0.9344
-13.5115 -10.0681 -2.0016 0.9344
-12.7537 -11.0123 -2.0016 0.9344
-12.3499 -11.4633 -2.0016 0.9344
-11.9302 -11.8995 -2.0016 0.9344
-11.0450 -12.7254 -2.0016 0.9344
-9.1085 -14.1761 -2.0016 0.9344
-8.5934 -14.4942 -2.0016 0.9344
-7.5305 -15.0738 -2.0016 0.9344
-6.9842 -15.3346 -2.0016 0.9344
-6.4288 -15.5756 -2.0016 0.9344
-5.8616 -15.7870 -2.0004 0.9344
-5.2828 -15.9635 -1.9974 0.9345
-3.4772 -16.1716 -1.9649 0.9355
1.2556 -16.5660 -1.9734 0.9353
1.8702 -16.6921 -1.9952 0.9346
3.6668 -16.4463 -2.0016 0.9344
4.2553 -16.3040 -2.0016 0.9344
4.8382 -16.1406 -2.0016 0.9344
5.4149 -15.9564 -2.0016 0.9344
6.5465 -15.5264 -2.0016 0.9344
2.1876 -4.2972 -0.5728 0.9808
10.2046 -13.4087 -2.0016 0.9344
11.1410 -12.6414 -2.0016 0.9344
11.5879 -12.2330 -2.0016 0.9344
12.8368 -10.9154 -2.0016 0.9344
13.2206 -10.4472 -2.0016 0.9344
15.1494 -7.3773 -2.0016 0.9344
15.6400 -6.2705 -2.0016 0.9344
15.8551 -5.7046 -2.0016 0.9344
16.5087 -3.3749 -2.0016 0.9344
16.7760 -1.5793 -2.0016 0.9344
16.8219 -0.9756 -2.0016 0.9344
16.8461 -0.3707 -2.0016 0.9344
16.7882 1.4438 -2.0016 0.9344
16.7255 2.0459 -2.0016 0.9344
16.6412 2.6454 -2.0016 0.9344
16.5354 3.2415 -2.0016 0.9344
16.4083 3.8334 -2.0016 0.9344
16.2600 4.4204 -2.0016 0.9344
15.9007 5.5764 -2.0016 0.9344
15.4593 6.7037 -2.0016 0.9344
15.2085 7.2547 -2.0016 0.9344
14.9380 7.7963 -2.0016 0.9344
14.0126 9.3582 -2.0016 0.9344
13.3045 10.3401 -2.0016 0.9344
12.5278 11.2687 -2.0016 0.9344
11.2427 12.5510 -2.0016 0.9344
10.7846 12.9468 -2.0016 0.9344
10.3126 13.3259 -2.0016 0.9344
7.1749 13.8170 -1.8494 0.9392
6.6740 14.0658 -1.8494 0.9392
6.1644 14.2965 -1.8494 0.9392
1.4913 12.4046 -1.4841 0.9509
1.0232 12.1934 -1.4535 0.9519
0.5735 11.9906 -1.4259 0.9528
0.1399 11.7950 -1.4012 0.9536
-0.6856 11.4136 -1.3582 0.9550
-1.1711 8.8300 -1.0581 0.9648
-1.9347 11.4218 -1.3761 0.9544
-3.2322 11.4303 -1.4110 0.9533
-4.1414 11.4362 -1.4448 0.9522
-5.1004 11.4425 -1.4881 0.9508
-6.1240 11.4492 -1.5423 0.9490
-6.6658 11.4528 -1.5741 0.9480
-9.1014 11.4687 -1.7392 0.9427
-9.7969 11.4733 -1.7921 0.9410
-10.5286 11.4690 -1.8494 0.9392
-11.3249 10.6834 -1.8494 0.9392
-12.7383 8.9512 -1.8494 0.9392
-13.0516 8.4879 -1.8494 0.9392
-13.7415 8.2497 -1.9039 0.9375
-15.2959 7.0685 -2.0016 0.9344
-15.7639 5.9520 -2.0016 0.9344
-16.1506 4.8048 -2.0016 0.9344
-16.3128 4.2216 -2.0016 0.9344
-16.4539 3.6328 -2.0016 0.9344
-16.6723 2.4421 -2.0016 0.9344
-16.8382 0.6343 -2.0016 0.9344
-16.8501 0.0290 -2.0016 0.9344
-16.8403 -0.5764 -2.0016 0.9344
-16.8087 -1.1809 -2.0016 0.9344
-16.4663 -3.5762 -2.0016 0.9344
-15.9860 -5.3270 -2.0016 0.9344
-15.3201 -7.0159 -2.0016 0.9344
-14.4764 -8.6233 -2.0016 0.9344
-14.1573 -9.1378 -2.0016 0.9344
-13.8199 -9.6404 -2.0016 0.9344
-11.8748 -11.9547 -2.0016 0.9344
-10.9859 -12.7765 -2.0016 0.9344
-8.5261 -14.5339 -2.0016 0.9344
-7.9985 -14.8308 -2.0016 0.9344
-7.4605 -15.1085 -2.0016 0.9344
-6.9130 -15.3668 -2.0016 0.9344
-5.7872 -15.8109 -2.0000 0.9344
-4.0098 -16.1690 -1.9788 0.9351
-2.7969 -16.1744 -1.9498 0.9360
-2.2021 -16.1763 -1.9392 0.9364
-1.0284 -16.1895 -1.9270 0.9367
-0.4466 -16.2309 -1.9287 0.9367
0.7291 -16.4280 -1.9533 0.9359
2.5522 -16.6452 -2.0003 0.9344
3.1504 -16.5530 -2.0016 0.9344
3.7430 -16.4292 -2.0016 0.9344
4.3308 -16.2841 -2.0016 0.9344
7.1709 -15.2482 -2.0016 0.9344
2.1898 -4.2527 -0.5682 0.9809
8.7697 -14.3882 -2.0016 0.9344
9.7801 -13.7214 -2.0016 0.9344
10.7400 -12.9838 -2.0016 0.9344
11.1995 -12.5896 -2.0016 0.9344
11.6445 -12.1792 -2.0016 0.9344
12.4889 -11.3117 -2.0016 0.9344
13.6334 -9.9024 -2.0016 0.9344
13.9803 -9.4063 -2.0016 0.9344
14.3092 -8.8980 -2.0016 0.9344
14.9111 -7.8476 -2.0016 0.9344
15.4361 -6.7568 -2.0016 0.9344
15.8814 -5.6311 -2.0016 0.9344
16.0734 -5.0569 -2.0016 0.9344
16.2447 -4.4763 -2.0016 0.9344
16.3950 -3.8898 -2.0016 0.9344
16.7831 -1.5015 -2.0016 0.9344
16.8476 -0.2926 -2.0016 0.9344
16.8472 0.3128 -2.0016 0.9344
16.8251 0.9178 -2.0016 0.9344
16.7813 1.5216 -2.0016 0.9344
16.7158 2.1234 -2.0016 0.9344
16.6288 2.7226 -2.0016 0.9344
16.2393 4.4957 -2.0016 0.9344
16.0674 5.0762 -2.0016 0.9344
15.4280 6.7753 -2.0016 0.9344
14.6096 8.3958 -2.0016 0.9344
13.9690 9.4230 -2.0016 0.9344
13.6215 9.9188 -2.0016 0.9344
11.6300 12.1931 -2.0016 0.9344
9.7636 13.7331 -2.0016 0.9344
9.2640 14.0750 -2.0016 0.9344
7.6038 13.5857 -1.8494 0.9392
7.1108 13.8501 -1.8494 0.9392
6.0980 14.3249 -1.8494 0.9392
5.0538 14.7258 -1.8494 0.9392
-4.5521 11.4389 -1.7444 0.9515
-5.0367 11.4421 -1.7713 0.9507
-5.5372 11.4454 -1.8015 0.9499
-6.0557 11.4488 -1.8351 0.9490
-6.5132 11.3110 -1.8494 0.9486
-7.3085 10.8142 -1.8494 0.9486
-8.7821 9.6559 -1.8494 0.9486
-9.1233 9.3342 -1.8494 0.9486
-9.4527 9.0004 -1.8494 0.9486
-9.7699 8.6550 -1.8494 0.9486
-10.0745 8.2985 -1.8494 0.9486
-10.7777 8.2462 -1.9228 0.9467
-12.7958 5.9853 -2.0016 0.9445
-13.1925 5.0511 -2.0016 0.9445
-13.6593 3.6025 -2.0016 0.9445
-13.7799 3.1095 -2.0016 0.9445
-14.0345 1.6090 -2.0016 0.9445
-14.0832 1.1038 -2.0016 0.9445
-14.1202 -0.4177 -2.0016 0.9445
-14.0961 -0.9247 -2.0016 0.9445
-12.8202 -2.7222 -1.8570 0.9484
-12.7141 -3.1809 -1.8570 0.9484
-12.1274 -4.9692 -1.8570 0.9484
-12.6534 -6.2808 -2.0016 0.9445
-12.4196 -6.7312 -2.0016 0.9445
-12.1697 -7.1731 -2.0016 0.9445
-11.6233 -8.0283 -2.0016 0.9445
-11.0169 -8.8421 -2.0016 0.9445
-10.3536 -9.6103 -2.0016 0.9445
-9.6369 -10.3289 -2.0016 0.9445
-9.2596 -10.6684 -2.0016 0.9445
-8.8704 -10.9941 -2.0016 0.9445
-8.4697 -11.3057 -2.0016 0.9445
-7.6362 -11.8846 -2.0016 0.9445
-7.2043 -12.1513 -2.0016 0.9445
-6.7631 -12.4022 -2.0016 0.9445
-5.3896 -13.0578 -2.0016 0.9445
-4.9171 -13.2430 -2.0016 0.9445
-4.4382 -13.4111 -2.0016 0.9445
-2.9696 -13.8107 -2.0016 0.9445
-2.4716 -13.9085 -2.0016 0.9445
-1.9703 -13.9883 -2.0016 0.9445
1.0676 -14.0860 -2.0016 0.9445
2.5768 -13.8894 -2.0016 0.9445
3.0741 -13.7879 -2.0016 0.9445
4.5396 -13.3771 -2.0016 0.9445
5.4883 -13.0167 -2.0016 0.9445
5.9524 -12.8111 -2.0016 0.9445
7.2961 -12.0964 -2.0016 0.9445
7.7259 -11.8265 -2.0016 0.9445
8.1458 -11.5413 -2.0016 0.9445
8.5551 -11.2412 -2.0016 0.9445
8.9534 -10.9267 -2.0016 0.9445
10.0769 -9.9000 -2.0016 0.9445
11.0835 -8.7584 -2.0016 0.9445
11.3910 -8.3546 -2.0016 0.9445
11.9615 -7.5152 -2.0016 0.9445
12.4702 -6.6370 -2.0016 0.9445
13.1118 -5.2569 -2.0016 0.9445
13.6013 -3.8158 -2.0016 0.9445
13.7296 -3.3247 -2.0016 0.9445
14.0076 -1.8284 -2.0016 0.9445
14.0642 -1.3240 -2.0016 0.9445
14.1230 -0.3108 -2.0016 0.9445
14.1250 0.1967 -2.0016 0.9445
13.4897 4.1931 -2.0016 0.9445
13.1539 5.1509 -2.0016 0.9445
12.5234 6.5361 -2.0016 0.9445
10.8353 9.0638 -2.0016 0.9445
9.4254 10.5222 -2.0016 0.9445
8.2387 11.4752 -2.0016 0.9445
6.0151 11.5836 -1.8494 0.9486
5.5952 11.7921 -1.8494 0.9486
5.1679 11.9855 -1.8494 0.9486
3.3980 12.6021 -1.8494 0.9486
2.9431 12.7161 -1.8494 0.9486
1.4913 12.4046 -1.7703 0.9508
-0.2794 11.6058 -1.6449 0.9542
-2.3602 11.4246 -1.6529 0.9540
-2.7923 11.4274 -1.6668 0.9536
-3.6815 11.4332 -1.7019 0.9526
-4.6138 11.4393 -1.7477 0.9514
-5.6030 11.4458 -1.8056 0.9498
-6.9666 11.0375 -1.8494 0.9486
-7.3586 10.7802 -1.8494 0.9486
-7.7411 10.5089 -1.8494 0.9486
-8.1136 10.2240 -1.8494 0.9486
-8.4756 9.9259 -1.8494 0.9486
-9.4943 8.9565 -1.8494 0.9486
-11.5271 8.1001 -1.9962 0.9447
-11.8424 7.7015 -2.0016 0.9445
-12.1114 7.2711 -2.0016 0.9445
-12.3648 6.8313 -2.0016 0.9445
-12.6022 6.3827 -2.0016 0.9445
-12.8234 5.9259 -2.0016 0.9445
-13.0280 5.4614 -2.0016 0.9445
-13.2157 4.9899 -2.0016 0.9445
-13.3865 4.5119 -2.0016 0.9445
-13.6759 3.5392 -2.0016 0.9445
-13.9773 2.0473 -2.0016 0.9445
-14.0882 1.0385 -2.0016 0.9445
-14.0917 -0.9900 -2.0016 0.9445
-13.9842 -1.9992 -2.0016 0.9445
-13.9034 -2.5003 -2.0016 0.9445
-12.8084 -2.7818 -1.8571 0.9484
-12.4338 -4.1433 -1.8570 0.9484
-12.1043 -5.0253 -1.8570 0.9484
-12.6241 -6.3393 -2.0016 0.9445
-11.8688 -7.6607 -2.0016 0.9445
-11.5860 -8.0821 -2.0016 0.9445
-10.9758 -8.8931 -2.0016 0.9445
-10.6492 -9.2817 -2.0016 0.9445
-9.9553 -10.0223 -2.0016 0.9445
-8.8193 -11.0352 -2.0016 0.9445
-8.4172 -11.3448 -2.0016 0.9445
-8.0043 -11.6399 -2.0016 0.9445
-7.5810 -11.9199 -2.0016 0.9445
-5.7955 -12.8828 -2.0016 0.9445
-5.3290 -13.0827 -2.0016 0.9445
-3.8906 -13.5801 -2.0016 0.9445
-3.4003 -13.7111 -2.0016 0.9445
-2.9055 -13.8244 -2.0016 0.9445
-2.4071 -13.9198 -2.0016 0.9445
-1.9055 -13.9973 -2.0016 0.9445
-0.3885 -14.1211 -2.0016 0.9445
1.1329 -14.0809 -2.0016 0.9445
2.1410 -13.9632 -2.0016 0.9445
3.1380 -13.7735 -2.0016 0.9445
3.6307 -13.6518 -2.0016 0.9445
4.6016 -13.3559 -2.0016 0.9445
7.3521 -12.0624 -2.0016 0.9445
7.7807 -11.7905 -2.0016 0.9445
8.1992 -11.5034 -2.0016 0.9445
8.6071 -11.2014 -2.0016 0.9445
9.0040 -10.8850 -2.0016 0.9445
9.3892 -10.5546 -2.0016 0.9445
9.7623 -10.2105 -2.0016 0.9445
11.1240 -8.7070 -2.0016 0.9445
11.4296 -8.3017 -2.0016 0.9445
11.7205 -7.8858 -2.0016 0.9445
11.9962 -7.4597 -2.0016 0.9445
12.7291 -6.1258 -2.0016 0.9445
13.1361 -5.1961 -2.0016 0.9445
13.3142 -4.7208 -2.0016 0.9445
13.4752 -4.2395 -2.0016 0.9445
13.7448 -3.2611 -2.0016 0.9445
14.0159 -1.7634 -2.0016 0.9445
14.0702 -1.2588 -2.0016 0.9445
14.1063 -0.7525 -2.0016 0.9445
14.1240 0.2622 -2.0016 0.9445
14.0687 1.2756 -2.0016 0.9445
14.0138 1.7802 -2.0016 0.9445
13.6143 3.7690 -2.0016 0.9445
13.3086 4.7368 -2.0016 0.9445
13.1298 5.2118 -2.0016 0.9445
12.4929 6.5941 -2.0016 0.9445
11.9872 7.4741 -2.0016 0.9445
11.7110 7.8998 -2.0016 0.9445
11.4197 8.3154 -2.0016 0.9445
11.1136 8.7203 -2.0016 0.9445
10.4588 9.4957 -2.0016 0.9445
10.1109 9.8653 -2.0016 0.9445
9.7500 10.2222 -2.0016 0.9445
9.3765 10.5658 -2.0016 0.9445
8.5937 11.2118 -2.0016 0.9445
8.1854 11.5132 -2.0016 0.9445
7.7665 11.7998 -2.0016 0.9445
7.3266 12.0531 -1.9986 0.9446
5.5404 11.8180 -1.8494 0.9486
5.1123 12.0094 -1.8494 0.9486
4.2368 12.3454 -1.8494 0.9486
-3.7734 10.5728 -1.8494 0.9555
-4.1508 10.4304 -1.8494 0.9555
-4.5228 10.2746 -1.8494 0.9555
-4.8890 10.1055 -1.8494 0.9555
-5.6019 9.7284 -1.8494 0.9555
-5.9478 9.5209 -1.8494 0.9555
-6.9375 8.8257 -1.8494 0.9555
-7.2501 8.5708 -1.8494 0.9555
-8.6517 8.2378 -1.9680 0.9527
-9.6495 7.3829 -2.0016 0.9519
-9.9084 7.0315 -2.0016 0.9519
-10.3877 6.3020 -2.0016 0.9519
-10.6074 5.9247 -2.0016 0.9519
-10.8134 5.5399 -2.0016 0.9519
-11.0054 5.1478 -2.0016 0.9519
-11.3466 4.3444 -2.0016 0.9519
-11.4954 3.9340 -2.0016 0.9519
-11.8519 2.6744 -2.0016 0.9519
-12.0133 1.8166 -2.0016 0.9519
-12.1127 0.9494 -2.0016 0.9519
-12.1390 0.5136 -2.0016 0.9519
-12.1446 -0.3593 -2.0016 0.9519
-12.1238 -0.7953 -2.0016 0.9519
-10.9352 -2.7359 -1.8570 0.9553
-10.7105 -3.5140 -1.8570 0.9553
-9.9103 -5.3712 -1.8570 0.9553
-10.2386 -6.5414 -2.0016 0.9519
-9.4754 -7.6050 -2.0016 0.9519
-8.9050 -8.2657 -2.0016 0.9519
-7.9640 -9.1757 -2.0016 0.9519
-7.6293 -9.4559 -2.0016 0.9519
-6.9307 -9.9792 -2.0016 0.9519
-6.5677 -10.2218 -2.0016 0.9519
-6.1963 -10.4511 -2.0016 0.9519
-5.4299 -10.8690 -2.0016 0.9519
-5.0360 -11.0571 -2.0016 0.9519
-3.8172 -11.5347 -2.0016 0.9519
-2.9792 -11.7790 -2.0016 0.9519
-1.2614 -12.0842 -2.0016 0.9519
-0.8265 -12.1217 -2.0016 0.9519
0.0460 -12.1498 -2.0016 0.9519
1.3528 -12.0743 -2.0016 0.9519
1.7857 -12.0179 -2.0016 0.9519
2.6440 -11.8587 -2.0016 0.9519
3.0683 -11.7561 -2.0016 0.9519
3.4886 -11.6383 -2.0016 0.9519
3.9044 -11.5054 -2.0016 0.9519
4.3152 -11.3577 -2.0016 0.9519
4.7204 -11.1954 -2.0016 0.9519
2.1875 -4.2970 -0.7943 0.9806
6.6449 -10.1717 -2.0016 0.9519
7.0060 -9.9265 -2.0016 0.9519
7.7007 -9.3978 -2.0016 0.9519
8.0333 -9.1151 -2.0016 0.9519
8.6670 -8.5148 -2.0016 0.9519
8.9673 -8.1980 -2.0016 0.9519
9.2560 -7.8706 -2.0016 0.9519
10.5134 -6.0900 -2.0016 0.9519
10.7254 -5.7084 -2.0016 0.9519
10.9235 -5.3194 -2.0016 0.9519
11.1076 -4.9236 -2.0016 0.9519
11.2773 -4.5214 -2.0016 0.9519
11.4324 -4.1133 -2.0016 0.9519
11.5728 -3.7000 -2.0016 0.9519
11.6982 -3.2819 -2.0016 0.9519
11.8086 -2.8595 -2.0016 0.9519
11.9037 -2.4335 -2.0016 0.9519
11.9834 -2.0043 -2.0016 0.9519
12.0477 -1.5726 -2.0016 0.9519
12.0964 -1.1388 -2.0016 0.9519
12.1295 -0.7035 -2.0016 0.9519
12.1469 -0.2673 -2.0016 0.9519
12.1348 0.6055 -2.0016 0.9519
12.1052 1.0410 -2.0016 0.9519
12.0600 1.4752 -2.0016 0.9519
11.9992 1.9075 -2.0016 0.9519
11.9229 2.3373 -2.0016 0.9519
11.4652 4.0209 -2.0016 0.9519
11.3134 4.4302 -2.0016 0.9519
10.9661 5.2310 -2.0016 0.9519
10.7711 5.6216 -2.0016 0.9519
10.3397 6.3804 -2.0016 0.9519
10.1038 6.7477 -2.0016 0.9519
9.8549 7.1063 -2.0016 0.9519
9.5933 7.4558 -2.0016 0.9519
9.0332 8.1253 -2.0016 0.9519
8.4265 8.7529 -2.0016 0.9519
8.1066 9.0500 -2.0016 0.9519
7.7763 9.3354 -2.0016 0.9519
7.0860 9.8696 -2.0016 0.9519
6.7268 10.1178 -2.0016 0.9519
6.3590 10.3529 -2.0016 0.9519
4.8123 10.1422 -1.8494 0.9555
4.4449 10.3085 -1.8494 0.9555
4.0717 10.4616 -1.8494 0.9555
3.3100 10.7269 -1.8494 0.9555
2.5313 10.9369 -1.8494 0.9555
1.3400 11.1457 -1.8494 0.9555
0.9388 11.1867 -1.8494 0.9555
0.5363 11.2132 -1.8494 0.9555
-0.2702 11.2227 -1.8494 0.9555
-1.0753 11.1744 -1.8494 0.9555
-1.1567 8.7213 -1.4493 0.9650
-1.8748 11.0683 -1.8494 0.9555
-2.2712 10.9938 -1.8494 0.9555
-2.6647 10.9052 -1.8494 0.9555
-3.0547 10.8024 -1.8494 0.9555
-3.4408 10.6857 -1.8494 0.9555
-3.8224 10.5552 -1.8494 0.9555
-4.1991 10.4111 -1.8494 0.9555
-4.5704 10.2535 -1.8494 0.9555
-4.9358 10.0827 -1.8494 0.9555
-5.9918 9.4932 -1.8494 0.9555
-6.3290 9.2718 -1.8494 0.9555
-6.6580 9.0385 -1.8494 0.9555
-6.9784 8.7935 -1.8494 0.9555
-8.1375 8.2488 -1.9089 0.9541
-9.4137 7.6812 -2.0016 0.9519
-9.9409 6.9855 -2.0016 0.9519
-10.1855 6.6239 -2.0016 0.9519
-10.8390 5.4897 -2.0016 0.9519
-11.0292 5.0968 -2.0016 0.9519
-11.3666 4.2917 -2.0016 0.9519
-11.7624 3.0440 -2.0016 0.9519
-11.8641 2.6195 -2.0016 0.9519
-11.9506 2.1916 -2.0016 0.9519
-12.0771 1.3279 -2.0016 0.9519
-12.1170 0.8932 -2.0016 0.9519
-12.1428 -0.4156 -2.0016 0.9519
-12.1200 -0.8515 -2.0016 0.9519
-12.0816 -1.2864 -2.0016 0.9519
-12.0276 -1.7195 -2.0016 0.9519
-11.0404 -2.3978 -1.8612 0.9552
-10.4107 -4.3222 -1.8570 0.9553
-10.2487 -4.6934 -1.8570 0.9553
-9.8852 -5.4171 -1.8570 0.9553
-10.4383 -6.2179 -2.0016 0.9519
-10.2082 -6.5888 -2.0016 0.9519
-9.7088 -7.3048 -2.0016 0.9519
-9.4401 -7.6488 -2.0016 0.9519
-9.1592 -7.9830 -2.0016 0.9519
-8.8665 -8.3069 -2.0016 0.9519
-8.2472 -8.9220 -2.0016 0.9519
-7.9214 -9.2125 -2.0016 0.9519
-6.8843 -10.0113 -2.0016 0.9519
-5.7673 -10.6938 -2.0016 0.9519
-4.9846 -11.0803 -2.0016 0.9519
-4.1762 -11.4096 -2.0016 0.9519
-3.3462 -11.6800 -2.0016 0.9519
-2.9245 -11.7927 -2.0016 0.9519
-2.4990 -11.8901 -2.0016 0.9519
-1.6389 -12.0388 -2.0016 0.9519
-1.2053 -12.0899 -2.0016 0.9519
-0.7702 -12.1254 -2.0016 0.9519
-0.3342 -12.1453 -2.0016 0.9519
1.4088 -12.0679 -2.0016 0.9519
1.8414 -12.0095 -2.0016 0.9519
2.2716 -11.9356 -2.0016 0.9519
2.6989 -11.8463 -2.0016 0.9519
3.1227 -11.7417 -2.0016 0.9519
3.9577 -11.4872 -2.0016 0.9519
4.3678 -11.3376 -2.0016 0.9519
5.1706 -10.9948 -2.0016 0.9519
5.9466 -10.5951 -2.0016 0.9519
6.6920 -10.1408 -2.0016 0.9519
7.4029 -9.6342 -2.0016 0.9519
8.0755 -9.0778 -2.0016 0.9519
8.3963 -8.7818 -2.0016 0.9519
8.7064 -8.4746 -2.0016 0.9519
9.0052 -8.1563 -2.0016 0.9519
9.8304 -7.1402 -2.0016 0.9519
10.0806 -6.7824 -2.0016 0.9519
10.5415 -6.0412 -2.0016 0.9519
11.4514 -4.0603 -2.0016 0.9519
11.8217 -2.8048 -2.0016 0.9519
11.9148 -2.3783 -2.0016 0.9519
11.9926 -1.9487 -2.0016 0.9519
12.1015 -1.0827 -2.0016 0.9519
12.1326 -0.6472 -2.0016 0.9519
12.1481 -0.2110 -2.0016 0.9519
12.1478 0.2255 -2.0016 0.9519
12.1002 1.0972 -2.0016 0.9519
12.0530 1.5311 -2.0016 0.9519
11.9902 1.9631 -2.0016 0.9519
11.9120 2.3926 -2.0016 0.9519
11.8183 2.8189 -2.0016 0.9519
11.7094 3.2417 -2.0016 0.9519
11.5854 3.6602 -2.0016 0.9519
11.1244 4.8853 -2.0016 0.9519
10.7450 5.6715 -2.0016 0.9519
10.5343 6.0538 -2.0016 0.9519
9.8219 7.1520 -2.0016 0.9519
9.5586 7.5002 -2.0016 0.9519
8.9954 8.1671 -2.0016 0.9519
8.6962 8.4850 -2.0016 0.9519
8.3858 8.7919 -2.0016 0.9519
8.0646 9.0875 -2.0016 0.9519
7.7329 9.3713 -2.0016 0.9519
7.3913 9.6430 -2.0016 0.9519
7.0401 9.9023 -2.0016 0.9519
6.6799 10.1488 -2.0016 0.9519
4.7652 10.1644 -1.8494 0.9555
4.3970 10.3290 -1.8494 0.9555
4.0231 10.4803 -1.8494 0.9555
3.6440 10.6181 -1.8494 0.9555
-3.3072 9.2666 -1.8494 0.9607
-4.9098 8.5265 -1.8494 0.9607
-7.1596 7.8720 -2.0001 0.9576
-7.7121 7.3431 -2.0016 0.9576
-7.9709 7.0613 -2.0016 0.9576
-8.2194 6.7704 -2.0016 0.9576
-9.2969 5.1928 -2.0016 0.9576
-9.6458 4.5119 -2.0016 0.9576
-9.8016 4.1624 -2.0016 0.9576
-9.9448 3.8077 -2.0016 0.9576
-10.1925 3.0838 -2.0016 0.9576
-10.3876 2.3440 -2.0016 0.9576
-10.5291 1.5922 -2.0016 0.9576
-10.5795 1.2129 -2.0016 0.9576
-10.6163 0.8321 -2.0016 0.9576
-10.6393 0.4502 -2.0016 0.9576
-10.6442 -0.3149 -2.0016 0.9576
-10.6260 -0.6971 -2.0016 0.9576
-10.5941 -1.0783 -2.0016 0.9576
-10.5485 -1.4582 -2.0016 0.9576
-10.4166 -2.2118 -2.0016 0.9576
-9.4919 -2.7406 -1.8570 0.9606
-9.2706 -3.4150 -1.8570 0.9606
-9.1420 -3.7459 -1.8570 0.9606
-9.0015 -4.0718 -1.8570 0.9606
-8.8494 -4.3926 -1.8570 0.9606
-8.6859 -4.7076 -1.8570 0.9606
-8.5112 -5.0166 -1.8570 0.9606
-8.1290 -5.6148 -1.8570 0.9606
-8.0600 -6.9594 -2.0016 0.9576
-7.8048 -7.2445 -2.0016 0.9576
-7.5395 -7.5202 -2.0016 0.9576
-6.9801 -8.0421 -2.0016 0.9576
-6.3847 -8.5225 -2.0016 0.9576
-6.0744 -8.7464 -2.0016 0.9576
-5.7563 -8.9589 -2.0016 0.9576
-5.0982 -9.3491 -2.0016 0.9576
-4.7591 -9.5262 -2.0016 0.9576
-3.7066 -9.9829 -2.0016 0.9576
-3.3456 -10.1096 -2.0016 0.9576
-2.9803 -10.2233 -2.0016 0.9576
-2.6111 -10.3237 -2.0016 0.9576
-1.1055 -10.5913 -2.0016 0.9576
-0.7244 -10.6242 -2.0016 0.9576
0.0403 -10.6487 -2.0016 0.9576
0.4228 -10.6404 -2.0016 0.9576
0.8048 -10.6184 -2.0016 0.9576
2.3173 -10.3936 -2.0016 0.9576
3.0576 -10.2004 -2.0016 0.9576
3.7821 -9.9546 -2.0016 0.9576
4.1372 -9.8123 -2.0016 0.9576
2.1875 -4.2969 -0.9063 0.9806
2.3321 -4.2006 -0.9031 0.9806
6.1405 -8.7001 -2.0016 0.9576
6.7493 -8.2368 -2.0016 0.9576
7.3232 -7.7309 -2.0016 0.9576
7.5962 -7.4629 -2.0016 0.9576
8.1125 -6.8982 -2.0016 0.9576
8.3550 -6.6023 -2.0016 0.9576
9.2145 -5.3376 -2.0016 0.9576
9.5740 -4.6622 -2.0016 0.9576
9.8840 -3.9628 -2.0016 0.9576
10.0200 -3.6052 -2.0016 0.9576
10.1430 -3.2429 -2.0016 0.9576
10.3497 -2.5063 -2.0016 0.9576
10.5029 -1.7567 -2.0016 0.9576
10.6019 -0.9981 -2.0016 0.9576
10.6356 0.5307 -2.0016 0.9576
10.6097 0.9124 -2.0016 0.9576
10.5700 1.2930 -2.0016 0.9576
10.5168 1.6718 -2.0016 0.9576
10.2759 2.7936 -2.0016 0.9576
10.1689 3.1609 -2.0016 0.9576
9.6113 4.5848 -2.0016 0.9576
9.4404 4.9271 -2.0016 0.9576
9.2573 5.2630 -2.0016 0.9576
9.0623 5.5922 -2.0016 0.9576
8.8555 5.9141 -2.0016 0.9576
8.4081 6.5346 -2.0016 0.9576
8.1679 6.8325 -2.0016 0.9576
7.6563 7.4013 -2.0016 0.9576
7.3854 7.6715 -2.0016 0.9576
6.8156 8.1820 -2.0016 0.9576
6.5173 8.4216 -2.0016 0.9576
5.8958 8.8678 -2.0016 0.9576
5.5734 9.0738 -2.0016 0.9576
4.8982 9.4326 -1.9978 0.9577
4.4705 9.4218 -1.9602 0.9584
2.9011 9.4016 -1.8494 0.9607
2.5615 9.4998 -1.8494 0.9607
1.1745 9.7687 -1.8494 0.9607
0.4700 9.8278 -1.8494 0.9607
0.1167 9.8384 -1.8494 0.9607
-0.2368 9.8362 -1.8494 0.9607
-0.5900 9.8214 -1.8494 0.9607
-0.9424 9.7938 -1.8494 0.9607
-1.6432 9.7009 -1.8494 0.9607
-1.9906 9.6356 -1.8494 0.9607
-2.6773 9.4678 -1.8494 0.9607
-3.3502 9.2512 -1.8494 0.9607
-3.6803 9.1248 -1.8494 0.9607
-4.0057 8.9867 -1.8494 0.9607
-4.3260 8.8370 -1.8494 0.9607
-5.2516 8.3203 -1.8494 0.9607
-6.0741 8.2458 -1.9250 0.9592
-6.5362 8.2363 -1.9763 0.9581
-8.2507 6.7322 -2.0016 0.9576
-8.4872 6.4315 -2.0016 0.9576
-8.7128 6.1225 -2.0016 0.9576
-9.3209 5.1496 -2.0016 0.9576
-9.6666 4.4671 -2.0016 0.9576
-9.8208 4.1169 -2.0016 0.9576
-10.0910 3.4012 -2.0016 0.9576
-10.4741 1.9208 -2.0016 0.9576
-10.5364 1.5433 -2.0016 0.9576
-10.6200 0.7828 -2.0016 0.9576
-10.6226 -0.7463 -2.0016 0.9576
-10.5890 -1.1274 -2.0016 0.9576
-10.5416 -1.5071 -2.0016 0.9576
-10.2344 -2.2228 -1.9685 0.9583
-9.4791 -2.7846 -1.8570 0.9606
-8.6640 -4.7479 -1.8570 0.9606
-8.4878 -5.0560 -1.8570 0.9606
-8.3007 -5.3577 -1.8570 0.9606
-8.5093 -6.4023 -2.0016 0.9576
-8.0276 -6.9967 -2.0016 0.9576
-7.5046 -7.5550 -2.0016 0.9576
-7.2283 -7.8198 -2.0016 0.9576
-6.9428 -8.0744 -2.0016 0.9576
-6.3451 -8.5520 -2.0016 0.9576
-3.6603 -10.0000 -2.0016 0.9576
-3.2987 -10.1250 -2.0016 0.9576
-2.5632 -10.3357 -2.0016 0.9576
-1.8145 -10.4931 -2.0016 0.9576
-1.0564 -10.5963 -2.0016 0.9576
-0.6751 -10.6274 -2.0016 0.9576
1.2348 -10.5770 -2.0016 0.9576
1.6139 -10.5258 -2.0016 0.9576
1.9910 -10.4610 -2.0016 0.9576
3.1049 -10.1861 -2.0016 0.9576
3.4688 -10.0680 -2.0016 0.9576
4.5318 -9.6364 -2.0016 0.9576
2.1898 -4.2526 -0.8991 0.9807
5.5422 -9.0929 -2.0016 0.9576
5.8652 -8.8880 -2.0016 0.9576
6.1807 -8.6715 -2.0016 0.9576
6.7874 -8.2054 -2.0016 0.9576
7.6308 -7.4276 -2.0016 0.9576
8.1444 -6.8605 -2.0016 0.9576
8.3856 -6.5635 -2.0016 0.9576
8.6159 -6.2581 -2.0016 0.9576
9.7552 -4.2701 -2.0016 0.9576
9.9023 -3.9169 -2.0016 0.9576
10.1579 -3.1958 -2.0016 0.9576
10.2662 -2.8289 -2.0016 0.9576
10.5109 -1.7080 -2.0016 0.9576
10.5655 -1.3293 -2.0016 0.9576
10.6065 -0.9489 -2.0016 0.9576
10.6330 0.5800 -2.0016 0.9576
10.5639 1.3420 -2.0016 0.9576
10.5089 1.7206 -2.0016 0.9576
10.3582 2.4707 -2.0016 0.9576
10.2628 2.8412 -2.0016 0.9576
10.1541 3.2080 -2.0016 0.9576
10.0323 3.5707 -2.0016 0.9576
9.5900 4.6293 -2.0016 0.9576
9.4175 4.9708 -2.0016 0.9576
9.2328 5.3059 -2.0016 0.9576
9.0363 5.6341 -2.0016 0.9576
8.6084 6.2684 -2.0016 0.9576
8.3777 6.5736 -2.0016 0.9576
7.6219 7.4367 -2.0016 0.9576
7.3498 7.7057 -2.0016 0.9576
7.0682 7.9647 -2.0016 0.9576
6.4781 8.4517 -2.0016 0.9576
6.1703 8.6789 -2.0016 0.9576
5.8546 8.8950 -2.0016 0.9576
5.5313 9.0996 -2.0016 0.9576
5.2008 9.2924 -2.0016 0.9576
4.8527 9.4518 -1.9970 0.9577
3.8728 9.0976 -1.8585 0.9606
3.5261 9.1855 -1.8494 0.9607
-2.9484 8.2612 -1.8541 0.9648
-3.2849 8.2545 -1.8779 0.9643
-4.3571 8.2375 -1.9698 0.9626
-5.0070 8.0150 -1.9976 0.9621
-5.2995 7.8415 -2.0006 0.9620
-5.5805 7.6498 -2.0016 0.9620
-6.3711 7.0051 -2.0016 0.9620
-6.6187 6.7717 -2.0016 0.9620
-6.8576 6.5295 -2.0016 0.9620
-7.0878 6.2790 -2.0016 0.9620
-7.3088 6.0203 -2.0016 0.9620
-7.5203 5.7539 -2.0016 0.9620
-7.9140 5.1991 -2.0016 0.9620
-8.0957 4.9114 -2.0016 0.9620
-8.2669 4.6175 -2.0016 0.9620
-8.4274 4.3175 -2.0016 0.9620
-8.5771 4.0120 -2.0016 0.9620
-8.8430 3.3858 -2.0016 0.9620
-9.0633 2.7421 -2.0016 0.9620
-9.1559 2.4148 -2.0016 0.9620
-9.2368 2.0843 -2.0016 0.9620
-9.3057 1.7512 -2.0016 0.9620
-9.4074 1.0785 -2.0016 0.9620
-9.4401 0.7399 -2.0016 0.9620
-9.4649 -0.2800 -2.0016 0.9620
-9.4487 -0.6198 -2.0016 0.9620
-9.4203 -0.9589 -2.0016 0.9620
-9.2625 -1.9668 -2.0016 0.9620
-8.9051 -2.2280 -1.9404 0.9632
-8.3473 -2.7386 -1.8570 0.9647
-8.2435 -3.0367 -1.8570 0.9647
-7.8690 -3.9059 -1.8570 0.9647
-7.7236 -4.1861 -1.8570 0.9647
-7.4031 -4.7298 -1.8570 0.9647
-7.2284 -4.9927 -1.8570 0.9647
-7.1670 -6.1884 -2.0016 0.9620
-6.9401 -6.4419 -2.0016 0.9620
-6.2068 -7.1511 -2.0016 0.9620
-5.6773 -7.5783 -2.0016 0.9620
-5.1186 -7.9663 -2.0016 0.9620
-4.8291 -8.1451 -2.0016 0.9620
-4.2318 -8.4708 -2.0016 0.9620
-3.2959 -8.8769 -2.0016 0.9620
-2.6501 -9.0906 -2.0016 0.9620
-1.3207 -9.3765 -2.0016 0.9620
-0.3043 -9.4641 -2.0016 0.9620
0.0358 -9.4690 -2.0016 0.9620
0.7156 -9.4419 -2.0016 0.9620
1.0543 -9.4101 -2.0016 0.9620
1.3917 -9.3662 -2.0016 0.9620
1.7273 -9.3102 -2.0016 0.9620
2.0606 -9.2421 -2.0016 0.9620
2.3913 -9.1621 -2.0016 0.9620
2.7188 -9.0703 -2.0016 0.9620
3.0429 -8.9668 -2.0016 0.9620
3.6789 -8.7252 -2.0016 0.9620
2.1874 -4.2969 -1.0192 0.9805
2.3320 -4.2005 -1.0156 0.9805
4.8906 -8.1083 -2.0016 0.9620
5.4602 -7.7362 -2.0016 0.9620
5.7345 -7.5351 -2.0016 0.9620
6.0015 -7.3242 -2.0016 0.9620
6.5119 -6.8744 -2.0016 0.9620
6.9887 -6.3891 -2.0016 0.9620
7.2137 -6.1339 -2.0016 0.9620
7.4294 -5.8708 -2.0016 0.9620
7.6355 -5.6002 -2.0016 0.9620
7.8317 -5.3223 -2.0016 0.9620
8.0179 -5.0375 -2.0016 0.9620
8.3588 -4.4488 -2.0016 0.9620
8.5133 -4.1457 -2.0016 0.9620
9.0193 -2.8836 -2.0016 0.9620
9.1170 -2.5578 -2.0016 0.9620
9.2771 -1.8966 -2.0016 0.9620
9.3393 -1.5621 -2.0016 0.9620
9.4273 -0.8875 -2.0016 0.9620
9.4531 -0.5483 -2.0016 0.9620
9.4667 -0.2083 -2.0016 0.9620
9.4681 0.1319 -2.0016 0.9620
9.3990 1.1497 -2.0016 0.9620
9.3516 1.4866 -2.0016 0.9620
9.2922 1.8216 -2.0016 0.9620
8.6874 3.7672 -2.0016 0.9620
8.5465 4.0768 -2.0016 0.9620
8.2317 4.6799 -2.0016 0.9620
8.0583 4.9726 -2.0016 0.9620
7.6804 5.5383 -2.0016 0.9620
7.4765 5.8107 -2.0016 0.9620
7.2630 6.0755 -2.0016 0.9620
7.0400 6.3325 -2.0016 0.9620
6.0605 7.2755 -2.0016 0.9620
5.2426 7.8853 -2.0016 0.9620
4.6629 8.2414 -2.0016 0.9620
4.0591 8.5549 -2.0016 0.9620
3.7443 8.6838 -1.9989 0.9621
3.0361 8.7148 -1.9507 0.9630
2.6497 8.5870 -1.8996 0.9639
1.9728 8.5237 -1.8494 0.9649
0.1038 8.7484 -1.8494 0.9649
-0.5246 8.7332 -1.8494 0.9649
-1.4611 8.6261 -1.8494 0.9649
-1.7700 8.5681 -1.8494 0.9649
-2.0767 8.4990 -1.8494 0.9649
-2.3807 8.4189 -1.8494 0.9649
-2.6816 8.3279 -1.8494 0.9649
-2.9907 8.2587 -1.8567 0.9647
-3.6768 8.2487 -1.9090 0.9638
-4.0352 8.2430 -1.9400 0.9632
-4.4056 8.2366 -1.9745 0.9625
-5.3369 7.8184 -2.0010 0.9620
-5.8862 7.4172 -2.0016 0.9620
-6.1488 7.2010 -2.0016 0.9620
-6.4036 6.9754 -2.0016 0.9620
-6.6500 6.7409 -2.0016 0.9620
-6.8879 6.4977 -2.0016 0.9620
-7.1168 6.2461 -2.0016 0.9620
-7.3366 5.9864 -2.0016 0.9620
-7.5469 5.7190 -2.0016 0.9620
-7.7475 5.4442 -2.0016 0.9620
-8.1184 4.8738 -2.0016 0.9620
-8.4474 4.2784 -2.0016 0.9620
-8.5956 3.9722 -2.0016 0.9620
-8.9730 3.0244 -2.0016 0.9620
-9.2463 2.0415 -2.0016 0.9620
-9.3690 1.3723 -2.0016 0.9620
-9.4123 1.0349 -2.0016 0.9620
-9.4434 0.6961 -2.0016 0.9620
-9.4623 0.3564 -2.0016 0.9620
-9.4690 0.0163 -2.0016 0.9620
-9.4635 -0.3239 -2.0016 0.9620
-9.4158 -1.0025 -2.0016 0.9620
-9.3737 -1.3401 -2.0016 0.9620
-8.7550 -2.2336 -1.9099 0.9637
-8.4289 -2.4761 -1.8570 0.9647
-8.3345 -2.7773 -1.8570 0.9647
-8.2293 -3.0749 -1.8570 0.9647
-7.9873 -3.6578 -1.8570 0.9647
-7.8508 -3.9424 -1.8570 0.9647
-7.7041 -4.2218 -1.8570 0.9647
-7.0200 -5.2817 -1.8570 0.9647
-6.4275 -6.9534 -2.0016 0.9620
-6.1736 -7.1798 -2.0016 0.9620
-5.9116 -7.3969 -2.0016 0.9620
-5.6421 -7.6045 -2.0016 0.9620
-5.0816 -7.9900 -2.0016 0.9620
-4.4948 -8.3342 -2.0016 0.9620
-4.1925 -8.4903 -2.0016 0.9620
-3.8848 -8.6354 -2.0016 0.9620
-3.5721 -8.7694 -2.0016 0.9620
-3.2547 -8.8921 -2.0016 0.9620
-2.6079 -9.1028 -2.0016 0.9620
-2.2792 -9.1906 -2.0016 0.9620
-0.9394 -9.4223 -2.0016 0.9620
-0.2604 -9.4654 -2.0016 0.9620
0.0798 -9.4687 -2.0016 0.9620
0.4198 -9.4597 -2.0016 0.9620
1.7704 -9.3020 -2.0016 0.9620
2.4337 -9.1509 -2.0016 0.9620
2.7609 -9.0576 -2.0016 0.9620
3.0845 -8.9526 -2.0016 0.9620
3.4041 -8.8360 -2.0016 0.9620
4.9282 -8.0855 -2.0016 0.9620
5.2154 -7.9033 -2.0016 0.9620
5.4960 -7.7108 -2.0016 0.9620
5.7694 -7.5084 -2.0016 0.9620
6.0354 -7.2963 -2.0016 0.9620
7.4565 -5.8363 -2.0016 0.9620
7.6614 -5.5647 -2.0016 0.9620
7.8563 -5.2859 -2.0016 0.9620
8.0411 -5.0003 -2.0016 0.9620
8.2156 -4.7082 -2.0016 0.9620
8.3794 -4.4100 -2.0016 0.9620
8.5324 -4.1062 -2.0016 0.9620
8.6744 -3.7970 -2.0016 0.9620
8.9246 -3.1644 -2.0016 0.9620
9.2858 -1.8535 -2.0016 0.9620
9.3464 -1.5187 -2.0016 0.9620
9.3950 -1.1820 -2.0016 0.9620
9.4674 0.1758 -2.0016 0.9620
9.4303 0.8551 -2.0016 0.9620
9.3935 1.1933 -2.0016 0.9620
9.3446 1.5300 -2.0016 0.9620
9.2836 1.8647 -2.0016 0.9620
9.2106 2.1970 -2.0016 0.9620
9.0291 2.8526 -2.0016 0.9620
8.6698 3.8074 -2.0016 0.9620
8.5275 4.1164 -2.0016 0.9620
8.0351 5.0099 -2.0016 0.9620
7.6547 5.5739 -2.0016 0.9620
7.4495 5.8453 -2.0016 0.9620
7.2347 6.1091 -2.0016 0.9620
7.0106 6.3651 -2.0016 0.9620
6.7774 6.6128 -2.0016 0.9620
6.5355 6.8520 -2.0016 0.9620
6.2851 7.0823 -2.0016 0.9620
5.7604 7.5153 -2.0016 0.9620
5.4867 7.7174 -2.0016 0.9620
5.2060 7.9095 -2.0016 0.9620
4.0194 8.5736 -2.0016 0.9620
3.7030 8.6987 -1.9984 0.9621
-2.8573 8.0058 -1.9978 0.9657
-3.1457 7.9048 -1.9995 0.9656
-3.7089 7.6664 -2.0016 0.9656
-3.9819 7.5282 -2.0016 0.9656
-5.2631 6.6955 -2.0016 0.9656
-5.9528 6.0905 -2.0016 0.9656
-6.1678 5.8727 -2.0016 0.9656
-6.3748 5.6473 -2.0016 0.9656
-6.5735 5.4147 -2.0016 0.9656
-6.9453 4.9287 -2.0016 0.9656
-7.1179 4.6761 -2.0016 0.9656
-7.2813 4.4174 -2.0016 0.9656
-7.4353 4.1529 -2.0016 0.9656
-7.5796 3.8832 -2.0016 0.9656
-7.8389 3.3289 -2.0016 0.9656
-8.0577 2.7575 -2.0016 0.9656
-8.3695 1.5750 -2.0016 0.9656
-8.4207 1.2733 -2.0016 0.9656
-8.4904 0.6655 -2.0016 0.9656
-8.5088 0.3600 -2.0016 0.9656
-8.5163 0.0541 -2.0016 0.9656
-8.4727 -0.8624 -2.0016 0.9656
-8.4362 -1.1662 -2.0016 0.9656
-8.3889 -1.4685 -2.0016 0.9656
-8.3307 -1.7689 -2.0016 0.9656
-8.2618 -2.0670 -2.0016 0.9656
-6.6583 -4.2540 -1.8570 0.9681
-5.9804 -5.1638 -1.8570 0.9681
-5.7910 -5.3753 -1.8570 0.9681
-5.5942 -5.5799 -1.8570 0.9681
-5.8098 -6.2270 -2.0016 0.9656
-5.5824 -6.4317 -2.0016 0.9656
-5.1062 -6.8159 -2.0016 0.9656
-4.6036 -7.1649 -2.0016 0.9656
-3.5300 -7.7504 -2.0016 0.9656
-3.2493 -7.8722 -2.0016 0.9656
-2.9644 -7.9839 -2.0016 0.9656
-2.6757 -8.0852 -2.0016 0.9656
-1.7903 -8.3261 -2.0016 0.9656
-1.4901 -8.3851 -2.0016 0.9656
-0.8842 -8.4704 -2.0016 0.9656
-0.5793 -8.4967 -2.0016 0.9656
-0.2737 -8.5120 -2.0016 0.9656
0.6436 -8.4921 -2.0016 0.9656
1.5535 -8.3736 -2.0016 0.9656
1.8533 -8.3123 -2.0016 0.9656
2.1507 -8.2404 -2.0016 0.9656
2.4453 -8.1578 -2.0016 0.9656
3.0247 -7.9612 -2.0016 0.9656
2.1561 -4.2354 -1.1170 0.9807
2.3050 -4.1518 -1.1161 0.9807
5.1577 -6.7771 -2.0016 0.9656
5.3978 -6.5874 -2.0016 0.9656
5.8568 -6.1828 -2.0016 0.9656
6.0751 -5.9685 -2.0016 0.9656
6.2856 -5.7464 -2.0016 0.9656
6.4880 -5.5169 -2.0016 0.9656
6.8673 -5.0368 -2.0016 0.9656
7.2113 -4.5307 -2.0016 0.9656
7.5179 -4.0013 -2.0016 0.9656
7.6568 -3.7286 -2.0016 0.9656
7.7858 -3.4512 -2.0016 0.9656
7.9048 -3.1693 -2.0016 0.9656
8.0135 -2.8832 -2.0016 0.9656
8.1119 -2.5935 -2.0016 0.9656
8.1999 -2.3004 -2.0016 0.9656
8.3998 -1.4049 -2.0016 0.9656
8.4790 -0.7982 -2.0016 0.9656
8.5022 -0.4931 -2.0016 0.9656
8.4108 1.3371 -2.0016 0.9656
8.3574 1.6383 -2.0016 0.9656
8.2931 1.9375 -2.0016 0.9656
8.2182 2.2342 -2.0016 0.9656
8.1326 2.5279 -2.0016 0.9656
8.0366 2.8184 -2.0016 0.9656
7.9301 3.1053 -2.0016 0.9656
7.8135 3.3882 -2.0016 0.9656
7.5500 3.9404 -2.0016 0.9656
7.4036 4.2091 -2.0016 0.9656
7.0823 4.7298 -2.0016 0.9656
6.7244 5.2261 -2.0016 0.9656
6.3318 5.6954 -2.0016 0.9656
5.6823 6.3436 -2.0016 0.9656
3.9248 7.5581 -2.0016 0.9656
3.6508 7.6943 -2.0016 0.9656
3.0889 7.9365 -2.0016 0.9656
1.9148 8.2729 -1.9957 0.9657
1.3006 8.2923 -1.9727 0.9661
0.6927 8.2542 -1.9468 0.9665
0.0978 8.2435 -1.9375 0.9667
-1.0929 8.2405 -1.9537 0.9664
-1.3955 8.2386 -1.9638 0.9662
-2.0118 8.2334 -1.9920 0.9658
-2.3098 8.1684 -1.9950 0.9657
-2.6036 8.0858 -1.9964 0.9657
-2.8947 7.9933 -1.9980 0.9657
-3.1827 7.8910 -1.9997 0.9656
-3.4673 7.7787 -2.0016 0.9656
-3.7444 7.6491 -2.0016 0.9656
-4.2840 7.3605 -2.0016 0.9656
-4.5456 7.2019 -2.0016 0.9656
-4.8014 7.0339 -2.0016 0.9656
-5.0510 6.8569 -2.0016 0.9656
-5.7594 6.2737 -2.0016 0.9656
-5.9810 6.0628 -2.0016 0.9656
-6.1949 5.8440 -2.0016 0.9656
-6.4009 5.6177 -2.0016 0.9656
-6.5986 5.3841 -2.0016 0.9656
-6.9681 4.8965 -2.0016 0.9656
-7.1395 4.6430 -2.0016 0.9656
-7.3017 4.3835 -2.0016 0.9656
-7.4544 4.1184 -2.0016 0.9656
-7.8542 3.2925 -2.0016 0.9656
-8.2448 2.1337 -2.0016 0.9656
-8.3162 1.8361 -2.0016 0.9656
-8.3767 1.5362 -2.0016 0.9656
-8.4265 1.2343 -2.0016 0.9656
-8.5164 0.0146 -2.0016 0.9656
-8.4686 -0.9017 -2.0016 0.9656
-8.4307 -1.2053 -2.0016 0.9656
-8.3820 -1.5074 -2.0016 0.9656
-7.6294 -2.2412 -1.8688 0.9679
-7.4015 -2.7655 -1.8570 0.9681
-6.7882 -4.0436 -1.8570 0.9681
-6.6385 -4.2848 -1.8570 0.9681
-6.4803 -4.5205 -1.8570 0.9681
-6.3138 -4.7504 -1.8570 0.9681
-5.9564 -5.1915 -1.8570 0.9681
-5.5683 -5.6057 -1.8570 0.9681
-5.7809 -6.2539 -2.0016 0.9656
-5.0745 -6.8395 -2.0016 0.9656
-4.8256 -7.0174 -2.0016 0.9656
-4.5704 -7.1862 -2.0016 0.9656
-4.3093 -7.3457 -2.0016 0.9656
-3.7707 -7.6362 -2.0016 0.9656
-3.4940 -7.7667 -2.0016 0.9656
-3.2127 -7.8872 -2.0016 0.9656
-2.3456 -8.1871 -2.0016 0.9656
-2.0499 -8.2661 -2.0016 0.9656
-1.4512 -8.3919 -2.0016 0.9656
-0.8449 -8.4744 -2.0016 0.9656
-0.2342 -8.5132 -2.0016 0.9656
0.6830 -8.4890 -2.0016 0.9656
1.8918 -8.3037 -2.0016 0.9656
2.4831 -8.1464 -2.0016 0.9656
2.7742 -8.0519 -2.0016 0.9656
3.0616 -7.9471 -2.0016 0.9656
3.3451 -7.8320 -2.0016 0.9656
3.6243 -7.7068 -2.0016 0.9656
2.1695 -4.2132 -1.1138 0.9807
2.3325 -4.1559 -1.1200 0.9806
4.4324 -7.2721 -2.0016 0.9656
5.1890 -6.7531 -2.0016 0.9656
5.4283 -6.5623 -2.0016 0.9656
6.1027 -5.9402 -2.0016 0.9656
6.5135 -5.4867 -2.0016 0.9656
6.7064 -5.2492 -2.0016 0.9656
6.8906 -5.0049 -2.0016 0.9656
7.2322 -4.4972 -2.0016 0.9656
7.3891 -4.2345 -2.0016 0.9656
7.8018 -3.4150 -2.0016 0.9656
8.1239 -2.5559 -2.0016 0.9656
8.2864 -1.9660 -2.0016 0.9656
8.3517 -1.6671 -2.0016 0.9656
8.4498 -1.0631 -2.0016 0.9656
8.5044 -0.4537 -2.0016 0.9656
8.5150 0.1581 -2.0016 0.9656
8.4817 0.7691 -2.0016 0.9656
8.4485 1.0732 -2.0016 0.9656
8.4045 1.3761 -2.0016 0.9656
8.3497 1.6771 -2.0016 0.9656
8.2077 2.2722 -2.0016 0.9656
8.1208 2.5656 -2.0016 0.9656
8.0234 2.8557 -2.0016 0.9656
7.9156 3.1421 -2.0016 0.9656
7.6696 3.7023 -2.0016 0.9656
6.8846 5.0132 -2.0016 0.9656
6.7001 5.2572 -2.0016 0.9656
6.5069 5.4945 -2.0016 0.9656
5.8780 6.1627 -2.0016 0.9656
5.6529 6.3698 -2.0016 0.9656
5.4204 6.5688 -2.0016 0.9656
5.1809 6.7593 -2.0016 0.9656
3.8897 7.5763 -2.0016 0.9656
3.3357 7.8360 -2.0016 0.9656
2.7645 8.0553 -2.0016 0.9656
-3.1145 7.0753 -2.0016 0.9686
-3.3667 6.9589 -2.0016 0.9686
-3.8576 6.6992 -2.0016 0.9686
-4.3286 6.4049 -2.0016 0.9686
-4.7773 6.0776 -2.0016 0.9686
-5.7864 5.1261 -2.0016 0.9686
-6.1396 4.6975 -2.0016 0.9686
-6.4610 4.2445 -2.0016 0.9686
-6.7491 3.7697 -2.0016 0.9686
-7.0023 3.2754 -2.0016 0.9686
-7.1155 3.0217 -2.0016 0.9686
-7.3140 2.5030 -2.0016 0.9686
-7.5971 1.4297 -2.0016 0.9686
-7.6802 0.8805 -2.0016 0.9686
-7.7139 -0.5060 -2.0016 0.9686
-7.6577 -1.0586 -2.0016 0.9686
-7.6147 -1.3330 -2.0016 0.9686
-7.5619 -1.6056 -2.0016 0.9686
-7.4993 -1.8763 -2.0016 0.9686
-7.4271 -2.1444 -2.0016 0.9686
-6.5346 -2.9559 -1.8570 0.9708
-6.3055 -3.4175 -1.8570 0.9708
-5.5934 -4.4892 -1.8570 0.9708
-5.2566 -4.8792 -1.8570 0.9708
-5.0779 -5.0649 -1.8570 0.9708
-4.8927 -5.2441 -1.8570 0.9708
-4.7012 -5.4164 -1.8570 0.9708
-4.4097 -6.3494 -2.0016 0.9686
-4.1788 -6.5037 -2.0016 0.9686
-3.7010 -6.7870 -2.0016 0.9686
-2.1635 -7.4216 -2.0016 0.9686
-1.8955 -7.4945 -2.0016 0.9686
-1.3525 -7.6112 -2.0016 0.9686
-0.5258 -7.7126 -2.0016 0.9686
0.3069 -7.7244 -2.0016 0.9686
0.5842 -7.7084 -2.0016 0.9686
1.9522 -7.4799 -2.0016 0.9686
2.2197 -7.4050 -2.0016 0.9686
2.4842 -7.3205 -2.0016 0.9686
2.7456 -7.2265 -2.0016 0.9686
3.0034 -7.1232 -2.0016 0.9686
3.2574 -7.0107 -2.0016 0.9686
2.2822 -4.1107 -1.2174 0.9808
3.9927 -6.6196 -2.0016 0.9686
4.2279 -6.4719 -2.0016 0.9686
4.4577 -6.3158 -2.0016 0.9686
4.8996 -5.9795 -2.0016 0.9686
5.1113 -5.7996 -2.0016 0.9686
5.3163 -5.6123 -2.0016 0.9686
6.2336 -4.5720 -2.0016 0.9686
6.5458 -4.1126 -2.0016 0.9686
6.9502 -3.3845 -2.0016 0.9686
7.0673 -3.1327 -2.0016 0.9686
7.2740 -2.6172 -2.0016 0.9686
7.3633 -2.3542 -2.0016 0.9686
7.5133 -1.8194 -2.0016 0.9686
7.5738 -1.5483 -2.0016 0.9686
7.6246 -1.2753 -2.0016 0.9686
7.6965 -0.7245 -2.0016 0.9686
7.7297 0.1077 -2.0016 0.9686
7.7209 0.3853 -2.0016 0.9686
7.6346 1.2137 -2.0016 0.9686
7.5278 1.7587 -2.0016 0.9686
7.4597 2.0280 -2.0016 0.9686
7.3821 2.2946 -2.0016 0.9686
7.2949 2.5583 -2.0016 0.9686
6.9773 3.3283 -2.0016 0.9686
6.7203 3.8207 -2.0016 0.9686
5.9295 4.9600 -2.0016 0.9686
5.1579 5.7581 -2.0016 0.9686
4.9477 5.9397 -2.0016 0.9686
4.5085 6.2796 -2.0016 0.9686
4.2800 6.4375 -2.0016 0.9686
3.8068 6.7282 -2.0016 0.9686
3.5626 6.8606 -2.0016 0.9686
2.5433 7.3002 -2.0016 0.9686
2.0125 7.4639 -2.0016 0.9686
1.4715 7.5892 -2.0016 0.9686
0.9228 7.6752 -2.0016 0.9686
0.6465 7.7034 -2.0016 0.9686
-0.1861 7.7282 -2.0016 0.9686
-1.0164 7.6634 -2.0016 0.9686
-1.2910 7.6219 -2.0016 0.9686
-2.1035 7.4388 -2.0016 0.9686
-2.8916 7.1693 -2.0016 0.9686
-3.1473 7.0608 -2.0016 0.9686
-3.6461 6.8166 -2.0016 0.9686
-3.8886 6.6812 -2.0016 0.9686
-4.5848 6.2241 -2.0016 0.9686
-4.8055 6.0554 -2.0016 0.9686
-5.0199 5.8789 -2.0016 0.9686
-5.6232 5.3047 -2.0016 0.9686
-5.9896 4.8873 -2.0016 0.9686
-6.1613 4.6689 -2.0016 0.9686
-6.3250 4.4446 -2.0016 0.9686
-6.4806 4.2145 -2.0016 0.9686
-6.8964 3.4929 -2.0016 0.9686
-7.1294 2.9887 -2.0016 0.9686
-7.3256 2.4691 -2.0016 0.9686
-7.4095 2.2043 -2.0016 0.9686
-7.4839 1.9368 -2.0016 0.9686
-7.5487 1.6667 -2.0016 0.9686
-7.6489 1.1204 -2.0016 0.9686
-7.6842 0.8449 -2.0016 0.9686
-7.7096 0.5683 -2.0016 0.9686
-7.7260 -0.2644 -2.0016 0.9686
-7.5544 -1.6407 -2.0016 0.9686
-7.4906 -1.9110 -2.0016 0.9686
-7.4171 -2.1789 -2.0016 0.9686
-6.8043 -2.2674 -1.8570 0.9708
-6.6239 -2.7500 -1.8570 0.9708
-6.5208 -2.9862 -1.8570 0.9708
-6.4094 -3.2185 -1.8570 0.9708
-6.2896 -3.4467 -1.8570 0.9708
-6.1617 -3.6704 -1.8570 0.9708
-6.0259 -3.8894 -1.8570 0.9708
-5.8823 -4.1033 -1.8570 0.9708
-5.7311 -4.3120 -1.8570 0.9708
-5.2339 -4.9036 -1.8570 0.9708
-4.8684 -5.2667 -1.8570 0.9708
-4.6062 -6.2083 -2.0016 0.9686
-4.3802 -6.3698 -2.0016 0.9686
-3.1715 -7.0499 -2.0016 0.9686
-2.6572 -7.2595 -2.0016 0.9686
-1.8608 -7.5032 -2.0016 0.9686
-1.5900 -7.5652 -2.0016 0.9686
-1.0427 -7.6598 -2.0016 0.9686
-0.7669 -7.6924 -2.0016 0.9686
-0.2126 -7.7276 -2.0016 0.9686
0.3428 -7.7229 -2.0016 0.9686
0.6200 -7.7056 -2.0016 0.9686
1.7172 -7.5373 -2.0016 0.9686
2.7791 -7.2137 -2.0016 0.9686
2.3070 -4.1104 -1.2204 0.9807
4.0233 -6.6010 -2.0016 0.9686
4.2579 -6.4522 -2.0016 0.9686
4.9273 -5.9567 -2.0016 0.9686
5.3423 -5.5875 -2.0016 0.9686
