ply
format ascii 1.0
element vertex 1579
property float32 x
property float32 y
property float32 z
property float32 I
end_header
0.7361 -16.4298 -1.9536 0.9359
1.3414 -16.5923 -1.9774 0.9351
4.9160 -16.1171 -2.0016 0.9344
6.0595 -15.7229 -2.0016 0.9344
7.1718 -15.2477 -2.0016 0.9344
2.1899 -4.2525 -0.5682 0.9809
8.2471 -14.6940 -2.0016 0.9344
9.7787 -13.7224 -2.0016 0.9344
11.1970 -12.5918 -2.0016 0.9344
12.0714 -11.7562 -2.0016 0.9344
12.4856 -11.3154 -2.0016 0.9344
12.8836 -10.8600 -2.0016 0.9344
14.6155 -8.3854 -2.0016 0.9344
14.9070 -7.8555 -2.0016 0.9344
15.1793 -7.3154 -2.0016 0.9344
15.4321 -6.7659 -2.0016 0.9344
15.8777 -5.6415 -2.0016 0.9344
16.3921 -3.9022 -2.0016 0.9344
16.5216 -3.3113 -2.0016 0.9344
16.7818 -1.5163 -2.0016 0.9344
16.8254 -0.9130 -2.0016 0.9344
16.8473 -0.3086 -2.0016 0.9344
16.7829 1.5040 -2.0016 0.9344
16.7181 2.1054 -2.0016 0.9344
16.5240 3.2992 -2.0016 0.9344
16.3949 3.8902 -2.0016 0.9344
16.0737 5.0562 -2.0016 0.9344
15.6696 6.1962 -2.0016 0.9344
14.9127 7.8446 -2.0016 0.9344
3.7907 12.4897 -1.8494 0.9486
3.3400 12.6177 -1.8494 0.9486
1.9177 12.5969 -1.8054 0.9498
0.9667 12.1679 -1.7295 0.9519
0.5194 11.9662 -1.6971 0.9528
-0.3293 11.5834 -1.6419 0.9543
-3.7332 11.4336 -1.7042 0.9526
-4.1941 11.4366 -1.7260 0.9520
-4.6675 11.4397 -1.7506 0.9513
-5.6594 11.4462 -1.8092 0.9497
-6.1821 11.4496 -1.8437 0.9488
-6.6094 11.2551 -1.8494 0.9486
-7.0091 11.0106 -1.8494 0.9486
-7.3997 10.7519 -1.8494 0.9486
-8.5126 9.8943 -1.8494 0.9486
-8.8622 9.5824 -1.8494 0.9486
-10.1946 8.2580 -1.8589 0.9484
-10.9572 8.2425 -1.9427 0.9461
-11.5591 8.0623 -1.9968 0.9447
-11.8690 7.6604 -2.0016 0.9445
-12.1363 7.2295 -2.0016 0.9445
-12.3880 6.7892 -2.0016 0.9445
-12.6237 6.3402 -2.0016 0.9445
-12.8431 5.8831 -2.0016 0.9445
-13.4010 4.4686 -2.0016 0.9445
-13.5528 3.9847 -2.0016 0.9445
-13.8037 3.0023 -2.0016 0.9445
-13.9835 2.0043 -2.0016 0.9445
-14.0912 0.9961 -2.0016 0.9445
-14.1264 -0.0173 -2.0016 0.9445
-14.1167 -0.5243 -2.0016 0.9445
-14.0888 -1.0306 -2.0016 0.9445
-14.0427 -1.5356 -2.0016 0.9445
-13.8964 -2.5390 -2.0016 0.9445
-12.0912 -5.0566 -1.8570 0.9484
-11.9020 -5.4873 -1.8570 0.9484
-12.3713 -6.8196 -2.0016 0.9445
-11.5666 -8.1098 -2.0016 0.9445
-11.2681 -8.5197 -2.0016 0.9445
-10.6279 -9.3061 -2.0016 0.9445
-10.2871 -9.6815 -2.0016 0.9445
-9.9330 -10.0445 -2.0016 0.9445
-9.1869 -10.7311 -2.0016 0.9445
-8.3934 -11.3625 -2.0016 0.9445
-7.9802 -11.6564 -2.0016 0.9445
-7.5567 -11.9353 -2.0016 0.9445
-6.2300 -12.6784 -2.0016 0.9445
-5.3045 -13.0926 -2.0016 0.9445
-4.8312 -13.2746 -2.0016 0.9445
-3.3764 -13.7170 -2.0016 0.9445
-2.8819 -13.8293 -2.0016 0.9445
-2.3837 -13.9238 -2.0016 0.9445
-1.3788 -14.0590 -2.0016 0.9445
0.1403 -14.1257 -2.0016 0.9445
2.1603 -13.9602 -2.0016 0.9445
3.6483 -13.6472 -2.0016 0.9445
4.1357 -13.5074 -2.0016 0.9445
5.5636 -12.9847 -2.0016 0.9445
6.0260 -12.7766 -2.0016 0.9445
7.3644 -12.0549 -2.0016 0.9445
8.6175 -11.1935 -2.0016 0.9445
9.3983 -10.5465 -2.0016 0.9445
9.7707 -10.2024 -2.0016 0.9445
10.1306 -9.8451 -2.0016 0.9445
10.8107 -9.0931 -2.0016 0.9445
11.1301 -8.6992 -2.0016 0.9445
12.0007 -7.4525 -2.0016 0.9445
12.5043 -6.5724 -2.0016 0.9445
12.7322 -6.1194 -2.0016 0.9445
13.3162 -4.7154 -2.0016 0.9445
13.4768 -4.2345 -2.0016 0.9445
13.6201 -3.7481 -2.0016 0.9445
13.9441 -2.2624 -2.0016 0.9445
14.0163 -1.7605 -2.0016 0.9445
14.0704 -1.2563 -2.0016 0.9445
14.1065 -0.7505 -2.0016 0.9445
14.1243 -0.2437 -2.0016 0.9445
14.1239 0.2634 -2.0016 0.9445
14.1054 0.7701 -2.0016 0.9445
14.0138 1.7799 -2.0016 0.9445
12.7237 6.1371 -2.0016 0.9445
12.4952 6.5898 -2.0016 0.9445
12.2506 7.0340 -2.0016 0.9445
11.9903 7.4692 -2.0016 0.9445
11.7145 7.8947 -2.0016 0.9445
11.1180 8.7146 -2.0016 0.9445
10.7981 9.1081 -2.0016 0.9445
10.4642 9.4897 -2.0016 0.9445
9.3836 10.5595 -2.0016 0.9445
7.7760 11.7936 -2.0016 0.9445
6.3845 11.3841 -1.8494 0.9486
4.6897 12.1806 -1.8494 0.9486
4.2495 12.3411 -1.8494 0.9486
3.8039 12.4856 -1.8494 0.9486
3.3533 12.6141 -1.8494 0.9486
2.8984 12.7263 -1.8494 0.9486
2.4398 12.8222 -1.8494 0.9486
1.9324 12.6035 -1.8067 0.9498
1.4460 12.3841 -1.7666 0.9509
0.9801 12.1740 -1.7305 0.9519
0.1006 11.7773 -1.6688 0.9535
-0.3171 11.5889 -1.6426 0.9542
-0.7229 11.4138 -1.6205 0.9548
-1.1884 8.7464 -1.2507 0.9650
-1.9718 11.4220 -1.6423 0.9543
-2.3974 11.4248 -1.6540 0.9539
-2.8297 11.4276 -1.6681 0.9536
-5.1407 11.4428 -1.7774 0.9506
-6.1663 11.4495 -1.8426 0.9488
-6.9974 11.0180 -1.8494 0.9486
-8.1411 10.2021 -1.8494 0.9486
-8.5021 9.9033 -1.8494 0.9486
-10.1734 8.2587 -1.8566 0.9484
-12.3808 6.8024 -2.0016 0.9445
-12.6169 6.3536 -2.0016 0.9445
-12.8368 5.8967 -2.0016 0.9445
-13.5485 3.9991 -2.0016 0.9445
-13.8005 3.0169 -2.0016 0.9445
-13.8999 2.5197 -2.0016 0.9445
-14.0902 1.0110 -2.0016 0.9445
-14.1174 0.5047 -2.0016 0.9445
-14.1264 -0.0023 -2.0016 0.9445
-14.1172 -0.5093 -2.0016 0.9445
-14.0443 -1.5207 -2.0016 0.9445
-12.8027 -2.8032 -1.8570 0.9484
-12.4272 -4.1631 -1.8570 0.9484
-11.9078 -5.4747 -1.8570 0.9484
-12.6148 -6.3578 -2.0016 0.9445
-12.1263 -7.2463 -2.0016 0.9445
-11.8584 -7.6769 -2.0016 0.9445
-9.1982 -10.7214 -2.0016 0.9445
-8.8075 -11.0446 -2.0016 0.9445
-8.4055 -11.3536 -2.0016 0.9445
-7.9926 -11.6479 -2.0016 0.9445
-7.1364 -12.1913 -2.0016 0.9445
-6.2435 -12.6718 -2.0016 0.9445
-5.7847 -12.8877 -2.0016 0.9445
-5.3184 -13.0870 -2.0016 0.9445
-4.8453 -13.2695 -2.0016 0.9445
-3.8809 -13.5828 -2.0016 0.9445
-3.3910 -13.7134 -2.0016 0.9445
-2.3985 -13.9213 -2.0016 0.9445
-1.8973 -13.9984 -2.0016 0.9445
-1.3937 -14.0575 -2.0016 0.9445
-0.8883 -14.0984 -2.0016 0.9445
-0.3817 -14.1212 -2.0016 0.9445
0.1254 -14.1258 -2.0016 0.9445
1.6430 -14.0305 -2.0016 0.9445
2.6452 -13.8765 -2.0016 0.9445
3.1415 -13.7727 -2.0016 0.9445
3.6338 -13.6510 -2.0016 0.9445
4.1214 -13.5118 -2.0016 0.9445
4.6037 -13.3552 -2.0016 0.9445
5.5498 -12.9906 -2.0016 0.9445
6.0125 -12.7830 -2.0016 0.9445
2.1898 -4.2524 -0.6777 0.9809
6.9140 -12.3188 -2.0016 0.9445
9.3871 -10.5564 -2.0016 0.9445
9.7599 -10.2127 -2.0016 0.9445
10.8011 -9.1045 -2.0016 0.9445
11.4263 -8.3063 -2.0016 0.9445
12.2529 -7.0300 -2.0016 0.9445
12.4974 -6.5857 -2.0016 0.9445
12.7257 -6.1329 -2.0016 0.9445
12.9376 -5.6722 -2.0016 0.9445
13.3111 -4.7296 -2.0016 0.9445
13.6161 -3.7625 -2.0016 0.9445
13.8509 -2.7761 -2.0016 0.9445
13.9417 -2.2772 -2.0016 0.9445
14.0144 -1.7753 -2.0016 0.9445
14.1240 -0.2587 -2.0016 0.9445
14.1242 0.2484 -2.0016 0.9445
14.1062 0.7551 -2.0016 0.9445
14.0700 1.2609 -2.0016 0.9445
13.7448 3.2613 -2.0016 0.9445
13.6189 3.7526 -2.0016 0.9445
12.9417 5.6628 -2.0016 0.9445
12.2581 7.0210 -2.0016 0.9445
1.6895 11.0981 -1.8494 0.9555
0.8891 11.1907 -1.8494 0.9555
0.4868 11.2154 -1.8494 0.9555
0.0840 11.2257 -1.8494 0.9555
-1.1951 8.7262 -1.4510 0.9649
-1.9214 11.0603 -1.8494 0.9555
-2.3171 10.9842 -1.8494 0.9555
-3.0991 10.7897 -1.8494 0.9555
-3.4844 10.6715 -1.8494 0.9555
-4.2409 10.3941 -1.8494 0.9555
-4.9756 10.0631 -1.8494 0.9555
-5.3335 9.8781 -1.8494 0.9555
-5.6846 9.6803 -1.8494 0.9555
-6.0284 9.4700 -1.8494 0.9555
-6.6922 9.0132 -1.8494 0.9555
-9.1461 7.9690 -1.9984 0.9520
-9.4410 7.6476 -2.0016 0.9519
-9.7094 7.3039 -2.0016 0.9519
-9.9653 6.9507 -2.0016 0.9519
-10.2084 6.5886 -2.0016 0.9519
-11.0461 5.0600 -2.0016 0.9519
-11.2206 4.6602 -2.0016 0.9519
-11.3806 4.2545 -2.0016 0.9519
-11.5260 3.8433 -2.0016 0.9519
-11.6565 3.4272 -2.0016 0.9519
-11.7720 3.0066 -2.0016 0.9519
-11.8723 2.5822 -2.0016 0.9519
-12.1426 0.4212 -2.0016 0.9519
-12.1415 -0.4509 -2.0016 0.9519
-12.0779 -1.3207 -2.0016 0.9519
-12.0227 -1.7534 -2.0016 0.9519
-11.9520 -2.1837 -2.0016 0.9519
-10.9148 -2.8162 -1.8570 0.9553
-10.8067 -3.2061 -1.8570 0.9553
-10.6846 -3.5919 -1.8570 0.9553
-10.3995 -4.3491 -1.8570 0.9553
-9.8717 -5.4417 -1.8570 0.9553
-9.6915 -7.3276 -2.0016 0.9519
-9.4223 -7.6707 -2.0016 0.9519
-9.1409 -8.0040 -2.0016 0.9519
-8.2276 -8.9401 -2.0016 0.9519
-7.5651 -9.5073 -2.0016 0.9519
-6.1268 -10.4920 -2.0016 0.9519
-5.7463 -10.7051 -2.0016 0.9519
-4.9636 -11.0897 -2.0016 0.9519
-4.1553 -11.4172 -2.0016 0.9519
-3.7428 -11.5590 -2.0016 0.9519
-2.9040 -11.7977 -2.0016 0.9519
-1.6191 -12.0415 -2.0016 0.9519
0.9919 -12.1093 -2.0016 0.9519
1.4259 -12.0659 -2.0016 0.9519
1.8580 -12.0070 -2.0016 0.9519
2.7145 -11.8428 -2.0016 0.9519
3.1378 -11.7377 -2.0016 0.9519
3.9717 -11.4824 -2.0016 0.9519
4.3813 -11.3324 -2.0016 0.9519
5.9578 -10.5888 -2.0016 0.9519
7.4118 -9.6273 -2.0016 0.9519
8.4036 -8.7749 -2.0016 0.9519
8.7131 -8.4676 -2.0016 0.9519
9.0114 -8.1495 -2.0016 0.9519
9.8352 -7.1336 -2.0016 0.9519
10.0849 -6.7761 -2.0016 0.9519
10.7548 -5.6528 -2.0016 0.9519
11.1326 -4.8668 -2.0016 0.9519
11.3001 -4.4641 -2.0016 0.9519
11.4530 -4.0557 -2.0016 0.9519
11.7144 -3.2236 -2.0016 0.9519
11.8226 -2.8011 -2.0016 0.9519
11.9155 -2.3750 -2.0016 0.9519
12.0552 -1.5141 -2.0016 0.9519
12.1017 -1.0805 -2.0016 0.9519
12.1327 -0.6455 -2.0016 0.9519
12.1481 -0.2096 -2.0016 0.9519
12.1478 0.2265 -2.0016 0.9519
12.1318 0.6623 -2.0016 0.9519
12.1002 1.0973 -2.0016 0.9519
12.0530 1.5309 -2.0016 0.9519
11.1258 4.8823 -2.0016 0.9519
10.9434 5.2784 -2.0016 0.9519
10.7469 5.6678 -2.0016 0.9519
10.3126 6.4241 -2.0016 0.9519
9.5624 7.4953 -2.0016 0.9519
9.2872 7.8337 -2.0016 0.9519
8.7014 8.4797 -2.0016 0.9519
8.3914 8.7866 -2.0016 0.9519
8.0707 9.0821 -2.0016 0.9519
6.6880 10.1435 -2.0016 0.9519
6.3196 10.3770 -2.0016 0.9519
5.9224 10.5602 -1.9946 0.9521
4.7747 10.1600 -1.8494 0.9555
3.2717 10.7387 -1.8494 0.9555
2.8841 10.8492 -1.8494 0.9555
2.4929 10.9457 -1.8494 0.9555
1.3020 11.1502 -1.8494 0.9555
0.9009 11.1898 -1.8494 0.9555
0.4988 11.2149 -1.8494 0.9555
0.0959 11.2256 -1.8494 0.9555
-0.7096 11.2035 -1.8494 0.9555
-1.1857 8.7262 -1.4508 0.9649
-2.3055 10.9867 -1.8494 0.9555
-2.6983 10.8969 -1.8494 0.9555
-3.8539 10.5437 -1.8494 0.9555
-4.6003 10.2401 -1.8494 0.9555
-4.9649 10.0684 -1.8494 0.9555
-6.3546 9.2543 -1.8494 0.9555
-7.3125 8.5177 -1.8494 0.9555
-7.6257 8.2630 -1.8523 0.9554
-8.1790 8.2479 -1.9136 0.9540
-9.7017 7.3142 -2.0016 0.9519
-10.2014 6.5994 -2.0016 0.9519
-10.6485 5.8506 -2.0016 0.9519
-11.0407 5.0717 -2.0016 0.9519
-11.2156 4.6721 -2.0016 0.9519
-11.5219 3.8556 -2.0016 0.9519
-11.7688 3.0191 -2.0016 0.9519
-11.8696 2.5948 -2.0016 0.9519
-11.9550 2.1671 -2.0016 0.9519
-12.1421 0.4341 -2.0016 0.9519
-12.1184 -0.8736 -2.0016 0.9519
-12.0245 -1.7406 -2.0016 0.9519
-11.9543 -2.1710 -2.0016 0.9519
-10.9178 -2.8046 -1.8570 0.9553
-10.8101 -3.1947 -1.8570 0.9553
-10.6884 -3.5806 -1.8570 0.9553
-10.4041 -4.3381 -1.8570 0.9553
-10.2417 -4.7087 -1.8570 0.9553
-10.0661 -5.0732 -1.8570 0.9553
-9.8775 -5.4312 -1.8570 0.9553
-10.4296 -6.2324 -2.0016 0.9519
-10.1992 -6.6027 -2.0016 0.9519
-9.9556 -6.9645 -2.0016 0.9519
-9.4304 -7.6607 -2.0016 0.9519
-9.1494 -7.9943 -2.0016 0.9519
-8.8566 -8.3175 -2.0016 0.9519
-8.2371 -8.9314 -2.0016 0.9519
-7.9113 -9.2213 -2.0016 0.9519
-7.2294 -9.7650 -2.0016 0.9519
-6.1379 -10.4855 -2.0016 0.9519
-4.9753 -11.0845 -2.0016 0.9519
-4.5743 -11.2559 -2.0016 0.9519
-3.7551 -11.5550 -2.0016 0.9519
-2.9165 -11.7946 -2.0016 0.9519
-2.0629 -11.9735 -2.0016 0.9519
-1.1987 -12.0906 -2.0016 0.9519
-0.3283 -12.1454 -2.0016 0.9519
0.1078 -12.1494 -2.0016 0.9519
0.5438 -12.1377 -2.0016 0.9519
1.8453 -12.0089 -2.0016 0.9519
2.2751 -11.9350 -2.0016 0.9519
2.7020 -11.8456 -2.0016 0.9519
3.9595 -11.4866 -2.0016 0.9519
4.7733 -11.1730 -2.0016 0.9519
5.1712 -10.9944 -2.0016 0.9519
2.1898 -4.2524 -0.7880 0.9808
5.9466 -10.5952 -2.0016 0.9519
7.0510 -9.8946 -2.0016 0.9519
8.3943 -8.7838 -2.0016 0.9519
9.2898 -7.8306 -2.0016 0.9519
9.8276 -7.1441 -2.0016 0.9519
10.0777 -6.7868 -2.0016 0.9519
10.3147 -6.4207 -2.0016 0.9519
10.9451 -5.2748 -2.0016 0.9519
11.5873 -3.6543 -2.0016 0.9519
11.7110 -3.2361 -2.0016 0.9519
11.8196 -2.8137 -2.0016 0.9519
11.9130 -2.3876 -2.0016 0.9519
11.9910 -1.9586 -2.0016 0.9519
12.0535 -1.5269 -2.0016 0.9519
12.1320 -0.6583 -2.0016 0.9519
12.1478 -0.2225 -2.0016 0.9519
12.1480 0.2136 -2.0016 0.9519
12.1325 0.6495 -2.0016 0.9519
12.1014 1.0845 -2.0016 0.9519
12.0547 1.5181 -2.0016 0.9519
11.9147 2.3789 -2.0016 0.9519
11.8216 2.8050 -2.0016 0.9519
11.7134 3.2275 -2.0016 0.9519
11.5900 3.6458 -2.0016 0.9519
11.1310 4.8704 -2.0016 0.9519
10.7529 5.6564 -2.0016 0.9519
2.8575 9.4150 -1.8494 0.9607
2.1747 9.5957 -1.8494 0.9607
0.7792 9.8082 -1.8494 0.9607
-0.6323 9.8187 -1.8494 0.9607
-1.1923 8.7059 -1.6517 0.9649
-2.0309 9.6272 -1.8494 0.9607
-2.7162 9.4567 -1.8494 0.9607
-3.0539 9.3531 -1.8494 0.9607
-3.3876 9.2375 -1.8494 0.9607
-4.0415 8.9707 -1.8494 0.9607
-4.3609 8.8199 -1.8494 0.9607
-4.6746 8.6577 -1.8494 0.9607
-4.9823 8.4843 -1.8494 0.9607
-6.5859 8.2352 -1.9820 0.9580
-7.2283 7.8158 -2.0010 0.9576
-7.7725 7.2791 -2.0016 0.9576
-8.0287 6.9955 -2.0016 0.9576
-8.2746 6.7028 -2.0016 0.9576
-8.5099 6.4015 -2.0016 0.9576
-8.7341 6.0920 -2.0016 0.9576
-9.1486 5.4497 -2.0016 0.9576
-9.6814 4.4348 -2.0016 0.9576
-10.3176 2.6352 -2.0016 0.9576
-10.4055 2.2632 -2.0016 0.9576
-10.5411 1.5109 -2.0016 0.9576
-10.6223 0.7509 -2.0016 0.9576
-10.6424 0.3692 -2.0016 0.9576
-10.6415 -0.3952 -2.0016 0.9576
-10.5373 -1.5367 -2.0016 0.9576
-10.1183 -2.2267 -1.9473 0.9587
-9.4716 -2.8100 -1.8570 0.9606
-9.2456 -3.4822 -1.8570 0.9606
-8.0894 -5.6718 -1.8570 0.9606
-8.0116 -7.0151 -2.0016 0.9576
-7.7546 -7.2981 -2.0016 0.9576
-7.4877 -7.5718 -2.0016 0.9576
-7.2111 -7.8356 -2.0016 0.9576
-6.9253 -8.0894 -2.0016 0.9576
-6.3271 -8.5653 -2.0016 0.9576
-6.0157 -8.7869 -2.0016 0.9576
-5.6964 -8.9971 -2.0016 0.9576
-5.3698 -9.1958 -2.0016 0.9576
-5.0364 -9.3826 -2.0016 0.9576
-4.3504 -9.7197 -2.0016 0.9576
-3.9987 -9.8695 -2.0016 0.9576
-2.9147 -10.2422 -2.0016 0.9576
-2.5452 -10.3402 -2.0016 0.9576
-1.7969 -10.4961 -2.0016 0.9576
-1.4191 -10.5538 -2.0016 0.9576
-0.2765 -10.6452 -2.0016 0.9576
0.8694 -10.6133 -2.0016 0.9576
1.2497 -10.5752 -2.0016 0.9576
1.6285 -10.5236 -2.0016 0.9576
2.3792 -10.3796 -2.0016 0.9576
2.7502 -10.2876 -2.0016 0.9576
3.4810 -10.0638 -2.0016 0.9576
3.8400 -9.9324 -2.0016 0.9576
4.1940 -9.7881 -2.0016 0.9576
4.5426 -9.6313 -2.0016 0.9576
6.1890 -8.6656 -2.0016 0.9576
6.4961 -8.4379 -2.0016 0.9576
6.7947 -8.1993 -2.0016 0.9576
7.0846 -7.9502 -2.0016 0.9576
7.3654 -7.6908 -2.0016 0.9576
8.1494 -6.8546 -2.0016 0.9576
8.3901 -6.5577 -2.0016 0.9576
8.8389 -5.9389 -2.0016 0.9576
9.0464 -5.6179 -2.0016 0.9576
9.7572 -4.2655 -2.0016 0.9576
10.0380 -3.5546 -2.0016 0.9576
10.2672 -2.8254 -2.0016 0.9576
10.5114 -1.7054 -2.0016 0.9576
10.5658 -1.3271 -2.0016 0.9576
10.6066 -0.9470 -2.0016 0.9576
10.6338 -0.5657 -2.0016 0.9576
10.6053 0.9618 -2.0016 0.9576
10.5639 1.3418 -2.0016 0.9576
10.5090 1.7201 -2.0016 0.9576
10.4405 2.0961 -2.0016 0.9576
10.3585 2.4695 -2.0016 0.9576
10.2632 2.8396 -2.0016 0.9576
10.1547 3.2062 -2.0016 0.9576
9.7512 4.2791 -2.0016 0.9576
9.5914 4.6263 -2.0016 0.9576
9.4192 4.9675 -2.0016 0.9576
9.2348 5.3024 -2.0016 0.9576
9.0386 5.6304 -2.0016 0.9576
8.8307 5.9512 -2.0016 0.9576
8.3810 6.5693 -2.0016 0.9576
8.1398 6.8659 -2.0016 0.9576
7.8882 7.1536 -2.0016 0.9576
6.4843 8.4469 -2.0016 0.9576
6.1770 8.6742 -2.0016 0.9576
5.8617 8.8903 -2.0016 0.9576
5.2089 9.2879 -2.0016 0.9576
4.8615 9.4481 -1.9972 0.9577
4.4125 9.3893 -1.9500 0.9587
3.8855 9.1032 -1.8604 0.9605
3.2034 9.3030 -1.8494 0.9607
2.8675 9.4120 -1.8494 0.9607
2.1849 9.5934 -1.8494 0.9607
1.8392 9.6657 -1.8494 0.9607
1.1411 9.7727 -1.8494 0.9607
0.7896 9.8073 -1.8494 0.9607
0.0841 9.8387 -1.8494 0.9607
-1.6738 9.6957 -1.8494 0.9607
-2.7062 9.4596 -1.8494 0.9607
-3.0440 9.3564 -1.8494 0.9607
-3.3778 9.2411 -1.8494 0.9607
-4.0320 8.9750 -1.8494 0.9607
-4.6654 8.6626 -1.8494 0.9607
-4.9733 8.4896 -1.8494 0.9607
-5.2748 8.3056 -1.8494 0.9607
-5.6675 8.2538 -1.8819 0.9601
-6.1083 8.2451 -1.9287 0.9591
-6.9202 8.0608 -1.9969 0.9577
-7.4982 7.5613 -2.0016 0.9576
-7.7648 7.2874 -2.0016 0.9576
-8.0213 7.0040 -2.0016 0.9576
-8.2675 6.7116 -2.0016 0.9576
-8.7277 6.1012 -2.0016 0.9576
-9.1429 5.4594 -2.0016 0.9576
-9.6767 4.4451 -2.0016 0.9576
-9.8300 4.0949 -2.0016 0.9576
-9.9706 3.7395 -2.0016 0.9576
-10.0984 3.3792 -2.0016 0.9576
-10.2132 3.0146 -2.0016 0.9576
-10.6420 0.3804 -2.0016 0.9576
-10.6419 -0.3839 -2.0016 0.9576
-10.6213 -0.7656 -2.0016 0.9576
-10.5869 -1.1463 -2.0016 0.9576
-10.1628 -2.2252 -1.9555 0.9585
-9.5689 -2.4581 -1.8570 0.9606
-9.3679 -3.1382 -1.8570 0.9606
-9.2493 -3.4724 -1.8570 0.9606
-9.1187 -3.8021 -1.8570 0.9606
-8.9764 -4.1270 -1.8570 0.9606
-8.8225 -4.4465 -1.8570 0.9606
-8.6572 -4.7602 -1.8570 0.9606
-8.2934 -5.3690 -1.8570 0.9606
-8.0954 -5.6632 -1.8570 0.9606
-8.2653 -6.7143 -2.0016 0.9576
-8.0190 -7.0066 -2.0016 0.9576
-7.7624 -7.2899 -2.0016 0.9576
-7.4957 -7.5638 -2.0016 0.9576
-7.2195 -7.8280 -2.0016 0.9576
-6.6393 -8.3257 -2.0016 0.9576
-6.3362 -8.5586 -2.0016 0.9576
-6.0250 -8.7805 -2.0016 0.9576
-5.0463 -9.3772 -2.0016 0.9576
-4.7065 -9.5523 -2.0016 0.9576
-3.6525 -10.0028 -2.0016 0.9576
-3.2911 -10.1275 -2.0016 0.9576
-2.5562 -10.3375 -2.0016 0.9576
-1.8081 -10.4942 -2.0016 0.9576
-0.2877 -10.6449 -2.0016 0.9576
0.0945 -10.6484 -2.0016 0.9576
0.4766 -10.6381 -2.0016 0.9576
1.2385 -10.5765 -2.0016 0.9576
1.6173 -10.5253 -2.0016 0.9576
1.9940 -10.4605 -2.0016 0.9576
2.3681 -10.3822 -2.0016 0.9576
2.7392 -10.2905 -2.0016 0.9576
3.1068 -10.1855 -2.0016 0.9576
3.8294 -9.9364 -2.0016 0.9576
4.1836 -9.7926 -2.0016 0.9576
4.5324 -9.6361 -2.0016 0.9576
5.2119 -9.2862 -2.0016 0.9576
6.1799 -8.6722 -2.0016 0.9576
6.7860 -8.2065 -2.0016 0.9576
7.0762 -7.9577 -2.0016 0.9576
7.6288 -7.4296 -2.0016 0.9576
7.8905 -7.1510 -2.0016 0.9576
8.3832 -6.5666 -2.0016 0.9576
8.8326 -5.9483 -2.0016 0.9576
9.0404 -5.6274 -2.0016 0.9576
9.7526 -4.2759 -2.0016 0.9576
9.8998 -3.9231 -2.0016 0.9576
10.0343 -3.5653 -2.0016 0.9576
10.1557 -3.2028 -2.0016 0.9576
10.3593 -2.4661 -2.0016 0.9576
10.6056 -0.9583 -2.0016 0.9576
10.6332 -0.5770 -2.0016 0.9576
10.6336 0.5692 -2.0016 0.9576
10.5108 1.7089 -2.0016 0.9576
10.2662 2.8288 -2.0016 0.9576
10.1581 3.1954 -2.0016 0.9576
9.9027 3.9158 -2.0016 0.9576
9.7558 4.2687 -2.0016 0.9576
9.4244 4.9575 -2.0016 0.9576
2.6015 8.5715 -1.8935 0.9640
1.3167 8.6493 -1.8494 0.9649
0.6929 8.7215 -1.8494 0.9649
0.3794 8.7408 -1.8494 0.9649
-1.8059 8.5606 -1.8494 0.9649
-2.1119 8.4902 -1.8494 0.9649
-2.4153 8.4090 -1.8494 0.9649
-2.7155 8.3169 -1.8494 0.9649
-3.0284 8.2580 -1.8592 0.9647
-4.7804 8.1405 -1.9955 0.9621
-5.0767 7.9749 -1.9983 0.9621
-5.9140 7.3950 -2.0016 0.9620
-6.4293 6.9518 -2.0016 0.9620
-6.6746 6.7165 -2.0016 0.9620
-6.9114 6.4727 -2.0016 0.9620
-7.3579 5.9602 -2.0016 0.9620
-7.9559 5.1348 -2.0016 0.9620
-8.1350 4.8460 -2.0016 0.9620
-8.4617 4.2499 -2.0016 0.9620
-8.6088 3.9435 -2.0016 0.9620
-8.8695 3.3158 -2.0016 0.9620
-9.0845 2.6710 -2.0016 0.9620
-9.2527 2.0124 -2.0016 0.9620
-9.3190 1.6791 -2.0016 0.9620
-9.3732 1.3435 -2.0016 0.9620
-9.4154 1.0063 -2.0016 0.9620
-9.4438 -0.6908 -2.0016 0.9620
-9.4129 -1.0293 -2.0016 0.9620
-9.3148 -1.7019 -2.0016 0.9620
-9.2477 -2.0351 -2.0016 0.9620
-8.4222 -2.4987 -1.8570 0.9647
-8.3271 -2.7994 -1.8570 0.9647
-8.1048 -3.3895 -1.8570 0.9647
-7.5364 -4.5144 -1.8570 0.9647
-7.0075 -5.2983 -1.8570 0.9647
-6.8128 -5.5464 -1.8570 0.9647
-7.1240 -6.2379 -2.0016 0.9620
-6.8955 -6.4896 -2.0016 0.9620
-6.6581 -6.7329 -2.0016 0.9620
-6.4122 -6.9675 -2.0016 0.9620
-5.6262 -7.6163 -2.0016 0.9620
-4.7749 -8.1770 -2.0016 0.9620
-4.4784 -8.3431 -2.0016 0.9620
-3.8683 -8.6428 -2.0016 0.9620
-3.5557 -8.7761 -2.0016 0.9620
-3.2384 -8.8980 -2.0016 0.9620
-2.2632 -9.1946 -2.0016 0.9620
-1.9318 -9.2699 -2.0016 0.9620
-1.5978 -9.3332 -2.0016 0.9620
-1.2618 -9.3846 -2.0016 0.9620
-0.9242 -9.4238 -2.0016 0.9620
-0.2458 -9.4658 -2.0016 0.9620
0.0941 -9.4686 -2.0016 0.9620
1.1113 -9.4036 -2.0016 0.9620
1.4480 -9.3576 -2.0016 0.9620
2.1156 -9.2297 -2.0016 0.9620
2.4455 -9.1478 -2.0016 0.9620
2.7722 -9.0541 -2.0016 0.9620
3.4145 -8.8319 -2.0016 0.9620
4.0393 -8.5643 -2.0016 0.9620
2.1914 -4.2444 -1.0097 0.9807
4.6432 -8.2524 -2.0016 0.9620
5.2233 -7.8981 -2.0016 0.9620
5.5034 -7.7055 -2.0016 0.9620
5.7764 -7.5031 -2.0016 0.9620
6.0419 -7.2909 -2.0016 0.9620
6.2997 -7.0694 -2.0016 0.9620
6.5494 -6.8387 -2.0016 0.9620
6.7906 -6.5993 -2.0016 0.9620
7.0231 -6.3513 -2.0016 0.9620
7.4606 -5.8311 -2.0016 0.9620
7.6651 -5.5596 -2.0016 0.9620
8.0441 -4.9954 -2.0016 0.9620
8.3817 -4.4055 -2.0016 0.9620
8.5344 -4.1019 -2.0016 0.9620
8.9259 -3.1608 -2.0016 0.9620
9.2139 -2.1831 -2.0016 0.9620
9.2863 -1.8510 -2.0016 0.9620
9.3952 -1.1800 -2.0016 0.9620
9.4676 -0.1634 -2.0016 0.9620
9.4549 0.5162 -2.0016 0.9620
9.4303 0.8552 -2.0016 0.9620
9.3936 1.1931 -2.0016 0.9620
9.3447 1.5295 -2.0016 0.9620
9.1262 2.5250 -2.0016 0.9620
8.9215 3.1732 -2.0016 0.9620
8.8019 3.4913 -2.0016 0.9620
8.6709 3.8050 -2.0016 0.9620
8.5287 4.1137 -2.0016 0.9620
8.3756 4.4172 -2.0016 0.9620
8.0372 5.0066 -2.0016 0.9620
7.8523 5.2918 -2.0016 0.9620
7.6573 5.5703 -2.0016 0.9620
7.0142 6.3610 -2.0016 0.9620
6.7814 6.6087 -2.0016 0.9620
6.0318 7.2993 -2.0016 0.9620
4.3324 8.4198 -2.0016 0.9620
4.0274 8.5699 -2.0016 0.9620
2.9963 8.7016 -1.9453 0.9631
2.6123 8.5746 -1.8947 0.9640
2.2576 8.4925 -1.8575 0.9647
1.3259 8.6479 -1.8494 0.9649
0.3887 8.7404 -1.8494 0.9649
0.0748 8.7487 -1.8494 0.9649
-1.7968 8.5625 -1.8494 0.9649
-2.1029 8.4925 -1.8494 0.9649
-2.4064 8.4115 -1.8494 0.9649
-2.7067 8.3198 -1.8494 0.9649
-3.0185 8.2581 -1.8585 0.9647
-3.3573 8.2535 -1.8834 0.9642
-4.4357 8.2361 -1.9774 0.9625
-4.7716 8.1453 -1.9954 0.9621
-5.0680 7.9800 -1.9982 0.9621
-5.6367 7.6085 -2.0016 0.9620
-6.4219 6.9586 -2.0016 0.9620
-6.6675 6.7236 -2.0016 0.9620
-7.1326 6.2280 -2.0016 0.9620
-7.9504 5.1432 -2.0016 0.9620
-8.2989 4.5597 -2.0016 0.9620
-9.0817 2.6806 -2.0016 0.9620
-9.3172 1.6889 -2.0016 0.9620
-9.3718 1.3535 -2.0016 0.9620
-9.4630 0.3383 -2.0016 0.9620
-9.4690 -0.0016 -2.0016 0.9620
-9.4445 -0.6808 -2.0016 0.9620
-9.2499 -2.0253 -2.0016 0.9620
-8.7026 -2.2356 -1.8993 0.9639
-8.4248 -2.4898 -1.8570 0.9647
-8.3301 -2.7905 -1.8570 0.9647
-8.1084 -3.3809 -1.8570 0.9647
-7.8450 -3.9538 -1.8570 0.9647
-7.6981 -4.2328 -1.8570 0.9647
-7.5412 -4.5064 -1.8570 0.9647
-7.3746 -4.7741 -1.8570 0.9647
-7.0131 -5.2909 -1.8570 0.9647
-6.8254 -5.5446 -1.8588 0.9647
-6.1656 -7.1866 -2.0016 0.9620
-5.9037 -7.4033 -2.0016 0.9620
-5.6342 -7.6104 -2.0016 0.9620
-4.7836 -8.1719 -2.0016 0.9620
-3.8775 -8.6387 -2.0016 0.9620
-2.9265 -9.0054 -2.0016 0.9620
-1.9416 -9.2678 -2.0016 0.9620
-0.9342 -9.4228 -2.0016 0.9620
-0.5954 -9.4503 -2.0016 0.9620
1.7731 -9.3015 -2.0016 0.9620
2.1058 -9.2319 -2.0016 0.9620
2.4358 -9.1504 -2.0016 0.9620
2.7626 -9.0571 -2.0016 0.9620
3.0859 -8.9521 -2.0016 0.9620
3.4052 -8.8356 -2.0016 0.9620
4.0302 -8.5685 -2.0016 0.9620
2.1898 -4.2523 -1.0110 0.9806
4.9279 -8.0857 -2.0016 0.9620
5.2149 -7.9036 -2.0016 0.9620
5.7684 -7.5092 -2.0016 0.9620
6.0342 -7.2973 -2.0016 0.9620
6.5421 -6.8457 -2.0016 0.9620
7.0163 -6.3587 -2.0016 0.9620
7.2400 -6.1028 -2.0016 0.9620
7.4544 -5.8390 -2.0016 0.9620
7.6592 -5.5677 -2.0016 0.9620
8.0388 -5.0040 -2.0016 0.9620
8.2132 -4.7122 -2.0016 0.9620
8.5301 -4.1109 -2.0016 0.9620
8.8030 -3.4884 -2.0016 0.9620
9.1270 -2.5220 -2.0016 0.9620
9.4674 -0.1734 -2.0016 0.9620
9.4555 0.5062 -2.0016 0.9620
9.3463 1.5196 -2.0016 0.9620
9.2857 1.8540 -2.0016 0.9620
9.2132 2.1861 -2.0016 0.9620
9.1288 2.5154 -2.0016 0.9620
9.0327 2.8414 -2.0016 0.9620
8.9249 3.1637 -2.0016 0.9620
8.8056 3.4820 -2.0016 0.9620
8.5331 4.1047 -2.0016 0.9620
2.1751 8.2170 -1.9977 0.9657
1.8767 8.2807 -1.9955 0.9657
1.5758 8.3293 -1.9923 0.9658
0.9562 8.2656 -1.9556 0.9664
0.6556 8.2526 -1.9457 0.9666
0.3578 8.2432 -1.9392 0.9667
-0.5308 8.2428 -1.9413 0.9666
-1.1285 8.2403 -1.9547 0.9664
-1.4312 8.2383 -1.9652 0.9662
-1.7374 8.2359 -1.9782 0.9660
-2.6368 8.0758 -1.9966 0.9657
-2.9273 7.9823 -1.9982 0.9657
-3.2147 7.8790 -1.9999 0.9656
-3.4982 7.7648 -2.0016 0.9656
-3.7747 7.6343 -2.0016 0.9656
-4.3126 7.3438 -2.0016 0.9656
-4.5734 7.1843 -2.0016 0.9656
-5.3191 6.6511 -2.0016 0.9656
-5.5544 6.4559 -2.0016 0.9656
-5.7825 6.2524 -2.0016 0.9656
-6.2161 5.8215 -2.0016 0.9656
-6.4210 5.5947 -2.0016 0.9656
-6.8058 5.1196 -2.0016 0.9656
-7.3167 4.3585 -2.0016 0.9656
-7.4684 4.0930 -2.0016 0.9656
-7.7427 3.5468 -2.0016 0.9656
-7.9772 2.9822 -2.0016 0.9656
-8.0791 2.6940 -2.0016 0.9656
-8.2516 2.1075 -2.0016 0.9656
-8.3219 1.8100 -2.0016 0.9656
-8.3815 1.5102 -2.0016 0.9656
-8.4303 1.2084 -2.0016 0.9656
-8.4952 0.6005 -2.0016 0.9656
-8.5106 -0.3161 -2.0016 0.9656
-8.4938 -0.6213 -2.0016 0.9656
-8.3174 -1.8304 -2.0016 0.9656
-7.4894 -2.5177 -1.8570 0.9681
-7.0520 -3.5636 -1.8570 0.9681
-6.9196 -3.8144 -1.8570 0.9681
-6.4695 -4.5360 -1.8570 0.9681
-6.3026 -4.7653 -1.8570 0.9681
-6.1275 -4.9884 -1.8570 0.9681
-5.0602 -6.8501 -2.0016 0.9656
-4.8111 -7.0273 -2.0016 0.9656
-4.2946 -7.3544 -2.0016 0.9656
-4.0279 -7.5037 -2.0016 0.9656
-3.4792 -7.7734 -2.0016 0.9656
-3.1980 -7.8932 -2.0016 0.9656
-2.9126 -8.0029 -2.0016 0.9656
-2.6235 -8.1023 -2.0016 0.9656
-1.7374 -8.3373 -2.0016 0.9656
-1.4371 -8.3943 -2.0016 0.9656
-0.2211 -8.5136 -2.0016 0.9656
0.0846 -8.5160 -2.0016 0.9656
0.9995 -8.4576 -2.0016 0.9656
1.3024 -8.4163 -2.0016 0.9656
1.6036 -8.3641 -2.0016 0.9656
1.9027 -8.3012 -2.0016 0.9656
2.4933 -8.1433 -2.0016 0.9656
2.7840 -8.0486 -2.0016 0.9656
3.3542 -7.8281 -2.0016 0.9656
3.6329 -7.7027 -2.0016 0.9656
2.1729 -4.2085 -1.1131 0.9807
4.9497 -6.9304 -2.0016 0.9656
5.1953 -6.7483 -2.0016 0.9656
5.4341 -6.5575 -2.0016 0.9656
6.1075 -5.9354 -2.0016 0.9656
6.3165 -5.7124 -2.0016 0.9656
6.5175 -5.4820 -2.0016 0.9656
6.8940 -5.0003 -2.0016 0.9656
7.0690 -4.7497 -2.0016 0.9656
7.2349 -4.4929 -2.0016 0.9656
7.3915 -4.2304 -2.0016 0.9656
7.5385 -3.9623 -2.0016 0.9656
7.8034 -3.4114 -2.0016 0.9656
7.9208 -3.1291 -2.0016 0.9656
8.2112 -2.2596 -2.0016 0.9656
8.4065 -1.3639 -2.0016 0.9656
8.4500 -1.0613 -2.0016 0.9656
8.4827 -0.7574 -2.0016 0.9656
8.5152 -0.1469 -2.0016 0.9656
8.5150 0.1588 -2.0016 0.9656
8.5038 0.4643 -2.0016 0.9656
8.4486 1.0731 -2.0016 0.9656
8.4046 1.3756 -2.0016 0.9656
8.3498 1.6764 -2.0016 0.9656
8.0240 2.8540 -2.0016 0.9656
7.6708 3.6999 -2.0016 0.9656
7.5330 3.9728 -2.0016 0.9656
7.3856 4.2406 -2.0016 0.9656
7.2286 4.5030 -2.0016 0.9656
6.8870 5.0099 -2.0016 0.9656
6.7028 5.2538 -2.0016 0.9656
6.3086 5.7211 -2.0016 0.9656
5.8820 6.1589 -2.0016 0.9656
5.6571 6.3661 -2.0016 0.9656
4.9401 6.9372 -2.0016 0.9656
4.6879 7.1101 -2.0016 0.9656
4.1658 7.4280 -2.0016 0.9656
3.8965 7.5728 -2.0016 0.9656
3.0600 7.9477 -2.0016 0.9656
2.7728 8.0524 -2.0016 0.9656
2.4803 8.1412 -2.0002 0.9656
2.1839 8.2150 -1.9978 0.9657
1.8855 8.2789 -1.9956 0.9657
1.5852 8.3306 -1.9930 0.9658
1.2708 8.2883 -1.9707 0.9661
0.3666 8.2432 -1.9393 0.9667
0.0704 8.2435 -1.9375 0.9667
-0.2255 8.2433 -1.9381 0.9667
-1.1196 8.2403 -1.9545 0.9664
-1.4222 8.2384 -1.9649 0.9662
-2.3349 8.1617 -1.9951 0.9657
-3.7666 7.6383 -2.0016 0.9656
-4.0383 7.4981 -2.0016 0.9656
-4.3048 7.3484 -2.0016 0.9656
-4.5658 7.1891 -2.0016 0.9656
-4.8208 7.0206 -2.0016 0.9656
-5.5475 6.4618 -2.0016 0.9656
-5.7758 6.2585 -2.0016 0.9656
-5.9967 6.0472 -2.0016 0.9656
-6.2099 5.8281 -2.0016 0.9656
-6.6120 5.3676 -2.0016 0.9656
-6.8004 5.1269 -2.0016 0.9656
-6.9800 4.8795 -2.0016 0.9656
-7.4640 4.1010 -2.0016 0.9656
-7.6064 3.8304 -2.0016 0.9656
-7.7390 3.5550 -2.0016 0.9656
-7.9741 2.9907 -2.0016 0.9656
-8.0763 2.7026 -2.0016 0.9656
-8.1681 2.4110 -2.0016 0.9656
-8.2493 2.1163 -2.0016 0.9656
-8.3799 1.5190 -2.0016 0.9656
-8.4290 1.2173 -2.0016 0.9656
-8.4946 0.6095 -2.0016 0.9656
-8.5110 0.3043 -2.0016 0.9656
-8.5109 -0.3071 -2.0016 0.9656
-8.4944 -0.6123 -2.0016 0.9656
-8.4670 -0.9168 -2.0016 0.9656
-8.4286 -1.2201 -2.0016 0.9656
-8.3794 -1.5218 -2.0016 0.9656
-8.2486 -2.1190 -2.0016 0.9656
-7.1789 -3.3005 -1.8570 0.9681
-6.9236 -3.8070 -1.8570 0.9681
-6.7825 -4.0531 -1.8570 0.9681
-6.6327 -4.2939 -1.8570 0.9681
-6.4743 -4.5292 -1.8570 0.9681
-6.3076 -4.7586 -1.8570 0.9681
-5.9500 -5.1988 -1.8570 0.9681
-5.5617 -5.6122 -1.8570 0.9681
-5.7738 -6.2604 -2.0016 0.9656
-5.5454 -6.4636 -2.0016 0.9656
-4.8185 -7.0222 -2.0016 0.9656
-3.7641 -7.6395 -2.0016 0.9656
-1.7463 -8.3355 -2.0016 0.9656
-1.4460 -8.3928 -2.0016 0.9656
-0.8402 -8.4749 -2.0016 0.9656
-0.5355 -8.4996 -2.0016 0.9656
0.3812 -8.5079 -2.0016 0.9656
0.6863 -8.4887 -2.0016 0.9656
0.9905 -8.4586 -2.0016 0.9656
1.2934 -8.4177 -2.0016 0.9656
1.5947 -8.3658 -2.0016 0.9656
2.1907 -8.2299 -2.0016 0.9656
2.7754 -8.0515 -2.0016 0.9656
3.0626 -7.9467 -2.0016 0.9656
3.3458 -7.8317 -2.0016 0.9656
2.3325 -4.1559 -1.1200 0.9806
4.4321 -7.2723 -2.0016 0.9656
4.9424 -6.9356 -2.0016 0.9656
5.4272 -6.5632 -2.0016 0.9656
5.6592 -6.3642 -2.0016 0.9656
6.1012 -5.9418 -2.0016 0.9656
7.0639 -4.7572 -2.0016 0.9656
7.6720 -3.6974 -2.0016 0.9656
7.9174 -3.1375 -2.0016 0.9656
8.0249 -2.8513 -2.0016 0.9656
8.2849 -1.9722 -2.0016 0.9656
8.3504 -1.6736 -2.0016 0.9656
8.4051 -1.3729 -2.0016 0.9656
8.4819 -0.7664 -2.0016 0.9656
8.5039 -0.4615 -2.0016 0.9656
8.5150 -0.1560 -2.0016 0.9656
8.5043 0.4553 -2.0016 0.9656
8.4825 0.7602 -2.0016 0.9656
8.4497 1.0641 -2.0016 0.9656
8.4061 1.3667 -2.0016 0.9656
8.2864 1.9662 -2.0016 0.9656
8.0270 2.8455 -2.0016 0.9656
7.8022 3.4139 -2.0016 0.9656
7.6747 3.6918 -2.0016 0.9656
7.5372 3.9648 -2.0016 0.9656
7.3901 4.2328 -2.0016 0.9656
1.9782 7.4731 -2.0016 0.9686
1.7087 7.5393 -2.0016 0.9686
1.4370 7.5958 -2.0016 0.9686
1.1635 7.6424 -2.0016 0.9686
0.6122 7.7062 -2.0016 0.9686
0.3352 7.7232 -2.0016 0.9686
-1.3231 7.6164 -2.0016 0.9686
-2.1341 7.4301 -2.0016 0.9686
-2.3994 7.3487 -2.0016 0.9686
-3.4263 6.9297 -2.0016 0.9686
-3.6728 6.8023 -2.0016 0.9686
-4.1513 6.5213 -2.0016 0.9686
-4.3827 6.3681 -2.0016 0.9686
-5.0418 5.8601 -2.0016 0.9686
-5.2488 5.6754 -2.0016 0.9686
-5.8284 5.0783 -2.0016 0.9686
-6.0070 4.8659 -2.0016 0.9686
-6.3405 4.4224 -2.0016 0.9686
-6.4952 4.1920 -2.0016 0.9686
-6.7792 3.7153 -2.0016 0.9686
-7.0282 3.2194 -2.0016 0.9686
-7.1392 2.9651 -2.0016 0.9686
-7.2410 2.7070 -2.0016 0.9686
-7.3335 2.4454 -2.0016 0.9686
-7.4166 2.1806 -2.0016 0.9686
-7.4900 1.9130 -2.0016 0.9686
-7.5539 1.6430 -2.0016 0.9686
-7.6523 1.0969 -2.0016 0.9686
-7.6867 0.8215 -2.0016 0.9686
-7.7258 0.2680 -2.0016 0.9686
-7.6847 -0.8403 -2.0016 0.9686
-7.6496 -1.1156 -2.0016 0.9686
-7.5498 -1.6615 -2.0016 0.9686
-7.4853 -1.9314 -2.0016 0.9686
-6.7118 -2.5279 -1.8570 0.9708
-6.6168 -2.7672 -1.8570 0.9708
-6.4012 -3.2347 -1.8570 0.9708
-6.1527 -3.6855 -1.8570 0.9708
-5.7209 -4.3255 -1.8570 0.9708
-5.2228 -4.9154 -1.8570 0.9708
-4.8568 -5.2774 -1.8570 0.9708
-4.4657 -5.6122 -1.8570 0.9708
-4.1353 -6.5314 -2.0016 0.9686
-3.6561 -6.8112 -2.0016 0.9686
-3.1581 -7.0560 -2.0016 0.9686
-2.6438 -7.2643 -2.0016 0.9686
-2.1159 -7.4353 -2.0016 0.9686
-1.8477 -7.5064 -2.0016 0.9686
-1.5771 -7.5679 -2.0016 0.9686
-1.3045 -7.6196 -2.0016 0.9686
-1.0302 -7.6615 -2.0016 0.9686
-0.7545 -7.6936 -2.0016 0.9686
-0.4779 -7.7157 -2.0016 0.9686
0.3542 -7.7224 -2.0016 0.9686
0.6311 -7.7047 -2.0016 0.9686
0.9072 -7.6771 -2.0016 0.9686
1.1822 -7.6396 -2.0016 0.9686
1.4556 -7.5922 -2.0016 0.9686
1.7271 -7.5351 -2.0016 0.9686
2.2632 -7.3918 -2.0016 0.9686
3.2977 -6.9918 -2.0016 0.9686
2.1308 -4.1269 -1.2025 0.9810
4.0301 -6.5969 -2.0016 0.9686
4.2643 -6.4480 -2.0016 0.9686
4.4929 -6.2908 -2.0016 0.9686
4.7158 -6.1255 -2.0016 0.9686
4.9326 -5.9523 -2.0016 0.9686
5.3469 -5.5831 -2.0016 0.9686
5.5438 -5.3876 -2.0016 0.9686
6.5672 -4.0783 -2.0016 0.9686
6.7093 -3.8399 -2.0016 0.9686
6.8428 -3.5967 -2.0016 0.9686
6.9675 -3.3488 -2.0016 0.9686
7.0832 -3.0965 -2.0016 0.9686
7.2871 -2.5805 -2.0016 0.9686
7.5222 -1.7823 -2.0016 0.9686
7.6307 -1.2381 -2.0016 0.9686
7.6702 -0.9634 -2.0016 0.9686
7.6999 -0.6875 -2.0016 0.9686
7.7196 -0.4107 -2.0016 0.9686
7.7291 0.1441 -2.0016 0.9686
7.6689 0.9741 -2.0016 0.9686
7.6290 1.2486 -2.0016 0.9686
7.5792 1.5217 -2.0016 0.9686
7.5198 1.7927 -2.0016 0.9686
7.4506 2.0614 -2.0016 0.9686
7.3718 2.3275 -2.0016 0.9686
7.1858 2.8503 -2.0016 0.9686
7.0789 3.1064 -2.0016 0.9686
6.9629 3.3584 -2.0016 0.9686
6.8378 3.6062 -2.0016 0.9686
6.4106 4.3203 -2.0016 0.9686
6.2514 4.5475 -2.0016 0.9686
6.0842 4.7690 -2.0016 0.9686
5.9091 4.9843 -2.0016 0.9686
5.5363 5.3953 -2.0016 0.9686
4.9243 5.9591 -2.0016 0.9686
4.4842 6.2970 -2.0016 0.9686
3.2879 6.9964 -2.0016 0.9686
2.5169 7.3093 -2.0016 0.9686
2.2529 7.3949 -2.0016 0.9686
1.4450 7.5942 -2.0016 0.9686
1.1716 7.6412 -2.0016 0.9686
0.8966 7.6783 -2.0016 0.9686
0.6204 7.7055 -2.0016 0.9686
-0.2114 7.7276 -2.0016 0.9686
-0.4886 7.7150 -2.0016 0.9686
-1.3151 7.6178 -2.0016 0.9686
-1.5876 7.5657 -2.0016 0.9686
-1.8581 7.5039 -2.0016 0.9686
-2.1262 7.4323 -2.0016 0.9686
-2.9128 7.1607 -2.0016 0.9686
-3.1679 7.0516 -2.0016 0.9686
-3.6656 6.8062 -2.0016 0.9686
-4.3759 6.3727 -2.0016 0.9686
-4.8218 6.0424 -2.0016 0.9686
-5.0355 5.8655 -2.0016 0.9686
-5.4433 5.4891 -2.0016 0.9686
-5.6368 5.2902 -2.0016 0.9686
-5.8231 5.0845 -2.0016 0.9686
-6.0018 4.8723 -2.0016 0.9686
-6.1728 4.6537 -2.0016 0.9686
-6.3358 4.4292 -2.0016 0.9686
-6.4907 4.1989 -2.0016 0.9686
-6.6372 3.9633 -2.0016 0.9686
-6.7752 3.7225 -2.0016 0.9686
-6.9044 3.4769 -2.0016 0.9686
-7.0248 3.2269 -2.0016 0.9686
-7.2382 2.7147 -2.0016 0.9686
-7.4142 2.1885 -2.0016 0.9686
-7.4880 1.9210 -2.0016 0.9686
-7.5521 1.6510 -2.0016 0.9686
-7.6065 1.3789 -2.0016 0.9686
-7.6511 1.1050 -2.0016 0.9686
-7.7256 0.2762 -2.0016 0.9686
-7.7305 -0.0013 -2.0016 0.9686
-7.7255 -0.2787 -2.0016 0.9686
-7.6856 -0.8322 -2.0016 0.9686
-7.6507 -1.1075 -2.0016 0.9686
-7.6061 -1.3814 -2.0016 0.9686
-7.5516 -1.6535 -2.0016 0.9686
-6.8006 -2.2782 -1.8570 0.9708
-6.7145 -2.5208 -1.8570 0.9708
-6.6197 -2.7601 -1.8570 0.9708
-6.4046 -3.2279 -1.8570 0.9708
-6.2847 -3.4557 -1.8570 0.9708
-6.1566 -3.6790 -1.8570 0.9708
-6.0206 -3.8976 -1.8570 0.9708
-5.7255 -4.3194 -1.8570 0.9708
-5.5668 -4.5221 -1.8570 0.9708
-5.4009 -4.7190 -1.8570 0.9708
-5.0485 -5.0943 -1.8570 0.9708
-4.8624 -5.2722 -1.8570 0.9708
-4.6700 -5.4433 -1.8570 0.9708
-4.4716 -5.6074 -1.8570 0.9708
-4.5998 -6.2131 -2.0016 0.9686
-4.3738 -6.3742 -2.0016 0.9686
-3.9053 -6.6715 -2.0016 0.9686
-3.6633 -6.8074 -2.0016 0.9686
-2.9104 -7.1617 -2.0016 0.9686
-2.6515 -7.2615 -2.0016 0.9686
-2.3892 -7.3520 -2.0016 0.9686
-1.5851 -7.5662 -2.0016 0.9686
-0.7627 -7.6928 -2.0016 0.9686
-0.4861 -7.7152 -2.0016 0.9686
-0.2089 -7.7277 -2.0016 0.9686
0.0686 -7.7302 -2.0016 0.9686
0.3460 -7.7227 -2.0016 0.9686
0.8991 -7.6780 -2.0016 0.9686
1.1741 -7.6408 -2.0016 0.9686
2.2554 -7.3942 -2.0016 0.9686
2.5193 -7.3085 -2.0016 0.9686
2.1271 -4.1305 -1.2029 0.9810
4.0231 -6.6011 -2.0016 0.9686
4.4863 -6.2955 -2.0016 0.9686
4.9263 -5.9575 -2.0016 0.9686
5.1369 -5.7769 -2.0016 0.9686
5.3410 -5.5888 -2.0016 0.9686
5.7281 -5.1913 -2.0016 0.9686
6.2529 -4.5455 -2.0016 0.9686
6.5629 -4.0852 -2.0016 0.9686
6.8390 -3.6039 -2.0016 0.9686
6.9640 -3.3561 -2.0016 0.9686
7.1868 -2.8479 -2.0016 0.9686
7.2843 -2.5882 -2.0016 0.9686
7.3725 -2.3251 -2.0016 0.9686
7.4512 -2.0590 -2.0016 0.9686
7.5797 -1.5192 -2.0016 0.9686
7.6692 -0.9715 -2.0016 0.9686
7.6991 -0.6957 -2.0016 0.9686
7.7191 -0.4189 -2.0016 0.9686
7.7293 0.1359 -2.0016 0.9686
7.7194 0.4132 -2.0016 0.9686
7.6996 0.6900 -2.0016 0.9686
7.6699 0.9659 -2.0016 0.9686
7.6303 1.2406 -2.0016 0.9686
7.5809 1.5136 -2.0016 0.9686
7.4527 2.0535 -2.0016 0.9686
7.0822 3.0989 -2.0016 0.9686
6.9664 3.3511 -2.0016 0.9686
1.8092 6.8349 -2.0016 0.9710
1.5628 6.8955 -2.0016 0.9710
1.3143 6.9471 -2.0016 0.9710
0.8125 7.0235 -2.0016 0.9710
0.0529 7.0701 -2.0016 0.9710
-0.2009 7.0675 -2.0016 0.9710
-0.4544 7.0557 -2.0016 0.9710
-1.2102 6.9660 -2.0016 0.9710
-1.4594 6.9181 -2.0016 0.9710
-1.9519 6.7956 -2.0016 0.9710
-3.1337 6.3379 -2.0016 0.9710
-3.3592 6.2214 -2.0016 0.9710
-3.5803 6.0968 -2.0016 0.9710
-3.7968 5.9644 -2.0016 0.9710
-4.0084 5.8243 -2.0016 0.9710
-4.2149 5.6767 -2.0016 0.9710
-5.4940 4.4504 -2.0016 0.9710
-5.7991 4.0448 -2.0016 0.9710
-5.9405 3.8341 -2.0016 0.9710
-6.5296 2.7119 -2.0016 0.9710
-6.9088 1.5027 -2.0016 0.9710
-6.9583 1.2537 -2.0016 0.9710
-6.9988 1.0032 -2.0016 0.9710
-7.0303 0.7513 -2.0016 0.9710
-7.0655 -0.2624 -2.0016 0.9710
-7.0515 -0.5158 -2.0016 0.9710
-6.9963 -1.0203 -2.0016 0.9710
-6.9552 -1.2708 -2.0016 0.9710
-6.9051 -1.5196 -2.0016 0.9710
-6.8461 -1.7664 -2.0016 0.9710
-6.7783 -2.0110 -2.0016 0.9710
-6.6090 -2.2218 -1.9738 0.9714
-6.1386 -2.3120 -1.8570 0.9731
-5.9570 -2.7464 -1.8570 0.9731
-5.8546 -2.9585 -1.8570 0.9731
-5.6273 -3.3708 -1.8570 0.9731
-5.0870 -4.1414 -1.8570 0.9731
-4.9351 -4.3213 -1.8570 0.9731
-3.8975 -5.2762 -1.8570 0.9731
-3.7056 -5.4127 -1.8570 0.9731
-3.3439 -6.2296 -2.0016 0.9710
-3.1182 -6.3456 -2.0016 0.9710
-2.8884 -6.4534 -2.0016 0.9710
-2.6549 -6.5529 -2.0016 0.9710
-1.9352 -6.8003 -2.0016 0.9710
-1.6899 -6.8654 -2.0016 0.9710
-0.6901 -7.0366 -2.0016 0.9710
-0.4371 -7.0568 -2.0016 0.9710
-0.1835 -7.0679 -2.0016 0.9710
0.0702 -7.0700 -2.0016 0.9710
0.3239 -7.0629 -2.0016 0.9710
1.0812 -6.9872 -2.0016 0.9710
1.5797 -6.8916 -2.0016 0.9710
1.8260 -6.8305 -2.0016 0.9710
2.5496 -6.5946 -2.0016 0.9710
2.7846 -6.4989 -2.0016 0.9710
2.1221 -4.1102 -1.3095 0.9810
2.3046 -4.0959 -1.3305 0.9807
3.6859 -6.0335 -2.0016 0.9710
4.3131 -5.6024 -2.0016 0.9710
4.5114 -5.4440 -2.0016 0.9710
4.7039 -5.2786 -2.0016 0.9710
4.8903 -5.1063 -2.0016 0.9710
5.0704 -4.9275 -2.0016 0.9710
5.7233 -4.1513 -2.0016 0.9710
5.8686 -3.9432 -2.0016 0.9710
6.0064 -3.7300 -2.0016 0.9710
6.1364 -3.5120 -2.0016 0.9710
6.6648 -2.3601 -2.0016 0.9710
6.7452 -2.1194 -2.0016 0.9710
6.8169 -1.8759 -2.0016 0.9710
7.0423 -0.6288 -2.0016 0.9710
7.0603 -0.3756 -2.0016 0.9710
7.0693 -0.1220 -2.0016 0.9710
7.0691 0.1318 -2.0016 0.9710
7.0140 0.8909 -2.0016 0.9710
6.9320 1.3917 -2.0016 0.9710
6.8776 1.6396 -2.0016 0.9710
6.8143 1.8854 -2.0016 0.9710
6.7423 2.1287 -2.0016 0.9710
6.4744 2.8411 -2.0016 0.9710
6.3682 3.0716 -2.0016 0.9710
6.1315 3.5205 -2.0016 0.9710
6.0012 3.7383 -2.0016 0.9710
5.7176 4.1592 -2.0016 0.9710
5.5646 4.3617 -2.0016 0.9710
5.0636 4.9346 -2.0016 0.9710
4.5038 5.4502 -2.0016 0.9710
4.1012 5.7593 -2.0016 0.9710
3.8919 5.9028 -2.0016 0.9710
3.6776 6.0386 -2.0016 0.9710
3.4585 6.1667 -2.0016 0.9710
2.7756 6.5028 -2.0016 0.9710
2.5404 6.5982 -2.0016 0.9710
2.3020 6.6851 -2.0016 0.9710
2.0606 6.7634 -2.0016 0.9710
1.8165 6.8330 -2.0016 0.9710
1.3216 6.9457 -2.0016 0.9710
1.0715 6.9887 -2.0016 0.9710
0.3141 7.0633 -2.0016 0.9710
-0.9519 7.0060 -2.0016 0.9710
-1.2028 6.9673 -2.0016 0.9710
-1.4520 6.9196 -2.0016 0.9710
-1.6995 6.8631 -2.0016 0.9710
-1.9447 6.7976 -2.0016 0.9710
-2.4273 6.6406 -2.0016 0.9710
-2.8974 6.4494 -2.0016 0.9710
-3.1270 6.3413 -2.0016 0.9710
-3.5738 6.1006 -2.0016 0.9710
-3.7905 5.9684 -2.0016 0.9710
-4.2088 5.6811 -2.0016 0.9710
-4.4100 5.5264 -2.0016 0.9710
-4.6055 5.3646 -2.0016 0.9710
-4.7951 5.1958 -2.0016 0.9710
-4.9785 5.0204 -2.0016 0.9710
-5.4893 4.4562 -2.0016 0.9710
-5.7948 4.0509 -2.0016 0.9710
-6.1966 3.4046 -2.0016 0.9710
-6.3148 3.1800 -2.0016 0.9710
-6.5267 2.7188 -2.0016 0.9710
-6.6200 2.4828 -2.0016 0.9710
-6.7049 2.2437 -2.0016 0.9710
-6.7811 2.0016 -2.0016 0.9710
-6.9072 1.5100 -2.0016 0.9710
-6.9569 1.2611 -2.0016 0.9710
-7.0295 0.7588 -2.0016 0.9710
-7.0658 0.2526 -2.0016 0.9710
-7.0703 -0.0012 -2.0016 0.9710
-7.0520 -0.5083 -2.0016 0.9710
-6.9974 -1.0129 -2.0016 0.9710
-6.8480 -1.7592 -2.0016 0.9710
-6.1411 -2.3055 -1.8570 0.9731
-5.9599 -2.7401 -1.8570 0.9731
-5.3750 -3.7601 -1.8570 0.9731
-5.0914 -4.1360 -1.8570 0.9731
-4.9397 -4.3160 -1.8570 0.9731
-4.7816 -4.4905 -1.8570 0.9731
-4.4471 -4.8220 -1.8570 0.9731
-4.0898 -5.1286 -1.8570 0.9731
-3.7114 -5.4087 -1.8570 0.9731
-3.3138 -5.6610 -1.8570 0.9731
-3.3505 -6.2260 -2.0016 0.9710
-2.8953 -6.4504 -2.0016 0.9710
-2.4251 -6.6414 -2.0016 0.9710
-1.9424 -6.7983 -2.0016 0.9710
-0.6976 -7.0358 -2.0016 0.9710
-0.4446 -7.0563 -2.0016 0.9710
-0.1910 -7.0678 -2.0016 0.9710
0.8223 -7.0223 -2.0016 0.9710
1.0738 -6.9883 -2.0016 0.9710
1.5723 -6.8933 -2.0016 0.9710
1.8187 -6.8324 -2.0016 0.9710
2.3042 -6.6843 -2.0016 0.9710
2.7777 -6.5018 -2.0016 0.9710
3.0093 -6.3980 -2.0016 0.9710
2.1184 -4.1137 -1.3099 0.9809
3.8939 -5.9015 -2.0016 0.9710
4.1031 -5.7579 -2.0016 0.9710
4.3072 -5.6070 -2.0016 0.9710
4.8849 -5.1115 -2.0016 0.9710
5.0652 -4.9329 -2.0016 0.9710
5.4060 -4.5568 -2.0016 0.9710
5.7189 -4.1573 -2.0016 0.9710
6.0024 -3.7364 -2.0016 0.9710
6.5730 -2.6047 -2.0016 0.9710
6.6623 -2.3672 -2.0016 0.9710
6.7430 -2.1265 -2.0016 0.9710
6.8149 -1.8832 -2.0016 0.9710
6.8781 -1.6374 -2.0016 0.9710
6.9325 -1.3894 -2.0016 0.9710
7.0143 -0.8886 -2.0016 0.9710
7.0417 -0.6363 -2.0016 0.9710
7.0600 -0.3831 -2.0016 0.9710
7.0692 -0.1295 -2.0016 0.9710
7.0602 0.3779 -2.0016 0.9710
7.0421 0.6311 -2.0016 0.9710
7.0149 0.8834 -2.0016 0.9710
6.9335 1.3844 -2.0016 0.9710
6.8793 1.6323 -2.0016 0.9710
6.8163 1.8782 -2.0016 0.9710
6.7445 2.1216 -2.0016 0.9710
6.5750 2.5999 -2.0016 0.9710
6.3715 3.0649 -2.0016 0.9710
6.2574 3.2916 -2.0016 0.9710
6.1352 3.5140 -2.0016 0.9710
1.6652 6.2908 -2.0016 0.9731
0.7479 6.4644 -2.0016 0.9731
0.5154 6.4870 -2.0016 0.9731
0.2822 6.5014 -2.0016 0.9731
-0.4182 6.4940 -2.0016 0.9731
-0.8830 6.4473 -2.0016 0.9731
-1.3432 6.3673 -2.0016 0.9731
-1.5709 6.3150 -2.0016 0.9731
-1.7965 6.2546 -2.0016 0.9731
-2.0198 6.1861 -2.0016 0.9731
-2.2405 6.1096 -2.0016 0.9731
-2.4584 6.0253 -2.0016 0.9731
-2.6730 5.9331 -2.0016 0.9731
-3.0917 5.7261 -2.0016 0.9731
-3.4945 5.4896 -2.0016 0.9731
-3.6893 5.3606 -2.0016 0.9731
-4.4184 4.7775 -2.0016 0.9731
-4.5871 4.6159 -2.0016 0.9731
-4.9063 4.2749 -2.0016 0.9731
-5.2004 3.9120 -2.0016 0.9731
-5.3374 3.7228 -2.0016 0.9731
-5.4676 3.5288 -2.0016 0.9731
-5.9163 2.7101 -2.0016 0.9731
-6.0098 2.4960 -2.0016 0.9731
-6.0955 2.2787 -2.0016 0.9731
-6.1733 2.0585 -2.0016 0.9731
-6.3588 1.3830 -2.0016 0.9731
-6.4044 1.1539 -2.0016 0.9731
-6.4706 0.6915 -2.0016 0.9731
-6.4913 0.4589 -2.0016 0.9731
-6.5030 -0.2415 -2.0016 0.9731
-6.4689 -0.7074 -2.0016 0.9731
-6.4394 -0.9391 -2.0016 0.9731
-6.4015 -1.1696 -2.0016 0.9731
-6.3554 -1.3986 -2.0016 0.9731
-6.3011 -1.6258 -2.0016 0.9731
-6.2387 -1.8509 -2.0016 0.9731
-6.1683 -2.0736 -2.0016 0.9731
-5.9138 -2.2274 -1.9437 0.9739
-5.4828 -2.5278 -1.8570 0.9751
-5.1793 -3.1025 -1.8570 0.9751
-5.0646 -3.2864 -1.8570 0.9751
-4.9434 -3.4660 -1.8570 0.9751
-4.8158 -3.6412 -1.8570 0.9751
-4.5422 -3.9773 -1.8570 0.9751
-4.2452 -4.2929 -1.8570 0.9751
-4.0884 -4.4424 -1.8570 0.9751
-3.7592 -4.7243 -1.8570 0.9751
-3.5872 -4.8562 -1.8570 0.9751
-3.4106 -4.9818 -1.8570 0.9751
-2.8554 -5.3195 -1.8570 0.9751
-2.6626 -5.4186 -1.8570 0.9751
-2.4665 -5.5106 -1.8570 0.9751
-1.7812 -6.2590 -2.0016 0.9731
-1.3276 -6.3706 -2.0016 0.9731
-1.0981 -6.4142 -2.0016 0.9731
-0.1689 -6.5053 -2.0016 0.9731
0.2981 -6.5006 -2.0016 0.9731
0.7637 -6.4625 -2.0016 0.9731
1.2253 -6.3911 -2.0016 0.9731
1.9052 -6.2223 -2.0016 0.9731
2.1273 -6.1500 -2.0016 0.9731
2.1771 -5.6312 -1.8570 0.9751
2.0743 -4.3980 -1.4956 0.9799
2.1134 -4.0933 -1.4169 0.9809
3.5896 -5.4279 -2.0016 0.9731
3.7821 -5.2955 -2.0016 0.9731
3.9697 -5.1564 -2.0016 0.9731
4.5010 -4.6998 -2.0016 0.9731
4.8265 -4.3649 -2.0016 0.9731
5.1272 -4.0074 -2.0016 0.9731
5.7603 -3.0277 -2.0016 0.9731
5.8652 -2.8190 -2.0016 0.9731
6.1342 -2.1722 -2.0016 0.9731
6.2082 -1.9507 -2.0016 0.9731
6.2742 -1.7266 -2.0016 0.9731
6.3322 -1.5003 -2.0016 0.9731
6.3819 -1.2721 -2.0016 0.9731
6.4567 -0.8110 -2.0016 0.9731
6.4983 -0.3457 -2.0016 0.9731
6.5065 -0.1123 -2.0016 0.9731
6.4556 0.8200 -2.0016 0.9731
6.4220 1.0511 -2.0016 0.9731
6.2055 1.9593 -2.0016 0.9731
6.1312 2.1807 -2.0016 0.9731
6.0490 2.3994 -2.0016 0.9731
5.7560 3.0357 -2.0016 0.9731
5.5235 3.4407 -2.0016 0.9731
5.2624 3.8281 -2.0016 0.9731
4.8205 4.3716 -2.0016 0.9731
4.6605 4.5417 -2.0016 0.9731
4.3227 4.8644 -2.0016 0.9731
3.9626 5.1619 -2.0016 0.9731
3.7748 5.3008 -2.0016 0.9731
3.5821 5.4329 -2.0016 0.9731
3.3848 5.5579 -2.0016 0.9731
2.9774 5.7864 -2.0016 0.9731
2.7678 5.8895 -2.0016 0.9731
2.5546 5.9851 -2.0016 0.9731
2.3382 6.0729 -2.0016 0.9731
2.1187 6.1529 -2.0016 0.9731
1.4451 6.3450 -2.0016 0.9731
1.2164 6.3928 -2.0016 0.9731
0.9862 6.4323 -2.0016 0.9731
0.2891 6.5011 -2.0016 0.9731
0.0556 6.5072 -2.0016 0.9731
-0.1780 6.5050 -2.0016 0.9731
-1.3365 6.3688 -2.0016 0.9731
-1.7899 6.2565 -2.0016 0.9731
-2.0133 6.1882 -2.0016 0.9731
-2.8781 5.8364 -2.0016 0.9731
-3.0857 5.7294 -2.0016 0.9731
-3.2893 5.6150 -2.0016 0.9731
-3.6836 5.3645 -2.0016 0.9731
-4.0589 5.0865 -2.0016 0.9731
-4.2389 4.9375 -2.0016 0.9731
-4.5822 4.6207 -2.0016 0.9731
-5.0523 4.1014 -2.0016 0.9731
-5.4639 3.5346 -2.0016 0.9731
-5.5872 3.3363 -2.0016 0.9731
-5.8121 2.9269 -2.0016 0.9731
-5.9134 2.7164 -2.0016 0.9731
-6.0071 2.5024 -2.0016 0.9731
-6.3034 1.6170 -2.0016 0.9731
-6.3573 1.3898 -2.0016 0.9731
-6.4031 1.1607 -2.0016 0.9731
-6.4407 0.9302 -2.0016 0.9731
-6.4699 0.6984 -2.0016 0.9731
-6.5033 0.2325 -2.0016 0.9731
-6.5075 -0.0011 -2.0016 0.9731
-6.5032 -0.2346 -2.0016 0.9731
-6.4906 -0.4679 -2.0016 0.9731
-6.4697 -0.7005 -2.0016 0.9731
-6.4404 -0.9323 -2.0016 0.9731
-6.4027 -1.1628 -2.0016 0.9731
-6.3569 -1.3919 -2.0016 0.9731
-6.3028 -1.6191 -2.0016 0.9731
-6.2407 -1.8443 -2.0016 0.9731
-6.1705 -2.0671 -2.0016 0.9731
-5.9306 -2.2265 -1.9484 0.9738
-5.5724 -2.3235 -1.8570 0.9751
-5.4854 -2.5220 -1.8570 0.9751
-5.2904 -2.9090 -1.8570 0.9751
-5.0681 -3.2810 -1.8570 0.9751
-4.6861 -3.8067 -1.8570 0.9751
-3.7642 -4.7203 -1.8570 0.9751
-3.5924 -4.8523 -1.8570 0.9751
-3.2350 -5.0975 -1.8570 0.9751
-3.0500 -5.2104 -1.8570 0.9751
-2.6684 -5.4157 -1.8570 0.9751
-2.0708 -5.6712 -1.8570 0.9751
-1.7878 -6.2571 -2.0016 0.9731
-1.3344 -6.3692 -2.0016 0.9731
-0.8740 -6.4485 -2.0016 0.9731
-0.1758 -6.5051 -2.0016 0.9731
0.7568 -6.4633 -2.0016 0.9731
1.2185 -6.3924 -2.0016 0.9731
1.4472 -6.3445 -2.0016 0.9731
1.8986 -6.2244 -2.0016 0.9731
2.3719 -5.5520 -1.8570 0.9751
2.1097 -4.0969 -1.4174 0.9809
2.2908 -4.0816 -1.4396 0.9806
3.3866 -5.5568 -2.0016 0.9731
3.5839 -5.4317 -2.0016 0.9731
3.7765 -5.2996 -2.0016 0.9731
3.9643 -5.1606 -2.0016 0.9731
4.1469 -5.0150 -2.0016 0.9731
4.3243 -4.8629 -2.0016 0.9731
4.6619 -4.5402 -2.0016 0.9731
4.8219 -4.3700 -2.0016 0.9731
4.9756 -4.1941 -2.0016 0.9731
5.1229 -4.0128 -2.0016 0.9731
5.3976 -3.6350 -2.0016 0.9731
5.5246 -3.4389 -2.0016 0.9731
5.7570 -3.0338 -2.0016 0.9731
5.8622 -2.8252 -2.0016 0.9731
6.1319 -2.1787 -2.0016 0.9731
6.2062 -1.9572 -2.0016 0.9731
6.3306 -1.5070 -2.0016 0.9731
6.4224 -1.0490 -2.0016 0.9731
6.4811 -0.5856 -2.0016 0.9731
6.5064 -0.1192 -2.0016 0.9731
6.4982 0.3479 -2.0016 0.9731
6.4565 0.8131 -2.0016 0.9731
6.3815 1.2742 -2.0016 0.9731
6.2737 1.7287 -2.0016 0.9731
6.2076 1.9527 -2.0016 0.9731
6.1335 2.1742 -2.0016 0.9731
6.0515 2.3930 -2.0016 0.9731
5.9617 2.6086 -2.0016 0.9731
5.7593 3.0295 -2.0016 0.9731
1.7488 5.7619 -2.0016 0.9749
1.1193 5.9165 -2.0016 0.9749
0.4769 6.0025 -2.0016 0.9749
0.2611 6.0158 -2.0016 0.9749
0.0451 6.0213 -2.0016 0.9749
-0.6024 5.9912 -2.0016 0.9749
-1.2429 5.8918 -2.0016 0.9749
-1.4535 5.8434 -2.0016 0.9749
-1.8690 5.7241 -2.0016 0.9749
-2.0732 5.6533 -2.0016 0.9749
-2.2747 5.5752 -2.0016 0.9749
-2.6688 5.3977 -2.0016 0.9749
-3.2335 5.0796 -2.0016 0.9749
-3.4138 4.9602 -2.0016 0.9749
-3.5896 4.8345 -2.0016 0.9749
-3.7608 4.7026 -2.0016 0.9749
-3.9271 4.5646 -2.0016 0.9749
-4.3950 4.1160 -2.0016 0.9749
-4.6789 3.7901 -2.0016 0.9749
-5.0592 3.2653 -2.0016 0.9749
-5.1732 3.0816 -2.0016 0.9749
-5.2804 2.8939 -2.0016 0.9749
-5.3809 2.7026 -2.0016 0.9749
-5.6402 2.1085 -2.0016 0.9749
-5.9260 1.0677 -2.0016 0.9749
-5.9873 0.6399 -2.0016 0.9749
-6.0065 0.4246 -2.0016 0.9749
-6.0054 -0.4393 -2.0016 0.9749
-5.9858 -0.6546 -2.0016 0.9749
-5.8807 -1.2941 -2.0016 0.9749
-5.8305 -1.5044 -2.0016 0.9749
-5.3354 -2.2313 -1.9224 0.9759
-5.0733 -2.3390 -1.8570 0.9767
-4.8924 -2.6969 -1.8570 0.9767
-4.5742 -3.2071 -1.8570 0.9767
-4.4561 -3.3692 -1.8570 0.9767
-4.3323 -3.5270 -1.8570 0.9767
-4.0682 -3.8287 -1.8570 0.9767
-3.9281 -3.9722 -1.8570 0.9767
-3.7830 -4.1106 -1.8570 0.9767
-3.6331 -4.2438 -1.8570 0.9767
-3.4784 -4.3714 -1.8570 0.9767
-3.3193 -4.4935 -1.8570 0.9767
-3.1559 -4.6097 -1.8570 0.9767
-2.9884 -4.7200 -1.8570 0.9767
-2.8171 -4.8242 -1.8570 0.9767
-2.2822 -5.0990 -1.8570 0.9767
-2.0978 -5.1777 -1.8570 0.9767
-1.9106 -5.2496 -1.8570 0.9767
-1.3353 -5.4246 -1.8570 0.9767
-1.1397 -5.4690 -1.8570 0.9767
-0.9427 -5.5064 -1.8570 0.9767
-0.7454 -5.5440 -1.8594 0.9767
-0.5453 -5.5598 -1.8570 0.9767
-0.1450 -5.5846 -1.8570 0.9767
