ply
format ascii 1.0
element vertex 1590
property float32 x
property float32 y
property float32 z
property float32 I
end_header
0.5909 11.2104 -1.8494 0.9555
0.1881 11.2244 -1.8494 0.9555
-1.0196 11.1796 -1.8494 0.9555
-1.1108 8.7091 -1.4463 0.9650
-2.9994 10.8179 -1.8494 0.9555
-3.7678 10.5748 -1.8494 0.9555
-4.1449 10.4328 -1.8494 0.9555
-4.8828 10.1085 -1.8494 0.9555
-5.2425 9.9267 -1.8494 0.9555
-5.5954 9.7321 -1.8494 0.9555
-5.9411 9.5250 -1.8494 0.9555
-6.6092 9.0742 -1.8494 0.9555
-7.2432 8.5767 -1.8494 0.9555
-8.6367 8.2381 -1.9663 0.9528
-9.3707 7.7336 -2.0016 0.9519
-9.6423 7.3923 -2.0016 0.9519
-9.9014 7.0414 -2.0016 0.9519
-10.1478 6.6815 -2.0016 0.9519
-10.6010 5.9362 -2.0016 0.9519
-10.9996 5.1603 -2.0016 0.9519
-11.1777 4.7622 -2.0016 0.9519
-11.4906 3.9480 -2.0016 0.9519
-11.6249 3.5330 -2.0016 0.9519
-11.7442 3.1134 -2.0016 0.9519
-11.8484 2.6898 -2.0016 0.9519
-12.0689 1.4005 -2.0016 0.9519
-12.1495 0.0950 -2.0016 0.9519
-12.1451 -0.3412 -2.0016 0.9519
-12.1250 -0.7769 -2.0016 0.9519
-11.0302 -2.3233 -1.8570 0.9553
-10.8351 -3.1087 -1.8570 0.9553
-10.7165 -3.4956 -1.8570 0.9553
-10.2787 -4.6274 -1.8570 0.9553
-10.1059 -4.9934 -1.8570 0.9553
-9.9202 -5.3529 -1.8570 0.9553
-10.4785 -6.1498 -2.0016 0.9519
-10.2510 -6.5220 -2.0016 0.9519
-10.0103 -6.8857 -2.0016 0.9519
-9.4905 -7.5861 -2.0016 0.9519
-9.2121 -7.9219 -2.0016 0.9519
-7.9835 -9.1588 -2.0016 0.9519
-6.9526 -9.9639 -2.0016 0.9519
-5.8412 -10.6536 -2.0016 0.9519
-5.4550 -10.8564 -2.0016 0.9519
-3.8451 -11.5254 -2.0016 0.9519
-2.5838 -11.8719 -2.0016 0.9519
-2.1560 -11.9570 -2.0016 0.9519
-1.2926 -12.0809 -2.0016 0.9519
-0.4226 -12.1425 -2.0016 0.9519
0.0136 -12.1499 -2.0016 0.9519
1.3196 -12.0780 -2.0016 0.9519
2.1827 -11.9522 -2.0016 0.9519
2.6104 -11.8661 -2.0016 0.9519
4.2818 -11.3704 -2.0016 0.9519
4.6871 -11.2094 -2.0016 0.9519
5.4793 -10.8442 -2.0016 0.9519
6.6133 -10.1923 -2.0016 0.9519
6.9749 -9.9484 -2.0016 0.9519
7.3275 -9.6916 -2.0016 0.9519
7.6706 -9.4223 -2.0016 0.9519
8.0039 -9.1409 -2.0016 0.9519
8.9402 -8.2275 -2.0016 0.9519
9.2298 -7.9013 -2.0016 0.9519
10.0257 -6.8633 -2.0016 0.9519
11.4175 -4.1545 -2.0016 0.9519
11.7980 -2.9030 -2.0016 0.9519
11.9758 -2.0491 -2.0016 0.9519
12.0417 -1.6179 -2.0016 0.9519
12.0920 -1.1846 -2.0016 0.9519
12.1458 -0.3140 -2.0016 0.9519
12.1371 0.5582 -2.0016 0.9519
12.0657 1.4275 -2.0016 0.9519
12.0067 1.8597 -2.0016 0.9519
11.7372 3.1396 -2.0016 0.9519
11.1670 4.7871 -2.0016 0.9519
10.9880 5.1849 -2.0016 0.9519
10.7948 5.5760 -2.0016 0.9519
10.5877 5.9599 -2.0016 0.9519
10.3669 6.3361 -2.0016 0.9519
10.1328 6.7041 -2.0016 0.9519
9.8856 7.0635 -2.0016 0.9519
9.3534 7.7545 -2.0016 0.9519
8.7730 8.4056 -2.0016 0.9519
8.4656 8.7151 -2.0016 0.9519
8.1473 9.0134 -2.0016 0.9519
7.4796 9.5747 -2.0016 0.9519
6.7735 10.0866 -2.0016 0.9519
6.4070 10.3232 -2.0016 0.9519
6.0162 10.5184 -1.9962 0.9521
4.8601 10.1194 -1.8494 0.9555
4.4938 10.2873 -1.8494 0.9555
4.1216 10.4420 -1.8494 0.9555
3.7441 10.5832 -1.8494 0.9555
3.3618 10.7108 -1.8494 0.9555
2.9752 10.8245 -1.8494 0.9555
2.5847 10.9244 -1.8494 0.9555
1.7943 11.0817 -1.8494 0.9555
0.9946 11.1818 -1.8494 0.9555
0.1898 11.2244 -1.8494 0.9555
-0.6159 11.2091 -1.8494 0.9555
-1.0179 11.1797 -1.8494 0.9555
-1.8173 11.0779 -1.8494 0.9555
-2.6074 10.9190 -1.8494 0.9555
-3.3841 10.7038 -1.8494 0.9555
-3.7661 10.5754 -1.8494 0.9555
-4.1433 10.4334 -1.8494 0.9555
-4.5151 10.2780 -1.8494 0.9555
-5.9396 9.5259 -1.8494 0.9555
-6.6078 9.0753 -1.8494 0.9555
-7.2418 8.5778 -1.8494 0.9555
-7.5451 8.3123 -1.8494 0.9555
-8.6340 8.2382 -1.9660 0.9528
-9.6411 7.3938 -2.0016 0.9519
-9.9003 7.0430 -2.0016 0.9519
-10.1467 6.6831 -2.0016 0.9519
-10.6001 5.9379 -2.0016 0.9519
-10.8064 5.5535 -2.0016 0.9519
-11.4899 3.9498 -2.0016 0.9519
-11.7437 3.1152 -2.0016 0.9519
-11.8480 2.6917 -2.0016 0.9519
-12.1112 0.9683 -2.0016 0.9519
-12.1382 0.5330 -2.0016 0.9519
-12.1251 -0.7750 -2.0016 0.9519
-12.0895 -1.2097 -2.0016 0.9519
-11.0306 -2.3216 -1.8570 0.9553
-10.9401 -2.7161 -1.8570 0.9553
-10.5848 -3.8764 -1.8570 0.9553
-10.4388 -4.2538 -1.8570 0.9553
-10.2794 -4.6258 -1.8570 0.9553
-10.1067 -4.9918 -1.8570 0.9553
-9.9210 -5.3514 -1.8570 0.9553
-9.4917 -7.5847 -2.0016 0.9519
-9.2133 -7.9205 -2.0016 0.9519
-8.6213 -8.5611 -2.0016 0.9519
-8.3085 -8.8650 -2.0016 0.9519
-7.9849 -9.1575 -2.0016 0.9519
-7.6511 -9.4383 -2.0016 0.9519
-4.6638 -11.2191 -2.0016 0.9519
-3.0102 -11.7711 -2.0016 0.9519
-2.1579 -11.9567 -2.0016 0.9519
-1.7273 -12.0265 -2.0016 0.9519
-1.2945 -12.0807 -2.0016 0.9519
-0.4245 -12.1425 -2.0016 0.9519
0.8833 -12.1177 -2.0016 0.9519
1.3177 -12.0782 -2.0016 0.9519
3.0328 -11.7653 -2.0016 0.9519
3.4531 -11.6488 -2.0016 0.9519
3.8691 -11.5174 -2.0016 0.9519
9.5583 -4.6944 -2.0016 0.9576
9.7206 -4.3482 -2.0016 0.9576
9.8704 -3.9965 -2.0016 0.9576
10.0075 -3.6396 -2.0016 0.9576
10.1317 -3.2781 -2.0016 0.9576
10.2428 -2.9123 -2.0016 0.9576
10.3408 -2.5427 -2.0016 0.9576
10.4254 -2.1699 -2.0016 0.9576
10.4966 -1.7943 -2.0016 0.9576
10.5982 -1.0366 -2.0016 0.9576
10.6483 0.1087 -2.0016 0.9576
10.6375 0.4909 -2.0016 0.9576
10.5749 1.2528 -2.0016 0.9576
10.5231 1.6316 -2.0016 0.9576
10.3789 2.3823 -2.0016 0.9576
10.0627 3.4843 -2.0016 0.9576
9.9311 3.8432 -2.0016 0.9576
9.6298 4.5458 -2.0016 0.9576
9.2788 5.2250 -2.0016 0.9576
9.0853 5.5547 -2.0016 0.9576
8.8800 5.8772 -2.0016 0.9576
8.1968 6.7978 -2.0016 0.9576
7.1395 7.9009 -2.0016 0.9576
6.8513 8.1521 -2.0016 0.9576
6.2488 8.6227 -2.0016 0.9576
5.6140 9.0487 -2.0016 0.9576
5.2856 9.2444 -2.0016 0.9576
4.9427 9.4136 -1.9985 0.9576
3.9985 9.1575 -1.8782 0.9601
2.6061 9.4876 -1.8494 0.9607
2.2639 9.5751 -1.8494 0.9607
1.9187 9.6502 -1.8494 0.9607
1.5711 9.7128 -1.8494 0.9607
1.2215 9.7630 -1.8494 0.9607
0.8702 9.8005 -1.8494 0.9607
0.5179 9.8254 -1.8494 0.9607
0.1648 9.8377 -1.8494 0.9607
-0.1884 9.8373 -1.8494 0.9607
-1.5943 9.7090 -1.8494 0.9607
-2.2868 9.5696 -1.8494 0.9607
-2.6288 9.4814 -1.8494 0.9607
-2.9675 9.3809 -1.8494 0.9607
-4.2795 8.8596 -1.8494 0.9607
-4.5948 8.7003 -1.8494 0.9607
-5.5707 8.2556 -1.8720 0.9603
-6.0068 8.2471 -1.9177 0.9593
-7.4368 7.6218 -2.0016 0.9576
-8.2130 6.7782 -2.0016 0.9576
-8.6781 6.1715 -2.0016 0.9576
-9.0985 5.5330 -2.0016 0.9576
-9.2913 5.2028 -2.0016 0.9576
-9.4721 4.8659 -2.0016 0.9576
-9.7968 4.1738 -2.0016 0.9576
-9.9403 3.8195 -2.0016 0.9576
-10.0710 3.4602 -2.0016 0.9576
-10.2933 2.7288 -2.0016 0.9576
-10.4625 1.9832 -2.0016 0.9576
-10.5269 1.6064 -2.0016 0.9576
-10.5778 1.2275 -2.0016 0.9576
-10.6151 0.8470 -2.0016 0.9576
-10.6386 0.4654 -2.0016 0.9576
-10.6485 0.0833 -2.0016 0.9576
-10.6446 -0.2990 -2.0016 0.9576
-10.5957 -1.0619 -2.0016 0.9576
-10.4922 -1.8194 -2.0016 0.9576
-10.4202 -2.1948 -2.0016 0.9576
-9.5882 -2.3820 -1.8570 0.9606
-9.4965 -2.7246 -1.8570 0.9606
-9.3926 -3.0638 -1.8570 0.9606
-9.2765 -3.3989 -1.8570 0.9606
-9.1486 -3.7297 -1.8570 0.9606
-9.0088 -4.0557 -1.8570 0.9606
-8.8574 -4.3765 -1.8570 0.9606
-8.5206 -5.0007 -1.8570 0.9606
-8.3356 -5.3033 -1.8570 0.9606
-8.1398 -5.5991 -1.8570 0.9606
-8.5513 -6.3460 -2.0016 0.9576
-8.3180 -6.6489 -2.0016 0.9576
-7.8196 -7.2286 -2.0016 0.9576
-7.2808 -7.7709 -2.0016 0.9576
-6.4032 -8.5086 -2.0016 0.9576
-5.7763 -8.9461 -2.0016 0.9576
-4.7811 -9.5152 -2.0016 0.9576
-4.0861 -9.8337 -2.0016 0.9576
-3.3701 -10.1015 -2.0016 0.9576
-3.0053 -10.2159 -2.0016 0.9576
-2.6367 -10.3172 -2.0016 0.9576
-2.2646 -10.4052 -2.0016 0.9576
-1.8897 -10.4798 -2.0016 0.9576
-1.5123 -10.5409 -2.0016 0.9576
-1.1329 -10.5884 -2.0016 0.9576
-0.7521 -10.6222 -2.0016 0.9576
-0.3703 -10.6424 -2.0016 0.9576
0.3941 -10.6415 -2.0016 0.9576
1.9131 -10.4756 -2.0016 0.9576
3.0281 -10.2092 -2.0016 0.9576
4.1081 -9.8245 -2.0016 0.9576
4.4581 -9.6707 -2.0016 0.9576
4.8023 -9.5045 -2.0016 0.9576
5.4719 -9.1354 -2.0016 0.9576
6.4222 -8.4943 -2.0016 0.9576
7.0151 -8.0116 -2.0016 0.9576
7.2981 -7.7546 -2.0016 0.9576
7.5718 -7.4877 -2.0016 0.9576
8.0895 -6.9251 -2.0016 0.9576
8.3329 -6.6303 -2.0016 0.9576
8.5655 -6.3269 -2.0016 0.9576
9.3828 -5.0359 -2.0016 0.9576
9.8698 -3.9981 -2.0016 0.9576
10.1312 -3.2797 -2.0016 0.9576
10.3404 -2.5444 -2.0016 0.9576
10.4963 -1.7959 -2.0016 0.9576
10.5540 -1.4180 -2.0016 0.9576
10.6285 -0.6572 -2.0016 0.9576
10.6453 -0.2752 -2.0016 0.9576
10.6483 0.1071 -2.0016 0.9576
10.6132 0.8707 -2.0016 0.9576
10.5751 1.2511 -2.0016 0.9576
10.4580 2.0066 -2.0016 0.9576
10.3793 2.3807 -2.0016 0.9576
10.1817 3.1192 -2.0016 0.9576
9.7874 4.1957 -2.0016 0.9576
9.4612 4.8871 -2.0016 0.9576
9.2797 5.2235 -2.0016 0.9576
9.0862 5.5533 -2.0016 0.9576
8.8810 5.8758 -2.0016 0.9576
8.4365 6.4979 -2.0016 0.9576
7.6891 7.3671 -2.0016 0.9576
6.5556 8.3918 -2.0016 0.9576
6.2501 8.6217 -2.0016 0.9576
5.9366 8.8405 -2.0016 0.9576
5.6155 9.0479 -2.0016 0.9576
5.2871 9.2436 -2.0016 0.9576
4.0008 9.1588 -1.8786 0.9601
3.6124 9.1519 -1.8494 0.9607
2.2654 9.5747 -1.8494 0.9607
1.9203 9.6499 -1.8494 0.9607
0.8718 9.8004 -1.8494 0.9607
0.5194 9.8254 -1.8494 0.9607
0.1664 9.8377 -1.8494 0.9607
-0.1868 9.8373 -1.8494 0.9607
-0.5398 9.8243 -1.8494 0.9607
-1.1066 8.6869 -1.6460 0.9650
-1.5928 9.7093 -1.8494 0.9607
-1.9403 9.6459 -1.8494 0.9607
-2.2853 9.5700 -1.8494 0.9607
-2.6273 9.4818 -1.8494 0.9607
-3.3008 9.2689 -1.8494 0.9607
-3.6314 9.1444 -1.8494 0.9607
-4.5934 8.7010 -1.8494 0.9607
-5.2058 8.3491 -1.8494 0.9607
-6.0048 8.2472 -1.9175 0.9593
-6.8503 8.1140 -1.9960 0.9577
-7.4356 7.6230 -2.0016 0.9576
-7.9633 7.0699 -2.0016 0.9576
-8.8932 5.8574 -2.0016 0.9576
-9.2905 5.2043 -2.0016 0.9576
-9.4713 4.8674 -2.0016 0.9576
-9.6399 4.5243 -2.0016 0.9576
-9.7961 4.1754 -2.0016 0.9576
-9.9397 3.8210 -2.0016 0.9576
-10.3842 2.3592 -2.0016 0.9576
-10.4622 1.9849 -2.0016 0.9576
-10.5267 1.6081 -2.0016 0.9576
-10.5776 1.2292 -2.0016 0.9576
-10.5959 -1.0603 -2.0016 0.9576
-10.5510 -1.4399 -2.0016 0.9576
-10.4205 -2.1932 -2.0016 0.9576
-9.5885 -2.3805 -1.8570 0.9606
-9.4969 -2.7231 -1.8570 0.9606
-9.2771 -3.3975 -1.8570 0.9606
-9.1491 -3.7283 -1.8570 0.9606
-8.5214 -4.9993 -1.8570 0.9606
-8.3364 -5.3020 -1.8570 0.9606
-8.1407 -5.5978 -1.8570 0.9606
-7.8207 -7.2273 -2.0016 0.9576
-7.5562 -7.5034 -2.0016 0.9576
-7.2820 -7.7698 -2.0016 0.9576
-6.9984 -8.0262 -2.0016 0.9576
-6.0950 -8.7320 -2.0016 0.9576
-5.4529 -9.1468 -2.0016 0.9576
-5.1210 -9.3366 -2.0016 0.9576
-4.7826 -9.5144 -2.0016 0.9576
-4.0877 -9.8330 -2.0016 0.9576
-3.7321 -9.9734 -2.0016 0.9576
-3.3717 -10.1009 -2.0016 0.9576
-3.0069 -10.2155 -2.0016 0.9576
-2.2663 -10.4049 -2.0016 0.9576
-1.5139 -10.5406 -2.0016 0.9576
-1.1346 -10.5882 -2.0016 0.9576
-0.7538 -10.6221 -2.0016 0.9576
0.7742 -10.6206 -2.0016 0.9576
1.9114 -10.4759 -2.0016 0.9576
8.6436 -3.8665 -2.0016 0.9620
8.7769 -3.5537 -2.0016 0.9620
8.8988 -3.2364 -2.0016 0.9620
9.0092 -2.9149 -2.0016 0.9620
9.3849 -1.2594 -2.0016 0.9620
9.4241 -0.9218 -2.0016 0.9620
9.4685 0.0967 -2.0016 0.9620
9.4590 0.4365 -2.0016 0.9620
9.4372 0.7758 -2.0016 0.9620
9.2290 2.1184 -2.0016 0.9620
9.1470 2.4483 -2.0016 0.9620
9.0532 2.7751 -2.0016 0.9620
8.9478 3.0983 -2.0016 0.9620
8.8308 3.4174 -2.0016 0.9620
8.7025 3.7322 -2.0016 0.9620
8.5629 4.0422 -2.0016 0.9620
8.4123 4.3470 -2.0016 0.9620
8.2508 4.6461 -2.0016 0.9620
7.0670 6.3024 -2.0016 0.9620
6.8362 6.5520 -2.0016 0.9620
5.8281 7.4629 -2.0016 0.9620
5.2777 7.8618 -2.0016 0.9620
3.7851 8.6688 -1.9995 0.9621
3.4645 8.7812 -1.9954 0.9621
3.0876 8.7318 -1.9577 0.9628
2.6989 8.6032 -1.9059 0.9638
1.7062 8.5810 -1.8494 0.9649
1.3971 8.6367 -1.8494 0.9649
1.0861 8.6813 -1.8494 0.9649
0.7738 8.7147 -1.8494 0.9649
-0.1675 8.7474 -1.8494 0.9649
-1.1055 8.6677 -1.8470 0.9649
-1.4177 8.6334 -1.8494 0.9649
-2.0334 8.5094 -1.8494 0.9649
-3.2795 8.2546 -1.8775 0.9643
-3.6256 8.2495 -1.9048 0.9638
-3.9821 8.2439 -1.9352 0.9633
-4.3504 8.2376 -1.9692 0.9626
-4.7038 8.1813 -1.9948 0.9622
-5.0013 8.0183 -1.9976 0.9621
-5.5748 7.6540 -2.0016 0.9620
-6.1096 7.2343 -2.0016 0.9620
-6.6128 6.7774 -2.0016 0.9620
-7.3031 6.0272 -2.0016 0.9620
-7.5147 5.7612 -2.0016 0.9620
-8.2619 4.6264 -2.0016 0.9620
-8.4226 4.3268 -2.0016 0.9620
-8.5725 4.0217 -2.0016 0.9620
-8.7114 3.7114 -2.0016 0.9620
-8.8390 3.3963 -2.0016 0.9620
-8.9552 3.0769 -2.0016 0.9620
-9.1529 2.4264 -2.0016 0.9620
-9.3034 1.7635 -2.0016 0.9620
-9.3607 1.4284 -2.0016 0.9620
-9.4059 1.0915 -2.0016 0.9620
-9.4600 0.4139 -2.0016 0.9620
-9.4653 -0.2659 -2.0016 0.9620
-9.4496 -0.6055 -2.0016 0.9620
-9.4218 -0.9443 -2.0016 0.9620
-8.3519 -2.7243 -1.8570 0.9647
-8.2488 -3.0224 -1.8570 0.9647
-8.1350 -3.3165 -1.8570 0.9647
-8.0107 -3.6064 -1.8570 0.9647
-7.7313 -4.1718 -1.8570 0.9647
-7.4121 -4.7157 -1.8570 0.9647
-7.2380 -4.9788 -1.8570 0.9647
-7.0546 -5.2354 -1.8570 0.9647
-7.1795 -6.1740 -2.0016 0.9620
-6.9532 -6.4277 -2.0016 0.9620
-6.7180 -6.6731 -2.0016 0.9620
-6.2219 -7.1379 -2.0016 0.9620
-5.9617 -7.3567 -2.0016 0.9620
-5.6938 -7.5659 -2.0016 0.9620
-5.4186 -7.7654 -2.0016 0.9620
-5.1363 -7.9549 -2.0016 0.9620
-3.6334 -8.7442 -2.0016 0.9620
-2.3446 -9.1742 -2.0016 0.9620
-1.6803 -9.3187 -2.0016 0.9620
0.0106 -9.4690 -2.0016 0.9620
0.3505 -9.4625 -2.0016 0.9620
1.3657 -9.3700 -2.0016 0.9620
2.3650 -9.1689 -2.0016 0.9620
3.3370 -8.8615 -2.0016 0.9620
3.6529 -8.7360 -2.0016 0.9620
4.8656 -8.1233 -2.0016 0.9620
5.7107 -7.5532 -2.0016 0.9620
6.2379 -7.1240 -2.0016 0.9620
6.7329 -6.6581 -2.0016 0.9620
7.1932 -6.1579 -2.0016 0.9620
7.4096 -5.8957 -2.0016 0.9620
7.6165 -5.6260 -2.0016 0.9620
8.0005 -5.0650 -2.0016 0.9620
8.7763 -3.5551 -2.0016 0.9620
9.3847 -1.2609 -2.0016 0.9620
9.4239 -0.9232 -2.0016 0.9620
9.4510 -0.5844 -2.0016 0.9620
9.3574 1.4493 -2.0016 0.9620
9.2294 2.1170 -2.0016 0.9620
9.0537 2.7737 -2.0016 0.9620
8.9483 3.0969 -2.0016 0.9620
8.8314 3.4161 -2.0016 0.9620
8.7031 3.7309 -2.0016 0.9620
8.5635 4.0409 -2.0016 0.9620
8.0795 4.9380 -2.0016 0.9620
7.8970 5.2249 -2.0016 0.9620
7.7044 5.5050 -2.0016 0.9620
7.5018 5.7780 -2.0016 0.9620
6.3496 7.0246 -2.0016 0.9620
6.0934 7.2480 -2.0016 0.9620
5.2789 7.8610 -2.0016 0.9620
4.9933 8.0454 -2.0016 0.9620
4.4032 8.3830 -2.0016 0.9620
3.4659 8.7808 -1.9954 0.9621
3.0893 8.7323 -1.9579 0.9628
2.7005 8.6038 -1.9061 0.9638
2.3394 8.5113 -1.8658 0.9646
2.0144 8.5139 -1.8494 0.9649
1.3984 8.6365 -1.8494 0.9649
1.0875 8.6811 -1.8494 0.9649
0.7752 8.7146 -1.8494 0.9649
0.4619 8.7368 -1.8494 0.9649
-0.1661 8.7474 -1.8494 0.9649
-0.4800 8.7358 -1.8494 0.9649
-1.4164 8.6336 -1.8494 0.9649
-1.7253 8.5772 -1.8494 0.9649
-3.6240 8.2496 -1.9046 0.9638
-3.9805 8.2439 -1.9351 0.9633
-4.7025 8.1820 -1.9948 0.9622
-5.0000 8.0190 -1.9976 0.9621
-5.2924 7.8459 -2.0005 0.9620
-5.5736 7.6549 -2.0016 0.9620
-5.8448 7.4499 -2.0016 0.9620
-6.3642 7.0114 -2.0016 0.9620
-6.6118 6.7784 -2.0016 0.9620
-7.3021 6.0284 -2.0016 0.9620
-7.5138 5.7624 -2.0016 0.9620
-7.7158 5.4889 -2.0016 0.9620
-8.2612 4.6277 -2.0016 0.9620
-8.5719 4.0230 -2.0016 0.9620
-8.7108 3.7128 -2.0016 0.9620
-9.0594 2.7548 -2.0016 0.9620
-9.1525 2.4279 -2.0016 0.9620
-9.2337 2.0978 -2.0016 0.9620
-9.3031 1.7650 -2.0016 0.9620
-9.4057 1.0930 -2.0016 0.9620
-9.4389 0.7547 -2.0016 0.9620
-9.4599 0.4154 -2.0016 0.9620
-9.4687 0.0755 -2.0016 0.9620
-9.4497 -0.6040 -2.0016 0.9620
-9.3820 -1.2804 -2.0016 0.9620
-9.3300 -1.6164 -2.0016 0.9620
-9.2660 -1.9502 -2.0016 0.9620
-8.9651 -2.2257 -1.9526 0.9629
-8.3524 -2.7230 -1.8570 0.9647
-8.0112 -3.6051 -1.8570 0.9647
-7.7319 -4.1706 -1.8570 0.9647
-7.5773 -4.4454 -1.8570 0.9647
-7.4128 -4.7146 -1.8570 0.9647
-7.2388 -4.9776 -1.8570 0.9647
-7.1804 -6.1728 -2.0016 0.9620
-6.9542 -6.4266 -2.0016 0.9620
-6.4752 -6.9090 -2.0016 0.9620
-6.2231 -7.1369 -2.0016 0.9620
-5.9629 -7.3557 -2.0016 0.9620
-5.6950 -7.5650 -2.0016 0.9620
-5.4198 -7.7646 -2.0016 0.9620
-5.1376 -7.9541 -2.0016 0.9620
-4.8487 -8.1334 -2.0016 0.9620
-4.2527 -8.4603 -2.0016 0.9620
-3.6348 -8.7436 -2.0016 0.9620
-2.6738 -9.0837 -2.0016 0.9620
-1.6818 -9.3185 -2.0016 0.9620
-1.3462 -9.3728 -2.0016 0.9620
-1.0089 -9.4151 -2.0016 0.9620
-0.6703 -9.4453 -2.0016 0.9620
1.0270 -9.4132 -2.0016 0.9620
1.6997 -9.3152 -2.0016 0.9620
2.0329 -9.2482 -2.0016 0.9620
2.6912 -9.0785 -2.0016 0.9620
3.0154 -8.9761 -2.0016 0.9620
8.0036 -2.9108 -2.0016 0.9656
8.1029 -2.6217 -2.0016 0.9656
8.1918 -2.3291 -2.0016 0.9656
8.2701 -2.0336 -2.0016 0.9656
8.3378 -1.7354 -2.0016 0.9656
8.4760 -0.8290 -2.0016 0.9656
8.5136 -0.2188 -2.0016 0.9656
8.5160 0.0870 -2.0016 0.9656
8.5074 0.3926 -2.0016 0.9656
8.4573 1.0019 -2.0016 0.9656
8.4159 1.3049 -2.0016 0.9656
8.3636 1.6061 -2.0016 0.9656
8.2269 2.2020 -2.0016 0.9656
8.1425 2.4959 -2.0016 0.9656
8.0477 2.7866 -2.0016 0.9656
7.8270 3.3568 -2.0016 0.9656
7.5660 3.9097 -2.0016 0.9656
6.9286 4.9523 -2.0016 0.9656
6.7463 5.1978 -2.0016 0.9656
6.5554 5.4366 -2.0016 0.9656
6.3560 5.6684 -2.0016 0.9656
5.2418 6.7122 -2.0016 0.9656
4.7467 7.0709 -2.0016 0.9656
4.2272 7.3933 -2.0016 0.9656
0.7331 8.2560 -1.9480 0.9665
0.1381 8.2434 -1.9377 0.9667
-0.1579 8.2434 -1.9377 0.9667
-0.4542 8.2430 -1.9402 0.9666
-1.3529 8.2389 -1.9623 0.9663
-1.6582 8.2366 -1.9746 0.9661
-2.5617 8.0982 -1.9962 0.9657
-3.1412 7.9064 -1.9995 0.9656
-3.7042 7.6687 -2.0016 0.9656
-3.9771 7.5308 -2.0016 0.9656
-4.2449 7.3832 -2.0016 0.9656
-4.5072 7.2260 -2.0016 0.9656
-5.2578 6.6996 -2.0016 0.9656
-5.7250 6.3051 -2.0016 0.9656
-5.9476 6.0956 -2.0016 0.9656
-6.5684 5.4209 -2.0016 0.9656
-6.7588 5.1816 -2.0016 0.9656
-7.4308 4.1610 -2.0016 0.9656
-7.5753 3.8916 -2.0016 0.9656
-7.9498 3.0546 -2.0016 0.9656
-8.0543 2.7673 -2.0016 0.9656
-8.2321 2.1823 -2.0016 0.9656
-8.3051 1.8854 -2.0016 0.9656
-8.3674 1.5861 -2.0016 0.9656
-8.4190 1.2847 -2.0016 0.9656
-8.4597 0.9817 -2.0016 0.9656
-8.5162 0.0666 -2.0016 0.9656
-8.5131 -0.2391 -2.0016 0.9656
-8.4740 -0.8493 -2.0016 0.9656
-8.4380 -1.1529 -2.0016 0.9656
-8.2652 -2.0533 -2.0016 0.9656
-7.7886 -2.2346 -1.9044 0.9673
-7.5117 -2.4503 -1.8570 0.9681
-7.4190 -2.7183 -1.8570 0.9681
-7.3166 -2.9829 -1.8570 0.9681
-7.2048 -3.2436 -1.8570 0.9681
-7.0837 -3.5001 -1.8570 0.9681
-6.8144 -3.9993 -1.8570 0.9681
-6.6664 -4.2413 -1.8570 0.9681
-6.5099 -4.4779 -1.8570 0.9681
-6.3450 -4.7087 -1.8570 0.9681
-5.9908 -5.1518 -1.8570 0.9681
-5.8020 -5.3635 -1.8570 0.9681
-5.8228 -6.2148 -2.0016 0.9656
-5.1210 -6.8048 -2.0016 0.9656
-4.6196 -7.1547 -2.0016 0.9656
-3.5481 -7.7422 -2.0016 0.9656
-3.2679 -7.8645 -2.0016 0.9656
-2.9835 -7.9768 -2.0016 0.9656
-2.6952 -8.0787 -2.0016 0.9656
-2.1087 -8.2513 -2.0016 0.9656
-1.2094 -8.4301 -2.0016 0.9656
-0.9061 -8.4681 -2.0016 0.9656
-0.6015 -8.4952 -2.0016 0.9656
0.0095 -8.5164 -2.0016 0.9656
2.1271 -8.2465 -2.0016 0.9656
2.4218 -8.1649 -2.0016 0.9656
3.2854 -7.8572 -2.0016 0.9656
3.5654 -7.7342 -2.0016 0.9656
2.1505 -4.2562 -1.1207 0.9806
2.2870 -4.1492 -1.1135 0.9807
4.3761 -7.3061 -2.0016 0.9656
5.1362 -6.7933 -2.0016 0.9656
6.0556 -5.9883 -2.0016 0.9656
6.6642 -5.3026 -2.0016 0.9656
6.8503 -5.0600 -2.0016 0.9656
7.0275 -4.8108 -2.0016 0.9656
7.3545 -4.2943 -2.0016 0.9656
7.7735 -3.4788 -2.0016 0.9656
7.8934 -3.1975 -2.0016 0.9656
8.2698 -2.0349 -2.0016 0.9656
8.4406 -1.1341 -2.0016 0.9656
8.4759 -0.8304 -2.0016 0.9656
8.5002 -0.5256 -2.0016 0.9656
8.5136 -0.2201 -2.0016 0.9656
8.5160 0.0856 -2.0016 0.9656
8.4879 0.6964 -2.0016 0.9656
8.3639 1.6048 -2.0016 0.9656
8.3009 1.9040 -2.0016 0.9656
8.1429 2.4946 -2.0016 0.9656
7.9429 3.0724 -2.0016 0.9656
7.7020 3.6343 -2.0016 0.9656
7.2667 4.4413 -2.0016 0.9656
6.7472 5.1967 -2.0016 0.9656
6.3569 5.6674 -2.0016 0.9656
6.1494 5.8919 -2.0016 0.9656
5.9340 6.1089 -2.0016 0.9656
5.4804 6.5188 -2.0016 0.9656
4.9986 6.8952 -2.0016 0.9656
4.4910 7.2361 -2.0016 0.9656
2.5495 8.1225 -2.0008 0.9656
1.9555 8.2647 -1.9960 0.9657
1.6561 8.3222 -1.9943 0.9657
1.0359 8.2690 -1.9586 0.9663
0.7344 8.2561 -1.9480 0.9665
-0.7504 8.2421 -1.9451 0.9666
-1.0497 8.2407 -1.9524 0.9664
-1.6568 8.2366 -1.9746 0.9661
-1.9662 8.2338 -1.9895 0.9658
-2.2665 8.1797 -1.9948 0.9657
-2.5604 8.0986 -1.9962 0.9657
-2.8517 8.0077 -1.9978 0.9657
-3.1400 7.9069 -1.9995 0.9656
-3.9759 7.5314 -2.0016 0.9656
-4.2437 7.3838 -2.0016 0.9656
-4.5060 7.2267 -2.0016 0.9656
-5.0129 6.8848 -2.0016 0.9656
-5.2568 6.7005 -2.0016 0.9656
-5.7240 6.3060 -2.0016 0.9656
-6.1616 5.8791 -2.0016 0.9656
-6.9396 4.9368 -2.0016 0.9656
-7.1123 4.6845 -2.0016 0.9656
-7.2759 4.4262 -2.0016 0.9656
-7.5747 3.8927 -2.0016 0.9656
-7.8345 3.3393 -2.0016 0.9656
-7.9493 3.0559 -2.0016 0.9656
-8.1481 2.4777 -2.0016 0.9656
-8.3048 1.8867 -2.0016 0.9656
-8.5082 0.3736 -2.0016 0.9656
-8.4991 -0.5432 -2.0016 0.9656
-8.4741 -0.8480 -2.0016 0.9656
-8.4382 -1.1516 -2.0016 0.9656
-8.3914 -1.4537 -2.0016 0.9656
-8.2655 -2.0520 -2.0016 0.9656
-7.7927 -2.2345 -1.9053 0.9672
-7.5121 -2.4491 -1.8570 0.9681
-7.3171 -2.9817 -1.8570 0.9681
-7.2053 -3.2424 -1.8570 0.9681
-6.9541 -3.7510 -1.8570 0.9681
-6.6671 -4.2403 -1.8570 0.9681
-6.5106 -4.4769 -1.8570 0.9681
-6.1726 -4.9324 -1.8570 0.9681
-5.9916 -5.1508 -1.8570 0.9681
-5.6066 -5.5674 -1.8570 0.9681
-5.3630 -6.6157 -2.0016 0.9656
-5.1221 -6.8040 -2.0016 0.9656
-4.8745 -6.9835 -2.0016 0.9656
-4.3609 -7.3152 -2.0016 0.9656
-4.0956 -7.4670 -2.0016 0.9656
-3.8249 -7.6092 -2.0016 0.9656
-3.5493 -7.7416 -2.0016 0.9656
-3.2691 -7.8640 -2.0016 0.9656
-2.9848 -7.9763 -2.0016 0.9656
-2.1100 -8.2509 -2.0016 0.9656
-1.8125 -8.3213 -2.0016 0.9656
-1.5126 -8.3810 -2.0016 0.9656
-1.2108 -8.4299 -2.0016 0.9656
-0.9074 -8.4680 -2.0016 0.9656
0.6192 -8.4939 -2.0016 0.9656
1.2270 -8.4276 -2.0016 0.9656
1.5287 -8.3781 -2.0016 0.9656
2.1258 -8.2469 -2.0016 0.9656
2.7120 -8.0731 -2.0016 0.9656
6.9388 -3.4079 -2.0016 0.9686
7.0567 -3.1566 -2.0016 0.9686
7.2649 -2.6422 -2.0016 0.9686
7.3551 -2.3797 -2.0016 0.9686
7.4358 -2.1142 -2.0016 0.9686
7.6200 -1.3026 -2.0016 0.9686
7.6618 -1.0282 -2.0016 0.9686
7.7158 -0.4759 -2.0016 0.9686
7.7301 0.0789 -2.0016 0.9686
7.6392 1.1844 -2.0016 0.9686
7.5345 1.7295 -2.0016 0.9686
7.4676 1.9988 -2.0016 0.9686
7.3910 2.2656 -2.0016 0.9686
7.2095 2.7900 -2.0016 0.9686
6.9907 3.3000 -2.0016 0.9686
6.8678 3.5488 -2.0016 0.9686
6.7360 3.7931 -2.0016 0.9686
6.5955 4.0324 -2.0016 0.9686
6.2892 4.4952 -2.0016 0.9686
5.7695 5.1453 -2.0016 0.9686
4.7581 6.0927 -2.0016 0.9686
4.5363 6.2596 -2.0016 0.9686
4.0755 6.5689 -2.0016 0.9686
2.5772 7.2883 -2.0016 0.9686
2.0476 7.4544 -2.0016 0.9686
1.7787 7.5231 -2.0016 0.9686
0.6837 7.7002 -2.0016 0.9686
0.4069 7.7198 -2.0016 0.9686
-1.2527 7.6283 -2.0016 0.9686
-1.5257 7.5784 -2.0016 0.9686
-1.7967 7.5188 -2.0016 0.9686
-2.0655 7.4495 -2.0016 0.9686
-3.1103 7.0772 -2.0016 0.9686
-3.3624 6.9609 -2.0016 0.9686
-4.7726 6.0813 -2.0016 0.9686
-5.5938 5.3357 -2.0016 0.9686
-5.7817 5.1315 -2.0016 0.9686
-6.2999 4.4802 -2.0016 0.9686
-6.6051 4.0166 -2.0016 0.9686
-6.7450 3.7770 -2.0016 0.9686
-7.2161 2.7727 -2.0016 0.9686
-7.3110 2.5119 -2.0016 0.9686
-7.3965 2.2479 -2.0016 0.9686
-7.4724 1.9809 -2.0016 0.9686
-7.5387 1.7114 -2.0016 0.9686
-7.6420 1.1662 -2.0016 0.9686
-7.7231 0.3379 -2.0016 0.9686
-7.7274 -0.2171 -2.0016 0.9686
-7.7147 -0.4943 -2.0016 0.9686
-7.5645 -1.5933 -2.0016 0.9686
-7.5024 -1.8639 -2.0016 0.9686
-6.6414 -2.7076 -1.8570 0.9708
-6.5399 -2.9442 -1.8570 0.9708
-6.3118 -3.4058 -1.8570 0.9708
-6.0512 -3.8499 -1.8570 0.9708
-5.7594 -4.2741 -1.8570 0.9708
-5.2665 -4.8685 -1.8570 0.9708
-4.9037 -5.2338 -1.8570 0.9708
-4.7127 -5.4064 -1.8570 0.9708
-4.5155 -5.5721 -1.8570 0.9708
-4.6484 -6.1768 -2.0016 0.9686
-4.4237 -6.3397 -2.0016 0.9686
-4.1933 -6.4944 -2.0016 0.9686
-3.9575 -6.6407 -2.0016 0.9686
-3.4708 -6.9075 -2.0016 0.9686
-3.2206 -7.0277 -2.0016 0.9686
-2.4465 -7.3331 -2.0016 0.9686
-2.1817 -7.4162 -2.0016 0.9686
-1.9141 -7.4898 -2.0016 0.9686
-1.6440 -7.5537 -2.0016 0.9686
-0.5460 -7.7112 -2.0016 0.9686
0.0086 -7.7305 -2.0016 0.9686
0.5632 -7.7099 -2.0016 0.9686
1.3888 -7.6047 -2.0016 0.9686
2.4629 -7.3277 -2.0016 0.9686
2.7243 -7.2345 -2.0016 0.9686
3.9723 -6.6318 -2.0016 0.9686
4.2078 -6.4850 -2.0016 0.9686
4.4378 -6.3298 -2.0016 0.9686
5.0926 -5.8160 -2.0016 0.9686
5.2981 -5.6295 -2.0016 0.9686
5.6883 -5.2349 -2.0016 0.9686
6.0492 -4.8133 -2.0016 0.9686
6.3789 -4.3669 -2.0016 0.9686
6.9383 -3.4090 -2.0016 0.9686
7.1650 -2.9024 -2.0016 0.9686
7.2645 -2.6433 -2.0016 0.9686
7.4354 -2.1153 -2.0016 0.9686
7.5066 -1.8471 -2.0016 0.9686
7.6198 -1.3038 -2.0016 0.9686
7.6616 -1.0294 -2.0016 0.9686
7.7157 -0.4771 -2.0016 0.9686
7.7279 -0.1998 -2.0016 0.9686
7.7301 0.0777 -2.0016 0.9686
7.6394 1.1832 -2.0016 0.9686
7.5920 1.4567 -2.0016 0.9686
7.4679 1.9976 -2.0016 0.9686
7.3914 2.2644 -2.0016 0.9686
7.3054 2.5283 -2.0016 0.9686
7.2099 2.7889 -2.0016 0.9686
7.1051 3.0459 -2.0016 0.9686
6.8683 3.5478 -2.0016 0.9686
6.5961 4.0314 -2.0016 0.9686
6.4471 4.2656 -2.0016 0.9686
6.2898 4.4942 -2.0016 0.9686
6.1245 4.7171 -2.0016 0.9686
5.7703 5.1444 -2.0016 0.9686
5.5819 5.3482 -2.0016 0.9686
5.3863 5.5451 -2.0016 0.9686
4.7590 6.0920 -2.0016 0.9686
4.5373 6.2589 -2.0016 0.9686
4.3097 6.4177 -2.0016 0.9686
4.0765 6.5683 -2.0016 0.9686
3.8381 6.7104 -2.0016 0.9686
3.5948 6.8438 -2.0016 0.9686
2.8382 7.1906 -2.0016 0.9686
2.3151 7.3757 -2.0016 0.9686
2.0488 7.4540 -2.0016 0.9686
1.5087 7.5818 -2.0016 0.9686
1.2356 7.6311 -2.0016 0.9686
0.9609 7.6705 -2.0016 0.9686
0.6849 7.7001 -2.0016 0.9686
0.4081 7.7197 -2.0016 0.9686
0.1307 7.7294 -2.0016 0.9686
-1.5245 7.5787 -2.0016 0.9686
-1.7955 7.5191 -2.0016 0.9686
-2.5934 7.2825 -2.0016 0.9686
-3.3613 6.9615 -2.0016 0.9686
-3.6090 6.8363 -2.0016 0.9686
-4.0902 6.5598 -2.0016 0.9686
-4.5503 6.2494 -2.0016 0.9686
-5.1957 5.7241 -2.0016 0.9686
-5.5930 5.3366 -2.0016 0.9686
-5.7809 5.1324 -2.0016 0.9686
-6.4560 4.2522 -2.0016 0.9686
-6.8757 3.5335 -2.0016 0.9686
-6.9981 3.2844 -2.0016 0.9686
-7.1115 3.0311 -2.0016 0.9686
-7.2157 2.7739 -2.0016 0.9686
-7.3106 2.5131 -2.0016 0.9686
-7.4721 1.9821 -2.0016 0.9686
-7.5384 1.7126 -2.0016 0.9686
-7.5950 1.4409 -2.0016 0.9686
-7.6418 1.1674 -2.0016 0.9686
-7.6788 0.8923 -2.0016 0.9686
-7.7230 0.3391 -2.0016 0.9686
-7.7275 -0.2159 -2.0016 0.9686
-7.6170 -1.3196 -2.0016 0.9686
-7.5027 -1.8627 -2.0016 0.9686
-6.8729 -2.2407 -1.8717 0.9706
-6.7347 -2.4664 -1.8570 0.9708
-6.4305 -3.1761 -1.8570 0.9708
-6.1861 -3.6293 -1.8570 0.9708
-5.9097 -4.0637 -1.8570 0.9708
-5.6030 -4.4772 -1.8570 0.9708
-5.4386 -4.6755 -1.8570 0.9708
-5.2673 -4.8677 -1.8570 0.9708
-5.0892 -5.0536 -1.8570 0.9708
-4.7135 -5.4057 -1.8570 0.9708
-4.6494 -6.1761 -2.0016 0.9686
-4.1943 -6.4937 -2.0016 0.9686
-3.9585 -6.6401 -2.0016 0.9686
-3.7176 -6.7779 -2.0016 0.9686
-2.7093 -7.2402 -2.0016 0.9686
-1.9153 -7.4895 -2.0016 0.9686
-1.0990 -7.6520 -2.0016 0.9686
-0.5472 -7.7111 -2.0016 0.9686
0.0074 -7.7305 -2.0016 0.9686
0.2849 -7.7252 -2.0016 0.9686
0.5620 -7.7100 -2.0016 0.9686
0.8384 -7.6849 -2.0016 0.9686
1.1137 -7.6498 -2.0016 0.9686
1.6597 -7.5502 -2.0016 0.9686
1.9296 -7.4858 -2.0016 0.9686
2.1971 -7.4117 -2.0016 0.9686
6.3462 -3.1168 -2.0016 0.9710
6.5535 -2.6535 -2.0016 0.9710
6.6445 -2.4166 -2.0016 0.9710
6.8658 -1.6883 -2.0016 0.9710
6.9220 -1.4407 -2.0016 0.9710
6.9692 -1.1913 -2.0016 0.9710
6.9435 1.3334 -2.0016 0.9710
6.8911 1.5818 -2.0016 0.9710
6.6812 2.3134 -2.0016 0.9710
6.4980 2.7868 -2.0016 0.9710
6.3937 3.0182 -2.0016 0.9710
6.1607 3.4692 -2.0016 0.9710
6.0322 3.6881 -2.0016 0.9710
5.8959 3.9022 -2.0016 0.9710
5.7521 4.1113 -2.0016 0.9710
5.4423 4.5134 -2.0016 0.9710
5.1045 4.8922 -2.0016 0.9710
4.9256 5.0723 -2.0016 0.9710
4.7403 5.2459 -2.0016 0.9710
4.5490 5.4126 -2.0016 0.9710
4.1489 5.7250 -2.0016 0.9710
3.5094 6.1379 -2.0016 0.9710
3.2868 6.2599 -2.0016 0.9710
2.8292 6.4796 -2.0016 0.9710
2.1163 6.7462 -2.0016 0.9710
1.3788 6.9346 -2.0016 0.9710
1.1290 6.9796 -2.0016 0.9710
0.8777 7.0156 -2.0016 0.9710
0.6253 7.0426 -2.0016 0.9710
-0.3890 7.0596 -2.0016 0.9710
-0.6422 7.0411 -2.0016 0.9710
-0.8945 7.0135 -2.0016 0.9710
-1.1457 6.9769 -2.0016 0.9710
-1.6433 6.8767 -2.0016 0.9710
-1.8891 6.8133 -2.0016 0.9710
-2.3730 6.6602 -2.0016 0.9710
-2.6106 6.5707 -2.0016 0.9710
-2.8447 6.4728 -2.0016 0.9710
-3.0752 6.3665 -2.0016 0.9710
-3.7418 5.9990 -2.0016 0.9710
-4.3650 5.5620 -2.0016 0.9710
-4.5619 5.4017 -2.0016 0.9710
-4.7528 5.2345 -2.0016 0.9710
-5.2880 4.6932 -2.0016 0.9710
-5.4531 4.5004 -2.0016 0.9710
-5.6111 4.3018 -2.0016 0.9710
-5.7619 4.0976 -2.0016 0.9710
-5.9053 3.8881 -2.0016 0.9710
-6.1690 3.4544 -2.0016 0.9710
-6.2890 3.2308 -2.0016 0.9710
-6.5046 2.7712 -2.0016 0.9710
-6.7648 2.0559 -2.0016 0.9710
-6.8343 1.8118 -2.0016 0.9710
-6.9894 1.0666 -2.0016 0.9710
-7.0479 0.5624 -2.0016 0.9710
-7.0636 0.3090 -2.0016 0.9710
-7.0701 0.0553 -2.0016 0.9710
-7.0559 -0.4521 -2.0016 0.9710
-6.7961 -1.9499 -2.0016 0.9710
-6.7218 -2.1926 -2.0016 0.9710
-5.9814 -2.6928 -1.8570 0.9731
-5.7728 -3.1150 -1.8570 0.9731
-4.9735 -4.2770 -1.8570 0.9731
-4.1299 -5.0963 -1.8570 0.9731
-3.9443 -5.2412 -1.8570 0.9731
-3.7537 -5.3795 -1.8570 0.9731
-3.1744 -6.3176 -2.0016 0.9710
-2.2376 -6.7069 -2.0016 0.9710
-1.9954 -6.7829 -2.0016 0.9710
-1.7506 -6.8502 -2.0016 0.9710
-1.5036 -6.9086 -2.0016 0.9710
-1.2546 -6.9581 -2.0016 0.9710
-1.0041 -6.9987 -2.0016 0.9710
-0.2459 -7.0660 -2.0016 0.9710
0.2617 -7.0655 -2.0016 0.9710
0.5151 -7.0515 -2.0016 0.9710
0.7679 -7.0285 -2.0016 0.9710
2.0105 -6.7784 -2.0016 0.9710
2.2526 -6.7019 -2.0016 0.9710
2.0984 -4.1530 -1.3172 0.9808
2.2580 -4.0966 -1.3242 0.9807
3.6331 -6.0655 -2.0016 0.9710
3.8484 -5.9312 -2.0016 0.9710
4.0589 -5.7892 -2.0016 0.9710
4.2641 -5.6398 -2.0016 0.9710
4.4638 -5.4831 -2.0016 0.9710
4.6577 -5.3193 -2.0016 0.9710
4.8456 -5.1487 -2.0016 0.9710
5.2025 -4.7878 -2.0016 0.9710
5.3710 -4.5980 -2.0016 0.9710
5.5326 -4.4022 -2.0016 0.9710
5.8342 -3.9939 -2.0016 0.9710
6.1057 -3.5651 -2.0016 0.9710
6.4536 -2.8881 -2.0016 0.9710
6.7267 -2.1776 -2.0016 0.9710
6.8005 -1.9347 -2.0016 0.9710
6.9691 -1.1924 -2.0016 0.9710
7.0074 -0.9415 -2.0016 0.9710
7.0366 -0.6894 -2.0016 0.9710
7.0569 -0.4363 -2.0016 0.9710
7.0680 -0.1827 -2.0016 0.9710
7.0629 0.3248 -2.0016 0.9710
7.0467 0.5781 -2.0016 0.9710
6.9870 1.0822 -2.0016 0.9710
6.8302 1.8270 -2.0016 0.9710
6.3942 3.0172 -2.0016 0.9710
6.2818 3.2448 -2.0016 0.9710
6.1613 3.4682 -2.0016 0.9710
6.0328 3.6871 -2.0016 0.9710
5.8966 3.9013 -2.0016 0.9710
5.6015 4.3143 -2.0016 0.9710
5.4430 4.5126 -2.0016 0.9710
5.2775 4.7051 -2.0016 0.9710
5.1052 4.8914 -2.0016 0.9710
4.3526 5.5718 -2.0016 0.9710
4.1498 5.7244 -2.0016 0.9710
3.9417 5.8697 -2.0016 0.9710
3.7284 6.0074 -2.0016 0.9710
3.5104 6.1373 -2.0016 0.9710
3.0610 6.3734 -2.0016 0.9710
2.1173 6.7458 -2.0016 0.9710
1.8738 6.8175 -2.0016 0.9710
1.6279 6.8804 -2.0016 0.9710
1.3799 6.9344 -2.0016 0.9710
0.6265 7.0425 -2.0016 0.9710
-0.1343 7.0691 -2.0016 0.9710
-0.3879 7.0597 -2.0016 0.9710
-0.8934 7.0137 -2.0016 0.9710
-1.6422 6.8770 -2.0016 0.9710
-2.1314 6.7414 -2.0016 0.9710
-3.0742 6.3670 -2.0016 0.9710
-3.3008 6.2525 -2.0016 0.9710
-3.9538 5.8615 -2.0016 0.9710
-4.5610 5.4025 -2.0016 0.9710
-4.7520 5.2353 -2.0016 0.9710
-5.1154 4.8808 -2.0016 0.9710
-5.4524 4.5013 -2.0016 0.9710
-6.0404 3.6746 -2.0016 0.9710
-6.6863 2.2985 -2.0016 0.9710
-6.7645 2.0570 -2.0016 0.9710
-6.9893 1.0677 -2.0016 0.9710
-7.0478 0.5635 -2.0016 0.9710
-7.0676 -0.1974 -2.0016 0.9710
-7.0559 -0.4510 -2.0016 0.9710
-6.7221 -2.1915 -2.0016 0.9710
-6.1596 -2.2558 -1.8570 0.9731
-6.0746 -2.4754 -1.8570 0.9731
-5.9818 -2.6919 -1.8570 0.9731
-5.6578 -3.3193 -1.8570 0.9731
-5.5350 -3.5203 -1.8570 0.9731
-5.2682 -3.9083 -1.8570 0.9731
-5.1245 -4.0949 -1.8570 0.9731
-3.7545 -5.3789 -1.8570 0.9731
-3.3589 -5.6344 -1.8570 0.9731
-3.4001 -6.1991 -2.0016 0.9710
-2.4779 -6.6219 -2.0016 0.9710
-2.2386 -6.7066 -2.0016 0.9710
-1.7517 -6.8499 -2.0016 0.9710
-1.5047 -6.9084 -2.0016 0.9710
-1.2557 -6.9579 -2.0016 0.9710
-1.0052 -6.9985 -2.0016 0.9710
-0.5005 -7.0526 -2.0016 0.9710
-0.2470 -7.0660 -2.0016 0.9710
0.0068 -7.0703 -2.0016 0.9710
1.2691 -6.9555 -2.0016 0.9710
1.5180 -6.9055 -2.0016 0.9710
1.7649 -6.8465 -2.0016 0.9710
2.2515 -6.7023 -2.0016 0.9710
5.8410 -2.8687 -2.0016 0.9731
5.9402 -2.6572 -2.0016 0.9731
6.1156 -2.2242 -2.0016 0.9731
6.1915 -2.0032 -2.0016 0.9731
6.3192 -1.5539 -2.0016 0.9731
6.4497 -0.8655 -2.0016 0.9731
6.4766 -0.6335 -2.0016 0.9731
6.4951 -0.4006 -2.0016 0.9731
6.5053 -0.1672 -2.0016 0.9731
6.5006 0.3000 -2.0016 0.9731
6.2862 1.6826 -2.0016 0.9731
6.2217 1.9071 -2.0016 0.9731
6.0689 2.3486 -2.0016 0.9731
5.9807 2.5649 -2.0016 0.9731
5.7812 2.9874 -2.0016 0.9731
5.2942 3.7841 -2.0016 0.9731
5.1549 3.9716 -2.0016 0.9731
5.0090 4.1541 -2.0016 0.9731
4.8567 4.3313 -2.0016 0.9731
4.6981 4.5028 -2.0016 0.9731
4.5334 4.6685 -2.0016 0.9731
3.6270 5.4030 -2.0016 0.9731
3.0252 5.7616 -2.0016 0.9731
2.8164 5.8664 -2.0016 0.9731
2.6040 5.9638 -2.0016 0.9731
1.9478 6.2091 -2.0016 0.9731
1.7237 6.2750 -2.0016 0.9731
1.4973 6.3329 -2.0016 0.9731
0.8079 6.4571 -2.0016 0.9731
-0.1246 6.5063 -2.0016 0.9731
-0.8233 6.4552 -2.0016 0.9731
-1.2843 6.3795 -2.0016 0.9731
-1.5125 6.3293 -2.0016 0.9731
-1.7387 6.2709 -2.0016 0.9731
-2.4027 6.0477 -2.0016 0.9731
-2.6183 5.9575 -2.0016 0.9731
-2.8304 5.8597 -2.0016 0.9731
-3.0389 5.7543 -2.0016 0.9731
-4.0175 5.1192 -2.0016 0.9731
-4.3745 4.8178 -2.0016 0.9731
-5.0190 4.1421 -2.0016 0.9731
-5.3032 3.7714 -2.0016 0.9731
-5.5601 3.3812 -2.0016 0.9731
-5.9868 2.5506 -2.0016 0.9731
-6.1543 2.1145 -2.0016 0.9731
-6.2902 1.6675 -2.0016 0.9731
-6.3460 1.4407 -2.0016 0.9731
-6.4330 0.9817 -2.0016 0.9731
-6.4641 0.7501 -2.0016 0.9731
-6.4869 0.5176 -2.0016 0.9731
-6.5013 0.2844 -2.0016 0.9731
-6.4750 -0.6490 -2.0016 0.9731
-6.1867 -2.0180 -2.0016 0.9731
-5.5907 -2.2792 -1.8570 0.9751
-5.5053 -2.4784 -1.8570 0.9751
-5.3133 -2.8670 -1.8570 0.9751
-5.2069 -3.0559 -1.8570 0.9751
-4.8482 -3.5979 -1.8570 0.9751
-4.4333 -4.0983 -1.8570 0.9751
-4.1279 -4.4058 -1.8570 0.9751
-3.9671 -4.5511 -1.8570 0.9751
-3.4549 -4.9512 -1.8570 0.9751
-3.2749 -5.0720 -1.8570 0.9751
-3.0907 -5.1863 -1.8570 0.9751
-2.9026 -5.2939 -1.8570 0.9751
-2.7107 -5.3947 -1.8570 0.9751
-2.5153 -5.4885 -1.8570 0.9751
-2.3166 -5.5753 -1.8570 0.9751
-2.1150 -5.6548 -1.8570 0.9751
-2.0594 -6.1730 -2.0016 0.9731
-1.6113 -6.3048 -2.0016 0.9731
-0.9242 -6.4415 -2.0016 0.9731
-0.4596 -6.4912 -2.0016 0.9731
-0.2263 -6.5035 -2.0016 0.9731
0.2408 -6.5030 -2.0016 0.9731
0.4741 -6.4902 -2.0016 0.9731
0.9385 -6.4394 -2.0016 0.9731
1.3981 -6.3555 -2.0016 0.9731
1.6254 -6.3012 -2.0016 0.9731
2.5275 -5.4829 -1.8570 0.9751
2.0874 -4.1312 -1.4237 0.9808
2.2501 -4.0822 -1.4337 0.9807
2.4469 -4.0851 -1.4646 0.9803
3.5421 -5.4590 -2.0016 0.9731
3.7358 -5.3284 -2.0016 0.9731
4.2869 -4.8959 -2.0016 0.9731
4.4599 -4.7389 -2.0016 0.9731
5.3698 -3.6760 -2.0016 0.9731
5.4983 -3.4809 -2.0016 0.9731
5.6197 -3.2813 -2.0016 0.9731
5.7338 -3.0774 -2.0016 0.9731
5.8406 -2.8696 -2.0016 0.9731
6.0314 -2.4432 -2.0016 0.9731
6.3190 -1.5549 -2.0016 0.9731
6.3707 -1.3270 -2.0016 0.9731
6.4495 -0.8666 -2.0016 0.9731
6.5006 0.2990 -2.0016 0.9731
6.4624 0.7646 -2.0016 0.9731
6.3909 1.2262 -2.0016 0.9731
6.3428 1.4549 -2.0016 0.9731
6.2220 1.9062 -2.0016 0.9731
6.0693 2.3476 -2.0016 0.9731
5.9811 2.5640 -2.0016 0.9731
5.7817 2.9865 -2.0016 0.9731
5.6708 3.1921 -2.0016 0.9731
5.5525 3.3936 -2.0016 0.9731
5.2948 3.7832 -2.0016 0.9731
5.0097 4.1533 -2.0016 0.9731
4.6988 4.5021 -2.0016 0.9731
4.5342 4.6678 -2.0016 0.9731
3.8194 5.2687 -2.0016 0.9731
3.6279 5.4024 -2.0016 0.9731
3.4316 5.5291 -2.0016 0.9731
3.0261 5.7611 -2.0016 0.9731
2.8173 5.8660 -2.0016 0.9731
2.6050 5.9633 -2.0016 0.9731
2.3892 6.0530 -2.0016 0.9731
1.9488 6.2088 -2.0016 0.9731
1.4983 6.3326 -2.0016 0.9731
1.2700 6.3823 -2.0016 0.9731
0.5766 6.4819 -2.0016 0.9731
0.3435 6.4984 -2.0016 0.9731
0.1100 6.5065 -2.0016 0.9731
-0.3570 6.4977 -2.0016 0.9731
-0.5900 6.4807 -2.0016 0.9731
-0.8223 6.4553 -2.0016 0.9731
-1.0535 6.4216 -2.0016 0.9731
-1.2833 6.3797 -2.0016 0.9731
-1.5115 6.3295 -2.0016 0.9731
-1.7377 6.2712 -2.0016 0.9731
-2.4018 6.0480 -2.0016 0.9731
-2.6173 5.9579 -2.0016 0.9731
-2.8295 5.8601 -2.0016 0.9731
-3.0380 5.7548 -2.0016 0.9731
-3.2427 5.6420 -2.0016 0.9731
-3.4431 5.5220 -2.0016 0.9731
-4.3737 4.8185 -2.0016 0.9731
-4.5439 4.6584 -2.0016 0.9731
-4.7081 4.4923 -2.0016 0.9731
-5.3026 3.7722 -2.0016 0.9731
-5.4346 3.5794 -2.0016 0.9731
-5.5596 3.3821 -2.0016 0.9731
-5.7879 2.9745 -2.0016 0.9731
-5.8909 2.7648 -2.0016 0.9731
-5.9864 2.5516 -2.0016 0.9731
-6.1540 2.1155 -2.0016 0.9731
-6.2260 1.8932 -2.0016 0.9731
-6.3458 1.4417 -2.0016 0.9731
-6.3934 1.2130 -2.0016 0.9731
-6.4329 0.9827 -2.0016 0.9731
-6.4868 0.5186 -2.0016 0.9731
-6.5073 0.0519 -2.0016 0.9731
-6.5049 -0.1817 -2.0016 0.9731
-6.4751 -0.6479 -2.0016 0.9731
-6.4477 -0.8799 -2.0016 0.9731
-6.4120 -1.1108 -2.0016 0.9731
-6.3680 -1.3403 -2.0016 0.9731
-6.2554 -1.7937 -2.0016 0.9731
-6.1870 -2.0171 -2.0016 0.9731
-5.5910 -2.2784 -1.8570 0.9751
-5.5056 -2.4776 -1.8570 0.9751
-4.9748 -3.4208 -1.8570 0.9751
-4.7165 -3.7689 -1.8570 0.9751
-4.5782 -3.9358 -1.8570 0.9751
-4.2840 -4.2541 -1.8570 0.9751
-3.6311 -4.8234 -1.8570 0.9751
-3.4556 -4.9507 -1.8570 0.9751
-3.0915 -5.1858 -1.8570 0.9751
-2.7115 -5.3943 -1.8570 0.9751
-2.3175 -5.5749 -1.8570 0.9751
-2.1159 -5.6545 -1.8570 0.9751
-2.0604 -6.1727 -2.0016 0.9731
-1.8375 -6.2427 -2.0016 0.9731
-1.6123 -6.3046 -2.0016 0.9731
-1.3849 -6.3584 -2.0016 0.9731
-1.1558 -6.4040 -2.0016 0.9731
-0.9252 -6.4414 -2.0016 0.9731
-0.4606 -6.4912 -2.0016 0.9731
-0.2273 -6.5035 -2.0016 0.9731
0.0062 -6.5075 -2.0016 0.9731
0.9375 -6.4396 -2.0016 0.9731
1.6244 -6.3015 -2.0016 0.9731
2.0723 -6.1687 -2.0016 0.9731
5.4048 -2.6545 -2.0016 0.9749
5.4966 -2.4587 -2.0016 0.9749
5.5813 -2.2599 -2.0016 0.9749
5.6588 -2.0581 -2.0016 0.9749
5.7290 -1.8536 -2.0016 0.9749
5.7919 -1.6468 -2.0016 0.9749
5.9679 -0.8009 -2.0016 0.9749
5.9928 -0.5861 -2.0016 0.9749
6.0100 -0.3707 -2.0016 0.9749
6.0211 0.0615 -2.0016 0.9749
6.0150 0.2776 -2.0016 0.9749
5.9796 0.7084 -2.0016 0.9749
5.9503 0.9226 -2.0016 0.9749
5.9134 1.1356 -2.0016 0.9749
5.8688 1.3471 -2.0016 0.9749
5.8167 1.5569 -2.0016 0.9749
5.2468 2.9545 -2.0016 0.9749
5.1373 3.1409 -2.0016 0.9749
4.8988 3.5014 -2.0016 0.9749
4.3472 4.1665 -2.0016 0.9749
4.1948 4.3198 -2.0016 0.9749
3.5334 4.8757 -2.0016 0.9749
3.3561 4.9994 -2.0016 0.9749
2.6061 5.4283 -2.0016 0.9749
2.4095 5.5183 -2.0016 0.9749
2.0074 5.6770 -2.0016 0.9749
1.1743 5.9058 -2.0016 0.9749
0.5326 5.9978 -2.0016 0.9749
0.3169 6.0131 -2.0016 0.9749
0.1009 6.0206 -2.0016 0.9749
-0.1153 6.0203 -2.0016 0.9749
-0.5469 5.9966 -2.0016 0.9749
-0.7618 5.9731 -2.0016 0.9749
-0.9757 5.9419 -2.0016 0.9749
-1.1884 5.9030 -2.0016 0.9749
-1.3995 5.8566 -2.0016 0.9749
-1.8161 5.7410 -2.0016 0.9749
-2.0210 5.6722 -2.0016 0.9749
-2.2233 5.5960 -2.0016 0.9749
-2.4227 5.5125 -2.0016 0.9749
-2.6190 5.4220 -2.0016 0.9749
-3.0013 5.2202 -2.0016 0.9749
-3.1867 5.1091 -2.0016 0.9749
-3.8851 4.6004 -2.0016 0.9749
-4.2052 4.3098 -2.0016 0.9749
-4.3572 4.1561 -2.0016 0.9749
-5.1448 3.1286 -2.0016 0.9749
-5.2538 2.9420 -2.0016 0.9749
-5.3560 2.7515 -2.0016 0.9749
-5.5396 2.3601 -2.0016 0.9749
-5.6947 1.9566 -2.0016 0.9749
-5.7613 1.7509 -2.0016 0.9749
-5.8204 1.5430 -2.0016 0.9749
-5.9813 0.6941 -2.0016 0.9749
-6.0091 -0.3850 -2.0016 0.9749
-5.9329 -1.0288 -2.0016 0.9749
-5.8922 -1.2411 -2.0016 0.9749
-5.7246 -1.8673 -2.0016 0.9749
-5.0085 -2.4747 -1.8570 0.9767
-4.7134 -2.9988 -1.8570 0.9767
-4.6027 -3.1660 -1.8570 0.9767
-4.2357 -3.6425 -1.8570 0.9767
-4.1022 -3.7922 -1.8570 0.9767
-3.9635 -3.9370 -1.8570 0.9767
-3.8196 -4.0767 -1.8570 0.9767
-3.6708 -4.2112 -1.8570 0.9767
-3.1968 -4.5814 -1.8570 0.9767
-2.6858 -4.8985 -1.8570 0.9767
-2.3274 -5.0786 -1.8570 0.9767
-2.1436 -5.1589 -1.8570 0.9767
-1.9571 -5.2325 -1.8570 0.9767
-1.1880 -5.4587 -1.8570 0.9767
-0.9913 -5.4978 -1.8570 0.9767
-0.1943 -5.5831 -1.8570 0.9767
0.0062 -5.5865 -1.8570 0.9767
0.4070 -5.5716 -1.8570 0.9767
0.6068 -5.5534 -1.8570 0.9767
0.8057 -5.5281 -1.8570 0.9767
1.0036 -5.4956 -1.8570 0.9767
1.2002 -5.4560 -1.8570 0.9767
1.7798 -5.2954 -1.8570 0.9767
2.0603 -4.4694 -1.6359 0.9795
2.4345 -4.0644 -1.5748 0.9802
3.0408 -4.6864 -1.8570 0.9767
3.3692 -4.4562 -1.8570 0.9767
3.9667 -4.5302 -2.0016 0.9749
4.2815 -4.2340 -2.0016 0.9749
4.5742 -3.9159 -2.0016 0.9749
4.7119 -3.7491 -2.0016 0.9749
4.9687 -3.4014 -2.0016 0.9749
5.1999 -3.0362 -2.0016 0.9749
5.4962 -2.4596 -2.0016 0.9749
5.5809 -2.2607 -2.0016 0.9749
5.9678 -0.8018 -2.0016 0.9749
5.9928 -0.5871 -2.0016 0.9749
6.0211 0.0605 -2.0016 0.9749
6.0151 0.2766 -2.0016 0.9749
6.0013 0.4924 -2.0016 0.9749
5.9797 0.7075 -2.0016 0.9749
5.9505 0.9217 -2.0016 0.9749
5.8169 1.5560 -2.0016 0.9749
5.7573 1.7638 -2.0016 0.9749
5.6903 1.9693 -2.0016 0.9749
5.6160 2.1723 -2.0016 0.9749
5.2472 2.9537 -2.0016 0.9749
5.1378 3.1401 -2.0016 0.9749
4.8993 3.5007 -2.0016 0.9749
4.6355 3.8431 -2.0016 0.9749
4.4946 4.0071 -2.0016 0.9749
4.3479 4.1658 -2.0016 0.9749
4.0378 4.4670 -2.0016 0.9749
3.8748 4.6091 -2.0016 0.9749
3.5342 4.8752 -2.0016 0.9749
3.3569 4.9989 -2.0016 0.9749
2.8001 5.3308 -2.0016 0.9749
2.4104 5.5179 -2.0016 0.9749
2.2108 5.6009 -2.0016 0.9749
2.0083 5.6767 -2.0016 0.9749
1.5959 5.8061 -2.0016 0.9749
1.3864 5.8597 -2.0016 0.9749
1.1752 5.9056 -2.0016 0.9749
0.9624 5.9440 -2.0016 0.9749
0.7485 5.9747 -2.0016 0.9749
0.3179 6.0130 -2.0016 0.9749
0.1018 6.0206 -2.0016 0.9749
-0.1143 6.0204 -2.0016 0.9749
-0.3304 6.0124 -2.0016 0.9749
-0.5460 5.9966 -2.0016 0.9749
-0.7609 5.9732 -2.0016 0.9749
-0.9748 5.9420 -2.0016 0.9749
-1.3986 5.8568 -2.0016 0.9749
-1.8152 5.7413 -2.0016 0.9749
-2.0201 5.6725 -2.0016 0.9749
-2.2224 5.5963 -2.0016 0.9749
-2.8111 5.3250 -2.0016 0.9749
-3.0005 5.2206 -2.0016 0.9749
-3.1859 5.1096 -2.0016 0.9749
-3.3673 4.9919 -2.0016 0.9749
-3.7167 4.7375 -2.0016 0.9749
-3.8844 4.6010 -2.0016 0.9749
-4.6435 3.8335 -2.0016 0.9749
-4.9066 3.4905 -2.0016 0.9749
-5.0287 3.3121 -2.0016 0.9749
-5.1443 3.1295 -2.0016 0.9749
-5.2534 2.9428 -2.0016 0.9749
-5.5393 2.3610 -2.0016 0.9749
-5.6204 2.1606 -2.0016 0.9749
-5.8718 1.3340 -2.0016 0.9749
-5.9159 1.1224 -2.0016 0.9749
-5.9524 0.9093 -2.0016 0.9749
-5.9812 0.6950 -2.0016 0.9749
-6.0023 0.4799 -2.0016 0.9749
-6.0156 0.2641 -2.0016 0.9749
-6.0092 -0.3841 -2.0016 0.9749
-5.8440 -1.4509 -2.0016 0.9749
-5.7882 -1.6597 -2.0016 0.9749
-5.4587 -2.2245 -1.9594 0.9755
-5.0944 -2.2925 -1.8570 0.9767
-4.8185 -2.8269 -1.8570 0.9767
-4.6032 -3.1653 -1.8570 0.9767
-4.2363 -3.6418 -1.8570 0.9767
-3.8202 -4.0761 -1.8570 0.9767
-3.6714 -4.2106 -1.8570 0.9767
-3.1975 -4.5809 -1.8570 0.9767
-2.8606 -4.7985 -1.8570 0.9767
-2.6865 -4.8981 -1.8570 0.9767
-1.5775 -5.3591 -1.8570 0.9767
-1.3841 -5.4123 -1.8570 0.9767
-0.9922 -5.4977 -1.8570 0.9767
-0.7942 -5.5297 -1.8570 0.9767
-0.5952 -5.5547 -1.8570 0.9767
-0.1952 -5.5831 -1.8570 0.9767
0.2059 -5.5827 -1.8570 0.9767
0.6059 -5.5535 -1.8570 0.9767
0.8048 -5.5282 -1.8570 0.9767
1.0028 -5.4958 -1.8570 0.9767
1.3945 -5.4096 -1.8570 0.9767
1.5877 -5.3561 -1.8570 0.9767
1.7790 -5.2957 -1.8570 0.9767
5.0239 -2.4674 -2.0016 0.9765
5.1092 -2.2855 -2.0016 0.9765
5.1880 -2.1006 -2.0016 0.9765
5.2600 -1.9130 -2.0016 0.9765
5.3253 -1.7230 -2.0016 0.9765
5.3837 -1.5307 -2.0016 0.9765
5.4797 -1.1405 -2.0016 0.9765
5.5474 -0.7444 -2.0016 0.9765
5.5952 -0.1438 -2.0016 0.9765
5.5968 0.0571 -2.0016 0.9765
5.5582 0.6585 -2.0016 0.9765
5.4552 1.2522 -2.0016 0.9765
5.4068 1.4472 -2.0016 0.9765
5.3513 1.6403 -2.0016 0.9765
5.2890 1.8314 -2.0016 0.9765
5.1440 2.2061 -2.0016 0.9765
5.0615 2.3893 -2.0016 0.9765
4.8770 2.7463 -2.0016 0.9765
4.7753 2.9196 -2.0016 0.9765
4.6674 3.0891 -2.0016 0.9765
4.4338 3.4160 -2.0016 0.9765
4.3083 3.5730 -2.0016 0.9765
4.1773 3.7253 -2.0016 0.9765
4.0408 3.8729 -2.0016 0.9765
3.8992 4.0154 -2.0016 0.9765
3.6011 4.2848 -2.0016 0.9765
3.4450 4.4113 -2.0016 0.9765
2.9508 4.7561 -2.0016 0.9765
2.6020 4.9555 -2.0016 0.9765
2.4224 5.0457 -2.0016 0.9765
2.2397 5.1294 -2.0016 0.9765
1.8659 5.2769 -2.0016 0.9765
0.8938 5.5253 -2.0016 0.9765
0.6948 5.5538 -2.0016 0.9765
0.4950 5.5752 -2.0016 0.9765
0.2946 5.5893 -2.0016 0.9765
0.0938 5.5963 -2.0016 0.9765
-0.7081 5.5521 -2.0016 0.9765
-0.9070 5.5231 -2.0016 0.9765
-1.1046 5.4870 -2.0016 0.9765
-1.3009 5.4438 -2.0016 0.9765
-1.4954 5.3936 -2.0016 0.9765
-2.2520 5.1241 -2.0016 0.9765
-2.7898 4.8523 -2.0016 0.9765
-2.9621 4.7490 -2.0016 0.9765
-3.1307 4.6396 -2.0016 0.9765
-3.2952 4.5243 -2.0016 0.9765
-3.4555 4.4031 -2.0016 0.9765
-3.6113 4.2762 -2.0016 0.9765
-3.7625 4.1438 -2.0016 0.9765
-3.9088 4.0061 -2.0016 0.9765
-4.0501 3.8632 -2.0016 0.9765
-4.4419 3.4054 -2.0016 0.9765
-4.6748 3.0779 -2.0016 0.9765
-4.8836 2.7346 -2.0016 0.9765
-5.1492 2.1938 -2.0016 0.9765
-5.2247 2.0075 -2.0016 0.9765
-5.2934 1.8187 -2.0016 0.9765
-5.4102 1.4343 -2.0016 0.9765
-5.4992 1.0424 -2.0016 0.9765
-5.4769 -1.1536 -2.0016 0.9765
-5.3800 -1.5436 -2.0016 0.9765
-5.3212 -1.7357 -2.0016 0.9765
-5.1829 -2.1130 -2.0016 0.9765
-4.3812 -2.7874 -1.8570 0.9782
-4.2784 -2.9429 -1.8570 0.9782
-4.1700 -3.0946 -1.8570 0.9782
-4.0562 -3.2423 -1.8570 0.9782
-3.4121 -3.9144 -1.8570 0.9782
-3.2694 -4.0344 -1.8570 0.9782
-2.8167 -4.3625 -1.8570 0.9782
-2.4965 -4.5533 -1.8570 0.9782
-2.3315 -4.6400 -1.8570 0.9782
-2.1634 -4.7207 -1.8570 0.9782
-1.9926 -4.7953 -1.8570 0.9782
-1.6434 -4.9259 -1.8570 0.9782
-1.1043 -5.0740 -1.8570 0.9782
-0.7374 -5.1402 -1.8570 0.9782
-0.5525 -5.1633 -1.8570 0.9782
0.0058 -5.1928 -1.8570 0.9782
0.3783 -5.1790 -1.8570 0.9782
0.5640 -5.1621 -1.8570 0.9782
0.7489 -5.1385 -1.8570 0.9782
1.1156 -5.0715 -1.8570 0.9782
1.2970 -5.0282 -1.8570 0.9782
1.4766 -4.9784 -1.8570 0.9782
1.6544 -4.9222 -1.8570 0.9782
1.8300 -4.8596 -1.8570 0.9782
2.0033 -4.7908 -1.8570 0.9782
2.2341 -4.0531 -1.6550 0.9805
2.4172 -4.0357 -1.6823 0.9802
2.8265 -4.3562 -1.8570 0.9782
2.9810 -4.2519 -1.8570 0.9782
3.1317 -4.1421 -1.8570 0.9782
3.4208 -3.9068 -1.8570 0.9782
3.8360 -4.0759 -2.0016 0.9765
3.9798 -3.9356 -2.0016 0.9765
4.1185 -3.7902 -2.0016 0.9765
4.8335 -2.8222 -2.0016 0.9765
4.9317 -2.6469 -2.0016 0.9765
5.0235 -2.4682 -2.0016 0.9765
5.1089 -2.2863 -2.0016 0.9765
5.3250 -1.7238 -2.0016 0.9765
5.3835 -1.5316 -2.0016 0.9765
5.4795 -1.1414 -2.0016 0.9765
5.5169 -0.9440 -2.0016 0.9765
5.5473 -0.7453 -2.0016 0.9765
5.5704 -0.5457 -2.0016 0.9765
5.5864 -0.3454 -2.0016 0.9765
5.5968 0.0563 -2.0016 0.9765
5.5912 0.2571 -2.0016 0.9765
5.5783 0.4577 -2.0016 0.9765
5.5583 0.6576 -2.0016 0.9765
5.4554 1.2513 -2.0016 0.9765
5.2893 1.8305 -2.0016 0.9765
5.2202 2.0192 -2.0016 0.9765
5.0619 2.3885 -2.0016 0.9765
4.9729 2.5687 -2.0016 0.9765
4.8774 2.7455 -2.0016 0.9765
4.7758 2.9188 -2.0016 0.9765
4.6679 3.0884 -2.0016 0.9765
4.5540 3.2540 -2.0016 0.9765
4.4343 3.4153 -2.0016 0.9765
4.0415 3.8722 -2.0016 0.9765
3.4456 4.4108 -2.0016 0.9765
3.2851 4.5316 -2.0016 0.9765
2.9515 4.7556 -2.0016 0.9765
2.7789 4.8585 -2.0016 0.9765
2.6027 4.9551 -2.0016 0.9765
2.4232 5.0454 -2.0016 0.9765
2.2405 5.1291 -2.0016 0.9765
1.8668 5.2766 -2.0016 0.9765
1.6762 5.3402 -2.0016 0.9765
1.0924 5.4895 -2.0016 0.9765
0.8946 5.5251 -2.0016 0.9765
0.4959 5.5751 -2.0016 0.9765
0.2955 5.5893 -2.0016 0.9765
-0.9061 5.5233 -2.0016 0.9765
-1.4946 5.3938 -2.0016 0.9765
-2.4337 5.0403 -2.0016 0.9765
-3.4548 4.4036 -2.0016 0.9765
-3.6107 4.2768 -2.0016 0.9765
-4.0495 3.8638 -2.0016 0.9765
-4.3162 3.5633 -2.0016 0.9765
-5.0668 2.3780 -2.0016 0.9765
-5.1489 2.1946 -2.0016 0.9765
-5.2244 2.0084 -2.0016 0.9765
-5.4100 1.4351 -2.0016 0.9765
-5.4580 1.2400 -2.0016 0.9765
-5.5793 0.4461 -2.0016 0.9765
-5.5969 0.0446 -2.0016 0.9765
-5.5949 -0.1563 -2.0016 0.9765
-5.5857 -0.3570 -2.0016 0.9765
-5.5693 -0.5573 -2.0016 0.9765
-5.2557 -1.9248 -2.0016 0.9765
-4.9506 -2.2278 -1.9414 0.9772
-4.3817 -2.7868 -1.8570 0.9782
-3.9377 -3.3852 -1.8570 0.9782
-3.6847 -3.6590 -1.8570 0.9782
-3.5510 -3.7889 -1.8570 0.9782
-3.4127 -3.9139 -1.8570 0.9782
-2.9722 -4.2581 -1.8570 0.9782
-2.8174 -4.3620 -1.8570 0.9782
-2.4972 -4.5529 -1.8570 0.9782
-2.3322 -4.6396 -1.8570 0.9782
-2.1641 -4.7203 -1.8570 0.9782
-1.8199 -4.8634 -1.8570 0.9782
-1.4663 -4.9815 -1.8570 0.9782
-0.9223 -5.1102 -1.8570 0.9782
-0.7383 -5.1400 -1.8570 0.9782
-0.5533 -5.1632 -1.8570 0.9782
-0.3676 -5.1798 -1.8570 0.9782
0.3775 -5.1791 -1.8570 0.9782
0.5632 -5.1622 -1.8570 0.9782
0.7481 -5.1386 -1.8570 0.9782
0.9321 -5.1085 -1.8570 0.9782
1.4758 -4.9786 -1.8570 0.9782
1.6536 -4.9225 -1.8570 0.9782
4.6881 -2.3025 -2.0016 0.9779
4.7678 -2.1327 -2.0016 0.9779
4.8412 -1.9602 -2.0016 0.9779
4.9085 -1.7852 -2.0016 0.9779
5.0719 -1.2472 -2.0016 0.9779
5.1134 -1.0643 -2.0016 0.9779
5.2213 -0.1342 -2.0016 0.9779
5.2228 0.0533 -2.0016 0.9779
5.2175 0.2408 -2.0016 0.9779
