ply
format ascii 1.0
element vertex 1537
property float32 x
property float32 y
property float32 z
property float32 I
end_header
32.4420 15.8676 2.2395 0.8653
29.1632 15.5837 2.0504 0.8759
28.0949 16.3340 2.0152 0.8779
34.9601 23.8328 2.6237 0.8440
34.8613 25.6434 2.6836 0.8408
3.5860 24.1191 1.5121 0.9069
2.5612 22.8271 1.4244 0.9121
1.7354 22.8294 1.4197 0.9123
-0.4306 13.5704 0.8419 0.9470
-0.9186 13.5718 0.8435 0.9469
-1.4091 13.5731 0.8462 0.9468
-1.2361 8.8155 0.5520 0.9650
-2.9086 13.5773 0.8610 0.9459
-3.9457 13.5802 0.8769 0.9449
-4.4801 13.5816 0.8868 0.9443
-5.0275 13.5832 0.8981 0.9436
-6.3324 13.9467 0.9498 0.9405
-6.9468 13.9484 0.9663 0.9395
-12.2792 17.7372 1.3377 0.9172
-13.2095 16.4271 1.3071 0.9190
-13.9473 13.9627 1.2238 0.9240
-16.4327 14.2455 1.3486 0.9165
-21.1830 8.7434 1.4211 0.9122
-27.3870 -22.3487 2.1920 0.8679
-16.1650 -18.9199 1.5431 0.9051
-15.0281 -18.9231 1.4985 0.9077
-14.9647 -20.2970 1.5637 0.9039
-14.9941 -21.9426 1.6480 0.8990
-13.8237 -21.8743 1.6046 0.9015
-10.9838 -22.3942 1.5467 0.9049
-10.0055 -22.3970 1.5211 0.9064
-9.0578 -22.3996 1.4983 0.9077
-6.3614 -22.4021 1.4441 0.9109
-4.6500 -22.3695 1.4168 0.9125
-2.1892 -22.4137 1.3965 0.9137
-0.5749 -22.4182 1.3906 0.9140
33.3652 -34.8698 2.9927 0.8241
33.0087 -29.8818 2.7610 0.8366
32.8089 -27.6264 2.6597 0.8421
38.1818 -25.6903 2.8538 0.8316
49.6884 -2.7016 3.0857 0.8192
35.9417 12.7211 2.3642 0.8583
34.6120 15.1219 2.3422 0.8595
35.0417 16.8306 2.4106 0.8557
29.3673 15.4247 2.0570 0.8755
0.1529 13.5688 0.8415 0.9471
-0.8215 13.5715 0.8431 0.9470
-1.1750 8.8378 0.5529 0.9649
-3.3196 13.5784 0.8668 0.9455
-3.8408 13.5799 0.8751 0.9450
-4.3729 13.5813 0.8848 0.9444
-4.9175 13.5829 0.8958 0.9438
-6.0469 14.9991 1.0028 0.9372
-6.2128 13.9463 0.9467 0.9406
-6.8230 13.9480 0.9629 0.9397
-7.4552 13.9498 0.9808 0.9386
-12.9166 17.5576 1.3516 0.9164
-26.9932 -22.3498 1.3819 0.8691
-25.1093 -22.3550 1.3256 0.8741
-23.3707 -22.3598 1.2754 0.8786
-21.8104 -22.4191 1.2333 0.8823
-17.1271 -18.9172 1.0062 0.9029
-14.8098 -18.9237 0.9475 0.9083
-13.9620 -20.7483 0.9861 0.9047
-12.8368 -22.3891 1.0176 0.9018
-9.8388 -22.4524 0.9666 0.9065
-8.8727 -22.4001 0.9500 0.9081
-7.9551 -22.3977 0.9372 0.9092
-6.1893 -22.4026 0.9164 0.9112
-5.3333 -22.4050 0.9081 0.9119
-4.5124 -22.5115 0.9053 0.9122
-2.0440 -22.5897 0.8944 0.9132
0.3006 -17.3186 0.6830 0.9330
32.8785 -36.3996 1.9341 0.8217
32.8995 -27.3044 1.6858 0.8427
32.9971 -25.4438 1.6431 0.8464
37.1936 -26.6091 1.8033 0.8327
38.4264 -25.4589 1.8176 0.8315
34.2793 -4.0957 1.3613 0.8709
40.8967 13.1654 1.6941 0.8420
35.0383 15.6064 1.5124 0.8577
35.0425 17.1395 1.5382 0.8554
35.1781 18.7978 1.5727 0.8524
35.1875 22.1828 1.6402 0.8466
35.0613 23.9018 1.6732 0.8438
35.0721 27.7902 1.7644 0.8360
1.7354 22.8294 0.9028 0.9124
0.6349 15.8626 0.6260 0.9384
0.0657 15.8642 0.6255 0.9385
-0.5034 15.8658 0.6259 0.9384
-1.0740 15.8673 0.6271 0.9383
-1.6475 15.8689 0.6291 0.9381
-1.2360 8.8145 0.3510 0.9650
-2.8092 15.8722 0.6356 0.9375
-4.0013 15.8755 0.6456 0.9366
-4.6131 15.8772 0.6519 0.9360
-5.2379 15.8789 0.6593 0.9353
-6.0478 14.6981 0.6267 0.9384
-6.3324 13.9467 0.6040 0.9405
-7.5837 13.9501 0.6261 0.9384
-10.3827 17.5669 0.8046 0.9216
-12.2792 17.7372 0.8506 0.9173
-13.2095 16.4270 0.8312 0.9191
-12.9834 13.9651 0.7519 0.9265
-17.0533 15.8896 0.9191 0.9109
-15.6342 13.5533 0.8159 0.9205
-16.8205 13.5566 0.8518 0.9172
-18.1181 13.5602 0.8923 0.9134
-19.5471 13.5641 0.9382 0.9092
-27.3870 -22.3487 1.3938 0.8681
-25.4715 -22.3540 1.3363 0.8731
-10.0055 -22.3970 0.9673 0.9065
-8.1352 -22.3972 0.9396 0.9090
-5.3744 -16.6322 0.6892 0.9324
-6.3614 -22.4021 0.9183 0.9110
-2.2064 -22.5893 0.8950 0.9131
-1.3804 -22.4159 0.8856 0.9140
-0.5749 -22.4182 0.8843 0.9141
0.2310 -22.5960 0.8910 0.9135
1.0341 -22.4226 0.8851 0.9141
2.1913 -4.2460 0.1884 0.9811
32.6121 -31.7232 1.7940 0.8335
38.1818 -25.6903 1.8146 0.8318
32.9448 9.0628 1.3473 0.8722
41.9098 13.1626 1.7321 0.8387
35.0333 13.8322 1.4852 0.8600
35.0374 15.3077 1.5077 0.8581
35.0417 16.8306 1.5328 0.8559
35.1818 20.1201 1.5981 0.8502
35.1865 21.8332 1.6328 0.8472
35.0603 23.5368 1.6651 0.8445
35.0710 27.3847 1.7545 0.8368
-0.3902 15.8654 0.6258 0.9384
-1.5332 15.8686 0.6286 0.9382
-1.1749 8.8364 0.3515 0.9649
-3.8811 15.8751 0.6444 0.9367
-5.7493 15.8803 0.6660 0.9346
-6.2128 13.9463 0.6020 0.9407
-10.2142 17.5665 0.8012 0.9219
-12.0927 17.7367 0.8465 0.9177
-12.9166 17.5576 0.8595 0.9164
-27.2045 -22.5248 0.5966 0.8682
-25.1093 -22.3550 0.5679 0.8742
-20.2518 -22.3685 0.5097 0.8863
-18.8406 -22.3724 0.4941 0.8896
-12.8368 -22.3891 0.4359 0.9019
-11.8849 -22.5673 0.4308 0.9030
-10.7867 -22.3948 0.4199 0.9053
-9.8388 -22.4524 0.4141 0.9066
-7.9551 -22.3977 0.4015 0.9093
-2.8412 -22.4119 0.3816 0.9136
-1.2201 -22.4164 0.3792 0.9141
-0.4150 -22.4186 0.3788 0.9142
0.3006 -17.3185 0.2926 0.9331
1.1944 -22.4231 0.3793 0.9141
2.2124 -4.2128 0.0804 0.9811
32.8751 -36.3958 0.8285 0.8218
32.6134 -31.2751 0.7633 0.8346
33.6414 -30.0210 0.7616 0.8350
32.8967 -27.3020 0.7221 0.8428
37.1952 -26.6103 0.7725 0.8328
34.2846 -4.0963 0.5832 0.8710
47.3784 13.3974 0.8317 0.8212
37.0801 13.4221 0.6661 0.8541
35.7593 14.4142 0.6513 0.8571
36.0492 16.0567 0.6666 0.8540
35.2967 17.2638 0.6637 0.8545
35.3879 22.3091 0.7066 0.8459
35.1978 25.8909 0.7381 0.8396
35.2034 27.8942 0.7587 0.8355
3.9930 15.3063 0.2672 0.9387
2.4619 13.2685 0.2280 0.9474
2.0000 13.4520 0.2297 0.9470
0.0517 12.4866 0.2109 0.9513
-1.0740 15.8673 0.2686 0.9384
-1.2358 8.8135 0.1503 0.9650
-3.4006 15.8738 0.2742 0.9371
-3.5755 12.3061 0.2165 0.9500
-6.0478 14.6981 0.2685 0.9384
-5.5400 12.2013 0.2264 0.9478
-6.1102 12.2686 0.2315 0.9466
-7.5838 13.9501 0.2682 0.9385
-8.3633 12.0807 0.2482 0.9429
-13.2095 16.4270 0.3561 0.9191
-12.4457 12.4595 0.2975 0.9320
-18.3333 15.8932 0.4098 0.9075
-33.2623 23.0814 0.6839 0.8505
-34.5631 22.1915 0.6938 0.8485
-25.4715 -22.3540 0.5725 0.8732
-23.7058 -22.3589 0.5504 0.8778
-22.1228 -22.4182 0.5320 0.8816
-20.5431 -22.3677 0.5130 0.8856
-19.2639 -22.5468 0.5009 0.8881
-17.3830 -21.8882 0.4721 0.8942
-13.8236 -21.8743 0.4371 0.9017
-13.0494 -22.3885 0.4377 0.9015
-9.0800 -22.4545 0.4091 0.9076
-5.3738 -16.6302 0.2952 0.9325
-6.3614 -22.4021 0.3934 0.9110
-5.5022 -22.4045 0.3897 0.9118
-4.6795 -22.5111 0.3884 0.9121
-3.0036 -22.4114 0.3820 0.9135
-1.3804 -22.4159 0.3794 0.9141
-0.5749 -22.4182 0.3788 0.9142
0.2310 -22.5960 0.3817 0.9136
1.0341 -22.4226 0.3792 0.9141
2.1913 -4.2459 0.0807 0.9811
32.9446 9.0628 0.5772 0.8722
42.6987 13.4104 0.7560 0.8361
37.9159 13.4198 0.6794 0.8514
36.0484 15.7494 0.6645 0.8544
35.3869 21.9576 0.7035 0.8465
35.1915 23.6249 0.7160 0.8440
35.1967 25.5055 0.7342 0.8404
35.2022 27.4872 0.7544 0.8364
4.6205 17.2086 0.3010 0.9312
2.1053 13.4979 0.2308 0.9468
1.0550 12.6817 0.2150 0.9504
0.5878 12.4620 0.2107 0.9513
-0.3902 15.8654 0.2681 0.9385
-1.5332 15.8686 0.2693 0.9382
-2.1134 12.4579 0.2134 0.9507
-3.2823 15.8735 0.2738 0.9372
-3.8811 15.8751 0.2761 0.9367
-4.4558 12.3076 0.2211 0.9490
-6.2128 13.9463 0.2579 0.9407
-6.8230 13.9480 0.2623 0.9398
-10.2142 17.5665 0.3432 0.9219
-11.1812 17.7341 0.3541 0.9195
-20.5273 11.9661 -0.1338 0.9093
-22.2351 11.9147 -0.1420 0.9040
-24.2171 11.8795 -0.1519 0.8977
-27.2045 -22.5248 -0.1989 0.8682
-25.1093 -22.3550 -0.1893 0.8742
-23.3707 -22.3598 -0.1821 0.8786
-21.8978 -22.5089 -0.1768 0.8820
-20.2518 -22.3685 -0.1699 0.8863
-18.8406 -22.3724 -0.1647 0.8896
-16.3824 -22.5548 -0.1570 0.8945
-13.6068 -21.8750 -0.1450 0.9021
-12.8368 -22.3891 -0.1453 0.9019
-9.8723 -22.5288 -0.1385 0.9063
-8.8727 -22.4001 -0.1357 0.9081
-4.5124 -22.5115 -0.1293 0.9123
-3.6616 -22.4096 -0.1278 0.9132
-1.2201 -22.4164 -0.1264 0.9141
0.3006 -17.3184 -0.0975 0.9331
1.1944 -22.4231 -0.1264 0.9141
2.2124 -4.2127 -0.0268 0.9811
28.1628 -38.8682 -0.2702 0.8253
32.8938 -27.2996 -0.2407 0.8428
38.4264 -25.4589 -0.2595 0.8316
34.3406 -4.1030 -0.1947 0.8708
41.6666 13.4132 -0.2464 0.8394
36.9477 13.3742 -0.2212 0.8546
36.0139 16.0410 -0.2220 0.8541
35.2967 17.2638 -0.2212 0.8546
34.1353 18.2406 -0.2179 0.8566
29.8328 17.3444 -0.1943 0.8711
35.2034 27.8942 -0.2529 0.8356
1.9403 13.0502 -0.0743 0.9486
0.9553 12.5667 -0.0710 0.9508
0.0503 12.1307 -0.0683 0.9526
-0.8372 12.3683 -0.0698 0.9516
-1.2357 8.8125 -0.0501 0.9650
-3.0622 12.1494 -0.0705 0.9511
-4.0124 12.1637 -0.0721 0.9501
-4.4305 11.9704 -0.0719 0.9502
-7.2212 12.2178 -0.0799 0.9448
-7.7022 12.0253 -0.0804 0.9445
-8.3662 12.0848 -0.0828 0.9429
-9.6577 12.0101 -0.0868 0.9402
-10.2892 11.8955 -0.0886 0.9390
-11.0847 11.9229 -0.0917 0.9370
-12.2307 12.2443 -0.0974 0.9331
-12.8197 11.9449 -0.0987 0.9323
-17.3197 12.0185 -0.1187 0.9191
-21.9675 11.9736 -0.1409 0.9048
-21.1703 8.7382 -0.1289 0.9125
-27.3870 -22.3487 -0.1990 0.8681
-20.5431 -22.3677 -0.1710 0.8856
-19.2639 -22.5468 -0.1670 0.8881
-17.3830 -21.8882 -0.1573 0.8942
-14.1541 -19.1976 -0.1343 0.9090
-15.4142 -22.5575 -0.1538 0.8965
-13.8236 -21.8743 -0.1457 0.9017
-12.0908 -22.5668 -0.1441 0.9027
-10.9837 -22.3942 -0.1404 0.9050
-4.6795 -22.5111 -0.1295 0.9121
-3.8194 -22.3718 -0.1278 0.9132
-1.3804 -22.4159 -0.1264 0.9141
-0.5749 -22.4182 -0.1263 0.9142
0.2310 -22.5960 -0.1272 0.9136
1.0341 -22.4226 -0.1264 0.9141
32.6121 -31.7232 -0.2562 0.8336
33.1503 -30.0100 -0.2518 0.8362
32.6294 -25.5332 -0.2332 0.8473
32.9137 9.0543 -0.1922 0.8724
42.6987 13.4104 -0.2520 0.8361
37.9159 13.4198 -0.2264 0.8514
35.2874 13.9325 -0.2136 0.8592
36.0484 15.7494 -0.2215 0.8544
34.1372 17.9300 -0.2171 0.8571
34.4721 21.3900 -0.2284 0.8502
3.8130 14.2009 -0.0828 0.9429
2.0170 12.9317 -0.0737 0.9490
-0.2960 12.0356 -0.0678 0.9530
-1.1801 12.2142 -0.0691 0.9521
-3.4447 12.1794 -0.0713 0.9506
-3.9435 12.2476 -0.0724 0.9498
-8.2936 12.1643 -0.0829 0.9428
-22.2658 11.9311 -0.7113 0.9039
-24.1062 11.8251 -0.7560 0.8981
-21.6511 -22.2554 -0.8743 0.8832
-20.1352 -22.2397 -0.8447 0.8869
-18.7171 -22.2258 -0.8182 0.8902
-17.2579 -22.0517 -0.7885 0.8940
-16.3824 -22.5548 -0.7849 0.8944
-15.1799 -22.5582 -0.7656 0.8969
-13.6068 -21.8750 -0.7254 0.9020
-12.7407 -22.2214 -0.7213 0.9026
-11.7042 -22.2242 -0.7073 0.9044
-9.7581 -22.2682 -0.6846 0.9073
-7.9226 -22.3061 -0.6665 0.9096
-7.0384 -22.3242 -0.6591 0.9106
-6.1721 -22.3402 -0.6526 0.9114
-3.6563 -22.3769 -0.6384 0.9133
-2.8379 -22.3856 -0.6354 0.9137
-2.0261 -22.3926 -0.6331 0.9140
-0.4147 -22.4017 -0.6309 0.9142
0.3006 -17.3184 -0.4877 0.9330
1.1934 -22.4044 -0.6318 0.9141
2.2124 -4.2127 -0.1340 0.9811
28.0729 -38.7441 -1.3472 0.8258
32.8108 -36.3245 -1.3783 0.8221
32.6134 -31.2751 -1.2723 0.8346
33.5826 -29.9685 -1.2674 0.8352
32.8351 -27.2509 -1.2015 0.8430
32.9971 -25.4438 -1.1733 0.8464
37.1429 -26.5729 -1.2860 0.8330
34.4726 -4.1188 -0.9776 0.8703
44.8954 12.6952 -1.3137 0.8297
35.0380 14.1235 -1.0637 0.8597
35.1205 17.1776 -1.1009 0.8552
29.9029 17.3852 -0.9740 0.8707
33.6601 21.2198 -1.1204 0.8528
34.1948 25.1531 -1.1953 0.8438
4.8351 16.1411 -0.4745 0.9348
3.5877 13.7526 -0.4002 0.9447
2.4455 13.1799 -0.3775 0.9478
1.9431 13.0691 -0.3720 0.9485
1.4251 12.7014 -0.3599 0.9501
0.4912 12.2716 -0.3458 0.9520
0.0505 12.1808 -0.3430 0.9524
-0.3779 11.9082 -0.3355 0.9534
-0.8165 12.0635 -0.3405 0.9528
-2.6075 12.1715 -0.3505 0.9514
-3.4696 11.9417 -0.3502 0.9515
-4.4149 11.9282 -0.3581 0.9504
-4.9523 12.0358 -0.3665 0.9493
-5.9131 11.8728 -0.3735 0.9483
-7.7106 12.0384 -0.4025 0.9444
-8.1968 11.8402 -0.4055 0.9440
-8.9110 11.9336 -0.4194 0.9421
-10.2207 11.8162 -0.4399 0.9394
-11.0129 11.8456 -0.4554 0.9373
-11.8562 11.8693 -0.4724 0.9351
-13.7365 11.9081 -0.5119 0.9298
-14.8197 11.9440 -0.5359 0.9267
-15.9603 11.9452 -0.5613 0.9233
-17.0456 11.8283 -0.5842 0.9203
-23.7896 11.8809 -0.7488 0.8991
-27.9814 12.7421 -0.8657 0.8842
-20.4283 -22.2427 -0.8504 0.8862
-14.1541 -19.1976 -0.6716 0.9090
-13.8237 -21.8743 -0.7286 0.9016
-11.9070 -22.2237 -0.7099 0.9040
-10.9072 -22.2381 -0.6974 0.9056
-9.9458 -22.2635 -0.6866 0.9070
-9.0120 -22.2864 -0.6769 0.9083
-8.1008 -22.3023 -0.6681 0.9094
-5.3725 -16.6262 -0.4920 0.9325
-3.8199 -22.3750 -0.6391 0.9132
-3.0000 -22.3840 -0.6359 0.9136
-1.3792 -22.3970 -0.6318 0.9141
1.0333 -22.4044 -0.6315 0.9142
2.1913 -4.2459 -0.1345 0.9811
32.8178 -36.8572 -1.3896 0.8208
32.6121 -31.7232 -1.2811 0.8336
32.8277 -27.6422 -1.2084 0.8422
32.6294 -25.5332 -1.1666 0.8472
37.1247 -26.9620 -1.2919 0.8323
38.1625 -25.6774 -1.2952 0.8319
41.1264 -5.2114 -1.1673 0.8471
43.7235 -3.9538 -1.2362 0.8389
41.9097 13.1626 -1.2369 0.8388
35.0372 13.8337 -1.0607 0.8601
33.6591 20.8855 -1.1154 0.8534
34.9808 27.3143 -1.2497 0.8373
30.0026 27.1034 -1.1385 0.8506
3.0660 13.3070 -0.3845 0.9468
2.5341 13.1347 -0.3767 0.9479
1.4990 12.5522 -0.3560 0.9507
1.0378 12.4752 -0.3525 0.9511
0.5792 12.2789 -0.3461 0.9520
-0.2946 11.9790 -0.3374 0.9532
-3.4122 12.0644 -0.3530 0.9511
-4.8814 12.1080 -0.3676 0.9491
-5.2704 11.8309 -0.3647 0.9495
-5.8363 11.9310 -0.3740 0.9482
-6.3461 11.8745 -0.3791 0.9475
-7.0354 12.0996 -0.3941 0.9455
-7.4823 11.8674 -0.3950 0.9454
-8.6614 11.7735 -0.4116 0.9432
-22.3222 11.9613 -1.2843 0.9035
-21.2783 8.6058 -1.1640 0.9122
-37.0954 13.4763 -2.0016 0.8538
-37.9658 10.7832 -2.0016 0.8538
-38.3280 9.4150 -2.0016 0.8538
-38.6409 8.0347 -2.0016 0.8538
-38.9042 6.6440 -2.0016 0.8538
-39.1174 5.2448 -2.0016 0.8538
-39.3927 2.4280 -2.0016 0.8538
-39.4544 1.0140 -2.0016 0.8538
-39.4256 -1.8161 -2.0016 0.8538
-39.1941 -4.6369 -2.0016 0.8538
-39.0026 -6.0392 -2.0016 0.8538
-38.4695 -8.8188 -2.0016 0.8538
-36.8136 -14.2279 -2.0016 0.8538
-34.4015 -19.3447 -2.0016 0.8538
-29.6825 -21.1835 -1.8494 0.8641
-26.9932 -22.3498 -1.7773 0.8690
-25.1093 -22.3550 -1.7050 0.8740
-23.3707 -22.3598 -1.6403 0.8785
-21.7571 -22.3643 -1.5824 0.8825
-20.2518 -22.3685 -1.5303 0.8862
-18.8406 -22.3724 -1.4833 0.8895
-17.2057 -21.9850 -1.4158 0.8942
-16.3824 -22.5548 -1.4137 0.8944
-13.6068 -21.8750 -1.3065 0.9020
-11.7925 -22.3920 -1.2834 0.9036
-9.8148 -22.3975 -1.2401 0.9067
-6.1893 -22.4026 -1.1787 0.9111
-4.5124 -22.5115 -1.1644 0.9121
-3.6616 -22.4096 -1.1516 0.9131
-1.2201 -22.4164 -1.1385 0.9140
1.1944 -22.4231 -1.1388 0.9140
4.5443 -36.1820 -1.8494 0.8641
11.8239 -37.6546 -2.0016 0.8538
13.1664 -37.2065 -2.0016 0.8538
14.4920 -36.7105 -2.0016 0.8538
2.2123 -4.2127 -0.2413 0.9811
19.5913 -34.2616 -2.0016 0.8538
20.8072 -33.5371 -2.0016 0.8538
23.1571 -31.9597 -2.0016 0.8538
24.2881 -31.1089 -2.0016 0.8538
26.9576 -27.7742 -1.9629 0.8564
27.2080 -24.2799 -1.8494 0.8641
28.0611 -23.2888 -1.8494 0.8641
29.6579 -21.2179 -1.8494 0.8641
30.3996 -20.1409 -1.8494 0.8641
30.1627 -18.4628 -1.7935 0.8679
31.7648 -17.9105 -1.8494 0.8641
32.3866 -16.7600 -1.8494 0.8641
36.7971 -14.2705 -2.0016 0.8538
37.2851 -12.9420 -2.0016 0.8538
38.1168 -10.2367 -2.0016 0.8538
38.4593 -8.8634 -2.0016 0.8538
38.7524 -7.4787 -2.0016 0.8538
36.1788 -5.6449 -1.8570 0.8636
34.0628 -4.0698 -1.7398 0.8716
39.4649 -0.4470 -2.0016 0.8538
39.3954 2.3824 -2.0016 0.8538
39.2847 3.7934 -2.0016 0.8538
39.1234 5.1995 -2.0016 0.8538
38.9118 6.5990 -2.0016 0.8538
38.5869 7.9768 -1.9983 0.8540
32.7606 9.2638 -1.7266 0.8725
34.2890 12.4118 -1.8494 0.8641
32.1624 17.1863 -1.8494 0.8641
29.6402 17.2325 -1.7388 0.8717
29.3750 21.6078 -1.8494 0.8641
27.7510 23.6574 -1.8494 0.8641
26.0659 29.6352 -2.0016 0.8538
21.5615 33.0572 -2.0016 0.8538
20.3624 33.8090 -2.0016 0.8538
17.8870 35.1813 -2.0016 0.8538
15.3198 36.3728 -2.0016 0.8538
4.8008 16.0264 -0.8484 0.9352
3.5282 13.5245 -0.7088 0.9456
1.4167 12.6265 -0.6444 0.9504
0.0492 11.8846 -0.6027 0.9535
-0.3796 11.9644 -0.6071 0.9532
-0.8147 12.0364 -0.6118 0.9528
-1.2289 11.8373 -0.6035 0.9535
-2.5289 11.8050 -0.6123 0.9528
-3.9504 11.9759 -0.6395 0.9507
-5.3590 11.8028 -0.6574 0.9494
-7.5467 11.7826 -0.7096 0.9455
-8.1255 11.7372 -0.7240 0.9444
-8.9354 11.9663 -0.7574 0.9419
-9.5038 11.8187 -0.7691 0.9411
-10.2936 11.9006 -0.7980 0.9389
-12.8455 11.9689 -0.8904 0.9321
-14.6851 11.8355 -0.9565 0.9272
-17.1077 11.8714 -1.0560 0.9200
-18.4527 11.8477 -1.1121 0.9159
-26.4855 12.0609 -1.4759 0.8900
-36.9983 13.7404 -2.0016 0.8538
-37.4672 12.4050 -2.0016 0.8538
-38.2599 9.6880 -2.0016 0.8538
-38.5827 8.3099 -2.0016 0.8538
-39.2519 4.1188 -2.0016 0.8538
-39.4462 1.2952 -2.0016 0.8538
-39.3571 -2.9481 -2.0016 0.8538
-39.2261 -4.3574 -2.0016 0.8538
-39.0447 -5.7611 -2.0016 0.8538
-38.8130 -7.1573 -2.0016 0.8538
-38.5314 -8.5444 -2.0016 0.8538
-38.2003 -9.9205 -2.0016 0.8538
-37.3911 -12.6325 -2.0016 0.8538
-36.9141 -13.9651 -2.0016 0.8538
-36.3897 -15.2797 -2.0016 0.8538
-35.2011 -17.8483 -2.0016 0.8538
-34.5385 -19.0989 -2.0016 0.8538
-31.2589 -18.7795 -1.8494 0.8641
-30.5654 -19.8882 -1.8494 0.8641
-29.8327 -20.9714 -1.8494 0.8641
-23.7058 -22.3589 -1.6526 0.8776
-20.5431 -22.3677 -1.5402 0.8855
-19.1142 -22.3716 -1.4923 0.8888
-14.1541 -19.1976 -1.2096 0.9089
-15.4142 -22.5575 -1.3856 0.8963
-13.8236 -21.8743 -1.3123 0.9016
-10.9837 -22.3942 -1.2650 0.9049
-10.0055 -22.3970 -1.2440 0.9064
-9.0578 -22.3996 -1.2253 0.9078
-5.3719 -16.6242 -0.8860 0.9324
-5.5022 -22.4045 -1.1700 0.9117
-4.6795 -22.5111 -1.1660 0.9120
-3.8257 -22.4091 -1.1529 0.9130
-3.0036 -22.4114 -1.1467 0.9134
-2.1892 -22.4137 -1.1421 0.9138
-0.5749 -22.4182 -1.1373 0.9141
1.0341 -22.4226 -1.1384 0.9140
6.8705 -35.8132 -1.8494 0.8641
10.1946 -38.1280 -2.0016 0.8538
12.9008 -37.2994 -2.0016 0.8538
14.2299 -36.8128 -2.0016 0.8538
19.3466 -34.4004 -2.0016 0.8538
22.9287 -32.1240 -2.0016 0.8538
24.0658 -31.2812 -2.0016 0.8538
26.2457 -29.4761 -2.0016 0.8538
26.9528 -28.1682 -1.9771 0.8554
26.9762 -26.2409 -1.9086 0.8601
27.8943 -23.4882 -1.8494 0.8641
28.7186 -22.4729 -1.8494 0.8641
30.2553 -20.3570 -1.8494 0.8641
30.0074 -18.6631 -1.7921 0.8680
31.6364 -18.1364 -1.8494 0.8641
36.6945 -14.5324 -2.0016 0.8538
37.1920 -13.2074 -2.0016 0.8538
38.0428 -10.5081 -2.0016 0.8538
38.6981 -7.7547 -2.0016 0.8538
38.9512 -6.3622 -2.0016 0.8538
32.4748 -4.1151 -1.6601 0.8771
34.4961 -3.1193 -1.7566 0.8705
39.4607 -0.7283 -2.0016 0.8538
39.4114 2.1015 -2.0016 0.8538
39.1595 4.9205 -2.0016 0.8538
38.9579 6.3214 -2.0016 0.8538
38.7062 7.7142 -2.0016 0.8538
35.5295 8.4160 -1.8517 0.8640
32.7536 9.0102 -1.7228 0.8728
33.9182 13.3919 -1.8494 0.8641
33.4163 14.5994 -1.8494 0.8641
32.8713 15.7882 -1.8494 0.8641
30.2765 20.3254 -1.8494 0.8641
28.7421 22.4429 -1.8494 0.8641
27.9189 23.4590 -1.8494 0.8641
27.2676 26.4688 -1.9272 0.8588
27.2251 28.3933 -1.9949 0.8542
24.0985 31.2560 -2.0016 0.8538
22.9623 32.1000 -2.0016 0.8538
20.6028 33.6630 -2.0016 0.8538
19.3826 34.3801 -2.0016 0.8538
16.8688 35.6808 -2.0016 0.8538
15.5787 36.2627 -2.0016 0.8538
14.2684 36.7979 -2.0016 0.8538
12.9398 37.2859 -2.0016 0.8538
5.2310 17.0204 -0.9030 0.9312
3.6228 13.4929 -0.7085 0.9456
3.0670 13.3115 -0.6928 0.9468
1.9951 12.7916 -0.6566 0.9495
1.0203 12.2649 -0.6242 0.9519
0.1340 11.8840 -0.6027 0.9535
-0.2940 11.9538 -0.6064 0.9532
-1.1741 8.8308 -0.4518 0.9649
-2.4260 11.7322 -0.6076 0.9531
-2.9297 11.9837 -0.6256 0.9518
-3.7822 11.7467 -0.6258 0.9518
-5.8017 11.8601 -0.6696 0.9485
-8.7217 11.8554 -0.7464 0.9428
-21.5552 11.5504 -1.7931 0.9066
-22.6446 11.1081 -1.8494 0.9038
-23.0283 10.2891 -1.8494 0.9038
-21.0765 8.5241 -1.6670 0.9128
-23.7065 8.6123 -1.8494 0.9038
-26.2595 7.4584 -2.0016 0.8963
-26.5101 6.5120 -2.0016 0.8963
-26.7265 5.5573 -2.0016 0.8963
-27.0561 3.6276 -2.0016 0.8963
-27.1687 2.6552 -2.0016 0.8963
-27.2465 1.6793 -2.0016 0.8963
-27.2892 0.7013 -2.0016 0.8963
-27.2968 -0.2776 -2.0016 0.8963
-27.2693 -1.2561 -2.0016 0.8963
-24.8760 -4.7709 -1.8572 0.9034
-26.6080 -6.0997 -2.0016 0.8963
-26.3721 -7.0498 -2.0016 0.8963
-25.0934 -10.7476 -2.0016 0.8963
-23.2992 -14.2246 -2.0016 0.8963
-22.7742 -15.0508 -2.0016 0.8963
-21.0274 -16.1753 -1.9452 0.8991
-15.5448 -19.8628 -1.8494 0.9038
-14.8226 -20.4073 -1.8494 0.9038
-14.0814 -20.9257 -1.8494 0.9038
-12.5455 -21.8810 -1.8494 0.9038
-11.7529 -22.3168 -1.8494 0.9038
-10.7867 -22.3948 -1.8226 0.9051
-9.8148 -22.3975 -1.7930 0.9066
-8.8727 -22.4001 -1.7666 0.9079
-7.9551 -22.3977 -1.7428 0.9091
-5.3333 -22.4050 -1.6887 0.9118
-4.4244 -22.0723 -1.6506 0.9137
-3.6616 -22.4096 -1.6649 0.9130
-2.8412 -22.4119 -1.6564 0.9134
-2.0281 -22.4141 -1.6502 0.9137
-1.2201 -22.4164 -1.6461 0.9139
-0.4150 -22.4186 -1.6441 0.9140
0.2991 -17.2328 -1.2637 0.9332
1.1944 -22.4231 -1.6464 0.9139
2.2438 -25.1224 -1.8494 0.9038
3.1432 -25.0258 -1.8494 0.9038
9.1067 -25.7344 -2.0016 0.8963
10.9275 -25.0156 -2.0016 0.8963
11.8175 -24.6077 -2.0016 0.8963
2.2123 -4.2127 -0.3489 0.9811
13.5506 -23.6975 -2.0016 0.8963
14.3916 -23.1964 -2.0016 0.8963
15.2140 -22.6655 -2.0016 0.8963
17.5599 -20.9007 -2.0016 0.8963
18.2981 -20.2576 -2.0016 0.8963
20.3675 -18.1756 -2.0016 0.8963
22.7567 -15.0772 -2.0016 0.8963
23.2827 -14.2515 -2.0016 0.8963
23.7787 -13.4076 -2.0016 0.8963
24.2442 -12.5463 -2.0016 0.8963
24.6784 -11.6690 -2.0016 0.8963
25.0810 -10.7766 -2.0016 0.8963
25.7888 -8.9515 -2.0016 0.8963
26.0932 -8.0211 -2.0016 0.8963
26.8036 -5.1727 -2.0016 0.8963
27.2041 -2.2646 -2.0016 0.8963
27.2678 -1.2877 -2.0016 0.8963
27.2964 -0.3092 -2.0016 0.8963
27.2484 1.6478 -2.0016 0.8963
27.0602 3.5963 -2.0016 0.8963
26.9139 4.5643 -2.0016 0.8963
26.7329 5.5263 -2.0016 0.8963
26.5176 6.4813 -2.0016 0.8963
25.6683 9.2913 -2.0016 0.8963
25.3186 10.2057 -2.0016 0.8963
24.9364 11.1070 -2.0016 0.8963
24.5222 11.9939 -2.0016 0.8963
24.0763 12.8655 -2.0016 0.8963
23.5996 13.7205 -2.0016 0.8963
23.0924 14.5578 -2.0016 0.8963
22.5556 15.3765 -2.0016 0.8963
20.1257 18.4431 -2.0016 0.8963
18.7522 19.8380 -2.0016 0.8963
18.0289 20.4976 -2.0016 0.8963
16.5135 21.7369 -2.0016 0.8963
14.9133 22.8645 -2.0016 0.8963
13.2364 23.8744 -2.0016 0.8963
7.7178 16.6303 -1.3443 0.9291
10.5962 25.1577 -2.0016 0.8963
9.6873 25.5215 -2.0016 0.8963
4.8014 16.0284 -1.2268 0.9351
3.5195 13.4912 -1.0223 0.9456
2.9332 13.1590 -0.9885 0.9474
1.9304 12.9836 -0.9625 0.9487
0.9319 12.2591 -0.9015 0.9519
0.4872 12.1725 -0.8932 0.9523
-0.3846 12.1192 -0.8890 0.9525
-1.2353 8.8095 -0.6523 0.9650
-2.5559 11.9307 -0.8946 0.9522
-3.4468 11.8633 -0.9058 0.9517
-4.8955 11.8977 -0.9433 0.9497
-5.3623 11.8100 -0.9510 0.9493
-5.8939 11.8342 -0.9694 0.9484
-6.4846 11.9283 -0.9955 0.9470
-8.2115 11.8614 -1.0578 0.9438
-11.9656 11.9788 -1.2414 0.9343
-13.5511 11.7474 -1.3150 0.9306
-19.4703 11.5367 -1.6594 0.9132
-21.1865 11.5479 -1.7692 0.9078
-22.5649 11.2693 -1.8494 0.9038
-22.9544 10.4530 -1.8494 0.9038
-23.6445 8.7811 -1.8494 0.9038
-26.2057 7.6454 -2.0016 0.8963
-26.4630 6.7008 -2.0016 0.8963
-26.6862 5.7477 -2.0016 0.8963
-26.8752 4.7871 -2.0016 0.8963
-27.0295 3.8204 -2.0016 0.8963
-27.1491 2.8488 -2.0016 0.8963
-27.2338 1.8735 -2.0016 0.8963
-27.2981 -0.0830 -2.0016 0.8963
-27.2775 -1.0617 -2.0016 0.8963
-27.2219 -2.0391 -2.0016 0.8963
-25.1715 -2.7961 -1.8570 0.9034
-25.0551 -3.6969 -1.8570 0.9034
-24.9064 -4.5929 -1.8570 0.9034
-26.6508 -5.9098 -2.0016 0.8963
-26.1587 -7.8046 -2.0016 0.8963
-25.8621 -8.7375 -2.0016 0.8963
-25.5322 -9.6592 -2.0016 0.8963
-25.1694 -10.5684 -2.0016 0.8963
-24.7743 -11.4641 -2.0016 0.8963
-19.8372 -16.1878 -1.8773 0.9024
-18.9573 -16.6370 -1.8494 0.9038
-17.7162 -17.9528 -1.8494 0.9038
-17.0612 -18.5765 -1.8494 0.9038
-16.3841 -19.1763 -1.8494 0.9038
-14.1541 -19.1976 -1.7488 0.9088
-14.2302 -20.8248 -1.8494 0.9038
-13.4743 -21.3216 -1.8494 0.9038
-12.7012 -21.7910 -1.8494 0.9038
-11.9117 -22.2324 -1.8494 0.9038
-10.9838 -22.3942 -1.8289 0.9048
-9.0578 -22.3996 -1.7716 0.9076
-8.1352 -22.3972 -1.7472 0.9089
-6.3614 -22.4021 -1.7075 0.9108
-5.5022 -22.4045 -1.6916 0.9116
-4.5882 -22.0719 -1.6530 0.9136
-1.3804 -22.4159 -1.6467 0.9139
2.0647 -25.1378 -1.8494 0.9038
2.9647 -25.0476 -1.8494 0.9038
3.8611 -24.9251 -1.8494 0.9038
4.7523 -24.7707 -1.8494 0.9038
5.6373 -24.5844 -1.8494 0.9038
7.3846 -24.1172 -1.8494 0.9038
9.8423 -25.4621 -2.0016 0.8963
15.0521 -22.7733 -2.0016 0.8963
15.8590 -22.2190 -2.0016 0.8963
17.4105 -21.0253 -2.0016 0.8963
18.8725 -19.7236 -2.0016 0.8963
20.2375 -18.3204 -2.0016 0.8963
22.0877 -16.0413 -2.0016 0.8963
22.6487 -15.2390 -2.0016 0.8963
23.1805 -14.4171 -2.0016 0.8963
23.6826 -13.5767 -2.0016 0.8963
24.1541 -12.7188 -2.0016 0.8963
24.5946 -11.8446 -2.0016 0.8963
25.7243 -9.1351 -2.0016 0.8963
26.0353 -8.2068 -2.0016 0.8963
26.7660 -5.3637 -2.0016 0.8963
27.0816 -3.4317 -2.0016 0.8963
27.2935 -0.5037 -2.0016 0.8963
27.2940 0.4752 -2.0016 0.8963
27.0852 3.4033 -2.0016 0.8963
26.7716 5.3357 -2.0016 0.8963
26.0439 8.1796 -2.0016 0.8963
25.3907 10.0250 -2.0016 0.8963
25.0150 10.9289 -2.0016 0.8963
24.6070 11.8188 -2.0016 0.8963
24.1674 12.6935 -2.0016 0.8963
23.1956 14.3929 -2.0016 0.8963
22.1045 16.0182 -2.0016 0.8963
21.5160 16.8004 -2.0016 0.8963
20.8997 17.5611 -2.0016 0.8963
20.2566 18.2992 -2.0016 0.8963
18.1745 20.3686 -2.0016 0.8963
16.6680 21.6187 -2.0016 0.8963
14.2502 23.2835 -2.0016 0.8963
13.4062 23.7795 -2.0016 0.8963
12.5450 24.2449 -2.0016 0.8963
10.7752 25.0816 -2.0016 0.8963
9.8690 25.4518 -2.0016 0.8963
3.0537 13.2536 -0.9972 0.9469
0.1357 12.0360 -0.8826 0.9529
-0.2952 12.0021 -0.8803 0.9530
-0.7245 11.9699 -0.8793 0.9530
-1.1739 8.8293 -0.6531 0.9649
-2.0223 11.9206 -0.8865 0.9527
-2.5082 12.1298 -0.9082 0.9515
-2.9322 11.9940 -0.9053 0.9517
-3.8360 11.9139 -0.9177 0.9510
-4.8055 11.9198 -0.9423 0.9498
-5.8041 11.8652 -0.9685 0.9484
-6.3447 11.8719 -0.9870 0.9474
-7.4665 11.8423 -1.0265 0.9454
-8.0973 11.8765 -1.0539 0.9440
-8.7619 11.9102 -1.0841 0.9424
-18.4490 8.2430 -1.9399 0.9220
-20.0553 5.6962 -2.0016 0.9196
-20.5510 3.5097 -2.0016 0.9196
-20.6636 2.7706 -2.0016 0.9196
-20.7496 2.0279 -2.0016 0.9196
-20.8416 0.5356 -2.0016 0.9196
-20.4754 -3.9269 -2.0016 0.9196
-20.1413 -5.3842 -2.0016 0.9196
-19.9353 -6.1029 -2.0016 0.9196
-19.4466 -7.5158 -2.0016 0.9196
-18.8580 -8.8902 -2.0016 0.9196
-18.5271 -9.5606 -2.0016 0.9196
-17.7943 -10.8638 -2.0016 0.9196
-16.0585 -13.2961 -2.0016 0.9196
-14.5379 -14.9436 -2.0016 0.9196
-13.9927 -15.4552 -2.0016 0.9196
-13.4065 -15.9196 -1.9981 0.9198
-12.6551 -16.1704 -1.9713 0.9208
-10.8937 -16.1886 -1.8733 0.9246
-10.1745 -16.3569 -1.8494 0.9255
-8.9761 -17.0440 -1.8494 0.9255
-8.3592 -17.3549 -1.8494 0.9255
-7.7315 -17.6435 -1.8494 0.9255
-6.4472 -18.1522 -1.8494 0.9255
-5.2068 -16.5149 -1.6624 0.9328
-4.4607 -18.7396 -1.8494 0.9255
-3.1063 -19.0111 -1.8494 0.9255
-2.4227 -19.1102 -1.8494 0.9255
0.2982 -17.1821 -1.6498 0.9333
1.0246 -19.2359 -1.8494 0.9255
1.7137 -19.1868 -1.8494 0.9255
2.4005 -19.1130 -1.8494 0.9255
3.7641 -18.8918 -1.8494 0.9255
4.4391 -18.7447 -1.8494 0.9255
5.2195 -18.9779 -1.8896 0.9240
6.2322 -19.8474 -1.9972 0.9198
6.9551 -19.6542 -2.0016 0.9196
7.6553 -19.3922 -2.0016 0.9196
8.3457 -19.1052 -2.0016 0.9196
2.2123 -4.2126 -0.4568 0.9811
10.3490 -18.0985 -2.0016 0.9196
10.9913 -17.7159 -2.0016 0.9196
11.6195 -17.3103 -2.0016 0.9196
12.2326 -16.8826 -2.0016 0.9196
13.9748 -15.4714 -2.0016 0.9196
14.5205 -14.9604 -2.0016 0.9196
15.0476 -14.4301 -2.0016 0.9196
17.3800 -11.5149 -2.0016 0.9196
17.7817 -10.8844 -2.0016 0.9196
18.1606 -10.2398 -2.0016 0.9196
18.8477 -8.9120 -2.0016 0.9196
19.4379 -7.5383 -2.0016 0.9196
20.5993 -3.2141 -2.0016 0.9196
20.7013 -2.4734 -2.0016 0.9196
20.7766 -1.7296 -2.0016 0.9196
20.8472 -0.2361 -2.0016 0.9196
20.8422 0.5115 -2.0016 0.9196
20.7520 2.0038 -2.0016 0.9196
20.6668 2.7466 -2.0016 0.9196
20.5550 3.4859 -2.0016 0.9196
20.0618 5.6730 -2.0016 0.9196
19.8456 6.3886 -2.0016 0.9196
19.3367 7.7944 -2.0016 0.9196
18.7284 9.1602 -2.0016 0.9196
18.0237 10.4788 -2.0016 0.9196
16.7943 12.3536 -2.0016 0.9196
16.3406 12.9478 -2.0016 0.9196
15.8658 13.5254 -2.0016 0.9196
14.8557 14.6276 -2.0016 0.9196
13.7692 15.6547 -2.0016 0.9196
13.1991 16.1383 -2.0016 0.9196
12.6119 16.6012 -2.0016 0.9196
12.0099 17.0427 -2.0016 0.9196
11.3898 17.4623 -2.0016 0.9196
10.1090 18.2337 -2.0016 0.9196
9.4488 18.5844 -2.0016 0.9196
7.4773 17.7528 -1.8494 0.9255
6.8359 18.0094 -1.8494 0.9255
6.1858 18.2430 -1.8494 0.9255
4.7706 15.9255 -1.5960 0.9354
3.4687 13.2965 -1.3192 0.9463
2.9149 13.0767 -1.2862 0.9476
1.3863 12.3560 -1.1937 0.9513
0.9305 12.2416 -1.1786 0.9519
0.0493 11.9111 -1.1435 0.9533
-0.3804 11.9879 -1.1515 0.9529
-1.2280 11.8288 -1.1417 0.9533
-1.2351 8.8085 -0.8539 0.9649
-2.0953 11.8388 -1.1542 0.9528
-3.0271 12.0103 -1.1891 0.9514
-3.4469 11.8634 -1.1860 0.9516
-3.9741 12.0478 -1.2180 0.9503
-4.4707 12.0790 -1.2365 0.9496
-4.8743 11.8462 -1.2298 0.9498
-5.4182 11.9331 -1.2582 0.9487
-5.9081 11.8627 -1.2723 0.9481
-7.0018 11.8466 -1.3211 0.9462
-8.5612 11.4652 -1.3737 0.9441
-9.2231 11.4695 -1.4130 0.9426
-10.6720 11.4790 -1.5047 0.9390
-11.4716 11.4843 -1.5584 0.9369
-13.2610 11.4960 -1.6849 0.9319
-15.8261 10.9820 -1.8494 0.9255
-16.2096 10.4075 -1.8494 0.9255
-16.5724 9.8196 -1.8494 0.9255
-17.2335 8.6067 -1.8494 0.9255
-19.2453 7.9436 -1.9988 0.9197
-19.7919 6.5529 -2.0016 0.9196
-20.0141 5.8390 -2.0016 0.9196
-20.2106 5.1177 -2.0016 0.9196
-20.5254 3.6561 -2.0016 0.9196
-20.6433 2.9178 -2.0016 0.9196
-20.7347 2.1757 -2.0016 0.9196
-20.7994 1.4309 -2.0016 0.9196
-20.8484 -0.0634 -2.0016 0.9196
-20.8328 -0.8109 -2.0016 0.9196
-20.7210 -2.3018 -2.0016 0.9196
-19.9783 -5.9606 -2.0016 0.9196
-19.7517 -6.6731 -2.0016 0.9196
-19.4997 -7.3770 -2.0016 0.9196
-18.5948 -9.4283 -2.0016 0.9196
-17.8713 -10.7367 -2.0016 0.9196
-16.6151 -12.5936 -2.0016 0.9196
-16.1529 -13.1813 -2.0016 0.9196
-15.6698 -13.7520 -2.0016 0.9196
-14.6440 -14.8396 -2.0016 0.9196
-14.1025 -15.3551 -2.0016 0.9196
-13.5293 -15.8350 -1.9996 0.9197
-11.0610 -16.1869 -1.8822 0.9242
-10.2908 -16.2840 -1.8494 0.9255
-9.0973 -16.9796 -1.8494 0.9255
-5.3390 -16.5224 -1.6670 0.9326
-5.2620 -18.5305 -1.8494 0.9255
-4.5942 -18.7073 -1.8494 0.9255
-3.2417 -18.9884 -1.8494 0.9255
-2.5588 -19.0925 -1.8494 0.9255
-1.1840 -19.2267 -1.8494 0.9255
0.1757 -17.1817 -1.6496 0.9333
0.8875 -19.2427 -1.8494 0.9255
2.2642 -19.1296 -1.8494 0.9255
2.9487 -19.0361 -1.8494 0.9255
3.6293 -18.9182 -1.8494 0.9255
5.0232 -18.7870 -1.8670 0.9248
6.8148 -19.7032 -2.0016 0.9196
7.5169 -19.4462 -2.0016 0.9196
8.2093 -19.1642 -2.0016 0.9196
2.1912 -4.2457 -0.4587 0.9810
10.8647 -17.7937 -2.0016 0.9196
12.1120 -16.9694 -2.0016 0.9196
12.7126 -16.5242 -2.0016 0.9196
13.2970 -16.0577 -2.0016 0.9196
13.8642 -15.5706 -2.0016 0.9196
14.9444 -14.5370 -2.0016 0.9196
15.4560 -13.9918 -2.0016 0.9196
16.8691 -12.2512 -2.0016 0.9196
17.7037 -11.0108 -2.0016 0.9196
18.0871 -10.3690 -2.0016 0.9196
19.0960 -8.3668 -2.0016 0.9196
19.6465 -6.9767 -2.0016 0.9196
20.0960 -5.5508 -2.0016 0.9196
20.2821 -4.8267 -2.0016 0.9196
20.4421 -4.0964 -2.0016 0.9196
20.5758 -3.3608 -2.0016 0.9196
20.8449 -0.3847 -2.0016 0.9196
20.8453 0.3629 -2.0016 0.9196
20.8189 1.1101 -2.0016 0.9196
20.7657 1.8559 -2.0016 0.9196
20.6858 2.5992 -2.0016 0.9196
20.4464 4.0750 -2.0016 0.9196
19.8906 6.2470 -2.0016 0.9196
19.3917 7.6564 -2.0016 0.9196
18.7932 9.0264 -2.0016 0.9196
18.4574 9.6945 -2.0016 0.9196
17.7152 10.9923 -2.0016 0.9196
17.3097 11.6204 -2.0016 0.9196
16.8819 12.2336 -2.0016 0.9196
16.4324 12.8310 -2.0016 0.9196
15.4706 13.9757 -2.0016 0.9196
12.7299 16.5109 -2.0016 0.9196
12.1297 16.9567 -2.0016 0.9196
11.5139 17.3807 -2.0016 0.9196
10.2388 18.1612 -2.0016 0.9196
9.5810 18.5166 -2.0016 0.9196
6.3157 18.1984 -1.8494 0.9255
5.3989 17.5666 -1.7643 0.9288
2.5452 13.1927 -1.2899 0.9474
1.9816 12.7051 -1.2345 0.9496
1.5259 12.7773 -1.2354 0.9496
1.0192 12.2517 -1.1803 0.9518
-0.2951 11.9974 -1.1522 0.9529
-1.1737 8.8279 -0.8550 0.9648
-2.9280 11.9767 -1.1837 0.9517
-3.3269 11.7627 -1.1736 0.9521
-3.7899 11.7708 -1.1872 0.9515
-4.2939 11.8602 -1.2110 0.9506
-4.7798 11.8561 -1.2273 0.9499
-5.2143 11.7051 -1.2302 0.9498
-5.8299 11.9179 -1.2737 0.9481
-6.9448 11.9436 -1.3264 0.9460
-7.3050 11.5862 -1.3150 0.9464
-8.4340 11.4644 -1.3664 0.9444
-14.1392 8.2423 -1.9441 0.9362
-15.6210 6.3177 -2.0016 0.9344
-16.2090 4.6038 -2.0016 0.9344
-16.3637 4.0196 -2.0016 0.9344
-16.4973 3.4303 -2.0016 0.9344
-16.7007 2.2392 -2.0016 0.9344
-16.8446 0.4329 -2.0016 0.9344
-16.7335 -1.9797 -2.0016 0.9344
-16.4241 -3.7651 -2.0016 0.9344
-16.2786 -4.3516 -2.0016 0.9344
-15.9248 -5.5070 -2.0016 0.9344
-15.7171 -6.0744 -2.0016 0.9344
-15.4893 -6.6341 -2.0016 0.9344
-14.3817 -8.7803 -2.0016 0.9344
-13.3557 -10.2739 -2.0016 0.9344
-12.9788 -10.7461 -2.0016 0.9344
-12.1753 -11.6486 -2.0016 0.9344
-11.7498 -12.0777 -2.0016 0.9344
-11.3092 -12.4912 -2.0016 0.9344
-10.8540 -12.8887 -2.0016 0.9344
-10.3849 -13.2696 -2.0016 0.9344
-9.4073 -13.9797 -2.0016 0.9344
-8.9000 -14.3080 -2.0016 0.9344
-7.8517 -14.9090 -2.0016 0.9344
-7.3121 -15.1810 -2.0016 0.9344
-6.7630 -15.4334 -2.0016 0.9344
-5.0533 -16.0280 -1.9963 0.9345
-4.4664 -16.1665 -1.9923 0.9347
-0.8815 -16.1951 -1.9266 0.9368
0.2835 -16.3368 -1.9409 0.9363
2.0948 -16.6786 -1.9967 0.9345
4.4684 -16.2469 -2.0016 0.9344
5.0481 -16.0762 -2.0016 0.9344
5.6212 -15.8849 -2.0016 0.9344
6.1872 -15.6731 -2.0016 0.9344
7.2945 -15.1894 -2.0016 0.9344
8.8834 -14.3183 -2.0016 0.9344
9.3911 -13.9906 -2.0016 0.9344
11.7358 -12.0913 -2.0016 0.9344
12.1618 -11.6627 -2.0016 0.9344
12.9663 -10.7612 -2.0016 0.9344
14.3715 -8.7969 -2.0016 0.9344
14.6777 -8.2760 -2.0016 0.9344
14.9650 -7.7444 -2.0016 0.9344
15.2331 -7.2028 -2.0016 0.9344
15.4816 -6.6520 -2.0016 0.9344
15.9185 -5.5254 -2.0016 0.9344
16.6487 -2.5977 -2.0016 0.9344
16.8314 -0.7949 -2.0016 0.9344
16.8491 -0.1909 -2.0016 0.9344
16.8194 1.0171 -2.0016 0.9344
16.6130 2.8173 -2.0016 0.9344
16.3683 4.0007 -2.0016 0.9344
16.0395 5.1634 -2.0016 0.9344
15.8441 5.7352 -2.0016 0.9344
15.3923 6.8559 -2.0016 0.9344
14.8614 7.9414 -2.0016 0.9344
14.5671 8.4691 -2.0016 0.9344
14.2541 8.9860 -2.0016 0.9344
13.9227 9.4913 -2.0016 0.9344
13.2068 10.4647 -2.0016 0.9344
12.8230 10.9315 -2.0016 0.9344
12.0067 11.8223 -2.0016 0.9344
11.1285 12.6524 -2.0016 0.9344
10.6677 13.0433 -2.0016 0.9344
9.2054 14.1134 -2.0016 0.9344
8.6935 14.4344 -2.0016 0.9344
7.5490 13.6162 -1.8494 0.9392
7.0560 13.8781 -1.8494 0.9392
6.5538 14.1222 -1.8494 0.9392
5.5249 14.5556 -1.8494 0.9392
4.9995 14.7443 -1.8494 0.9392
4.4676 14.9141 -1.8494 0.9392
3.4687 13.2965 -1.6323 0.9462
2.3756 12.8034 -1.5468 0.9489
1.8696 12.5752 -1.5102 0.9501
1.3865 12.3573 -1.4771 0.9511
0.9234 12.1484 -1.4472 0.9521
0.0487 11.7538 -1.3962 0.9538
-1.2350 8.8075 -1.0564 0.9648
-2.0216 11.4223 -1.3779 0.9543
-2.8803 11.4280 -1.3999 0.9536
-3.7716 11.4338 -1.4302 0.9527
-4.2331 11.4368 -1.4486 0.9521
-5.1957 11.4431 -1.4928 0.9506
-6.2245 11.4499 -1.5481 0.9489
-8.5612 11.4652 -1.6997 0.9440
-9.2231 11.4695 -1.7483 0.9424
-9.9248 11.4741 -1.8021 0.9407
-11.7639 10.1981 -1.8494 0.9392
-12.4645 9.3288 -1.8494 0.9392
-12.7909 8.8759 -1.8494 0.9392
-13.1097 8.4172 -1.8506 0.9392
-13.9173 8.2464 -1.9216 0.9369
-15.0748 7.5286 -2.0016 0.9344
-15.9962 5.2962 -2.0016 0.9344
-16.5890 2.9549 -2.0016 0.9344
-16.8104 1.1565 -2.0016 0.9344
-16.8031 -1.2587 -2.0016 0.9344
-16.7471 -1.8603 -2.0016 0.9344
-16.5708 -3.0557 -2.0016 0.9344
-16.3092 -4.2354 -2.0016 0.9344
-16.1468 -4.8175 -2.0016 0.9344
-15.9637 -5.3933 -2.0016 0.9344
-15.7601 -5.9622 -2.0016 0.9344
-14.4440 -8.6776 -2.0016 0.9344
-13.7849 -9.6904 -2.0016 0.9344
-13.4286 -10.1784 -2.0016 0.9344
-13.0550 -10.6533 -2.0016 0.9344
-12.6647 -11.1146 -2.0016 0.9344
-11.8356 -11.9936 -2.0016 0.9344
-10.4792 -13.1952 -2.0016 0.9344
-9.9994 -13.5625 -2.0016 0.9344
-9.0017 -14.2442 -2.0016 0.9344
-7.9577 -14.8527 -2.0016 0.9344
-6.8729 -15.3848 -2.0016 0.9344
-5.7475 -15.8234 -1.9998 0.9344
-5.1688 -15.9959 -1.9968 0.9345
-4.5860 -16.1498 -1.9942 0.9346
-2.7613 -16.1745 -1.9491 0.9360
-2.1680 -16.1764 -1.9387 0.9364
0.1668 -16.3144 -1.9380 0.9364
0.7580 -16.4352 -1.9543 0.9359
1.9750 -16.6861 -1.9959 0.9346
3.1747 -16.5484 -2.0016 0.9344
4.3525 -16.2783 -2.0016 0.9344
5.5079 -15.9245 -2.0016 0.9344
6.0753 -15.7168 -2.0016 0.9344
7.1860 -15.2410 -2.0016 0.9344
2.1912 -4.2457 -0.5675 0.9809
8.7811 -14.3812 -2.0016 0.9344
9.2911 -14.0571 -2.0016 0.9344
9.7891 -13.7150 -2.0016 0.9344
11.2053 -12.5845 -2.0016 0.9344
12.0783 -11.7491 -2.0016 0.9344
12.4918 -11.3085 -2.0016 0.9344
12.8893 -10.8533 -2.0016 0.9344
13.6339 -9.9017 -2.0016 0.9344
13.9802 -9.4065 -2.0016 0.9344
14.6184 -8.3804 -2.0016 0.9344
14.9094 -7.8508 -2.0016 0.9344
15.4337 -6.7622 -2.0016 0.9344
16.3924 -3.9011 -2.0016 0.9344
16.5217 -3.3108 -2.0016 0.9344
16.8473 -0.3109 -2.0016 0.9344
16.8476 0.2933 -2.0016 0.9344
16.7833 1.5000 -2.0016 0.9344
16.7187 2.1008 -2.0016 0.9344
16.5251 3.2935 -2.0016 0.9344
16.0759 5.0490 -2.0016 0.9344
15.8846 5.6221 -2.0016 0.9344
15.4408 6.7460 -2.0016 0.9344
15.1890 7.2953 -2.0016 0.9344
14.9177 7.8353 -2.0016 0.9344
14.3178 8.8842 -2.0016 0.9344
13.9900 9.3918 -2.0016 0.9344
12.9006 10.8398 -2.0016 0.9344
12.0906 11.7365 -2.0016 0.9344
11.6620 12.1624 -2.0016 0.9344
11.2184 12.5728 -2.0016 0.9344
10.2886 13.3444 -2.0016 0.9344
9.8035 13.7047 -2.0016 0.9344
9.3058 14.0474 -2.0016 0.9344
8.7961 14.3721 -2.0016 0.9344
7.6459 13.5621 -1.8494 0.9392
7.1547 13.8275 -1.8494 0.9392
6.6543 14.0751 -1.8494 0.9392
3.5841 13.3485 -1.6418 0.9458
1.0140 12.1893 -1.4529 0.9519
0.5654 11.9869 -1.4255 0.9528
-0.2854 11.6031 -1.3787 0.9543
-1.1030 11.4163 -1.3624 0.9549
-1.9376 11.4218 -1.3761 0.9544
-2.7937 11.4274 -1.3974 0.9537
-3.2329 11.4303 -1.4110 0.9533
-3.6813 11.4332 -1.4268 0.9528
-4.6118 11.4393 -1.4651 0.9515
-5.0974 11.4425 -1.4880 0.9508
-5.5990 11.4458 -1.5136 0.9500
-6.1188 11.4492 -1.5420 0.9491
-7.8136 11.4603 -1.6476 0.9457
-12.6827 6.2214 -2.0016 0.9445
-13.4418 4.3443 -2.0016 0.9445
-13.5889 3.8596 -2.0016 0.9445
-13.7186 3.3699 -2.0016 0.9445
-13.9248 2.3781 -2.0016 0.9445
-14.0011 1.8773 -2.0016 0.9445
-14.0996 0.8690 -2.0016 0.9445
-14.0791 -1.1556 -2.0016 0.9445
-13.9600 -2.1616 -2.0016 0.9445
-13.8736 -2.6608 -2.0016 0.9445
-12.7746 -2.9285 -1.8570 0.9484
-12.6614 -3.3846 -1.8570 0.9484
-12.3863 -4.2833 -1.8570 0.9484
-12.2248 -4.7247 -1.8570 0.9484
-11.8547 -5.5886 -1.8570 0.9484
-11.4985 -8.2061 -2.0016 0.9445
-11.1968 -8.6131 -2.0016 0.9445
-10.8808 -9.0091 -2.0016 0.9445
-10.5508 -9.3934 -2.0016 0.9445
-10.2072 -9.7657 -2.0016 0.9445
-9.8505 -10.1254 -2.0016 0.9445
-9.4811 -10.4721 -2.0016 0.9445
-9.0995 -10.8053 -2.0016 0.9445
-8.3018 -11.4296 -2.0016 0.9445
-7.8866 -11.7199 -2.0016 0.9445
-7.4613 -11.9952 -2.0016 0.9445
-7.0264 -12.2550 -2.0016 0.9445
-5.6698 -12.9386 -2.0016 0.9445
-5.2023 -13.1336 -2.0016 0.9445
-4.2477 -13.4727 -2.0016 0.9445
-3.2712 -13.7424 -2.0016 0.9445
-1.7766 -14.0142 -2.0016 0.9445
-0.7677 -14.1055 -2.0016 0.9445
-0.2615 -14.1240 -2.0016 0.9445
0.7514 -14.1064 -2.0016 0.9445
1.2567 -14.0704 -2.0016 0.9445
2.7603 -13.8541 -2.0016 0.9445
4.2321 -13.4776 -2.0016 0.9445
5.1870 -13.1396 -2.0016 0.9445
5.6548 -12.9452 -2.0016 0.9445
6.1154 -12.7341 -2.0016 0.9445
2.2123 -4.2126 -0.6742 0.9810
7.4474 -12.0038 -2.0016 0.9445
9.4690 -10.4830 -2.0016 0.9445
11.7763 -7.8022 -2.0016 0.9445
12.0485 -7.3750 -2.0016 0.9445
13.1706 -5.1078 -2.0016 0.9445
13.7656 -3.1724 -2.0016 0.9445
13.8705 -2.6768 -2.0016 0.9445
13.9575 -2.1778 -2.0016 0.9445
14.0266 -1.6759 -2.0016 0.9445
14.1107 -0.6664 -2.0016 0.9445
14.1221 0.3466 -2.0016 0.9445
14.1006 0.8527 -2.0016 0.9445
14.0033 1.8610 -2.0016 0.9445
13.9275 2.3619 -2.0016 0.9445
13.5934 3.8438 -2.0016 0.9445
13.2830 4.8081 -2.0016 0.9445
12.9042 5.7477 -2.0016 0.9445
12.6899 6.2067 -2.0016 0.9445
11.3794 8.3705 -2.0016 0.9445
11.0719 8.7731 -2.0016 0.9445
10.7502 9.1645 -2.0016 0.9445
10.4147 9.5440 -2.0016 0.9445
10.0658 9.9113 -2.0016 0.9445
9.7040 10.2659 -2.0016 0.9445
9.3297 10.6072 -2.0016 0.9445
8.9433 10.9349 -2.0016 0.9445
7.2737 12.0770 -1.9976 0.9446
5.4944 11.8394 -1.8494 0.9486
5.0664 12.0288 -1.8494 0.9486
4.6318 12.2027 -1.8494 0.9486
4.1913 12.3610 -1.8494 0.9486
3.7454 12.5033 -1.8494 0.9486
2.8398 12.7396 -1.8494 0.9486
2.3756 12.8034 -1.8451 0.9488
1.3865 12.3573 -1.7619 0.9510
0.4782 11.9476 -1.6942 0.9528
0.0487 11.7538 -1.6654 0.9536
-0.3670 11.5663 -1.6396 0.9543
-0.7726 11.4142 -1.6210 0.9548
-1.2264 8.7465 -1.2514 0.9649
-2.8803 11.4280 -1.6699 0.9535
-3.7716 11.4338 -1.7059 0.9525
-4.7072 11.4399 -1.7528 0.9513
-6.2245 11.4499 -1.8466 0.9487
-7.0397 10.9910 -1.8494 0.9486
-7.4293 10.7315 -1.8494 0.9486
-7.8093 10.4583 -1.8494 0.9486
-8.8872 9.5592 -1.8494 0.9486
-9.2242 9.2344 -1.8494 0.9486
-10.2450 8.2570 -1.8644 0.9482
-11.0115 8.2414 -1.9488 0.9459
-11.5810 8.0363 -1.9973 0.9446
-11.8871 7.6322 -2.0016 0.9445
-12.4035 6.7607 -2.0016 0.9445
-12.6380 6.3116 -2.0016 0.9445
-12.8562 5.8544 -2.0016 0.9445
-13.5611 3.9564 -2.0016 0.9445
-13.6942 3.4676 -2.0016 0.9445
-13.8097 2.9743 -2.0016 0.9445
-13.9075 2.4773 -2.0016 0.9445
-13.9874 1.9770 -2.0016 0.9445
-14.0493 1.4742 -2.0016 0.9445
-14.0931 0.9695 -2.0016 0.9445
-14.1188 0.4636 -2.0016 0.9445
-14.1263 -0.0430 -2.0016 0.9445
-14.1157 -0.5494 -2.0016 0.9445
-14.0869 -1.0552 -2.0016 0.9445
-13.9751 -2.0620 -2.0016 0.9445
-12.6852 -3.2943 -1.8570 0.9484
-12.4165 -4.1949 -1.8570 0.9484
-12.1091 -7.2749 -2.0016 0.9445
-11.8405 -7.7044 -2.0016 0.9445
-11.2579 -8.5331 -2.0016 0.9445
-10.9448 -8.9313 -2.0016 0.9445
-10.6175 -9.3180 -2.0016 0.9445
-10.2766 -9.6927 -2.0016 0.9445
-9.1763 -10.7401 -2.0016 0.9445
-8.7853 -11.0623 -2.0016 0.9445
-8.3830 -11.3701 -2.0016 0.9445
-7.9700 -11.6634 -2.0016 0.9445
-5.7619 -12.8979 -2.0016 0.9445
-4.8228 -13.2777 -2.0016 0.9445
-4.3436 -13.4420 -2.0016 0.9445
-3.3691 -13.7188 -2.0016 0.9445
-2.3773 -13.9249 -2.0016 0.9445
-1.8765 -14.0012 -2.0016 0.9445
-1.3733 -14.0595 -2.0016 0.9445
-0.3621 -14.1218 -2.0016 0.9445
0.1444 -14.1257 -2.0016 0.9445
1.1564 -14.0790 -2.0016 0.9445
2.1624 -13.9599 -2.0016 0.9445
2.6615 -13.8734 -2.0016 0.9445
3.6489 -13.6470 -2.0016 0.9445
4.6175 -13.3504 -2.0016 0.9445
5.0933 -13.1763 -2.0016 0.9445
6.0244 -12.7774 -2.0016 0.9445
2.1912 -4.2457 -0.6770 0.9809
7.3617 -12.0566 -2.0016 0.9445
7.7892 -11.7849 -2.0016 0.9445
9.0097 -10.8803 -2.0016 0.9445
9.3940 -10.5503 -2.0016 0.9445
9.7662 -10.2067 -2.0016 0.9445
10.1259 -9.8499 -2.0016 0.9445
10.8058 -9.0989 -2.0016 0.9445
11.1251 -8.7056 -2.0016 0.9445
11.4301 -8.3011 -2.0016 0.9445
12.4994 -6.5818 -2.0016 0.9445
13.1339 -5.2015 -2.0016 0.9445
13.4729 -4.2469 -2.0016 0.9445
13.6165 -3.7611 -2.0016 0.9445
13.7426 -3.2705 -2.0016 0.9445
13.8510 -2.7756 -2.0016 0.9445
14.0143 -1.7758 -2.0016 0.9445
14.0690 -1.2722 -2.0016 0.9445
14.1064 0.7522 -2.0016 0.9445
14.0703 1.2575 -2.0016 0.9445
14.0162 1.7612 -2.0016 0.9445
13.9440 2.2626 -2.0016 0.9445
13.6204 3.7469 -2.0016 0.9445
13.4773 4.2328 -2.0016 0.9445
13.1393 5.1878 -2.0016 0.9445
12.9449 5.6556 -2.0016 0.9445
12.7338 6.1161 -2.0016 0.9445
12.2627 7.0129 -2.0016 0.9445
11.4387 8.2892 -2.0016 0.9445
11.1342 8.6940 -2.0016 0.9445
10.1362 9.8393 -2.0016 0.9445
9.7769 10.1964 -2.0016 0.9445
9.4050 10.5404 -2.0016 0.9445
7.8016 11.7767 -2.0016 0.9445
6.4100 11.3698 -1.8494 0.9486
5.9982 11.5923 -1.8494 0.9486
4.7187 12.1694 -1.8494 0.9486
3.8344 12.4763 -1.8494 0.9486
2.9305 12.7190 -1.8494 0.9486
1.9683 12.6197 -1.8097 0.9497
1.4808 12.3998 -1.7694 0.9508
0.5654 11.9869 -1.7003 0.9527
0.1329 11.7918 -1.6709 0.9535
-0.2854 11.6031 -1.6445 0.9542
-1.9376 11.4218 -1.6415 0.9543
-2.3624 11.4246 -1.6530 0.9540
-2.7937 11.4274 -1.6668 0.9536
-3.2329 11.4303 -1.6831 0.9531
-3.6813 11.4332 -1.7019 0.9526
-4.1404 11.4362 -1.7233 0.9521
-4.6118 11.4393 -1.7476 0.9514
-5.0974 11.4425 -1.7749 0.9507
-5.5990 11.4458 -1.8054 0.9498
-6.5609 11.2834 -1.8494 0.9486
-6.9612 11.0409 -1.8494 0.9486
-7.7346 10.5136 -1.8494 0.9486
-10.7093 5.7386 -2.0016 0.9519
-11.0930 4.9563 -2.0016 0.9519
-11.2636 4.5554 -2.0016 0.9519
-11.4196 4.1486 -2.0016 0.9519
-11.6876 3.3196 -2.0016 0.9519
-11.7991 2.8984 -2.0016 0.9519
-11.8954 2.4734 -2.0016 0.9519
-11.9765 2.0453 -2.0016 0.9519
-12.0421 1.6146 -2.0016 0.9519
-12.1269 0.7474 -2.0016 0.9519
-12.1459 0.3122 -2.0016 0.9519
-12.1492 -0.1235 -2.0016 0.9519
-12.1370 -0.5591 -2.0016 0.9519
-12.1091 -0.9939 -2.0016 0.9519
-11.6375 -2.2319 -1.9521 0.9531
-10.9872 -2.5187 -1.8570 0.9553
-10.3618 -4.4380 -1.8570 0.9553
-10.1960 -4.8067 -1.8570 0.9553
-10.0171 -5.1692 -1.8570 0.9553
-9.8254 -5.5250 -1.8570 0.9553
-10.1363 -6.6988 -2.0016 0.9519
-9.3584 -7.7485 -2.0016 0.9519
-8.4722 -8.7087 -2.0016 0.9519
-7.8263 -9.2934 -2.0016 0.9519
-7.1402 -9.8304 -2.0016 0.9519
-6.7831 -10.0801 -2.0016 0.9519
-6.4174 -10.3168 -2.0016 0.9519
-4.4744 -11.2960 -2.0016 0.9519
-4.0665 -11.4492 -2.0016 0.9519
-3.6533 -11.5876 -2.0016 0.9519
-2.3879 -11.9129 -2.0016 0.9519
-1.9592 -11.9909 -2.0016 0.9519
0.6463 -12.1327 -2.0016 0.9519
1.0809 -12.1017 -2.0016 0.9519
1.5141 -12.0552 -2.0016 0.9519
1.9454 -11.9931 -2.0016 0.9519
2.3741 -11.9157 -2.0016 0.9519
2.7998 -11.8229 -2.0016 0.9519
3.2220 -11.7149 -2.0016 0.9519
4.4613 -11.3012 -2.0016 0.9519
2.2123 -4.2126 -0.7838 0.9809
6.4054 -10.3243 -2.0016 0.9519
6.7715 -10.0879 -2.0016 0.9519
7.1288 -9.8387 -2.0016 0.9519
7.4770 -9.5768 -2.0016 0.9519
8.1441 -9.0163 -2.0016 0.9519
8.4621 -8.7185 -2.0016 0.9519
9.0652 -8.0896 -2.0016 0.9519
9.3494 -7.7594 -2.0016 0.9519
9.6216 -7.4192 -2.0016 0.9519
9.8814 -7.0694 -2.0016 0.9519
10.1286 -6.7106 -2.0016 0.9519
10.3627 -6.3431 -2.0016 0.9519
10.7906 -5.5841 -2.0016 0.9519
11.1630 -4.7965 -2.0016 0.9519
11.4781 -3.9841 -2.0016 0.9519
11.6135 -3.5700 -2.0016 0.9519
11.7341 -3.1513 -2.0016 0.9519
11.9298 -2.3023 -2.0016 0.9519
12.0046 -1.8731 -2.0016 0.9519
12.0641 -1.4414 -2.0016 0.9519
12.1364 -0.5731 -2.0016 0.9519
12.1491 -0.1376 -2.0016 0.9519
12.1462 0.2981 -2.0016 0.9519
12.1277 0.7334 -2.0016 0.9519
12.0936 1.1678 -2.0016 0.9519
12.0440 1.6006 -2.0016 0.9519
11.8983 2.4597 -2.0016 0.9519
11.8025 2.8847 -2.0016 0.9519
11.6914 3.3060 -2.0016 0.9519
11.4244 4.1354 -2.0016 0.9519
10.9143 5.3383 -2.0016 0.9519
10.5037 6.1067 -2.0016 0.9519
10.0390 6.8438 -2.0016 0.9519
9.2461 7.8822 -2.0016 0.9519
8.3462 8.8295 -2.0016 0.9519
8.0243 9.1231 -2.0016 0.9519
7.6920 9.4049 -2.0016 0.9519
7.3498 9.6747 -2.0016 0.9519
6.9982 9.9320 -2.0016 0.9519
6.6376 10.1765 -2.0016 0.9519
6.2655 10.4031 -2.0006 0.9520
5.0877 10.0069 -1.8494 0.9555
4.7257 10.1829 -1.8494 0.9555
4.3575 10.3458 -1.8494 0.9555
3.2214 10.7539 -1.8494 0.9555
2.8337 10.8625 -1.8494 0.9555
2.4424 10.9571 -1.8494 0.9555
2.0480 11.0376 -1.8494 0.9555
1.6509 11.1039 -1.8494 0.9555
1.2517 11.1560 -1.8494 0.9555
0.8509 11.1937 -1.8494 0.9555
-0.3560 11.2203 -1.8494 0.9555
-0.7581 11.2004 -1.8494 0.9555
-3.1322 10.7802 -1.8494 0.9555
-3.8967 10.5280 -1.8494 0.9555
-4.6411 10.2217 -1.8494 0.9555
-5.3617 9.8628 -1.8494 0.9555
-6.0548 9.4532 -1.8494 0.9555
-6.7167 8.9950 -1.8494 0.9555
-7.0349 8.7484 -1.8494 0.9555
-7.3440 8.4905 -1.8494 0.9555
-7.6777 8.2583 -1.8576 0.9553
-9.1677 7.9475 -1.9988 0.9520
-9.7272 7.2802 -2.0016 0.9519
-10.2239 6.5644 -2.0016 0.9519
-10.4527 6.1935 -2.0016 0.9519
-10.6681 5.8148 -2.0016 0.9519
-11.0574 5.0353 -2.0016 0.9519
-11.5341 3.8188 -2.0016 0.9519
-12.0303 1.7004 -2.0016 0.9519
-12.1433 0.3987 -2.0016 0.9519
-12.1407 -0.4726 -2.0016 0.9519
-12.1159 -0.9076 -2.0016 0.9519
-12.0756 -1.3414 -2.0016 0.9519
-12.0197 -1.7735 -2.0016 0.9519
-11.9484 -2.2033 -2.0016 0.9519
-11.0049 -2.4404 -1.8570 0.9553
-10.9103 -2.8334 -1.8570 0.9553
-10.8017 -3.2227 -1.8570 0.9553
-10.5430 -3.9886 -1.8570 0.9553
-10.3932 -4.3640 -1.8570 0.9553
-10.4149 -6.2570 -2.0016 0.9519
-9.6828 -7.3392 -2.0016 0.9519
-9.1319 -8.0142 -2.0016 0.9519
-8.8387 -8.3365 -2.0016 0.9519
-7.5561 -9.5145 -2.0016 0.9519
-6.4907 -10.2708 -2.0016 0.9519
-6.1183 -10.4970 -2.0016 0.9519
-5.7380 -10.7096 -2.0016 0.9519
-5.3503 -10.9084 -2.0016 0.9519
-4.9557 -11.0933 -2.0016 0.9519
-3.3189 -11.6878 -2.0016 0.9519
-2.8977 -11.7993 -2.0016 0.9519
-1.6139 -12.0422 -2.0016 0.9519
-1.1811 -12.0923 -2.0016 0.9519
-0.7468 -12.1269 -2.0016 0.9519
-0.3115 -12.1459 -2.0016 0.9519
0.5598 -12.1370 -2.0016 0.9519
0.9946 -12.1091 -2.0016 0.9519
1.4281 -12.0656 -2.0016 0.9519
2.2891 -11.9323 -2.0016 0.9519
2.7155 -11.8425 -2.0016 0.9519
3.5572 -11.6175 -2.0016 0.9519
4.3806 -11.3327 -2.0016 0.9519
4.7841 -11.1683 -2.0016 0.9519
6.6994 -10.1360 -2.0016 0.9519
7.0585 -9.8892 -2.0016 0.9519
7.4085 -9.6298 -2.0016 0.9519
7.7491 -9.3580 -2.0016 0.9519
9.0073 -8.1540 -2.0016 0.9519
9.5685 -7.4875 -2.0016 0.9519
10.0805 -6.7826 -2.0016 0.9519
10.9466 -5.2718 -2.0016 0.9519
11.2962 -4.4737 -2.0016 0.9519
11.8198 -2.8129 -2.0016 0.9519
11.9130 -2.3873 -2.0016 0.9519
