ply
format ascii 1.0
element vertex 1598
property float32 x
property float32 y
property float32 z
property float32 I
end_header
-7.1025 6.2623 -2.0016 0.9620
-7.5341 5.7359 -2.0016 0.9620
-7.7354 5.4613 -2.0016 0.9620
-7.9267 5.1798 -2.0016 0.9620
-8.2783 4.5969 -2.0016 0.9620
-8.4382 4.2963 -2.0016 0.9620
-8.8517 3.3630 -2.0016 0.9620
-8.9669 3.0426 -2.0016 0.9620
-9.0705 2.7183 -2.0016 0.9620
-9.2423 2.0596 -2.0016 0.9620
-9.3664 1.3903 -2.0016 0.9620
-9.4103 1.0527 -2.0016 0.9620
-9.4421 0.7137 -2.0016 0.9620
-9.4616 0.3739 -2.0016 0.9620
-9.4640 -0.3069 -2.0016 0.9620
-9.4469 -0.6469 -2.0016 0.9620
-9.4175 -0.9860 -2.0016 0.9620
-9.3224 -1.6601 -2.0016 0.9620
-8.4329 -2.4623 -1.8570 0.9647
-8.3390 -2.7639 -1.8570 0.9647
-8.2342 -3.0618 -1.8570 0.9647
-8.1188 -3.3558 -1.8570 0.9647
-7.9929 -3.6455 -1.8570 0.9647
-7.8567 -3.9305 -1.8570 0.9647
-7.0274 -5.2719 -1.8570 0.9647
-6.8333 -5.5211 -1.8570 0.9647
-5.6513 -7.5977 -2.0016 0.9620
-4.8006 -8.1619 -2.0016 0.9620
-4.2018 -8.4857 -2.0016 0.9620
-3.5812 -8.7657 -2.0016 0.9620
-3.2638 -8.8887 -2.0016 0.9620
-2.9422 -9.0003 -2.0016 0.9620
-1.9562 -9.2647 -2.0016 0.9620
-1.6219 -9.3291 -2.0016 0.9620
-1.2855 -9.3814 -2.0016 0.9620
-0.9475 -9.4215 -2.0016 0.9620
-0.2681 -9.4652 -2.0016 0.9620
0.0723 -9.4687 -2.0016 0.9620
0.4126 -9.4600 -2.0016 0.9620
1.0912 -9.4059 -2.0016 0.9620
1.4286 -9.3606 -2.0016 0.9620
1.7642 -9.3032 -2.0016 0.9620
3.0793 -8.9543 -2.0016 0.9620
3.3992 -8.8379 -2.0016 0.9620
3.7146 -8.7100 -2.0016 0.9620
4.0253 -8.5708 -2.0016 0.9620
4.6307 -8.2595 -2.0016 0.9620
5.2122 -7.9054 -2.0016 0.9620
6.0329 -7.2984 -2.0016 0.9620
7.0166 -6.3584 -2.0016 0.9620
7.4553 -5.8378 -2.0016 0.9620
7.6604 -5.5661 -2.0016 0.9620
7.8555 -5.2871 -2.0016 0.9620
8.6742 -3.7973 -2.0016 0.9620
8.9246 -3.1643 -2.0016 0.9620
9.2860 -1.8526 -2.0016 0.9620
9.3951 -1.1806 -2.0016 0.9620
9.4676 -0.1623 -2.0016 0.9620
9.4548 0.5183 -2.0016 0.9620
9.4301 0.8578 -2.0016 0.9620
9.3932 1.1962 -2.0016 0.9620
9.3441 1.5331 -2.0016 0.9620
9.2829 1.8680 -2.0016 0.9620
9.0279 2.8565 -2.0016 0.9620
8.3717 4.4247 -2.0016 0.9620
8.2072 4.7227 -2.0016 0.9620
8.0321 5.0147 -2.0016 0.9620
7.6511 5.5788 -2.0016 0.9620
7.0061 6.3700 -2.0016 0.9620
6.7726 6.6178 -2.0016 0.9620
6.2796 7.0872 -2.0016 0.9620
5.4801 7.7221 -2.0016 0.9620
4.9112 8.0958 -2.0016 0.9620
4.3168 8.4278 -2.0016 0.9620
3.6941 8.7019 -1.9983 0.9621
3.3722 8.8114 -1.9943 0.9622
2.2369 8.4888 -1.8556 0.9647
1.9238 8.5349 -1.8494 0.9649
1.3056 8.6510 -1.8494 0.9649
0.9938 8.6924 -1.8494 0.9649
-0.2623 8.7451 -1.8494 0.9649
-0.8899 8.7036 -1.8494 0.9649
-2.1281 8.4862 -1.8494 0.9649
-2.7323 8.3114 -1.8494 0.9649
-3.7375 8.2478 -1.9141 0.9637
-4.0981 8.2420 -1.9457 0.9631
-5.3874 7.7868 -2.0015 0.9620
-5.6639 7.5883 -2.0016 0.9620
-7.5839 5.6698 -2.0016 0.9620
-7.7828 5.3935 -2.0016 0.9620
-8.3182 4.5243 -2.0016 0.9620
-8.4755 4.2224 -2.0016 0.9620
-8.9931 2.9641 -2.0016 0.9620
-9.0939 2.6389 -2.0016 0.9620
-9.1829 2.3103 -2.0016 0.9620
-9.2600 1.9787 -2.0016 0.9620
-9.3782 1.3083 -2.0016 0.9620
-9.4610 -0.3896 -2.0016 0.9620
-9.4409 -0.7294 -2.0016 0.9620
-9.4086 -1.0683 -2.0016 0.9620
-9.3075 -1.7415 -2.0016 0.9620
-9.2389 -2.0750 -2.0016 0.9620
-8.4111 -2.5359 -1.8570 0.9647
-8.2071 -3.1337 -1.8570 0.9647
-7.9608 -3.7152 -1.8570 0.9647
-7.8221 -3.9990 -1.8570 0.9647
-7.5146 -4.5506 -1.8570 0.9647
-7.3461 -4.8178 -1.8570 0.9647
-7.1682 -5.0788 -1.8570 0.9647
-6.9810 -5.3332 -1.8570 0.9647
-6.7848 -5.5806 -1.8570 0.9647
-7.0921 -6.2741 -2.0016 0.9620
-6.8620 -6.5250 -2.0016 0.9620
-6.6230 -6.7675 -2.0016 0.9620
-6.3754 -7.0012 -2.0016 0.9620
-5.5847 -7.6468 -2.0016 0.9620
3.2724 -7.8627 -2.0016 0.9656
2.1476 -4.2670 -1.1227 0.9806
2.2787 -4.1489 -1.1125 0.9807
4.3655 -7.3125 -2.0016 0.9656
4.6255 -7.1509 -2.0016 0.9656
5.6026 -6.4141 -2.0016 0.9656
6.0489 -5.9950 -2.0016 0.9656
6.2605 -5.7737 -2.0016 0.9656
6.4640 -5.5449 -2.0016 0.9656
6.6592 -5.3090 -2.0016 0.9656
7.1920 -4.5613 -2.0016 0.9656
7.5011 -4.0327 -2.0016 0.9656
7.7715 -3.4834 -2.0016 0.9656
8.1013 -2.6265 -2.0016 0.9656
8.3370 -1.7391 -2.0016 0.9656
8.4758 -0.8315 -2.0016 0.9656
8.5002 -0.5263 -2.0016 0.9656
8.5160 0.0857 -2.0016 0.9656
8.4158 1.3054 -2.0016 0.9656
8.3003 1.9066 -2.0016 0.9656
8.2264 2.2038 -2.0016 0.9656
8.1418 2.4980 -2.0016 0.9656
7.5640 3.9136 -2.0016 0.9656
7.2633 4.4469 -2.0016 0.9656
7.0987 4.7051 -2.0016 0.9656
6.7423 5.2030 -2.0016 0.9656
6.5510 5.4420 -2.0016 0.9656
6.3511 5.6739 -2.0016 0.9656
6.1430 5.8985 -2.0016 0.9656
5.7034 6.3247 -2.0016 0.9656
5.4723 6.5256 -2.0016 0.9656
5.2342 6.7181 -2.0016 0.9656
4.9894 6.9019 -2.0016 0.9656
4.2174 7.3989 -2.0016 0.9656
3.6749 7.6828 -2.0016 0.9656
3.3963 7.8099 -2.0016 0.9656
3.1134 7.9269 -2.0016 0.9656
2.8265 8.0337 -2.0016 0.9656
2.5347 8.1266 -2.0007 0.9656
1.9397 8.2679 -1.9959 0.9657
1.6398 8.3250 -1.9942 0.9657
1.3262 8.2958 -1.9745 0.9661
0.4180 8.2432 -1.9398 0.9667
0.1213 8.2434 -1.9376 0.9667
-0.7699 8.2420 -1.9455 0.9666
-1.0698 8.2406 -1.9530 0.9664
-2.2879 8.1741 -1.9949 0.9657
-2.5821 8.0922 -1.9963 0.9657
-3.1620 7.8987 -1.9996 0.9656
-3.4471 7.7873 -2.0015 0.9656
-3.9978 7.5198 -2.0016 0.9656
-4.2656 7.3712 -2.0016 0.9656
-4.5278 7.2131 -2.0016 0.9656
-4.7841 7.0457 -2.0016 0.9656
-5.7445 6.2873 -2.0016 0.9656
-5.9668 6.0768 -2.0016 0.9656
-6.1814 5.8583 -2.0016 0.9656
-6.3880 5.6324 -2.0016 0.9656
-6.5863 5.3991 -2.0016 0.9656
-6.7761 5.1588 -2.0016 0.9656
-7.4455 4.1344 -2.0016 0.9656
-7.5894 3.8641 -2.0016 0.9656
-7.7234 3.5888 -2.0016 0.9656
-7.8474 3.3089 -2.0016 0.9656
-7.9612 3.0247 -2.0016 0.9656
-8.0648 2.7365 -2.0016 0.9656
-8.1580 2.4449 -2.0016 0.9656
-8.2406 2.1500 -2.0016 0.9656
-8.3125 1.8524 -2.0016 0.9656
-8.3738 1.5524 -2.0016 0.9656
-8.4637 0.9468 -2.0016 0.9656
-8.5164 0.0302 -2.0016 0.9656
-8.5120 -0.2760 -2.0016 0.9656
-8.4328 -1.1907 -2.0016 0.9656
-8.3254 -1.7935 -2.0016 0.9656
-7.5001 -2.4858 -1.8570 0.9681
-7.3021 -3.0182 -1.8570 0.9681
-7.1889 -3.2788 -1.8570 0.9681
-7.0664 -3.5351 -1.8570 0.9681
-6.7941 -4.0336 -1.8570 0.9681
-6.6447 -4.2752 -1.8570 0.9681
-6.3204 -4.7416 -1.8570 0.9681
-6.1459 -4.9657 -1.8570 0.9681
-5.5606 -6.4505 -2.0016 0.9656
-4.8339 -7.0117 -2.0016 0.9656
-4.5787 -7.1809 -2.0016 0.9656
-4.3176 -7.3408 -2.0016 0.9656
-4.0510 -7.4913 -2.0016 0.9656
-3.7791 -7.6321 -2.0016 0.9656
-3.5023 -7.7630 -2.0016 0.9656
-3.2210 -7.8839 -2.0016 0.9656
-2.0578 -8.2641 -2.0016 0.9656
-1.7594 -8.3327 -2.0016 0.9656
-0.8522 -8.4737 -2.0016 0.9656
-0.5470 -8.4989 -2.0016 0.9656
-0.2412 -8.5130 -2.0016 0.9656
0.0650 -8.5162 -2.0016 0.9656
0.3711 -8.5084 -2.0016 0.9656
0.9814 -8.4597 -2.0016 0.9656
1.8864 -8.3049 -2.0016 0.9656
2.1837 -8.2317 -2.0016 0.9656
2.4782 -8.1479 -2.0016 0.9656
2.7695 -8.0535 -2.0016 0.9656
3.0572 -7.9488 -2.0016 0.9656
3.3410 -7.8338 -2.0016 0.9656
2.1680 -4.2152 -1.1140 0.9807
4.6878 -7.1101 -2.0016 0.9656
4.9404 -6.9370 -2.0016 0.9656
5.1865 -6.7550 -2.0016 0.9656
5.4260 -6.5642 -2.0016 0.9656
5.6585 -6.3649 -2.0016 0.9656
6.5123 -5.4882 -2.0016 0.9656
7.2316 -4.4982 -2.0016 0.9656
7.5361 -3.9670 -2.0016 0.9656
7.6738 -3.6936 -2.0016 0.9656
7.8016 -3.4153 -2.0016 0.9656
7.9194 -3.1327 -2.0016 0.9656
8.0268 -2.8460 -2.0016 0.9656
8.1240 -2.5556 -2.0016 0.9656
8.3519 -1.6662 -2.0016 0.9656
8.4064 -1.3649 -2.0016 0.9656
8.4827 -0.7574 -2.0016 0.9656
8.5044 -0.4520 -2.0016 0.9656
8.5152 -0.1460 -2.0016 0.9656
8.5149 0.1602 -2.0016 0.9656
8.5037 0.4661 -2.0016 0.9656
8.4814 0.7715 -2.0016 0.9656
8.4041 1.3789 -2.0016 0.9656
8.1197 2.5691 -2.0016 0.9656
8.0221 2.8593 -2.0016 0.9656
7.7959 3.4283 -2.0016 0.9656
7.5295 3.9795 -2.0016 0.9656
7.2241 4.5102 -2.0016 0.9656
7.0573 4.7670 -2.0016 0.9656
6.8814 5.0176 -2.0016 0.9656
6.5031 5.4990 -2.0016 0.9656
6.3013 5.7292 -2.0016 0.9656
6.0912 5.9520 -2.0016 0.9656
5.8734 6.1671 -2.0016 0.9656
5.4151 6.5732 -2.0016 0.9656
5.1753 6.7636 -2.0016 0.9656
4.6760 7.1179 -2.0016 0.9656
4.4171 7.2814 -2.0016 0.9656
3.6076 7.7146 -2.0016 0.9656
3.0440 7.9539 -2.0016 0.9656
2.7561 8.0581 -2.0016 0.9656
2.1658 8.2192 -1.9976 0.9657
0.6440 8.2521 -1.9453 0.9666
0.3458 8.2432 -1.9391 0.9667
-0.2472 8.2433 -1.9382 0.9667
-0.5443 8.2427 -1.9414 0.9666
-0.8427 8.2417 -1.9471 0.9665
-1.1431 8.2402 -1.9552 0.9664
-1.4464 8.2382 -1.9658 0.9662
-3.2316 7.8725 -2.0000 0.9656
-3.5152 7.7571 -2.0016 0.9656
-3.7918 7.6258 -2.0016 0.9656
-4.0634 7.4846 -2.0016 0.9656
-4.3298 7.3336 -2.0016 0.9656
-4.8455 7.0036 -2.0016 0.9656
-5.7993 6.2369 -2.0016 0.9656
-6.4370 5.5763 -2.0016 0.9656
-6.6333 5.3413 -2.0016 0.9656
-7.3303 4.3355 -2.0016 0.9656
-7.4814 4.0692 -2.0016 0.9656
-7.7544 3.5212 -2.0016 0.9656
-7.9874 2.9549 -2.0016 0.9656
-8.2591 2.0779 -2.0016 0.9656
-8.3870 1.4792 -2.0016 0.9656
-8.4348 1.1767 -2.0016 0.9656
-8.4716 0.8728 -2.0016 0.9656
-8.4975 0.5677 -2.0016 0.9656
-8.5092 -0.3504 -2.0016 0.9656
-8.4911 -0.6560 -2.0016 0.9656
-8.4221 -1.2644 -2.0016 0.9656
-8.3712 -1.5663 -2.0016 0.9656
-8.3095 -1.8662 -2.0016 0.9656
-7.2754 -3.0819 -1.8570 0.9681
-6.9014 -3.8473 -1.8570 0.9681
-6.7586 -4.0929 -1.8570 0.9681
-6.6071 -4.3332 -1.8570 0.9681
-6.2787 -4.7966 -1.8570 0.9681
-5.9179 -5.2354 -1.8570 0.9681
-5.7259 -5.4447 -1.8570 0.9681
-5.5264 -5.6470 -1.8570 0.9681
-5.7341 -6.2968 -2.0016 0.9656
-5.5040 -6.4989 -2.0016 0.9656
-5.2669 -6.6925 -2.0016 0.9656
-5.0229 -6.8775 -2.0016 0.9656
3.2250 -7.0257 -2.0016 0.9686
2.2579 -4.1110 -1.2144 0.9808
3.9626 -6.6376 -2.0016 0.9686
4.4292 -6.3358 -2.0016 0.9686
5.6828 -5.2409 -2.0016 0.9686
6.0446 -4.8190 -2.0016 0.9686
6.2139 -4.5986 -2.0016 0.9686
6.3752 -4.3723 -2.0016 0.9686
6.5283 -4.1403 -2.0016 0.9686
6.6729 -3.9030 -2.0016 0.9686
7.0543 -3.1619 -2.0016 0.9686
7.4346 -2.1183 -2.0016 0.9686
7.5059 -1.8497 -2.0016 0.9686
7.5676 -1.5786 -2.0016 0.9686
7.6194 -1.3056 -2.0016 0.9686
7.6614 -1.0309 -2.0016 0.9686
7.6935 -0.7548 -2.0016 0.9686
7.7157 -0.4778 -2.0016 0.9686
7.7279 -0.2001 -2.0016 0.9686
7.6768 0.9095 -2.0016 0.9686
7.6391 1.1849 -2.0016 0.9686
7.5916 1.4587 -2.0016 0.9686
7.5343 1.7306 -2.0016 0.9686
7.4672 2.0004 -2.0016 0.9686
7.2085 2.7926 -2.0016 0.9686
6.7338 3.7969 -2.0016 0.9686
6.4436 4.2709 -2.0016 0.9686
5.9464 4.9397 -2.0016 0.9686
5.5761 5.3542 -2.0016 0.9686
5.3800 5.5512 -2.0016 0.9686
4.7512 6.0981 -2.0016 0.9686
4.3008 6.4237 -2.0016 0.9686
4.0671 6.5741 -2.0016 0.9686
3.8282 6.7161 -2.0016 0.9686
3.5843 6.8493 -2.0016 0.9686
3.3357 6.9738 -2.0016 0.9686
2.0351 7.4578 -2.0016 0.9686
1.4940 7.5847 -2.0016 0.9686
0.1137 7.7296 -2.0016 0.9686
-0.4419 7.7178 -2.0016 0.9686
-0.9952 7.6662 -2.0016 0.9686
-1.2702 7.6254 -2.0016 0.9686
-1.5435 7.5748 -2.0016 0.9686
-2.8730 7.1768 -2.0016 0.9686
-3.1291 7.0689 -2.0016 0.9686
-3.3812 6.9518 -2.0016 0.9686
-3.6289 6.8258 -2.0016 0.9686
-4.3426 6.3955 -2.0016 0.9686
-4.7909 6.0670 -2.0016 0.9686
-5.0059 5.8908 -2.0016 0.9686
-5.4162 5.5160 -2.0016 0.9686
-5.6109 5.3177 -2.0016 0.9686
-5.7985 5.1126 -2.0016 0.9686
-6.6192 3.9934 -2.0016 0.9686
-6.7584 3.7529 -2.0016 0.9686
-6.8890 3.5075 -2.0016 0.9686
-7.0106 3.2576 -2.0016 0.9686
-7.1232 3.0035 -2.0016 0.9686
-7.2265 2.7455 -2.0016 0.9686
-7.4051 2.2192 -2.0016 0.9686
-7.4801 1.9516 -2.0016 0.9686
-7.6010 1.4092 -2.0016 0.9686
-7.7085 0.5827 -2.0016 0.9686
-7.7245 0.3052 -2.0016 0.9686
-7.7304 0.0274 -2.0016 0.9686
-7.7264 -0.2505 -2.0016 0.9686
-7.6108 -1.3553 -2.0016 0.9686
-7.5571 -1.6280 -2.0016 0.9686
-7.4937 -1.8986 -2.0016 0.9686
-7.4206 -2.1667 -2.0016 0.9686
-6.5254 -2.9762 -1.8570 0.9708
-6.4142 -3.2088 -1.8570 0.9708
-6.2947 -3.4373 -1.8570 0.9708
-6.1671 -3.6614 -1.8570 0.9708
-6.0315 -3.8807 -1.8570 0.9708
-5.8881 -4.0950 -1.8570 0.9708
-5.0610 -5.0818 -1.8570 0.9708
-4.8751 -5.2604 -1.8570 0.9708
-4.6829 -5.4323 -1.8570 0.9708
-4.4846 -5.5971 -1.8570 0.9708
-4.6137 -6.2027 -2.0016 0.9686
-4.3878 -6.3646 -2.0016 0.9686
-3.9192 -6.6634 -2.0016 0.9686
-2.4020 -7.3478 -2.0016 0.9686
-2.1363 -7.4294 -2.0016 0.9686
-1.8679 -7.5014 -2.0016 0.9686
-1.5971 -7.5637 -2.0016 0.9686
-1.3241 -7.6162 -2.0016 0.9686
-1.0495 -7.6589 -2.0016 0.9686
-0.4965 -7.7145 -2.0016 0.9686
0.0590 -7.7303 -2.0016 0.9686
0.3369 -7.7231 -2.0016 0.9686
0.6142 -7.7060 -2.0016 0.9686
1.1663 -7.6420 -2.0016 0.9686
2.7751 -7.2152 -2.0016 0.9686
3.0326 -7.1108 -2.0016 0.9686
3.2863 -6.9972 -2.0016 0.9686
2.1253 -4.1322 -1.2031 0.9810
2.3045 -4.1104 -1.2201 0.9807
4.0205 -6.6028 -2.0016 0.9686
4.2552 -6.4540 -2.0016 0.9686
4.4844 -6.2968 -2.0016 0.9686
5.7284 -5.1910 -2.0016 0.9686
6.0865 -4.7660 -2.0016 0.9686
6.2539 -4.5441 -2.0016 0.9686
6.7067 -3.8445 -2.0016 0.9686
7.0816 -3.1001 -2.0016 0.9686
7.2861 -2.5833 -2.0016 0.9686
7.3742 -2.3198 -2.0016 0.9686
7.4528 -2.0532 -2.0016 0.9686
7.6306 -1.2389 -2.0016 0.9686
7.7196 -0.4103 -2.0016 0.9686
7.7291 0.1454 -2.0016 0.9686
7.7189 0.4231 -2.0016 0.9686
7.6987 0.7003 -2.0016 0.9686
7.6685 0.9766 -2.0016 0.9686
7.6285 1.2516 -2.0016 0.9686
7.5189 1.7965 -2.0016 0.9686
7.4494 2.0656 -2.0016 0.9686
7.3704 2.3320 -2.0016 0.9686
7.2818 2.5954 -2.0016 0.9686
6.8346 3.6123 -2.0016 0.9686
6.5574 4.0940 -2.0016 0.9686
6.2463 4.5545 -2.0016 0.9686
6.0786 4.7761 -2.0016 0.9686
5.1267 5.7860 -2.0016 0.9686
4.9154 5.9666 -2.0016 0.9686
4.6977 6.1394 -2.0016 0.9686
4.2445 6.4610 -2.0016 0.9686
4.0095 6.6094 -2.0016 0.9686
3.7693 6.7493 -2.0016 0.9686
3.2747 7.0026 -2.0016 0.9686
2.7631 7.2198 -2.0016 0.9686
1.9698 7.4753 -2.0016 0.9686
1.6998 7.5413 -2.0016 0.9686
1.1536 7.6439 -2.0016 0.9686
0.8781 7.6805 -2.0016 0.9686
0.6015 7.7071 -2.0016 0.9686
0.0462 7.7303 -2.0016 0.9686
-0.2317 7.7270 -2.0016 0.9686
-1.0622 7.6572 -2.0016 0.9686
-2.1487 7.4259 -2.0016 0.9686
-2.6766 7.2523 -2.0016 0.9686
-2.9356 7.1514 -2.0016 0.9686
-3.1908 7.0413 -2.0016 0.9686
-4.1670 6.5113 -2.0016 0.9686
-4.3983 6.3573 -2.0016 0.9686
-4.6240 6.1951 -2.0016 0.9686
-5.0572 5.8468 -2.0016 0.9686
-5.2641 5.6613 -2.0016 0.9686
-5.4642 5.4684 -2.0016 0.9686
-5.6572 5.2684 -2.0016 0.9686
-5.8429 5.0617 -2.0016 0.9686
-6.0211 4.8484 -2.0016 0.9686
-6.5081 4.1720 -2.0016 0.9686
-6.6538 3.9354 -2.0016 0.9686
-6.7910 3.6937 -2.0016 0.9686
-6.9194 3.4472 -2.0016 0.9686
-7.1491 2.9411 -2.0016 0.9686
-7.5598 1.6154 -2.0016 0.9686
-7.6130 1.3427 -2.0016 0.9686
-7.6898 0.7922 -2.0016 0.9686
-7.7133 0.5153 -2.0016 0.9686
-7.7304 -0.0402 -2.0016 0.9686
-7.7239 -0.3181 -2.0016 0.9686
-7.5986 -1.4218 -2.0016 0.9686
-7.4768 -1.9640 -2.0016 0.9686
-7.3590 -2.2188 -1.9901 0.9687
-6.7879 -2.3158 -1.8570 0.9708
-5.9974 -3.9333 -1.8570 0.9708
-4.8289 -5.3029 -1.8570 0.9708
-4.6352 -5.4730 -1.8570 0.9708
-4.4355 -5.6361 -1.8570 0.9708
-4.5593 -6.2428 -2.0016 0.9686
2.9496 -6.4257 -2.0016 0.9710
2.2500 -4.0967 -1.3232 0.9808
2.4577 -4.1168 -1.3573 0.9803
3.8401 -5.9366 -2.0016 0.9710
4.4568 -5.4887 -2.0016 0.9710
4.6513 -5.3250 -2.0016 0.9710
4.8397 -5.1543 -2.0016 0.9710
5.0218 -4.9770 -2.0016 0.9710
5.1975 -4.7933 -2.0016 0.9710
5.5284 -4.4075 -2.0016 0.9710
5.6833 -4.2059 -2.0016 0.9710
5.8308 -3.9989 -2.0016 0.9710
6.1030 -3.5697 -2.0016 0.9710
6.2274 -3.3480 -2.0016 0.9710
6.4519 -2.8919 -2.0016 0.9710
6.5516 -2.6581 -2.0016 0.9710
6.6429 -2.4209 -2.0016 0.9710
6.7257 -2.1805 -2.0016 0.9710
6.7997 -1.9374 -2.0016 0.9710
6.8650 -1.6917 -2.0016 0.9710
6.9688 -1.1941 -2.0016 0.9710
7.0072 -0.9428 -2.0016 0.9710
7.0365 -0.6903 -2.0016 0.9710
7.0680 -0.1830 -2.0016 0.9710
7.0700 0.0712 -2.0016 0.9710
6.8295 1.8296 -2.0016 0.9710
6.7593 2.0739 -2.0016 0.9710
6.2796 3.2490 -2.0016 0.9710
6.1588 3.4727 -2.0016 0.9710
5.7491 4.1155 -2.0016 0.9710
5.5975 4.3195 -2.0016 0.9710
5.0999 4.8970 -2.0016 0.9710
4.9206 5.0771 -2.0016 0.9710
4.7349 5.2507 -2.0016 0.9710
4.5431 5.4175 -2.0016 0.9710
4.1422 5.7299 -2.0016 0.9710
3.9335 5.8751 -2.0016 0.9710
3.7198 6.0127 -2.0016 0.9710
2.3465 6.6696 -2.0016 0.9710
2.1053 6.7496 -2.0016 0.9710
0.6117 7.0438 -2.0016 0.9710
0.1040 7.0696 -2.0016 0.9710
-0.4042 7.0588 -2.0016 0.9710
-1.1617 6.9742 -2.0016 0.9710
-1.4117 6.9280 -2.0016 0.9710
-1.6598 6.8728 -2.0016 0.9710
-1.9057 6.8087 -2.0016 0.9710
-2.1493 6.7357 -2.0016 0.9710
-2.3900 6.6541 -2.0016 0.9710
-3.0924 6.3582 -2.0016 0.9710
-3.5413 6.1196 -2.0016 0.9710
-3.7589 5.9883 -2.0016 0.9710
-4.3817 5.5489 -2.0016 0.9710
-5.1318 4.8636 -2.0016 0.9710
-5.6255 4.2829 -2.0016 0.9710
-5.7758 4.0779 -2.0016 0.9710
-5.9187 3.8676 -2.0016 0.9710
-6.0539 3.6524 -2.0016 0.9710
-6.3007 3.2080 -2.0016 0.9710
-6.4119 2.9794 -2.0016 0.9710
-6.6954 2.2719 -2.0016 0.9710
-6.7727 2.0297 -2.0016 0.9710
-6.9519 1.2888 -2.0016 0.9710
-6.9937 1.0381 -2.0016 0.9710
-7.0502 0.5329 -2.0016 0.9710
-6.9608 -1.2396 -2.0016 0.9710
-6.6913 -2.2177 -1.9956 0.9711
-6.1483 -2.2862 -1.8570 0.9731
-5.7572 -3.1438 -1.8570 0.9731
-5.6405 -3.3487 -1.8570 0.9731
-5.2472 -3.9364 -1.8570 0.9731
-4.9508 -4.3033 -1.8570 0.9731
-4.7929 -4.4784 -1.8570 0.9731
-4.4588 -4.8112 -1.8570 0.9731
-4.2830 -4.9684 -1.8570 0.9731
-3.7232 -5.4006 -1.8570 0.9731
-3.3256 -5.6541 -1.8570 0.9731
-3.3631 -6.2192 -2.0016 0.9710
-2.9076 -6.4448 -2.0016 0.9710
-2.6741 -6.5452 -2.0016 0.9710
-2.1969 -6.7204 -2.0016 0.9710
-1.9539 -6.7950 -2.0016 0.9710
-0.7075 -7.0348 -2.0016 0.9710
-0.4541 -7.0557 -2.0016 0.9710
-0.2002 -7.0675 -2.0016 0.9710
0.3081 -7.0636 -2.0016 0.9710
0.5618 -7.0480 -2.0016 0.9710
1.0667 -6.9894 -2.0016 0.9710
1.8129 -6.8340 -2.0016 0.9710
2.0574 -6.7644 -2.0016 0.9710
2.5381 -6.5991 -2.0016 0.9710
2.7737 -6.5036 -2.0016 0.9710
4.1015 -5.7591 -2.0016 0.9710
4.3058 -5.6080 -2.0016 0.9710
4.5047 -5.4496 -2.0016 0.9710
5.2392 -4.7477 -2.0016 0.9710
5.5667 -4.3590 -2.0016 0.9710
5.7198 -4.1561 -2.0016 0.9710
5.8655 -3.9478 -2.0016 0.9710
6.0036 -3.7344 -2.0016 0.9710
6.1340 -3.5162 -2.0016 0.9710
6.2564 -3.2934 -2.0016 0.9710
6.3708 -3.0664 -2.0016 0.9710
6.4769 -2.8354 -2.0016 0.9710
6.6639 -2.3627 -2.0016 0.9710
6.8795 -1.6316 -2.0016 0.9710
6.9789 -1.1331 -2.0016 0.9710
7.0597 0.3870 -2.0016 0.9710
7.0413 0.6405 -2.0016 0.9710
6.9314 1.3948 -2.0016 0.9710
6.8768 1.6431 -2.0016 0.9710
6.8133 1.8892 -2.0016 0.9710
6.7410 2.1329 -2.0016 0.9710
6.6599 2.3738 -2.0016 0.9710
6.5703 2.6117 -2.0016 0.9710
6.4722 2.8462 -2.0016 0.9710
6.3657 3.0770 -2.0016 0.9710
5.7129 4.1656 -2.0016 0.9710
5.5595 4.3682 -2.0016 0.9710
5.3989 4.5653 -2.0016 0.9710
5.2313 4.7564 -2.0016 0.9710
4.4956 5.4570 -2.0016 0.9710
4.0919 5.7659 -2.0016 0.9710
3.6671 6.0450 -2.0016 0.9710
3.2233 6.2929 -2.0016 0.9710
2.7629 6.5082 -2.0016 0.9710
2.5271 6.6033 -2.0016 0.9710
1.8016 6.8370 -2.0016 0.9710
1.5547 6.8973 -2.0016 0.9710
1.3057 6.9487 -2.0016 0.9710
1.0551 6.9912 -2.0016 0.9710
0.8031 7.0246 -2.0016 0.9710
0.5501 7.0489 -2.0016 0.9710
-0.4658 7.0550 -2.0016 0.9710
-1.2226 6.9638 -2.0016 0.9710
-1.7198 6.8580 -2.0016 0.9710
-2.4481 6.6330 -2.0016 0.9710
-2.6849 6.5407 -2.0016 0.9710
-2.9183 6.4400 -2.0016 0.9710
-3.1479 6.3309 -2.0016 0.9710
-3.8111 5.9552 -2.0016 0.9710
-4.0227 5.8144 -2.0016 0.9710
-4.2292 5.6660 -2.0016 0.9710
-4.8145 5.1778 -2.0016 0.9710
-4.9975 5.0014 -2.0016 0.9710
-5.1741 4.8185 -2.0016 0.9710
-5.3440 4.6294 -2.0016 0.9710
-6.6311 2.4532 -2.0016 0.9710
-6.7150 2.2132 -2.0016 0.9710
-6.7902 1.9704 -2.0016 0.9710
-6.9142 1.4775 -2.0016 0.9710
-7.0025 0.9769 -2.0016 0.9710
-7.0546 0.4713 -2.0016 0.9710
-7.0670 0.2174 -2.0016 0.9710
-6.9920 -1.0497 -2.0016 0.9710
-6.7693 -2.0410 -2.0016 0.9710
-6.5243 -2.2259 -1.9515 0.9717
-6.1281 -2.3399 -1.8570 0.9731
-5.6110 -3.3979 -1.8570 0.9731
-5.4852 -3.5974 -1.8570 0.9731
-5.3523 -3.7922 -1.8570 0.9731
-5.2126 -3.9822 -1.8570 0.9731
-5.0661 -4.1670 -1.8570 0.9731
-4.7536 -4.5202 -1.8570 0.9731
-4.5880 -4.6881 -1.8570 0.9731
-4.4165 -4.8500 -1.8570 0.9731
-4.2394 -5.0056 -1.8570 0.9731
-4.0567 -5.1548 -1.8570 0.9731
-3.8688 -5.2973 -1.8570 0.9731
2.0843 -4.1412 -1.4260 0.9808
2.2421 -4.0823 -1.4326 0.9807
2.4374 -4.0829 -1.4626 0.9803
3.5344 -5.4640 -2.0016 0.9731
3.7285 -5.3334 -2.0016 0.9731
4.1021 -5.0518 -2.0016 0.9731
4.2810 -4.9011 -2.0016 0.9731
4.4544 -4.7440 -2.0016 0.9731
4.7837 -4.4117 -2.0016 0.9731
5.0883 -4.0566 -2.0016 0.9731
5.4955 -3.4853 -2.0016 0.9731
5.6172 -3.2855 -2.0016 0.9731
5.9382 -2.6617 -2.0016 0.9731
6.0301 -2.4465 -2.0016 0.9731
6.1903 -2.0070 -2.0016 0.9731
6.2584 -1.7831 -2.0016 0.9731
6.3185 -1.5570 -2.0016 0.9731
6.3703 -1.3289 -2.0016 0.9731
6.4494 -0.8678 -2.0016 0.9731
6.4950 -0.4022 -2.0016 0.9731
6.5053 -0.1684 -2.0016 0.9731
6.5072 0.0655 -2.0016 0.9731
6.4856 0.5328 -2.0016 0.9731
6.4306 0.9974 -2.0016 0.9731
6.0680 2.3508 -2.0016 0.9731
5.8835 2.7807 -2.0016 0.9731
5.7797 2.9904 -2.0016 0.9731
5.6685 3.1962 -2.0016 0.9731
5.5499 3.3979 -2.0016 0.9731
5.2915 3.7879 -2.0016 0.9731
5.1519 3.9756 -2.0016 0.9731
5.0056 4.1582 -2.0016 0.9731
4.8529 4.3355 -2.0016 0.9731
4.6939 4.5071 -2.0016 0.9731
4.5289 4.6729 -2.0016 0.9731
4.3580 4.8327 -2.0016 0.9731
4.1815 4.9862 -2.0016 0.9731
3.9995 5.1333 -2.0016 0.9731
3.8124 5.2738 -2.0016 0.9731
3.6204 5.4074 -2.0016 0.9731
3.4237 5.5341 -2.0016 0.9731
3.0172 5.7657 -2.0016 0.9731
2.5952 5.9676 -2.0016 0.9731
2.3790 6.0570 -2.0016 0.9731
1.9377 6.2123 -2.0016 0.9731
1.7131 6.2779 -2.0016 0.9731
1.4863 6.3355 -2.0016 0.9731
1.2576 6.3848 -2.0016 0.9731
0.7957 6.4587 -2.0016 0.9731
0.5630 6.4831 -2.0016 0.9731
0.3296 6.4991 -2.0016 0.9731
-0.1382 6.5060 -2.0016 0.9731
-0.3720 6.4968 -2.0016 0.9731
-0.6053 6.4793 -2.0016 0.9731
-0.8378 6.4533 -2.0016 0.9731
-1.2993 6.3765 -2.0016 0.9731
-1.7540 6.2666 -2.0016 0.9731
-1.9782 6.1995 -2.0016 0.9731
-2.8463 5.8520 -2.0016 0.9731
-3.0548 5.7459 -2.0016 0.9731
-3.2593 5.6324 -2.0016 0.9731
-3.4597 5.5116 -2.0016 0.9731
-3.8467 5.2488 -2.0016 0.9731
-4.5593 4.6433 -2.0016 0.9731
-4.8811 4.3037 -2.0016 0.9731
-5.5720 3.3616 -2.0016 0.9731
-5.6892 3.1592 -2.0016 0.9731
-5.7991 2.9526 -2.0016 0.9731
-5.9015 2.7422 -2.0016 0.9731
-5.9962 2.5283 -2.0016 0.9731
-6.2967 1.6429 -2.0016 0.9731
-6.3517 1.4154 -2.0016 0.9731
-6.4671 0.7234 -2.0016 0.9731
-6.5024 0.2569 -2.0016 0.9731
-6.5041 -0.2109 -2.0016 0.9731
-6.4923 -0.4446 -2.0016 0.9731
-6.4067 -1.1409 -2.0016 0.9731
-6.3615 -1.3704 -2.0016 0.9731
-6.1770 -2.0473 -2.0016 0.9731
-5.9807 -2.2239 -1.9626 0.9737
-5.3995 -2.7012 -1.8570 0.9751
-5.1914 -3.0821 -1.8570 0.9751
-4.8295 -3.6231 -1.8570 0.9751
-4.6961 -3.7943 -1.8570 0.9751
-4.4114 -4.1219 -1.8570 0.9751
-4.2604 -4.2778 -1.8570 0.9751
-4.1038 -4.4282 -1.8570 0.9751
-3.9420 -4.5729 -1.8570 0.9751
-3.6033 -4.8443 -1.8570 0.9751
-3.4268 -4.9707 -1.8570 0.9751
-3.2459 -5.0906 -1.8570 0.9751
-2.6790 -5.4105 -1.8570 0.9751
-2.4828 -5.5033 -1.8570 0.9751
-2.0220 -6.1854 -2.0016 0.9731
-1.7984 -6.2541 -2.0016 0.9731
-1.5724 -6.3147 -2.0016 0.9731
-1.3444 -6.3671 -2.0016 0.9731
-1.1146 -6.4113 -2.0016 0.9731
-0.4180 -6.4940 -2.0016 0.9731
0.2836 -6.5013 -2.0016 0.9731
0.5171 -6.4869 -2.0016 0.9731
0.9818 -6.4330 -2.0016 0.9731
1.2124 -6.3935 -2.0016 0.9731
1.6686 -6.2899 -2.0016 0.9731
1.8936 -6.2259 -2.0016 0.9731
2.1162 -6.1538 -2.0016 0.9731
2.3360 -6.0737 -2.0016 0.9731
2.0736 -4.4152 -1.5003 0.9798
2.1080 -4.0986 -1.4176 0.9809
2.2884 -4.0816 -1.4393 0.9806
3.3844 -5.5582 -2.0016 0.9731
3.5820 -5.4329 -2.0016 0.9731
3.9631 -5.1615 -2.0016 0.9731
4.1460 -5.0157 -2.0016 0.9731
4.9761 -4.1936 -2.0016 0.9731
5.2645 -3.8252 -2.0016 0.9731
5.3986 -3.6335 -2.0016 0.9731
5.6457 -3.2363 -2.0016 0.9731
5.9613 -2.6097 -2.0016 0.9731
6.3817 -1.2732 -2.0016 0.9731
6.4567 -0.8114 -2.0016 0.9731
6.4817 -0.5788 -2.0016 0.9731
6.5065 -0.1116 -2.0016 0.9731
6.5063 0.1224 -2.0016 0.9731
6.4807 0.5895 -2.0016 0.9731
6.4216 1.0536 -2.0016 0.9731
6.3293 1.5123 -2.0016 0.9731
6.2709 1.7388 -2.0016 0.9731
5.9569 2.6196 -2.0016 0.9731
5.7533 3.0408 -2.0016 0.9731
5.6403 3.2456 -2.0016 0.9731
5.3925 3.6425 -2.0016 0.9731
5.2581 3.8340 -2.0016 0.9731
5.1169 4.0205 -2.0016 0.9731
4.6544 4.5480 -2.0016 0.9731
4.4879 4.7124 -2.0016 0.9731
4.3156 4.8706 -2.0016 0.9731
3.7662 5.3069 -2.0016 0.9731
3.5730 5.4389 -2.0016 0.9731
3.3752 5.5638 -2.0016 0.9731
2.7566 5.8948 -2.0016 0.9731
2.5429 5.9901 -2.0016 0.9731
2.3259 6.0776 -2.0016 0.9731
2.1060 6.1573 -2.0016 0.9731
1.8833 6.2290 -2.0016 0.9731
1.6582 6.2927 -2.0016 0.9731
1.2018 6.3955 -2.0016 0.9731
0.7392 6.4654 -2.0016 0.9731
0.5063 6.4878 -2.0016 0.9731
0.2728 6.5018 -2.0016 0.9731
-0.1951 6.5046 -2.0016 0.9731
-0.6619 6.4737 -2.0016 0.9731
-0.8942 6.4458 -2.0016 0.9731
-1.1253 6.4094 -2.0016 0.9731
-1.3550 6.3649 -2.0016 0.9731
-1.5829 6.3120 -2.0016 0.9731
-2.2532 6.1050 -2.0016 0.9731
-2.8973 5.8269 -2.0016 0.9731
-3.1049 5.7190 -2.0016 0.9731
-3.5078 5.4811 -2.0016 0.9731
-3.8925 5.2150 -2.0016 0.9731
-4.0774 5.0717 -2.0016 0.9731
-5.0685 4.0813 -2.0016 0.9731
-5.2120 3.8965 -2.0016 0.9731
-5.6011 3.3128 -2.0016 0.9731
-5.7166 3.1093 -2.0016 0.9731
-6.0181 2.4758 -2.0016 0.9731
-6.1032 2.2579 -2.0016 0.9731
-6.1804 2.0370 -2.0016 0.9731
-6.3638 1.3599 -2.0016 0.9731
-6.4086 1.1302 -2.0016 0.9731
-6.4451 0.8991 -2.0016 0.9731
-6.4732 0.6669 -2.0016 0.9731
-6.4930 0.4338 -2.0016 0.9731
-6.5044 0.2001 -2.0016 0.9731
-6.5074 -0.0339 -2.0016 0.9731
-6.3493 -1.4260 -2.0016 0.9731
-6.2940 -1.6533 -2.0016 0.9731
-5.8431 -2.2310 -1.9238 0.9742
-5.5592 -2.3549 -1.8570 0.9751
-5.4710 -2.5532 -1.8570 0.9751
-5.2734 -2.9397 -1.8570 0.9751
-5.1643 -3.1274 -1.8570 0.9751
-4.6628 -3.8352 -1.8570 0.9751
-4.0650 -4.4639 -1.8570 0.9751
-3.5608 -4.8756 -1.8570 0.9751
2.1466 -5.1576 -1.8570 0.9767
2.0533 -4.4730 -1.6360 0.9795
2.4264 -4.0644 -1.5734 0.9802
3.2008 -4.5786 -1.8570 0.9767
3.3633 -4.4606 -1.8570 0.9767
3.7957 -4.6745 -2.0016 0.9749
4.1217 -4.3897 -2.0016 0.9749
4.4264 -4.0822 -2.0016 0.9749
4.7083 -3.7536 -2.0016 0.9749
4.8402 -3.5820 -2.0016 0.9749
4.9658 -3.4057 -2.0016 0.9749
5.1976 -3.0401 -2.0016 0.9749
5.3036 -2.8513 -2.0016 0.9749
5.4026 -2.6588 -2.0016 0.9749
5.4947 -2.4629 -2.0016 0.9749
5.5797 -2.2638 -2.0016 0.9749
5.6575 -2.0618 -2.0016 0.9749
5.7279 -1.8571 -2.0016 0.9749
5.8465 -1.4407 -2.0016 0.9749
5.8946 -1.2296 -2.0016 0.9749
5.9349 -1.0170 -2.0016 0.9749
5.9677 -0.8030 -2.0016 0.9749
5.9927 -0.5879 -2.0016 0.9749
6.0194 -0.1559 -2.0016 0.9749
6.0211 0.0606 -2.0016 0.9749
6.0151 0.2770 -2.0016 0.9749
6.0012 0.4930 -2.0016 0.9749
5.9796 0.7084 -2.0016 0.9749
5.8686 1.3481 -2.0016 0.9749
5.7566 1.7662 -2.0016 0.9749
5.6894 1.9720 -2.0016 0.9749
5.3480 2.7670 -2.0016 0.9749
5.0191 3.3267 -2.0016 0.9749
4.8962 3.5049 -2.0016 0.9749
4.6318 3.8477 -2.0016 0.9749
4.4905 4.0117 -2.0016 0.9749
3.8692 4.6138 -2.0016 0.9749
3.7008 4.7499 -2.0016 0.9749
2.7919 5.3351 -2.0016 0.9749
2.4013 5.5219 -2.0016 0.9749
1.9984 5.6801 -2.0016 0.9749
1.3753 5.8623 -2.0016 0.9749
0.9506 5.9459 -2.0016 0.9749
0.7362 5.9763 -2.0016 0.9749
0.5209 5.9989 -2.0016 0.9749
0.3050 6.0137 -2.0016 0.9749
0.0886 6.0208 -2.0016 0.9749
-0.1279 6.0201 -2.0016 0.9749
-0.5601 5.9953 -2.0016 0.9749
-0.9894 5.9396 -2.0016 0.9749
-1.2022 5.9002 -2.0016 0.9749
-1.4135 5.8532 -2.0016 0.9749
-1.6230 5.7986 -2.0016 0.9749
-1.8304 5.7365 -2.0016 0.9749
-2.0354 5.6670 -2.0016 0.9749
-2.4373 5.5061 -2.0016 0.9749
-2.6337 5.4149 -2.0016 0.9749
-3.0159 5.2117 -2.0016 0.9749
-3.3826 4.9816 -2.0016 0.9749
-3.7317 4.7257 -2.0016 0.9749
-3.8992 4.5885 -2.0016 0.9749
-4.0616 4.4454 -2.0016 0.9749
-4.5165 3.9823 -2.0016 0.9749
-4.7910 3.6475 -2.0016 0.9749
-4.9190 3.4729 -2.0016 0.9749
-5.1558 3.1105 -2.0016 0.9749
-5.2643 2.9232 -2.0016 0.9749
-5.5484 2.3395 -2.0016 0.9749
-5.7021 1.9348 -2.0016 0.9749
-5.7680 1.7286 -2.0016 0.9749
-5.8264 1.5202 -2.0016 0.9749
-5.8773 1.3097 -2.0016 0.9749
-5.9206 1.0976 -2.0016 0.9749
-6.0183 -0.1951 -2.0016 0.9749
-6.0074 -0.4114 -2.0016 0.9749
-5.9623 -0.8419 -2.0016 0.9749
-5.9282 -1.0557 -2.0016 0.9749
-5.8864 -1.2681 -2.0016 0.9749
-5.8370 -1.4789 -2.0016 0.9749
-5.7801 -1.6877 -2.0016 0.9749
-5.7157 -1.8944 -2.0016 0.9749
-5.6439 -2.0986 -2.0016 0.9749
-4.9031 -2.6774 -1.8570 0.9767
-4.8037 -2.8519 -1.8570 0.9767
-4.3454 -3.5109 -1.8570 0.9767
-4.2163 -3.6649 -1.8570 0.9767
-4.0819 -3.8141 -1.8570 0.9767
-3.9422 -3.9583 -1.8570 0.9767
-3.6476 -4.2313 -1.8570 0.9767
-3.1709 -4.5994 -1.8570 0.9767
-3.0035 -4.7104 -1.8570 0.9767
-2.8322 -4.8153 -1.8570 0.9767
-2.4789 -5.0064 -1.8570 0.9767
-2.1128 -5.1715 -1.8570 0.9767
-1.9256 -5.2441 -1.8570 0.9767
-1.1541 -5.4660 -1.8570 0.9767
-0.5590 -5.5585 -1.8570 0.9767
-0.3588 -5.5750 -1.8570 0.9767
0.0426 -5.5863 -1.8570 0.9767
0.2434 -5.5812 -1.8570 0.9767
0.4439 -5.5688 -1.8570 0.9767
0.6438 -5.5493 -1.8570 0.9767
0.8428 -5.5225 -1.8570 0.9767
1.0408 -5.4887 -1.8570 0.9767
1.2374 -5.4477 -1.8570 0.9767
1.4325 -5.3997 -1.8570 0.9767
1.8167 -5.2828 -1.8570 0.9767
2.0054 -5.2141 -1.8570 0.9767
2.1915 -5.1387 -1.8570 0.9767
2.9054 -4.7715 -1.8570 0.9767
3.0751 -4.6640 -1.8570 0.9767
4.3137 -4.2011 -2.0016 0.9749
4.6044 -3.8804 -2.0016 0.9749
4.8713 -3.5395 -2.0016 0.9749
4.9954 -3.3621 -2.0016 0.9749
5.4257 -2.6115 -2.0016 0.9749
5.5160 -2.4148 -2.0016 0.9749
5.5993 -2.2149 -2.0016 0.9749
5.8052 -1.5993 -2.0016 0.9749
5.8589 -1.3896 -2.0016 0.9749
5.9051 -1.1781 -2.0016 0.9749
5.9745 -0.7508 -2.0016 0.9749
6.0206 -0.1032 -2.0016 0.9749
6.0124 0.3296 -2.0016 0.9749
5.9967 0.5455 -2.0016 0.9749
5.9420 0.9749 -2.0016 0.9749
5.9031 1.1879 -2.0016 0.9749
5.8566 1.3993 -2.0016 0.9749
5.8025 1.6089 -2.0016 0.9749
5.7409 1.8165 -2.0016 0.9749
5.5120 2.4239 -2.0016 0.9749
5.4213 2.6205 -2.0016 0.9749
5.1077 3.1889 -2.0016 0.9749
4.7347 3.7202 -2.0016 0.9749
4.4552 4.0508 -2.0016 0.9749
4.3067 4.2083 -2.0016 0.9749
3.8287 4.6475 -2.0016 0.9749
3.6591 4.7821 -2.0016 0.9749
3.4849 4.9105 -2.0016 0.9749
3.1231 5.1482 -2.0016 0.9749
2.3530 5.5427 -2.0016 0.9749
1.9487 5.6974 -2.0016 0.9749
1.7426 5.7638 -2.0016 0.9749
1.3240 5.8741 -2.0016 0.9749
1.1120 5.9179 -2.0016 0.9749
0.8986 5.9540 -2.0016 0.9749
-0.1805 6.0187 -2.0016 0.9749
-0.3967 6.0084 -2.0016 0.9749
-0.6125 5.9902 -2.0016 0.9749
-0.8274 5.9643 -2.0016 0.9749
-1.2538 5.8895 -2.0016 0.9749
-1.4647 5.8406 -2.0016 0.9749
-1.6736 5.7842 -2.0016 0.9749
-1.8805 5.7203 -2.0016 0.9749
-2.2866 5.5704 -2.0016 0.9749
-2.8730 5.2919 -2.0016 0.9749
-3.2458 5.0718 -2.0016 0.9749
-3.4260 4.9518 -2.0016 0.9749
-3.6018 4.8255 -2.0016 0.9749
-3.7729 4.6929 -2.0016 0.9749
-4.1003 4.4097 -2.0016 0.9749
-4.5512 3.9426 -2.0016 0.9749
-5.0693 3.2497 -2.0016 0.9749
-5.2896 2.8771 -2.0016 0.9749
-5.5686 2.2909 -2.0016 0.9749
-5.6474 2.0893 -2.0016 0.9749
-5.7188 1.8849 -2.0016 0.9749
-5.8885 1.2583 -2.0016 0.9749
-5.9637 0.8320 -2.0016 0.9749
-5.9897 0.6171 -2.0016 0.9749
-5.8239 -1.5298 -2.0016 0.9749
-5.7651 -1.7382 -2.0016 0.9749
-5.6989 -1.9443 -2.0016 0.9749
-5.6253 -2.1479 -2.0016 0.9749
-5.0623 -2.3625 -1.8570 0.9767
-4.9741 -2.5430 -1.8570 0.9767
-4.8795 -2.7202 -1.8570 0.9767
-4.5583 -3.2296 -1.8570 0.9767
-4.4393 -3.3914 -1.8570 0.9767
-4.3145 -3.5488 -1.8570 0.9767
-4.1842 -3.7016 -1.8570 0.9767
-4.0484 -3.8496 -1.8570 0.9767
1.9953 -4.7942 -1.8570 0.9782
2.0513 -4.0757 -1.6317 0.9808
2.4113 -4.0392 -1.6823 0.9802
2.8203 -4.3601 -1.8570 0.9782
4.3765 -3.4891 -2.0016 0.9765
4.4991 -3.3295 -2.0016 0.9765
4.9298 -2.6504 -2.0016 0.9765
5.0219 -2.4714 -2.0016 0.9765
5.2588 -1.9165 -2.0016 0.9765
5.3243 -1.7262 -2.0016 0.9765
5.5167 -0.9453 -2.0016 0.9765
5.5704 -0.5465 -2.0016 0.9765
5.5912 0.2575 -2.0016 0.9765
5.5310 0.8579 -2.0016 0.9765
5.4965 1.0562 -2.0016 0.9765
5.4065 1.4483 -2.0016 0.9765
5.2191 2.0219 -2.0016 0.9765
5.0604 2.3917 -2.0016 0.9765
4.6654 3.0922 -2.0016 0.9765
4.5512 3.2579 -2.0016 0.9765
4.4311 3.4194 -2.0016 0.9765
4.3054 3.5765 -2.0016 0.9765
3.7483 4.1566 -2.0016 0.9765
3.5965 4.2887 -2.0016 0.9765
3.4400 4.4152 -2.0016 0.9765
3.1139 4.6509 -2.0016 0.9765
2.9447 4.7599 -2.0016 0.9765
2.5951 4.9591 -2.0016 0.9765
2.0462 5.2097 -2.0016 0.9765
1.8576 5.2799 -2.0016 0.9765
1.6666 5.3432 -2.0016 0.9765
1.4735 5.3997 -2.0016 0.9765
1.2784 5.4491 -2.0016 0.9765
0.8836 5.5269 -2.0016 0.9765
0.6844 5.5551 -2.0016 0.9765
0.2835 5.5899 -2.0016 0.9765
-0.1189 5.5958 -2.0016 0.9765
-0.3199 5.5879 -2.0016 0.9765
-0.5206 5.5728 -2.0016 0.9765
-0.7206 5.5505 -2.0016 0.9765
-1.1175 5.4844 -2.0016 0.9765
-1.3139 5.4407 -2.0016 0.9765
-1.7014 5.3322 -2.0016 0.9765
-2.2656 5.1181 -2.0016 0.9765
-2.6274 4.9421 -2.0016 0.9765
-2.8034 4.8444 -2.0016 0.9765
-2.9757 4.7405 -2.0016 0.9765
-3.1442 4.6305 -2.0016 0.9765
-3.4687 4.3926 -2.0016 0.9765
-3.6244 4.2651 -2.0016 0.9765
-3.9215 3.9937 -2.0016 0.9765
-4.4533 3.3904 -2.0016 0.9765
-4.5723 3.2282 -2.0016 0.9765
-4.6854 3.0617 -2.0016 0.9765
-4.8933 2.7172 -2.0016 0.9765
-5.0759 2.3586 -2.0016 0.9765
-5.1574 2.1746 -2.0016 0.9765
-5.3003 1.7985 -2.0016 0.9765
-5.5364 0.8218 -2.0016 0.9765
-5.5812 0.4219 -2.0016 0.9765
-5.5971 0.0198 -2.0016 0.9765
-5.5942 -0.1814 -2.0016 0.9765
-5.5840 -0.3824 -2.0016 0.9765
-5.5667 -0.5828 -2.0016 0.9765
-5.5104 -0.9813 -2.0016 0.9765
-5.4716 -1.1787 -2.0016 0.9765
-5.3727 -1.5688 -2.0016 0.9765
-5.1726 -2.1381 -2.0016 0.9765
-4.6441 -2.3233 -1.8570 0.9782
-4.5576 -2.4887 -1.8570 0.9782
-4.4652 -2.6509 -1.8570 0.9782
-4.3670 -2.8097 -1.8570 0.9782
-4.1538 -3.1162 -1.8570 0.9782
-3.9192 -3.4066 -1.8570 0.9782
-3.7942 -3.5453 -1.8570 0.9782
-3.3905 -3.9331 -1.8570 0.9782
-2.7918 -4.3784 -1.8570 0.9782
-2.4700 -4.5677 -1.8570 0.9782
-1.9639 -4.8071 -1.8570 0.9782
-1.4350 -4.9906 -1.8570 0.9782
-1.2547 -5.0389 -1.8570 0.9782
-0.8895 -5.1160 -1.8570 0.9782
-0.5196 -5.1667 -1.8570 0.9782
-0.1470 -5.1907 -1.8570 0.9782
0.2263 -5.1879 -1.8570 0.9782
0.4126 -5.1764 -1.8570 0.9782
0.7834 -5.1334 -1.8570 0.9782
0.9675 -5.1019 -1.8570 0.9782
1.1502 -5.0638 -1.8570 0.9782
1.3315 -5.0192 -1.8570 0.9782
1.6887 -4.9105 -1.8570 0.9782
1.8641 -4.8467 -1.8570 0.9782
2.0085 -4.2764 -1.6896 0.9801
2.8583 -4.3353 -1.8570 0.9782
3.0123 -4.2298 -1.8570 0.9782
3.3084 -4.0024 -1.8570 0.9782
3.8667 -4.0467 -2.0016 0.9765
4.0097 -3.9051 -2.0016 0.9765
4.1475 -3.7584 -2.0016 0.9765
4.2799 -3.6069 -2.0016 0.9765
4.4068 -3.4507 -2.0016 0.9765
4.5280 -3.2901 -2.0016 0.9765
4.8559 -2.7835 -2.0016 0.9765
5.1273 -2.2446 -2.0016 0.9765
5.2047 -2.0588 -2.0016 0.9765
5.2753 -1.8704 -2.0016 0.9765
5.3391 -1.6796 -2.0016 0.9765
5.4460 -1.2916 -2.0016 0.9765
5.4889 -1.0950 -2.0016 0.9765
5.5247 -0.8970 -2.0016 0.9765
5.5534 -0.6979 -2.0016 0.9765
5.5963 -0.0960 -2.0016 0.9765
5.5961 0.1053 -2.0016 0.9765
5.5232 0.9062 -2.0016 0.9765
5.3936 1.4955 -2.0016 0.9765
5.3363 1.6884 -2.0016 0.9765
5.1236 2.2531 -2.0016 0.9765
5.0393 2.4358 -2.0016 0.9765
4.8512 2.7916 -2.0016 0.9765
4.7478 2.9642 -2.0016 0.9765
4.6381 3.1329 -2.0016 0.9765
4.5225 3.2976 -2.0016 0.9765
4.4011 3.4580 -2.0016 0.9765
3.8600 4.0531 -2.0016 0.9765
3.2393 4.5645 -2.0016 0.9765
2.9030 4.7854 -2.0016 0.9765
2.7291 4.8867 -2.0016 0.9765
2.5517 4.9816 -2.0016 0.9765
2.3709 5.0701 -2.0016 0.9765
2.1872 5.1521 -2.0016 0.9765
2.0006 5.2274 -2.0016 0.9765
1.8114 5.2959 -2.0016 0.9765
1.6198 5.3576 -2.0016 0.9765
1.2307 5.4601 -2.0016 0.9765
0.6358 5.5609 -2.0016 0.9765
0.4355 5.5801 -2.0016 0.9765
0.2346 5.5922 -2.0016 0.9765
0.0334 5.5970 -2.0016 0.9765
-0.3688 5.5849 -2.0016 0.9765
-0.5693 5.5681 -2.0016 0.9765
-0.7691 5.5440 -2.0016 0.9765
-1.3614 5.4290 -2.0016 0.9765
-1.5557 5.3765 -2.0016 0.9765
-1.7480 5.3171 -2.0016 0.9765
-2.1255 5.1778 -2.0016 0.9765
-2.3102 5.0981 -2.0016 0.9765
-2.4920 5.0117 -2.0016 0.9765
-2.8456 4.8197 -2.0016 0.9765
-3.1845 4.6028 -2.0016 0.9765
-3.9562 3.9593 -2.0016 0.9765
-4.0960 3.8145 -2.0016 0.9765
-4.2304 3.6648 -2.0016 0.9765
-4.3594 3.5104 -2.0016 0.9765
-4.6004 3.1881 -2.0016 0.9765
-4.7120 3.0207 -2.0016 0.9765
-4.8175 2.8493 -2.0016 0.9765
-4.9169 2.6743 -2.0016 0.9765
-5.0963 2.3141 -2.0016 0.9765
-5.1762 2.1295 -2.0016 0.9765
-5.2494 1.9420 -2.0016 0.9765
-5.3158 1.7521 -2.0016 0.9765
-5.4735 1.1696 -2.0016 0.9765
-5.5434 0.7734 -2.0016 0.9765
-5.5676 0.5736 -2.0016 0.9765
-5.5970 -0.0291 -2.0016 0.9765
-5.5924 -0.2303 -2.0016 0.9765
-5.5805 -0.4312 -2.0016 0.9765
-5.5613 -0.6315 -2.0016 0.9765
-5.5351 -0.8310 -2.0016 0.9765
-5.4134 -1.4220 -2.0016 0.9765
-5.3588 -1.6157 -2.0016 0.9765
-5.2973 -1.8073 -2.0016 0.9765
-4.6236 -2.3638 -1.8570 0.9782
-4.5356 -2.5285 -1.8570 0.9782
-4.3423 -2.8478 -1.8570 0.9782
-4.2371 -3.0020 -1.8570 0.9782
-4.0105 -3.2987 -1.8570 0.9782
-3.8893 -3.4407 -1.8570 0.9782
-3.6320 -3.7113 -1.8570 0.9782
-3.2114 -4.0807 -1.8570 0.9782
-3.0626 -4.1935 -1.8570 0.9782
1.8619 -4.4738 -1.8570 0.9795
2.0007 -4.3585 -1.8378 0.9797
2.1970 -4.0002 -1.7489 0.9806
2.3884 -4.0008 -1.7856 0.9802
2.6318 -4.0687 -1.8570 0.9795
2.9174 -3.8691 -1.8570 0.9795
3.1878 -3.6495 -1.8570 0.9795
3.9643 -3.4006 -2.0016 0.9779
4.0840 -3.2559 -2.0016 0.9779
4.1984 -3.1070 -2.0016 0.9779
4.8399 -1.9636 -2.0016 0.9779
4.9684 -1.6108 -2.0016 0.9779
5.0231 -1.4312 -2.0016 0.9779
5.1480 -0.8821 -2.0016 0.9779
5.1764 -0.6965 -2.0016 0.9779
5.1981 -0.5100 -2.0016 0.9779
5.2175 0.2403 -2.0016 0.9779
5.1868 0.6145 -2.0016 0.9779
5.1613 0.8006 -2.0016 0.9779
5.0905 1.1693 -2.0016 0.9779
5.0451 1.3515 -2.0016 0.9779
4.9933 1.5320 -2.0016 0.9779
4.9350 1.7105 -2.0016 0.9779
4.7994 2.0607 -2.0016 0.9779
4.7222 2.2318 -2.0016 0.9779
4.5496 2.5653 -2.0016 0.9779
4.3536 2.8856 -2.0016 0.9779
4.1350 3.1909 -2.0016 0.9779
4.0176 3.3375 -2.0016 0.9779
3.8950 3.4797 -2.0016 0.9779
3.7675 3.6175 -2.0016 0.9779
3.6350 3.7506 -2.0016 0.9779
3.2101 4.1201 -2.0016 0.9779
3.0599 4.2328 -2.0016 0.9779
2.9058 4.3401 -2.0016 0.9779
2.4217 4.6277 -2.0016 0.9779
1.7334 4.9270 -2.0016 0.9779
1.5552 4.9861 -2.0016 0.9779
0.4519 5.2035 -2.0016 0.9779
0.0769 5.2225 -2.0016 0.9779
-0.1109 5.2219 -2.0016 0.9779
-0.2986 5.2145 -2.0016 0.9779
-0.4858 5.2004 -2.0016 0.9779
-0.6724 5.1796 -2.0016 0.9779
-1.0428 5.1179 -2.0016 0.9779
-1.2261 5.0771 -2.0016 0.9779
-1.5877 4.9759 -2.0016 0.9779
-1.7655 4.9156 -2.0016 0.9779
-1.9411 4.8489 -2.0016 0.9779
-2.2845 4.6969 -2.0016 0.9779
-2.4518 4.6118 -2.0016 0.9779
-2.6160 4.5207 -2.0016 0.9779
-2.7768 4.4237 -2.0016 0.9779
-3.3822 3.9801 -2.0016 0.9779
-3.5231 3.8559 -2.0016 0.9779
-3.6594 3.7268 -2.0016 0.9779
-3.7910 3.5929 -2.0016 0.9779
-3.9177 3.4543 -2.0016 0.9779
-4.2668 3.0124 -2.0016 0.9779
-4.3723 2.8571 -2.0016 0.9779
-4.5663 2.5356 -2.0016 0.9779
-4.7366 2.2010 -2.0016 0.9779
-4.8825 1.8550 -2.0016 0.9779
-4.9461 1.6783 -2.0016 0.9779
-5.0032 1.4994 -2.0016 0.9779
-5.1355 0.9521 -2.0016 0.9779
-5.1907 0.5807 -2.0016 0.9779
-5.2190 0.2062 -2.0016 0.9779
-5.2203 -0.1693 -2.0016 0.9779
-5.2108 -0.3568 -2.0016 0.9779
-5.1946 -0.5439 -2.0016 0.9779
-5.1421 -0.9157 -2.0016 0.9779
-5.1059 -1.0999 -2.0016 0.9779
-5.0631 -1.2828 -2.0016 0.9779
-5.0137 -1.4639 -2.0016 0.9779
-4.9578 -1.6432 -2.0016 0.9779
-4.4638 -2.2331 -1.9127 0.9788
-3.7692 -3.0454 -1.8570 0.9795
-3.6573 -3.1789 -1.8570 0.9795
-3.0300 -3.7816 -1.8570 0.9795
-2.6052 -4.0858 -1.8570 0.9795
-2.4567 -4.1768 -1.8570 0.9795
-2.1502 -4.3426 -1.8570 0.9795
-1.9928 -4.4170 -1.8570 0.9795
-1.8327 -4.4858 -1.8570 0.9795
-1.6703 -4.5488 -1.8570 0.9795
-1.5057 -4.6059 -1.8570 0.9795
-1.0011 -4.7412 -1.8570 0.9795
-0.6579 -4.8009 -1.8570 0.9795
-0.4849 -4.8214 -1.8570 0.9795
-0.3112 -4.8357 -1.8570 0.9795
-0.1372 -4.8438 -1.8570 0.9795
0.2112 -4.8412 -1.8570 0.9795
0.7311 -4.7903 -1.8570 0.9795
0.9028 -4.7609 -1.8570 0.9795
1.2425 -4.6837 -1.8570 0.9795
1.7395 -4.5228 -1.8570 0.9795
2.0009 -4.2604 -1.8038 0.9800
2.2428 -4.0003 -1.7575 0.9805
2.4362 -4.0009 -1.7951 0.9801
2.9511 -3.8435 -1.8570 0.9795
3.0873 -3.7349 -1.8570 0.9795
3.8703 -3.5072 -2.0016 0.9779
4.2254 -3.0702 -2.0016 0.9779
4.3330 -2.9163 -2.0016 0.9779
4.5313 -2.5975 -2.0016 0.9779
4.6218 -2.4329 -2.0016 0.9779
4.7063 -2.2652 -2.0016 0.9779
4.7846 -2.0946 -2.0016 0.9779
4.8568 -1.9212 -2.0016 0.9779
4.9228 -1.7454 -2.0016 0.9779
4.9823 -1.5673 -2.0016 0.9779
5.0354 -1.3872 -2.0016 0.9779
5.0820 -1.2053 -2.0016 0.9779
5.1221 -1.0219 -2.0016 0.9779
5.1555 -0.8371 -2.0016 0.9779
5.2023 -0.4645 -2.0016 0.9779
5.2221 0.0982 -2.0016 0.9779
5.2016 0.4732 -2.0016 0.9779
5.1812 0.6598 -2.0016 0.9779
5.1541 0.8456 -2.0016 0.9779
5.0800 1.2138 -2.0016 0.9779
4.8536 1.9293 -2.0016 0.9779
4.7812 2.1025 -2.0016 0.9779
4.7025 2.2730 -2.0016 0.9779
4.6177 2.4406 -2.0016 0.9779
4.4305 2.7661 -2.0016 0.9779
4.3282 2.9235 -2.0016 0.9779
4.2203 3.0772 -2.0016 0.9779
3.7357 3.6503 -2.0016 0.9779
3.6021 3.7822 -2.0016 0.9779
3.4638 3.9093 -2.0016 0.9779
3.3210 4.0312 -2.0016 0.9779
3.1740 4.1480 -2.0016 0.9779
2.8677 4.3653 -2.0016 0.9779
2.5467 4.5601 -2.0016 0.9779
2.3811 4.6487 -2.0016 0.9779
1.8669 4.8780 -2.0016 0.9779
0.9646 5.1332 -2.0016 0.9779
0.5933 5.1892 -2.0016 0.9779
0.4064 5.2072 -2.0016 0.9779
-0.1566 5.2207 -2.0016 0.9779
-0.3441 5.2117 -2.0016 0.9779
-0.5312 5.1959 -2.0016 0.9779
-0.7177 5.1735 -2.0016 0.9779
-0.9032 5.1444 -2.0016 0.9779
-1.0875 5.1086 -2.0016 0.9779
-1.4517 5.0172 -2.0016 0.9779
-1.6311 4.9618 -2.0016 0.9779
-1.8085 4.9000 -2.0016 0.9779
-1.9834 4.8318 -2.0016 0.9779
-2.4920 4.5902 -2.0016 0.9779
-2.9717 4.2952 -2.0016 0.9779
-3.1242 4.1856 -2.0016 0.9779
-3.5566 3.8250 -2.0016 0.9779
-3.6918 3.6947 -2.0016 0.9779
-3.9477 3.4199 -2.0016 0.9779
-4.0681 3.2758 -2.0016 0.9779
-4.1832 3.1274 -2.0016 0.9779
-4.2929 2.9750 -2.0016 0.9779
-4.3971 2.8188 -2.0016 0.9779
-4.5883 2.4956 -2.0016 0.9779
-4.6750 2.3290 -2.0016 0.9779
-4.7557 2.1595 -2.0016 0.9779
-5.1077 1.0915 -2.0016 0.9779
-5.1729 0.7217 -2.0016 0.9779
-5.1955 0.5353 -2.0016 0.9779
-5.2114 0.3482 -2.0016 0.9779
-5.2186 -0.2149 -2.0016 0.9779
-5.1897 -0.5893 -2.0016 0.9779
-5.1339 -0.9606 -2.0016 0.9779
-5.0961 -1.1445 -2.0016 0.9779
-5.0007 -1.5077 -2.0016 0.9779
-4.9433 -1.6865 -2.0016 0.9779
-4.8794 -1.8631 -2.0016 0.9779
-4.8093 -2.0373 -2.0016 0.9779
-4.7330 -2.2088 -2.0016 0.9779
-4.3782 -2.2383 -1.8844 0.9792
-4.2325 -2.3595 -1.8570 0.9795
-4.1450 -2.5101 -1.8570 0.9795
-4.0521 -2.6575 -1.8570 0.9795
-3.9539 -2.8014 -1.8570 0.9795
-3.8507 -2.9417 -1.8570 0.9795
-3.6294 -3.2108 -1.8570 0.9795
-3.5116 -3.3392 -1.8570 0.9795
-2.8580 -3.9132 -1.8570 0.9795
1.7434 -4.1889 -1.8570 0.9806
1.8928 -4.1236 -1.8570 0.9806
2.0235 -4.0203 -1.8421 0.9807
2.3258 -3.8958 -1.8570 0.9806
2.5996 -3.7187 -1.8570 0.9806
2.9849 -3.4172 -1.8570 0.9806
3.2227 -3.1939 -1.8570 0.9806
3.3354 -3.0760 -1.8570 0.9806
4.0331 -2.7660 -2.0016 0.9791
4.1300 -2.6193 -2.0016 0.9791
4.3075 -2.3158 -2.0016 0.9791
4.3879 -2.1594 -2.0016 0.9791
4.4627 -2.0003 -2.0016 0.9791
4.5317 -1.8386 -2.0016 0.9791
4.5949 -1.6745 -2.0016 0.9791
4.6521 -1.5083 -2.0016 0.9791
4.7874 -0.9987 -2.0016 0.9791
4.8202 -0.8260 -2.0016 0.9791
4.8468 -0.6522 -2.0016 0.9791
4.8812 -0.3022 -2.0016 0.9791
4.8903 0.0492 -2.0016 0.9791
4.8741 0.4004 -2.0016 0.9791
4.8565 0.5754 -2.0016 0.9791
4.8327 0.7496 -2.0016 0.9791
4.8026 0.9228 -2.0016 0.9791
4.7664 1.0949 -2.0016 0.9791
4.6208 1.6016 -2.0016 0.9791
4.4938 1.9295 -2.0016 0.9791
4.4215 2.0897 -2.0016 0.9791
4.2600 2.4020 -2.0016 0.9791
3.9766 2.8467 -2.0016 0.9791
3.8717 2.9878 -2.0016 0.9791
3.7618 3.1250 -2.0016 0.9791
3.6471 3.2582 -2.0016 0.9791
3.5276 3.3872 -2.0016 0.9791
3.2751 3.6319 -2.0016 0.9791
3.1425 3.7473 -2.0016 0.9791
3.0057 3.8578 -2.0016 0.9791
2.7208 4.0638 -2.0016 0.9791
2.5730 4.1590 -2.0016 0.9791
2.2675 4.3331 -2.0016 0.9791
2.1103 4.4118 -2.0016 0.9791
1.9503 4.4848 -2.0016 0.9791
1.7879 4.5520 -2.0016 0.9791
1.6231 4.6133 -2.0016 0.9791
1.2874 4.7180 -2.0016 0.9791
1.1170 4.7612 -2.0016 0.9791
0.9451 4.7983 -2.0016 0.9791
0.7721 4.8292 -2.0016 0.9791
0.5980 4.8538 -2.0016 0.9791
0.2477 4.8842 -2.0016 0.9791
0.0720 4.8900 -2.0016 0.9791
-0.1039 4.8894 -2.0016 0.9791
-0.2796 4.8825 -2.0016 0.9791
-0.6296 4.8498 -2.0016 0.9791
-0.9764 4.7920 -2.0016 0.9791
-1.6531 4.6026 -2.0016 0.9791
-1.8175 4.5402 -2.0016 0.9791
-1.9795 4.4720 -2.0016 0.9791
-2.1390 4.3979 -2.0016 0.9791
-2.6000 4.1421 -2.0016 0.9791
-2.7473 4.0459 -2.0016 0.9791
-2.8909 3.9446 -2.0016 0.9791
-3.0308 3.8381 -2.0016 0.9791
-3.2988 3.6104 -2.0016 0.9791
-3.4264 3.4895 -2.0016 0.9791
-3.6683 3.2343 -2.0016 0.9791
-3.8912 2.9624 -2.0016 0.9791
-3.9951 2.8206 -2.0016 0.9791
-4.0939 2.6752 -2.0016 0.9791
-4.2756 2.3742 -2.0016 0.9791
-4.3581 2.2189 -2.0016 0.9791
-4.4351 2.0609 -2.0016 0.9791
-4.5063 1.9001 -2.0016 0.9791
-4.6312 1.5714 -2.0016 0.9791
-4.6846 1.4039 -2.0016 0.9791
-1.9471 0.2890 -0.8056 0.9915
-1.9562 0.2188 -0.8056 0.9915
-1.9541 0.1477 -0.8021 0.9916
-1.9337 0.0764 -0.7920 0.9917
-1.9015 0.0067 -0.7782 0.9918
-1.9282 -0.0625 -0.7896 0.9917
-1.9511 -0.1336 -0.8004 0.9916
-1.9462 -0.2748 -0.8044 0.9915
-2.1609 -0.3848 -0.8983 0.9906
-4.7808 -1.0299 -2.0016 0.9791
-4.7407 -1.2011 -2.0016 0.9791
-4.6945 -1.3707 -2.0016 0.9791
-4.5839 -1.7045 -2.0016 0.9791
-4.5196 -1.8681 -2.0016 0.9791
-4.0911 -2.2340 -1.9078 0.9801
-3.9015 -2.3163 -1.8570 0.9806
-3.7250 -2.5906 -1.8570 0.9806
-3.6294 -2.7228 -1.8570 0.9806
-3.4244 -2.9765 -1.8570 0.9806
-3.2017 -3.2149 -1.8570 0.9806
-2.8370 -3.5409 -1.8570 0.9806
-2.7079 -3.6406 -1.8570 0.9806
-2.1582 -3.9911 -1.8570 0.9806
-1.4098 -4.3127 -1.8570 0.9806
-0.7772 -4.4702 -1.8570 0.9806
-0.6160 -4.4952 -1.8570 0.9806
-0.2914 -4.5279 -1.8570 0.9806
0.0346 -4.5371 -1.8570 0.9806
0.3605 -4.5229 -1.8570 0.9806
0.6845 -4.4853 -1.8570 0.9806
1.0050 -4.4245 -1.8570 0.9806
1.3203 -4.3409 -1.8570 0.9806
1.6288 -4.2348 -1.8570 0.9806
2.3597 -3.8753 -1.8570 0.9806
2.4975 -3.7880 -1.8570 0.9806
2.8908 -3.4971 -1.8570 0.9806
3.2505 -3.1656 -1.8570 0.9806
3.6239 -3.2839 -2.0016 0.9791
3.7396 -3.1516 -2.0016 0.9791
3.9564 -2.8747 -2.0016 0.9791
4.0572 -2.7307 -2.0016 0.9791
4.1527 -2.5831 -2.0016 0.9791
4.2429 -2.4321 -2.0016 0.9791
4.5476 -1.7989 -2.0016 0.9791
4.6094 -1.6343 -2.0016 0.9791
4.6651 -1.4675 -2.0016 0.9791
4.7148 -1.2989 -2.0016 0.9791
4.7585 -1.1286 -2.0016 0.9791
4.8523 -0.6098 -2.0016 0.9791
4.8836 -0.2596 -2.0016 0.9791
4.8704 0.4430 -2.0016 0.9791
4.8260 0.7918 -2.0016 0.9791
4.7944 0.9648 -2.0016 0.9791
4.7566 1.1365 -2.0016 0.9791
4.6627 1.4753 -2.0016 0.9791
4.5446 1.8065 -2.0016 0.9791
4.4031 2.1283 -2.0016 0.9791
4.3238 2.2852 -2.0016 0.9791
4.2388 2.4392 -2.0016 0.9791
4.0526 2.7374 -2.0016 0.9791
3.8455 3.0215 -2.0016 0.9791
3.4979 3.4179 -2.0016 0.9791
3.3727 3.5414 -2.0016 0.9791
3.1096 3.7746 -2.0016 0.9791
2.3846 4.2698 -2.0016 0.9791
1.7480 4.5674 -2.0016 0.9791
1.4153 4.6812 -2.0016 0.9791
1.2461 4.7291 -2.0016 0.9791
0.5555 4.8589 -2.0016 0.9791
0.2050 4.8862 -2.0016 0.9791
0.0292 4.8904 -2.0016 0.9791
-0.1466 4.8883 -2.0016 0.9791
-0.4974 4.8651 -2.0016 0.9791
-1.3593 4.6978 -2.0016 0.9791
-1.6933 4.5880 -2.0016 0.9791
-1.8571 4.5242 -2.0016 0.9791
-2.1774 4.3790 -2.0016 0.9791
-2.4864 4.2113 -2.0016 0.9791
-2.6361 4.1192 -2.0016 0.9791
-2.7825 4.0218 -2.0016 0.9791
-2.9253 3.9192 -2.0016 0.9791
-3.0643 3.8115 -2.0016 0.9791
-3.3302 3.5815 -2.0016 0.9791
-3.4568 3.4594 -2.0016 0.9791
-3.5789 3.3330 -2.0016 0.9791
-3.9169 2.9283 -2.0016 0.9791
-4.0196 2.7856 -2.0016 0.9791
-4.1172 2.6393 -2.0016 0.9791
-4.2961 2.3367 -2.0016 0.9791
-4.3774 2.1808 -2.0016 0.9791
-4.4529 2.0220 -2.0016 0.9791
-4.5227 1.8606 -2.0016 0.9791
-4.6447 1.5309 -2.0016 0.9791
-4.6967 1.3629 -2.0016 0.9791
-4.7427 1.1932 -2.0016 0.9791
-1.9470 0.2716 -0.8046 0.9915
-1.9575 0.2017 -0.8054 0.9915
-1.9503 0.1303 -0.8000 0.9916
-1.9269 0.0593 -0.7890 0.9917
-1.9032 -0.0099 -0.7790 0.9918
-1.9349 -0.0797 -0.7926 0.9917
-1.9559 -0.2221 -0.8056 0.9915
-1.9600 -0.2943 -0.8112 0.9915
-4.7716 -1.0717 -2.0016 0.9791
-4.7300 -1.2425 -2.0016 0.9791
-4.5031 -1.9076 -2.0016 0.9791
-4.4317 -2.0682 -2.0016 0.9791
-4.3385 -2.2180 -1.9942 0.9792
-4.0161 -2.2388 -1.8818 0.9803
-3.7941 -2.4883 -1.8570 0.9806
-3.6055 -2.7544 -1.8570 0.9806
-3.3983 -3.0064 -1.8570 0.9806
-3.1735 -3.2427 -1.8570 0.9806
-2.9323 -3.4624 -1.8570 0.9806
-2.6760 -3.6641 -1.8570 0.9806
1.9156 -3.8060 -1.8570 0.9816
2.0512 -3.7347 -1.8570 0.9816
2.1841 -3.6586 -1.8570 0.9816
2.3142 -3.5777 -1.8570 0.9816
2.8031 -3.2091 -1.8570 0.9816
3.0264 -2.9994 -1.8570 0.9816
3.7875 -2.5976 -2.0016 0.9802
3.8784 -2.4597 -2.0016 0.9802
3.9643 -2.3187 -2.0016 0.9802
4.0451 -2.1747 -2.0016 0.9802
4.1207 -2.0279 -2.0016 0.9802
4.1909 -1.8785 -2.0016 0.9802
4.2557 -1.7266 -2.0016 0.9802
4.3151 -1.5725 -2.0016 0.9802
4.4169 -1.2585 -2.0016 0.9802
4.4959 -0.9379 -2.0016 0.9802
4.5267 -0.7757 -2.0016 0.9802
4.5517 -0.6124 -2.0016 0.9802
4.5707 -0.4484 -2.0016 0.9802
4.5839 -0.2838 -2.0016 0.9802
4.5911 -0.1189 -2.0016 0.9802
4.5924 0.0462 -2.0016 0.9802
4.5772 0.3761 -2.0016 0.9802
4.5102 0.8666 -2.0016 0.9802
