ply
format ascii 1.0
element vertex 1539
property float32 x
property float32 y
property float32 z
property float32 I
end_header
25.9366 27.0588 4.8809 0.8597
2.6994 17.3467 2.2861 0.9316
2.0755 17.4323 2.2861 0.9316
1.4489 17.4955 2.2861 0.9316
0.7422 15.8623 2.0679 0.9380
-0.3885 15.5394 2.0242 0.9392
-1.5114 15.5748 2.0377 0.9388
-1.1789 8.8374 1.1610 0.9647
-3.2324 15.5962 2.0741 0.9378
-6.0470 14.9773 2.1033 0.9369
-6.8321 13.9480 2.0225 0.9393
-7.5954 13.0462 1.9658 0.9409
-8.2368 13.0480 2.0093 0.9397
-9.6134 13.0518 2.1109 0.9367
-10.3572 13.0538 2.1699 0.9350
-11.1449 13.0560 2.2354 0.9331
-13.7664 13.9622 2.5533 0.9240
-14.8310 14.0000 2.6559 0.9210
-17.1074 13.9714 2.8763 0.9148
-18.4229 13.9751 3.0112 0.9109
-33.4314 -23.1977 5.2989 0.8486
-27.5733 -22.2228 4.6116 0.8669
-25.7845 -22.3531 4.4438 0.8714
-23.9945 -22.3581 4.2708 0.8761
-22.3366 -22.3627 4.1159 0.8803
-20.7928 -22.3670 3.9768 0.8841
-15.1439 -22.3827 2.9019 0.8970
-13.6147 -21.7657 2.7568 0.9019
-9.8806 -22.3973 2.6287 0.9062
-8.0168 -22.3975 2.5545 0.9087
-7.1398 -22.4549 2.5302 0.9096
-5.3904 -22.4048 2.4745 0.9115
-4.5742 -22.5385 2.4696 0.9116
-3.7167 -22.4094 2.4392 0.9127
-2.0941 -22.5469 2.4315 0.9129
-1.2732 -22.4162 2.4110 0.9136
0.2604 -17.3483 1.8631 0.9326
1.1420 -22.4229 2.4109 0.9136
2.2058 -4.2228 0.5116 0.9810
32.9513 -34.0940 5.0915 0.8263
32.9905 -29.5650 4.7570 0.8368
32.9416 -27.4558 4.6049 0.8415
32.8550 -25.4434 4.4622 0.8461
30.2295 -18.5890 3.8106 0.8670
32.6197 -7.5848 3.5962 0.8740
32.6733 -2.7829 3.5212 0.8764
46.8233 13.1489 5.2225 0.8223
36.8426 13.2617 4.2047 0.8543
35.0339 14.0495 4.0532 0.8591
28.7684 15.3082 3.4993 0.8771
26.9753 19.7718 3.5914 0.8741
29.5299 23.3174 4.0403 0.8595
27.4219 23.2972 3.8638 0.8652
26.6434 24.3340 3.8747 0.8649
26.4782 25.9851 3.9837 0.8614
27.2851 28.7695 4.2577 0.8526
31.8923 36.1395 5.1757 0.8237
2.4048 21.1531 2.2861 0.9179
1.6446 21.2257 2.2861 0.9179
0.6579 15.8625 1.7048 0.9381
-0.9702 14.6409 1.5756 0.9427
-2.5814 14.7038 1.6031 0.9417
-3.1370 14.7420 1.6185 0.9412
-3.7164 14.8302 1.6417 0.9403
-4.2999 14.8743 1.6626 0.9396
-4.9053 14.9379 1.6883 0.9387
-7.4205 13.6919 1.6723 0.9393
-8.3341 13.0482 1.6626 0.9396
-9.0102 13.0501 1.7029 0.9382
-9.7208 13.0521 1.7476 0.9366
-10.4707 13.0542 1.7970 0.9349
-15.5585 14.5316 2.2861 0.9179
-16.0697 13.9642 2.2861 0.9179
-17.2813 13.9614 2.3856 0.9145
-18.6747 14.0107 2.5070 0.9104
-33.0618 -23.2020 4.3372 0.8500
-27.4303 -22.3485 3.7994 0.8673
-25.5108 -22.3539 3.6423 0.8724
-23.7416 -22.3588 3.5020 0.8770
-22.1557 -22.4182 3.3846 0.8809
-20.5733 -22.3676 3.2634 0.8849
-19.2921 -22.5468 3.1864 0.8875
-16.5239 -22.3788 2.9872 0.8941
-13.7755 -21.7652 2.7660 0.9016
-12.8797 -22.0632 2.7433 0.9023
-11.0019 -22.3942 2.6793 0.9045
-10.0227 -22.3969 2.6349 0.9060
-9.1453 -22.5749 2.6155 0.9067
-4.6987 -22.5382 2.4722 0.9115
-3.8388 -22.4091 2.4414 0.9126
-3.0164 -22.4114 2.4283 0.9130
32.9497 -34.4561 5.1194 0.8255
32.8995 -29.7995 4.7666 0.8365
32.9944 -27.7976 4.6328 0.8407
32.6293 -25.5466 4.4500 0.8464
35.6051 -25.8717 4.7261 0.8377
41.4783 -25.8104 5.2459 0.8216
32.8243 -7.8161 3.6233 0.8731
32.4865 -5.3099 3.5347 0.8760
32.1685 -2.9118 3.4684 0.8781
41.9060 13.1626 4.7167 0.8380
29.9215 14.3739 3.5645 0.8750
28.7738 15.1158 3.4902 0.8774
27.3298 15.6328 3.3809 0.8810
25.9210 17.4055 3.3527 0.8820
28.6521 22.3785 3.9039 0.8639
27.4992 23.1129 3.8574 0.8654
28.4201 25.6816 4.1132 0.8572
26.6526 25.8802 3.9893 0.8612
26.9444 28.1102 4.1813 0.8550
1.7571 21.2167 2.2861 0.9179
0.7422 15.8623 1.7052 0.9381
0.1589 14.6032 1.5682 0.9429
-0.8920 14.6369 1.5747 0.9427
-1.4233 14.6669 1.5824 0.9424
-1.1787 8.8359 0.9572 0.9648
-2.5023 14.7109 1.6024 0.9417
-3.0518 14.7250 1.6148 0.9413
-4.2121 14.8656 1.6591 0.9397
-4.8145 14.9279 1.6843 0.9388
-5.3813 14.8409 1.6952 0.9385
-6.0470 14.9773 1.7344 0.9371
-6.8321 13.9480 1.6678 0.9394
-7.4200 13.8660 1.6887 0.9387
-8.9082 13.0498 1.6967 0.9384
-10.3572 13.0538 1.7894 0.9352
-11.9826 13.0583 1.9031 0.9312
-15.4813 14.6139 2.2861 0.9179
-21.5274 14.0186 2.7586 0.9018
-23.3238 14.0236 2.9224 0.8963
-35.1172 17.8205 4.2287 0.8535
-35.9704 -3.7684 3.8837 0.8646
-33.4295 -23.1964 4.3693 0.8490
-27.7283 -22.3477 3.8242 0.8665
-24.0924 -22.4493 3.5361 0.8759
-22.3761 -22.4023 3.4000 0.8804
-20.7928 -22.3670 3.2793 0.8844
-19.4997 -22.5462 3.2009 0.8870
-14.8152 -21.8969 2.2380 0.8993
-12.9111 -22.3889 2.1878 0.9015
-9.8806 -22.3973 2.0723 0.9064
-8.0168 -22.3975 2.0138 0.9089
-7.1223 -22.4000 1.9898 0.9100
-5.3904 -22.4048 1.9507 0.9116
-4.5475 -22.4071 1.9355 0.9123
-2.8955 -22.4117 1.9130 0.9133
-1.2732 -22.4162 1.9007 0.9138
-0.4678 -22.4185 1.8982 0.9139
2.2058 -4.2228 0.4033 0.9811
32.8839 -36.5620 4.1628 0.8209
32.6130 -31.4072 3.8328 0.8338
38.2543 -25.4584 3.8899 0.8316
35.0158 14.0422 3.1937 0.8595
32.5966 14.4499 3.0184 0.8666
29.7494 14.4859 2.8011 0.8756
27.6906 14.7347 2.6553 0.8817
27.1077 15.6972 2.6517 0.8818
27.1838 18.4634 2.7818 0.8764
3.6223 24.1190 2.0646 0.9067
1.7688 22.8293 1.9384 0.9122
0.0757 13.5690 1.1487 0.9470
-0.8993 13.5717 1.1514 0.9469
-1.3899 13.5731 1.1550 0.9467
-2.9151 13.6993 1.1857 0.9453
-4.5232 13.7744 1.2273 0.9435
-5.0986 13.8318 1.2479 0.9425
-6.0476 14.7531 1.3497 0.9380
-6.3104 13.9466 1.2958 0.9404
-10.1393 14.6855 1.5107 0.9309
-12.1868 13.1403 1.5171 0.9306
-19.4817 15.7391 2.1201 0.9044
-22.1691 15.4215 2.2861 0.8973
-33.0561 -23.1980 3.4186 0.8503
-27.4303 -22.3485 2.9952 0.8676
-25.5108 -22.3539 2.8713 0.8727
-20.5733 -22.3676 2.5726 0.8852
-19.2921 -22.5468 2.5120 0.8877
-17.3971 -21.8739 2.3659 0.8939
-14.9229 -21.8059 2.2368 0.8994
-11.0018 -22.3942 2.1122 0.9047
-9.0742 -22.3995 2.0459 0.9075
-8.1509 -22.3971 2.0176 0.9088
-5.3875 -16.6379 1.4804 0.9322
-6.3759 -22.4021 1.9717 0.9107
-1.3925 -22.4159 1.9012 0.9138
0.2177 -22.4204 1.8980 0.9139
1.0228 -22.4226 1.9001 0.9138
33.2208 -30.0906 3.7944 0.8353
32.6293 -25.5466 3.5081 0.8467
32.9514 9.0652 2.8931 0.8718
41.8490 13.1447 3.7133 0.8385
37.2216 13.1756 3.3425 0.8534
35.0193 15.3022 3.2351 0.8578
27.7255 14.5651 2.6512 0.8819
27.1323 15.5198 2.6460 0.8821
27.5392 19.9615 2.8793 0.8724
28.7536 24.1672 3.1796 0.8600
28.2233 27.4054 3.3302 0.8539
3.7532 24.1187 2.0663 0.9067
2.7177 22.8266 1.9460 0.9118
1.8906 22.8289 1.9391 0.9121
0.7422 15.8623 1.3443 0.9382
0.1476 13.5688 1.1487 0.9470
-0.3392 13.5701 1.1491 0.9470
-0.8271 13.5715 1.1510 0.9469
-1.1785 8.8345 0.7545 0.9649
-2.3203 13.6409 1.1713 0.9460
-3.3576 13.7065 1.1946 0.9449
-5.0122 13.8228 1.2447 0.9427
-6.2214 13.9463 1.2927 0.9405
-6.8321 13.9480 1.3148 0.9396
-7.4649 13.9498 1.3393 0.9385
-9.5262 15.0904 1.5107 0.9309
-10.5834 14.3687 1.5107 0.9309
-11.0920 13.9799 1.5107 0.9309
-11.5863 13.5731 1.5107 0.9309
-12.0656 13.1488 1.5107 0.9309
-12.9182 13.1019 1.5576 0.9288
-16.3634 15.4465 1.9049 0.9136
-19.2710 15.7385 2.1063 0.9049
-20.7530 15.7426 2.2051 0.9007
-22.0870 15.5388 2.2861 0.8973
-22.6301 14.7367 2.2861 0.8973
-23.2479 13.9779 2.2963 0.8968
-33.4276 -23.1951 3.4445 0.8493
-22.3761 -22.4023 2.6804 0.8806
-20.7928 -22.3670 2.5852 0.8846
-14.8464 -21.9431 1.6429 0.8993
-11.8637 -22.3918 1.5714 0.9034
-10.8550 -22.3946 1.5432 0.9051
-9.8806 -22.3973 1.5180 0.9066
-8.9364 -22.3999 1.4955 0.9079
-8.0168 -22.3975 1.4752 0.9091
-7.1223 -22.4000 1.4576 0.9101
-6.2478 -22.4024 1.4422 0.9110
-3.6997 -22.3072 1.4022 0.9134
-2.8955 -22.4117 1.4013 0.9134
-2.0817 -22.4140 1.3959 0.9137
-0.4678 -22.4185 1.3905 0.9141
0.2604 -17.3464 1.0758 0.9328
2.2057 -4.2227 0.2954 0.9811
33.5780 -34.7424 2.9961 0.8240
32.6130 -31.4072 2.8077 0.8341
33.3508 -29.8878 2.7770 0.8357
32.8154 -27.3507 2.6490 0.8426
38.2543 -25.4584 2.8495 0.8318
30.2262 -18.5869 2.2004 0.8674
34.3401 -4.1700 2.1451 0.8705
46.8233 13.1489 3.0158 0.8229
34.6514 13.8961 2.3151 0.8610
34.6047 15.3400 2.3472 0.8592
32.4467 15.7993 2.2379 0.8653
29.2581 15.5688 2.0552 0.8756
35.0561 22.0154 2.5670 0.8471
31.7880 25.1004 2.5116 0.8502
1.7688 22.8293 1.4199 0.9123
0.6579 15.8625 0.9845 0.9384
-0.4113 13.5703 0.8419 0.9470
-0.8993 13.5717 0.8434 0.9469
-1.3899 13.5731 0.8461 0.9468
-1.2232 8.8131 0.5517 0.9650
-2.3834 13.5758 0.8547 0.9463
-4.4599 13.5816 0.8864 0.9443
-5.0069 13.5831 0.8977 0.9436
-6.0476 14.7531 0.9887 0.9381
-6.3104 13.9466 0.9492 0.9405
-11.3273 17.7345 1.3049 0.9191
-12.9172 17.3438 1.3410 0.9170
-13.2094 16.4685 1.3091 0.9189
-13.2126 15.3132 1.2542 0.9221
-13.9136 13.9626 1.2223 0.9240
-17.0124 15.8895 1.4435 0.9109
-16.3853 14.2384 1.3461 0.9167
-17.9240 14.4806 1.4289 0.9118
-19.5657 14.6791 1.5168 0.9066
-27.4303 -22.3485 2.1940 0.8678
-23.7416 -22.3588 2.0223 0.8775
-16.1887 -18.9198 1.5441 0.9050
-15.0502 -18.9230 1.4993 0.9076
-15.0164 -21.9426 1.6488 0.8989
-12.0160 -22.3914 1.5758 0.9032
-11.0018 -22.3942 1.5472 0.9048
-10.0227 -22.3969 1.5216 0.9063
-9.0742 -22.3995 1.4987 0.9077
-5.3869 -16.6359 1.0843 0.9323
-4.6635 -22.3695 1.4170 0.9125
-3.8324 -22.3718 1.4075 0.9130
-3.0164 -22.4114 1.4023 0.9134
0.2177 -22.4204 1.3904 0.9141
1.0228 -22.4226 1.3919 0.9140
2.1908 -4.2489 0.2964 0.9810
32.8829 -36.9532 3.0674 0.8202
32.9900 -29.8815 2.7602 0.8366
32.8086 -27.6411 2.6603 0.8420
38.1818 -25.7034 2.8542 0.8316
49.6925 -2.7058 3.0860 0.8192
32.9476 9.0641 2.1190 0.8720
41.2615 12.9602 2.6819 0.8409
34.6578 13.6857 2.3106 0.8613
34.6119 15.1241 2.3423 0.8595
35.0417 16.8335 2.4107 0.8557
29.1807 16.6915 2.0846 0.8740
35.0553 21.7566 2.5584 0.8476
34.8461 27.2163 2.7418 0.8376
0.7422 15.8623 0.9847 0.9383
-0.8271 13.5715 0.8431 0.9470
-1.3171 13.5729 0.8456 0.9468
-2.3092 13.5756 0.8539 0.9463
-2.8139 13.5770 0.8598 0.9459
-3.3262 13.5784 0.8669 0.9455
-6.0470 14.9774 1.0016 0.9373
-6.8321 13.9480 0.9631 0.9397
-10.2271 17.5665 1.2605 0.9218
-11.1951 17.7342 1.3005 0.9194
-12.1076 17.7367 1.3317 0.9175
-12.9166 17.5365 1.3506 0.9164
-13.7664 13.9622 1.2159 0.9244
-16.1822 14.2133 1.3356 0.9173
-21.0086 14.7801 1.5928 0.9022
-33.4257 -23.1938 2.5227 0.8495
-23.9945 -22.3581 2.0337 0.8768
-20.7928 -22.3670 1.8937 0.8848
-19.3482 -22.3710 1.8341 0.8882
-13.7317 -21.9528 1.0210 0.9015
-12.9111 -22.3889 1.0191 0.9017
-10.8550 -22.3946 0.9813 0.9052
-9.8813 -22.3989 0.9653 0.9066
-8.0168 -22.3975 0.9380 0.9092
-7.1398 -22.4549 0.9291 0.9100
-6.2478 -22.4024 0.9171 0.9111
-5.3904 -22.4048 0.9087 0.9119
-4.5687 -22.5114 0.9057 0.9121
-3.6997 -22.3072 0.8916 0.9135
-2.8955 -22.4117 0.8911 0.9135
-2.0980 -22.5896 0.8946 0.9132
-1.2732 -22.4162 0.8853 0.9140
0.2604 -17.3463 0.6841 0.9329
32.8813 -36.5591 1.9388 0.8213
32.8969 -27.4186 1.6886 0.8425
32.8550 -25.4434 1.6386 0.8468
37.1876 -26.7214 1.8056 0.8325
38.2543 -25.4584 1.8119 0.8320
30.2240 -18.5856 1.3991 0.8676
46.6739 13.1070 1.9116 0.8236
41.1482 13.1647 1.7035 0.8412
36.6082 13.1773 1.5342 0.8558
35.0381 15.5322 1.5112 0.8578
35.1779 18.7188 1.5713 0.8526
35.1873 22.0978 1.6384 0.8468
35.0611 23.8136 1.6712 0.8439
35.0718 27.6933 1.7621 0.8362
2.5951 22.8270 0.9059 0.9121
1.7688 22.8293 0.9029 0.9124
0.6579 15.8625 0.6260 0.9384
-0.4808 15.8657 0.6259 0.9384
-1.6250 15.8689 0.6290 0.9381
-1.2231 8.8121 0.3508 0.9650
-2.7865 15.8721 0.6354 0.9375
-3.3778 15.8737 0.6399 0.9371
-3.9783 15.8754 0.6453 0.9366
-4.5898 15.8771 0.6517 0.9360
-5.2143 15.8788 0.6590 0.9353
-5.8538 15.8806 0.6674 0.9345
-6.3104 13.9466 0.6036 0.9406
-7.5605 13.9501 0.6257 0.9385
-10.3524 17.5669 0.8040 0.9216
-11.3273 17.7345 0.8298 0.9192
-13.2094 16.4685 0.8325 0.9190
-13.2126 15.3132 0.7975 0.9222
-12.9643 13.9786 0.7518 0.9265
-17.0124 15.8895 0.9179 0.9110
-16.7801 13.5565 0.8506 0.9173
-18.0741 13.5600 0.8910 0.9135
-19.4989 13.5640 0.9366 0.9093
-23.7416 -22.3588 1.2859 0.8776
-13.9827 -18.9373 0.9282 0.9101
-13.9610 -20.4004 0.9747 0.9058
-13.8446 -21.8743 1.0208 0.9016
-11.0018 -22.3942 0.9838 0.9049
-9.0964 -22.4544 0.9553 0.9076
-6.3759 -22.4021 0.9184 0.9110
-5.5162 -22.4044 0.9098 0.9118
-3.8324 -22.3718 0.8950 0.9131
-3.0164 -22.4114 0.8917 0.9135
-2.2189 -22.5892 0.8950 0.9131
-1.3925 -22.4159 0.8856 0.9140
1.0288 -22.5540 0.8903 0.9136
32.8881 -36.9591 1.9508 0.8203
32.6121 -31.7414 1.7945 0.8335
32.6293 -25.5466 1.6340 0.8471
32.9449 9.0634 1.3473 0.8722
41.9060 13.1626 1.7320 0.8388
35.0374 15.3101 1.5077 0.8581
35.0417 16.8335 1.5329 0.8559
35.1772 18.4797 1.5668 0.8529
35.0603 23.5423 1.6652 0.8445
0.7422 15.8623 0.6262 0.9384
0.1726 15.8639 0.6256 0.9385
-0.3966 15.8655 0.6258 0.9384
-1.1781 8.8317 0.3513 0.9650
-2.6998 15.8719 0.6348 0.9376
-3.8889 15.8752 0.6445 0.9367
-4.4986 15.8768 0.6507 0.9361
-5.7582 15.8803 0.6661 0.9346
-6.0470 14.9774 0.6369 0.9374
-6.8321 13.9480 0.6124 0.9397
-10.2271 17.5665 0.8015 0.9219
-12.9166 17.5365 0.8588 0.9165
-13.2089 16.6480 0.8380 0.9184
-13.2122 15.4778 0.8024 0.9218
-13.7664 13.9622 0.7731 0.9245
-16.5986 13.5560 0.8450 0.9178
-19.2791 13.5634 0.9295 0.9100
-20.8350 13.5677 0.9804 0.9053
-27.7283 -22.3477 1.4043 0.8671
-25.7846 -22.3531 1.3456 0.8723
-16.3629 -18.9194 0.9863 0.9047
-15.2625 -22.5580 0.4601 0.8968
-13.7317 -21.9528 0.4374 0.9016
-10.8550 -22.3946 0.4204 0.9052
-8.9364 -22.3999 0.4074 0.9080
-8.0168 -22.3975 0.4018 0.9092
-6.2478 -22.4024 0.3929 0.9112
-5.3904 -22.4048 0.3893 0.9119
-4.5687 -22.5114 0.3880 0.9122
-2.8955 -22.4117 0.3817 0.9136
-0.4678 -22.4185 0.3788 0.9142
0.2604 -17.3461 0.2930 0.9330
1.1420 -22.4229 0.3793 0.9141
2.2057 -4.2227 0.0805 0.9811
32.8779 -36.5553 0.8305 0.8214
32.6130 -31.4072 0.7648 0.8343
33.5060 -30.0269 0.7600 0.8353
32.8941 -27.4162 0.7233 0.8426
32.8550 -25.4434 0.7019 0.8468
38.2543 -25.4584 0.7762 0.8321
30.2206 -18.5835 0.5993 0.8677
41.9228 13.4125 0.7435 0.8385
35.2380 14.1313 0.6413 0.8591
35.2766 17.1772 0.6628 0.8547
35.1779 18.7188 0.6731 0.8526
29.8393 17.2790 0.5824 0.8711
35.2031 27.7970 0.7577 0.8357
4.0147 15.2951 0.2671 0.9387
2.4918 13.3193 0.2289 0.9472
2.0296 13.5141 0.2308 0.9468
0.9828 12.6854 0.2149 0.9504
0.0699 12.5245 0.2116 0.9511
-0.4808 15.8657 0.2681 0.9385
-1.2230 8.8111 0.1503 0.9650
-5.8538 15.8806 0.2859 0.9345
-6.3104 13.9466 0.2586 0.9406
-10.3524 17.5669 0.3444 0.9217
-7.9727 12.4824 0.2502 0.9425
-12.9172 17.3438 0.3653 0.9171
-13.2094 16.4685 0.3566 0.9190
-12.4420 12.4858 0.2977 0.9319
-33.2622 23.1381 0.6844 0.8504
-34.5629 22.2472 0.6943 0.8484
-27.4303 -22.3485 0.5977 0.8680
-25.5108 -22.3539 0.5730 0.8731
-23.7416 -22.3588 0.5509 0.8777
-22.1557 -22.4182 0.5324 0.8815
-19.2921 -22.5468 0.5012 0.8881
-12.1100 -22.5667 0.4326 0.9026
-11.0018 -22.3942 0.4215 0.9050
-10.0227 -22.3969 0.4145 0.9065
-8.1509 -22.3971 0.4026 0.9091
-3.8324 -22.3718 0.3834 0.9132
-3.0164 -22.4114 0.3820 0.9135
0.2194 -22.5960 0.3817 0.9136
1.0288 -22.5540 0.3814 0.9136
2.1908 -4.2488 0.0807 0.9811
32.6121 -31.7414 0.7687 0.8335
33.1286 -30.0070 0.7550 0.8363
38.1818 -25.7034 0.7775 0.8318
42.6949 13.4104 0.7559 0.8361
37.9116 13.4198 0.6793 0.8514
35.2874 13.9344 0.6409 0.8592
35.6212 17.1119 0.6675 0.8538
35.1915 23.6305 0.7160 0.8440
1.0512 12.6936 0.2152 0.9503
-1.5399 15.8686 0.2693 0.9382
-2.1183 12.4532 0.2134 0.9507
-3.2899 15.8735 0.2738 0.9372
-4.4986 15.8768 0.2787 0.9361
-4.4610 12.3027 0.2211 0.9490
-6.2214 13.9463 0.2580 0.9407
-7.4649 13.9498 0.2673 0.9387
-10.2271 17.5665 0.3434 0.9219
-11.1951 17.7342 0.3543 0.9195
-8.3501 12.2324 0.2502 0.9425
-12.9166 17.5365 0.3679 0.9166
-13.2089 16.6480 0.3590 0.9185
-12.9262 14.0867 0.3230 0.9264
-18.0941 15.8925 0.4068 0.9082
-19.4643 15.8963 0.4245 0.9044
-20.9611 15.9005 0.4444 0.9001
-27.7283 -22.3477 0.6016 0.8672
-24.1824 -22.5332 0.5583 0.8761
-22.3761 -22.4023 0.5348 0.8810
-13.7317 -21.9528 -0.1458 0.9016
-12.9111 -22.3889 -0.1455 0.9018
-11.9332 -22.5231 -0.1435 0.9031
-10.8550 -22.3946 -0.1401 0.9052
-8.9364 -22.3999 -0.1358 0.9080
-8.0168 -22.3975 -0.1339 0.9092
-5.3093 -16.6979 -0.0987 0.9323
-5.3904 -22.4048 -0.1297 0.9119
-4.5687 -22.5114 -0.1293 0.9122
-3.6997 -22.3072 -0.1273 0.9135
-2.8955 -22.4117 -0.1272 0.9136
-2.0980 -22.5896 -0.1277 0.9132
2.2057 -4.2227 -0.0268 0.9811
32.8744 -36.5515 -0.2768 0.8215
32.6130 -31.4072 -0.2549 0.8343
32.8912 -27.4138 -0.2411 0.8426
30.2172 -18.5814 -0.1997 0.8677
37.1537 13.3737 -0.2223 0.8539
35.2380 14.1313 -0.2138 0.8591
34.1358 18.1642 -0.2177 0.8567
29.8708 17.2972 -0.1943 0.8710
35.1975 25.7983 -0.2457 0.8398
3.6167 13.7787 -0.0802 0.9446
3.0140 13.4267 -0.0775 0.9464
1.9554 13.0200 -0.0741 0.9487
-1.2228 8.8101 -0.0501 0.9650
-2.6562 12.4828 -0.0719 0.9502
-3.5110 12.1454 -0.0712 0.9507
-4.4331 12.0266 -0.0722 0.9500
-4.8953 11.9420 -0.0727 0.9497
-5.4597 12.0665 -0.0746 0.9484
-8.3534 12.0988 -0.0828 0.9429
-9.6461 12.0261 -0.0868 0.9402
-10.2699 11.9026 -0.0885 0.9391
-11.0790 11.9459 -0.0917 0.9369
-12.6761 11.8394 -0.0977 0.9330
-13.8947 12.0741 -0.1036 0.9290
-14.8361 11.9859 -0.1074 0.9265
-17.1105 11.9026 -0.1174 0.9200
-18.6339 11.9941 -0.1248 0.9152
-20.0497 11.9107 -0.1313 0.9109
-22.0138 12.0309 -0.1412 0.9045
-23.8534 11.9459 -0.1502 0.8988
-28.2220 12.8892 -0.1747 0.8833
-22.2746 -22.5385 -0.1784 0.8809
-20.5733 -22.3676 -0.1711 0.8855
-19.2921 -22.5468 -0.1671 0.8881
-17.3971 -21.8739 -0.1574 0.8942
-13.0696 -22.3884 -0.1460 0.9015
-12.1100 -22.5667 -0.1442 0.9026
-9.1453 -22.5749 -0.1371 0.9072
-8.1509 -22.3971 -0.1342 0.9091
-5.3849 -16.6299 -0.0984 0.9325
-4.6931 -22.5110 -0.1295 0.9121
-1.3925 -22.4159 -0.1264 0.9141
42.6949 13.4104 -0.2520 0.8361
36.0484 15.7518 -0.2215 0.8544
35.1818 20.1242 -0.2282 0.8503
34.4721 21.3947 -0.2284 0.8502
35.1968 25.5120 -0.2447 0.8404
35.2023 27.4945 -0.2515 0.8364
3.7944 14.1497 -0.0825 0.9431
3.0690 13.3401 -0.0771 0.9467
2.5105 13.0364 -0.0747 0.9483
1.0435 12.5995 -0.0712 0.9507
0.5791 12.3762 -0.0698 0.9516
-0.7550 12.3895 -0.0699 0.9516
-2.0558 12.0861 -0.0690 0.9521
-2.4786 11.9590 -0.0688 0.9523
-2.9867 12.1923 -0.0707 0.9510
-3.4502 12.1767 -0.0713 0.9506
-3.9489 12.2440 -0.0724 0.9498
-4.8677 12.0565 -0.0732 0.9493
-5.3762 12.0516 -0.0743 0.9486
-7.6122 12.0586 -0.0803 0.9446
-8.2994 12.1580 -0.0829 0.9428
-8.8059 11.9555 -0.0836 0.9423
-12.0379 12.2091 -0.0965 0.9337
-14.5567 11.8883 -0.1058 0.9276
-15.9635 12.1094 -0.1128 0.9230
-19.8693 11.9465 -0.1305 0.9114
-27.7283 -22.3477 -0.2005 0.8672
-25.7845 -22.3531 -0.1921 0.8724
-22.3761 -22.4023 -0.1783 0.8810
-15.2625 -22.5580 -0.7669 0.8967
-13.7317 -21.9528 -0.7291 0.9016
-8.8922 -22.2892 -0.6757 0.9084
-2.8920 -22.3851 -0.6356 0.9136
-1.2721 -22.3977 -0.6317 0.9141
-0.4674 -22.4015 -0.6309 0.9142
1.1410 -22.4044 -0.6317 0.9141
2.2057 -4.2226 -0.1341 0.9811
32.8129 -36.4831 -1.3817 0.8217
32.6130 -31.4072 -1.2749 0.8343
37.1377 -26.6855 -1.2877 0.8328
34.5335 -4.1935 -0.9795 0.8701
44.8951 12.6074 -1.3130 0.8298
41.1482 13.1647 -1.2165 0.8412
35.2152 12.6759 -1.0540 0.8609
35.0378 14.0510 -1.0630 0.8598
35.2766 17.1772 -1.1048 0.8547
33.4587 17.8039 -1.0672 0.8593
34.1999 23.2287 -1.1641 0.8475
34.2442 25.0995 -1.1955 0.8438
3.6095 13.7514 -0.4003 0.9447
2.9975 13.3529 -0.3853 0.9467
1.9641 13.0779 -0.3724 0.9485
0.5099 12.2930 -0.3464 0.9520
0.0680 12.1882 -0.3432 0.9524
-0.3615 11.9294 -0.3361 0.9534
-1.2498 12.2051 -0.3455 0.9521
-1.2227 8.8091 -0.2504 0.9650
-3.0209 12.0549 -0.3499 0.9515
-4.3793 11.8805 -0.3565 0.9506
-4.9282 12.0223 -0.3659 0.9493
-7.0864 12.0247 -0.3930 0.9457
-7.5912 11.8852 -0.3971 0.9451
-8.1834 11.8527 -0.4056 0.9440
-8.8977 11.9469 -0.4194 0.9421
-10.2058 11.8283 -0.4399 0.9394
-10.9990 11.8595 -0.4554 0.9373
-13.7283 11.9296 -0.5121 0.9298
-15.8572 11.8968 -0.5582 0.9237
-18.4460 11.8732 -0.6177 0.9160
-23.4110 11.7243 -0.7372 0.9005
-27.3960 -22.3206 -0.9950 0.8681
-21.9985 -22.2591 -0.8812 0.8823
-19.0200 -22.2287 -0.8238 0.8895
-15.4372 -22.5575 -0.7697 0.8964
-12.9717 -22.2207 -0.7245 0.9022
-9.9628 -22.2630 -0.6868 0.9070
-8.1163 -22.3020 -0.6683 0.9094
-6.3574 -22.3369 -0.6539 0.9113
-3.0127 -22.3839 -0.6360 0.9136
-2.1994 -22.3912 -0.6335 0.9139
1.0219 -22.4044 -0.6315 0.9142
32.8182 -36.8805 -1.3901 0.8207
33.0664 -29.9507 -1.2562 0.8365
32.8274 -27.6569 -1.2087 0.8422
32.6293 -25.5466 -1.1669 0.8472
41.1227 -5.2151 -1.1672 0.8472
43.7227 -3.9576 -1.2362 0.8389
49.3609 -2.6877 -1.3920 0.8205
45.2179 9.0118 -1.2983 0.8315
41.9060 13.1626 -1.2368 0.8388
35.3743 12.5217 -1.0566 0.8606
35.0372 13.8355 -1.0607 0.8601
36.0484 15.7518 -1.1077 0.8543
33.6711 17.6885 -1.0710 0.8588
34.3290 24.8830 -1.1939 0.8440
5.2911 17.2347 -0.5076 0.9304
3.6658 13.6703 -0.3985 0.9449
2.0401 13.1098 -0.3736 0.9483
1.0333 12.4769 -0.3525 0.9511
-0.2994 11.9755 -0.3373 0.9532
-0.7323 12.0168 -0.3390 0.9530
-1.1818 12.1783 -0.3445 0.9522
-1.1775 8.8274 -0.2508 0.9650
-2.0284 11.9246 -0.3406 0.9527
-2.4520 11.8309 -0.3402 0.9528
-2.9418 12.0092 -0.3481 0.9517
-3.4155 12.0544 -0.3528 0.9511
-5.2742 11.8230 -0.3645 0.9495
-5.8425 11.9276 -0.3740 0.9482
-6.3501 11.8667 -0.3790 0.9476
-7.0434 12.0980 -0.3942 0.9455
-8.1270 11.9055 -0.4059 0.9439
-10.1417 11.8808 -0.4398 0.9394
-11.7921 11.9598 -0.4729 0.9350
-15.6353 11.8605 -0.5526 0.9245
-19.6372 11.8070 -0.6452 0.9124
-21.3381 11.8090 -0.6867 0.9070
-23.3846 11.8666 -0.7384 0.9004
-25.7650 11.9326 -0.7995 0.8926
-33.4066 -23.1805 -1.1449 0.8498
-25.7242 -22.3008 -0.9586 0.8726
-23.9108 -22.2800 -0.9203 0.8774
-20.6797 -22.2453 -0.8552 0.8856
-15.2625 -22.5580 -1.3813 0.8967
-13.7317 -21.9528 -1.3132 0.9015
-10.8550 -22.3946 -1.2621 0.9051
-9.8806 -22.3973 -1.2415 0.9066
-6.2478 -22.4024 -1.1795 0.9111
-5.3904 -22.4048 -1.1687 0.9118
-3.7167 -22.4094 -1.1520 0.9130
-2.8955 -22.4117 -1.1460 0.9135
1.1420 -22.4229 -1.1386 0.9140
4.4607 -36.1924 -1.8494 0.8641
9.0074 -38.4258 -2.0016 0.8538
13.0827 -37.2360 -2.0016 0.8538
14.4098 -36.7428 -2.0016 0.8538
2.2057 -4.2226 -0.2416 0.9811
19.5160 -34.3045 -2.0016 0.8538
23.0879 -32.0098 -2.0016 0.8538
24.2211 -31.1611 -2.0016 0.8538
25.3231 -30.2724 -2.0016 0.8538
26.3926 -29.3446 -2.0016 0.8538
26.9562 -27.8909 -1.9671 0.8561
26.9794 -25.9818 -1.8995 0.8607
27.1568 -24.3371 -1.8494 0.8641
30.3580 -20.2034 -1.8494 0.8641
30.1155 -18.5189 -1.7929 0.8680
36.2304 -15.6535 -2.0016 0.8538
37.2594 -13.0160 -2.0016 0.8538
36.4844 -3.1075 -1.8570 0.8636
39.4573 0.8940 -2.0016 0.8538
39.3998 2.3086 -2.0016 0.8538
39.2917 3.7202 -2.0016 0.8538
38.9239 6.5273 -2.0016 0.8538
34.7320 11.1119 -1.8494 0.8641
34.3111 12.3505 -1.8494 0.8641
33.8461 13.5731 -1.8494 0.8641
32.7860 15.9645 -1.8494 0.8641
32.1924 17.1301 -1.8494 0.8641
29.4118 21.5577 -1.8494 0.8641
28.6197 22.5987 -1.8494 0.8641
27.7908 23.6106 -1.8494 0.8641
27.2689 24.9052 -1.8729 0.8625
27.1000 28.5744 -1.9972 0.8541
26.1146 29.5923 -2.0016 0.8538
23.9260 31.3882 -2.0016 0.8538
22.7849 32.2262 -2.0016 0.8538
21.6144 33.0226 -2.0016 0.8538
20.4161 33.7766 -2.0016 0.8538
15.3761 36.3490 -2.0016 0.8538
12.7309 37.3577 -2.0016 0.8538
2.9575 13.1749 -0.6848 0.9474
1.4256 12.5397 -0.6400 0.9507
0.9529 12.2990 -0.6256 0.9518
0.5024 12.1143 -0.6149 0.9526
-1.2225 8.8081 -0.4510 0.9650
-2.0762 11.8259 -0.6089 0.9530
-2.5090 11.7909 -0.6114 0.9529
-3.9353 11.9841 -0.6397 0.9507
-5.8508 11.7860 -0.6673 0.9487
-6.5098 12.0114 -0.6929 0.9468
-7.1020 12.0513 -0.7094 0.9455
-9.5022 11.8466 -0.7702 0.9410
-11.0001 11.8608 -0.8204 0.9373
-12.6233 11.7901 -0.8760 0.9332
-14.6563 11.8407 -0.9555 0.9273
-18.4464 11.8734 -1.1125 0.9159
-23.1841 11.6107 -1.3150 0.9014
-39.0733 5.5633 -2.0016 0.8538
-39.4390 -1.4970 -2.0016 0.8538
-39.3600 -2.9105 -2.0016 0.8538
-39.0500 -5.7246 -2.0016 0.8538
-38.8196 -7.1215 -2.0016 0.8538
-38.2092 -9.8860 -2.0016 0.8538
-37.4022 -12.5996 -2.0016 0.8538
-36.9263 -13.9330 -2.0016 0.8538
-36.4028 -15.2484 -2.0016 0.8538
-35.8325 -16.5442 -2.0016 0.8538
-35.2160 -17.8187 -2.0016 0.8538
-33.8481 -20.2974 -2.0016 0.8538
-30.5815 -19.8635 -1.8494 0.8641
-27.4303 -22.3485 -1.7944 0.8679
-25.5108 -22.3539 -1.7202 0.8730
-23.7416 -22.3588 -1.6539 0.8776
-20.5733 -22.3676 -1.5412 0.8854
-19.1422 -22.3716 -1.4932 0.8888
-14.1674 -19.1873 -1.2097 0.9089
-15.4372 -22.5575 -1.3862 0.8963
-13.0696 -22.3884 -1.3147 0.9014
-12.0159 -22.3914 -1.2887 0.9032
-5.3836 -16.6259 -0.8863 0.9324
-6.3759 -22.4021 -1.1812 0.9109
-5.5162 -22.4044 -1.1702 0.9117
-4.6930 -22.5110 -1.1662 0.9120
0.2177 -22.4204 -1.1371 0.9141
4.2687 -36.2156 -1.8494 0.8641
6.8539 -35.8164 -1.8494 0.8641
12.8851 -37.3048 -2.0016 0.8538
15.5261 -36.2852 -2.0016 0.8538
22.9178 -32.1318 -2.0016 0.8538
24.0555 -31.2891 -2.0016 0.8538
25.1622 -30.4062 -2.0016 0.8538
28.7129 -22.4803 -1.8494 0.8641
29.5006 -21.4360 -1.8494 0.8641
30.2505 -20.3641 -1.8494 0.8641
33.8074 -16.2894 -1.9032 0.8604
36.1122 -15.8302 -1.9996 0.8539
36.6920 -14.5387 -2.0016 0.8538
37.1899 -13.2134 -2.0016 0.8538
37.6398 -11.8710 -2.0016 0.8538
38.3939 -9.1423 -2.0016 0.8538
32.4748 -4.1184 -1.6601 0.8771
34.4555 -3.1188 -1.7545 0.8706
39.4606 -0.7310 -2.0016 0.8538
39.3108 3.5118 -2.0016 0.8538
33.9176 13.3934 -1.8494 0.8641
33.4154 14.6013 -1.8494 0.8641
32.2827 16.9592 -1.8494 0.8641
30.2743 20.3287 -1.8494 0.8641
27.9156 23.4629 -1.8494 0.8641
27.2676 26.4773 -1.9275 0.8588
26.2712 29.4534 -2.0016 0.8538
25.1979 30.3767 -2.0016 0.8538
24.0921 31.2609 -2.0016 0.8538
22.9554 32.1049 -2.0016 0.8538
21.7892 32.9075 -2.0016 0.8538
20.5950 33.6679 -2.0016 0.8538
16.8594 35.6853 -2.0016 0.8538
15.5687 36.2670 -2.0016 0.8538
14.2579 36.8020 -2.0016 0.8538
12.9288 37.2897 -2.0016 0.8538
3.6191 13.4962 -0.7086 0.9456
3.0627 13.3130 -0.6928 0.9468
1.5018 12.6141 -0.6442 0.9504
1.0163 12.2714 -0.6245 0.9519
-0.2987 11.9503 -0.6062 0.9533
-0.7342 12.0482 -0.6121 0.9528
-1.1465 11.8145 -0.6020 0.9536
-1.1774 8.8260 -0.4516 0.9650
-2.0335 11.9549 -0.6150 0.9526
-2.4325 11.7368 -0.6079 0.9531
-2.9623 12.0925 -0.6314 0.9514
-3.3826 11.9382 -0.6293 0.9515
-3.7864 11.7403 -0.6256 0.9518
-4.2782 11.7987 -0.6365 0.9510
-4.8815 12.0907 -0.6613 0.9491
-6.3452 11.8575 -0.6820 0.9476
-6.8852 11.8263 -0.6940 0.9467
-7.3993 11.7212 -0.7030 0.9460
-8.0740 11.8279 -0.7263 0.9443
-9.3737 11.8143 -0.7648 0.9414
-10.9541 11.9375 -0.8217 0.9372
-11.8112 11.9792 -0.8532 0.9348
-13.5079 11.8644 -0.9118 0.9305
-14.5267 11.8639 -0.9512 0.9276
-15.6523 11.8733 -0.9963 0.9243
-19.6221 11.7979 -1.1611 0.9124
-23.1222 11.7335 -1.3150 0.9014
-24.9882 11.5729 -1.3966 0.8956
-33.6182 14.1283 -1.8494 0.8641
-36.9099 13.9762 -2.0016 0.8538
-37.3874 12.6435 -2.0016 0.8538
-37.8168 11.2944 -2.0016 0.8538
-38.8112 7.1670 -2.0016 0.8538
-39.2251 4.3664 -2.0016 0.8538
-39.3565 2.9567 -2.0016 0.8538
-30.1093 -4.2509 -1.5421 0.8853
-38.5838 -8.3047 -2.0016 0.8538
-38.2611 -9.6832 -2.0016 0.8538
-37.8892 -11.0493 -2.0016 0.8538
-37.4685 -12.4011 -2.0016 0.8538
-35.9197 -16.3539 -2.0016 0.8538
-35.3101 -17.6317 -2.0016 0.8538
-29.1952 -21.8502 -1.8494 0.8641
-27.7283 -22.3477 -1.8061 0.8671
-25.7845 -22.3531 -1.7306 0.8723
-23.9945 -22.3581 -1.6633 0.8769
-14.1340 -20.8901 -1.8494 0.9038
-13.3757 -21.3836 -1.8494 0.9038
-10.8550 -22.3946 -1.8247 0.9050
-9.8806 -22.3973 -1.7949 0.9065
-8.0168 -22.3975 -1.7443 0.9090
-5.3904 -22.4048 -1.6896 0.9117
-4.4795 -22.0722 -1.6514 0.9136
-2.0817 -22.4140 -1.6505 0.9137
0.2587 -17.2327 -1.2637 0.9332
1.1420 -22.4229 -1.6462 0.9139
2.1855 -25.1275 -1.8494 0.9038
3.0853 -25.0330 -1.8494 0.9038
3.9813 -24.9062 -1.8494 0.9038
9.0488 -25.7548 -2.0016 0.8963
10.8718 -25.0399 -2.0016 0.8963
11.7629 -24.6338 -2.0016 0.8963
13.4985 -23.7272 -2.0016 0.8963
15.1647 -22.6985 -2.0016 0.8963
16.7528 -21.5530 -2.0016 0.8963
18.2548 -20.2966 -2.0016 0.8963
20.3293 -18.2184 -2.0016 0.8963
20.9696 -17.4776 -2.0016 0.8963
21.5830 -16.7142 -2.0016 0.8963
22.1686 -15.9294 -2.0016 0.8963
23.2534 -14.2992 -2.0016 0.8963
23.7513 -13.4560 -2.0016 0.8963
24.2187 -12.5955 -2.0016 0.8963
24.6548 -11.7187 -2.0016 0.8963
25.0593 -10.8269 -2.0016 0.8963
25.7709 -9.0027 -2.0016 0.8963
26.0773 -8.0726 -2.0016 0.8963
26.3500 -7.1321 -2.0016 0.8963
26.5889 -6.1824 -2.0016 0.8963
26.9636 -4.2605 -2.0016 0.8963
27.0991 -3.2907 -2.0016 0.8963
27.1997 -2.3167 -2.0016 0.8963
27.2653 -1.3396 -2.0016 0.8963
27.2958 -0.3609 -2.0016 0.8963
27.1766 2.5731 -2.0016 0.8963
27.0669 3.5462 -2.0016 0.8963
26.7430 5.4774 -2.0016 0.8963
26.2816 7.3804 -2.0016 0.8963
25.9999 8.3183 -2.0016 0.8963
25.6849 9.2454 -2.0016 0.8963
25.3368 10.1607 -2.0016 0.8963
24.9560 11.0629 -2.0016 0.8963
24.5432 11.9508 -2.0016 0.8963
24.0988 12.8234 -2.0016 0.8963
23.1175 14.5179 -2.0016 0.8963
20.8038 17.6746 -2.0016 0.8963
19.4833 19.1204 -2.0016 0.8963
18.7850 19.8069 -2.0016 0.8963
17.3168 21.1026 -2.0016 0.8963
16.5488 21.7101 -2.0016 0.8963
15.7595 22.2897 -2.0016 0.8963
14.9499 22.8406 -2.0016 0.8963
14.1211 23.3620 -2.0016 0.8963
13.2741 23.8535 -2.0016 0.8963
7.7546 16.6417 -1.3462 0.9290
10.6351 25.1413 -2.0016 0.8963
9.7266 25.5066 -2.0016 0.8963
8.1359 23.8742 -1.8494 0.9038
3.5465 13.5114 -1.0242 0.9455
2.9857 13.3004 -0.9995 0.9468
2.4177 12.9229 -0.9640 0.9486
0.5058 12.1952 -0.8949 0.9522
0.0659 11.8151 -0.8663 0.9537
-1.2479 12.1865 -0.8982 0.9521
-1.2224 8.8071 -0.6519 0.9650
-2.0798 11.8464 -0.8819 0.9529
-2.5470 11.9694 -0.8973 0.9521
-3.0036 11.9859 -0.9060 0.9516
-3.8968 11.8666 -0.9158 0.9511
-4.3821 11.8882 -0.9290 0.9505
-5.3530 11.8307 -0.9521 0.9493
-5.8878 11.8606 -0.9709 0.9483
-6.4729 11.9434 -0.9961 0.9470
-7.0220 11.9154 -1.0141 0.9460
-8.8332 11.8603 -1.0843 0.9424
-10.9910 11.8510 -1.1851 0.9372
-12.7635 11.9210 -1.2806 0.9324
-13.5372 11.7635 -1.3150 0.9306
-15.3411 11.5096 -1.4062 0.9260
-16.5571 11.5176 -1.4788 0.9223
-17.9073 11.5265 -1.5615 0.9181
-19.4196 11.5364 -1.6562 0.9134
-21.1294 11.5476 -1.7655 0.9079
-21.0516 8.7161 -1.6706 0.9127
-23.6350 8.8066 -1.8494 0.9038
-24.8204 8.2472 -1.9177 0.9004
-26.1976 7.6731 -2.0016 0.8963
-26.6802 5.7754 -2.0016 0.8963
-27.0256 3.8479 -2.0016 0.8963
-27.2319 1.9007 -2.0016 0.8963
-27.2826 0.9227 -2.0016 0.8963
-27.2981 -0.0564 -2.0016 0.8963
-27.2785 -1.0354 -2.0016 0.8963
-26.1657 -7.7812 -2.0016 0.8963
-25.5406 -9.6369 -2.0016 0.8963
-25.1785 -10.5467 -2.0016 0.8963
-24.7840 -11.4430 -2.0016 0.8963
-24.3577 -12.3245 -2.0016 0.8963
-23.9000 -13.1902 -2.0016 0.8963
-22.8929 -14.8696 -2.0016 0.8963
-21.3706 -16.1716 -1.9650 0.8981
-17.0748 -18.5640 -1.8494 0.9038
-16.3980 -19.1644 -1.8494 0.9038
-11.0018 -22.3942 -1.8294 0.9048
-9.0742 -22.3995 -1.7720 0.9076
-5.3629 -16.5618 -1.2764 0.9326
-6.3759 -22.4021 -1.7078 0.9108
-4.6015 -22.0718 -1.6531 0.9135
-2.2016 -22.4137 -1.6513 0.9136
-1.3925 -22.4159 -1.6468 0.9139
1.0228 -22.4226 -1.6458 0.9139
2.9525 -25.0490 -1.8494 0.9038
3.8492 -24.9270 -1.8494 0.9038
7.3741 -24.1204 -1.8494 0.9038
13.3725 -23.7985 -2.0016 0.8963
14.2175 -23.3035 -2.0016 0.8963
15.0441 -22.7786 -2.0016 0.8963
15.8514 -22.2244 -2.0016 0.8963
16.6383 -21.6416 -2.0016 0.8963
17.4038 -21.0309 -2.0016 0.8963
20.8767 -17.5885 -2.0016 0.8963
22.0838 -16.0467 -2.0016 0.8963
23.1773 -14.4223 -2.0016 0.8963
23.6796 -13.5818 -2.0016 0.8963
25.0015 -10.9597 -2.0016 0.8963
25.7228 -9.1392 -2.0016 0.8963
26.3118 -7.2718 -2.0016 0.8963
26.5557 -6.3234 -2.0016 0.8963
27.0813 -3.4344 -2.0016 0.8963
27.1870 -2.4609 -2.0016 0.8963
27.2941 0.4736 -2.0016 0.8963
27.1899 2.4290 -2.0016 0.8963
26.7717 5.3355 -2.0016 0.8963
26.5631 6.2922 -2.0016 0.8963
26.0437 8.1803 -2.0016 0.8963
25.7335 9.1091 -2.0016 0.8963
25.3903 10.0262 -2.0016 0.8963
23.1942 14.3951 -2.0016 0.8963
22.6630 15.2178 -2.0016 0.8963
22.1026 16.0208 -2.0016 0.8963
21.5138 16.8032 -2.0016 0.8963
19.5844 19.0169 -2.0016 0.8963
18.1708 20.3719 -2.0016 0.8963
15.8775 22.2058 -2.0016 0.8963
15.0708 22.7609 -2.0016 0.8963
12.5388 24.2481 -2.0016 0.8963
10.7683 25.0847 -2.0016 0.8963
9.8617 25.4546 -2.0016 0.8963
5.2260 17.0228 -1.3056 0.9311
3.0501 13.2580 -0.9975 0.9469
1.5046 12.6378 -0.9332 0.9502
0.5718 12.2206 -0.8970 0.9521
0.1310 12.0411 -0.8829 0.9529
-2.0273 11.9184 -0.8864 0.9527
-2.5139 12.1295 -0.9083 0.9515
-3.3643 11.8736 -0.9049 0.9517
-3.8386 11.9022 -0.9170 0.9511
-4.2945 11.8436 -0.9237 0.9507
-5.2414 11.7495 -0.9433 0.9497
-5.8095 11.8604 -0.9684 0.9484
-6.3486 11.8639 -0.9866 0.9475
-7.4636 11.8232 -1.0252 0.9455
-9.3864 11.8303 -1.1073 0.9412
-10.2075 11.9579 -1.1528 0.9389
-10.9291 11.9103 -1.1852 0.9372
-11.7413 11.9083 -1.2262 0.9351
-13.5943 11.9402 -1.3267 0.9300
-14.0829 11.5014 -1.3332 0.9297
-15.1713 11.5085 -1.3962 0.9265
-16.3695 11.5164 -1.4675 0.9229
-17.6983 11.5251 -1.5486 0.9188
-20.8625 11.5458 -1.7483 0.9088
-22.4921 11.4138 -1.8494 0.9038
-26.8443 4.9572 -2.0016 0.8963
-27.0048 3.9912 -2.0016 0.8963
-27.1306 3.0201 -2.0016 0.8963
-27.2215 2.0450 -2.0016 0.8963
-27.2980 0.0884 -2.0016 0.8963
-27.2836 -0.8907 -2.0016 0.8963
-27.2341 -1.8687 -2.0016 0.8963
-25.1885 -2.6388 -1.8570 0.9034
-25.0777 -3.5405 -1.8570 0.9034
-25.3124 -5.4482 -1.8985 0.9014
-26.2066 -7.6424 -2.0016 0.8963
-25.2341 -10.4131 -2.0016 0.8963
-24.4227 -12.1952 -2.0016 0.8963
-23.4856 -13.9146 -2.0016 0.8963
-22.9715 -14.7480 -2.0016 0.8963
-22.4277 -15.5624 -2.0016 0.8963
-21.6044 -16.1691 -1.9786 0.8974
-18.4531 -17.1946 -1.8494 0.9038
-16.4994 -19.0772 -1.8494 0.9038
-10.9526 -16.1880 -1.8764 0.9245
-9.6231 -16.6873 -1.8494 0.9255
-6.4916 -18.1364 -1.8494 0.9255
-5.1748 -18.5551 -1.8494 0.9255
-4.5060 -18.7288 -1.8494 0.9255
-3.8314 -18.8783 -1.8494 0.9255
-3.1518 -19.0036 -1.8494 0.9255
-2.4682 -19.1044 -1.8494 0.9255
-1.7814 -19.1806 -1.8494 0.9255
-1.0923 -19.2322 -1.8494 0.9255
0.2579 -17.1820 -1.6497 0.9333
1.6691 -19.1907 -1.8494 0.9255
2.3564 -19.1185 -1.8494 0.9255
3.7208 -18.9004 -1.8494 0.9255
4.3963 -18.7548 -1.8494 0.9255
5.1565 -18.9163 -1.8823 0.9242
6.1852 -19.8543 -1.9965 0.9198
8.9837 -18.8136 -2.0016 0.9196
2.2056 -4.2225 -0.4574 0.9810
10.9526 -17.7398 -2.0016 0.9196
12.1961 -16.9090 -2.0016 0.9196
14.4888 -14.9912 -2.0016 0.9196
16.4836 -12.7652 -2.0016 0.9196
16.9309 -12.1658 -2.0016 0.9196
17.7594 -10.9208 -2.0016 0.9196
18.1397 -10.2768 -2.0016 0.9196
18.4966 -9.6196 -2.0016 0.9196
18.8297 -8.9500 -2.0016 0.9196
19.1386 -8.2689 -2.0016 0.9196
19.9160 -6.1653 -2.0016 0.9196
20.1243 -5.4470 -2.0016 0.9196
20.3068 -4.7218 -2.0016 0.9196
20.4631 -3.9904 -2.0016 0.9196
20.6965 -2.5132 -2.0016 0.9196
20.8234 -1.0231 -2.0016 0.9196
20.8432 0.4723 -2.0016 0.9196
20.7557 1.9652 -2.0016 0.9196
20.5614 3.4480 -2.0016 0.9196
20.2613 4.9131 -2.0016 0.9196
20.0721 5.6366 -2.0016 0.9196
19.0597 8.4491 -2.0016 0.9196
18.7444 9.1272 -2.0016 0.9196
18.4050 9.7936 -2.0016 0.9196
18.0419 10.4474 -2.0016 0.9196
15.8886 13.4986 -2.0016 0.9196
15.3942 14.0598 -2.0016 0.9196
14.3467 15.1272 -2.0016 0.9196
13.7949 15.6320 -2.0016 0.9196
13.2254 16.1167 -2.0016 0.9196
9.4779 18.5696 -2.0016 0.9196
6.2137 18.2335 -1.8494 0.9255
4.8941 16.2482 -1.6291 0.9341
2.4719 13.2127 -1.2905 0.9474
1.9136 12.7416 -1.2370 0.9495
1.4376 12.6456 -1.2219 0.9501
0.0675 12.1101 -1.1626 0.9525
-0.3637 12.0004 -1.1526 0.9529
-1.2217 11.9312 -1.1514 0.9529
-4.4652 12.1137 -1.2395 0.9494
-5.3990 11.9324 -1.2574 0.9487
-6.4091 11.8257 -1.2913 0.9474
-6.9917 11.8642 -1.3221 0.9462
-8.5389 11.4651 -1.3724 0.9442
-9.1996 11.4694 -1.4116 0.9426
-11.4438 11.4841 -1.5565 0.9369
-13.2291 11.4958 -1.6826 0.9320
-15.8134 11.0003 -1.8494 0.9255
-16.5613 9.8384 -1.8494 0.9255
-19.2334 7.9633 -1.9985 0.9198
-19.5364 7.2794 -2.0016 0.9196
-20.2053 5.1388 -2.0016 0.9196
-20.3766 4.4108 -2.0016 0.9196
-20.7325 2.1966 -2.0016 0.9196
-20.7979 1.4516 -2.0016 0.9196
-20.8366 0.7047 -2.0016 0.9196
-20.8484 -0.0431 -2.0016 0.9196
-20.8335 -0.7908 -2.0016 0.9196
-20.5063 -3.7619 -2.0016 0.9196
-20.3582 -4.4950 -2.0016 0.9196
-20.1838 -5.2222 -2.0016 0.9196
-19.7576 -6.6557 -2.0016 0.9196
-19.5062 -7.3600 -2.0016 0.9196
-19.2296 -8.0549 -2.0016 0.9196
-18.6027 -9.4127 -2.0016 0.9196
-18.2532 -10.0738 -2.0016 0.9196
-17.8801 -10.7220 -2.0016 0.9196
-17.4840 -11.3564 -2.0016 0.9196
-17.0655 -11.9762 -2.0016 0.9196
-16.6250 -12.5805 -2.0016 0.9196
-16.1631 -13.1687 -2.0016 0.9196
-15.1775 -14.2935 -2.0016 0.9196
-13.5418 -15.8263 -1.9997 0.9197
-12.8592 -16.1682 -1.9833 0.9203
-11.9453 -16.1779 -1.9307 0.9224
-11.0774 -16.1868 -1.8831 0.9242
-9.1086 -16.9736 -1.8494 0.9255
-8.4939 -17.2894 -1.8494 0.9255
-6.5877 -18.1017 -1.8494 0.9255
-5.3501 -16.5223 -1.6673 0.9326
-3.9314 -18.8577 -1.8494 0.9255
-3.2525 -18.9866 -1.8494 0.9255
0.1673 -17.2277 -1.6540 0.9331
0.8777 -19.2432 -1.8494 0.9255
2.2549 -19.1307 -1.8494 0.9255
2.9396 -19.0375 -1.8494 0.9255
3.6205 -18.9199 -1.8494 0.9255
4.2968 -18.7778 -1.8494 0.9255
6.0747 -19.8702 -1.9948 0.9199
7.5089 -19.4493 -2.0016 0.9196
8.2016 -19.1675 -2.0016 0.9196
2.1907 -4.2486 -0.4589 0.9810
10.2130 -18.1756 -2.0016 0.9196
11.4897 -17.3968 -2.0016 0.9196
12.7072 -16.5284 -2.0016 0.9196
14.4091 -15.0678 -2.0016 0.9196
14.9402 -14.5413 -2.0016 0.9196
15.9442 -13.4329 -2.0016 0.9196
17.2948 -11.6426 -2.0016 0.9196
18.0849 -10.3728 -2.0016 0.9196
18.4453 -9.7175 -2.0016 0.9196
19.0945 -8.3703 -2.0016 0.9196
19.3824 -7.6800 -2.0016 0.9196
19.6454 -6.9799 -2.0016 0.9196
20.0952 -5.5537 -2.0016 0.9196
20.2815 -4.8294 -2.0016 0.9196
20.4416 -4.0989 -2.0016 0.9196
20.5755 -3.3631 -2.0016 0.9196
20.6829 -2.6230 -2.0016 0.9196
20.8449 -0.3861 -2.0016 0.9196
20.8454 0.3617 -2.0016 0.9196
20.8190 1.1091 -2.0016 0.9196
20.7658 1.8551 -2.0016 0.9196
20.6859 2.5987 -2.0016 0.9196
20.5794 3.3390 -2.0016 0.9196
20.4464 4.0749 -2.0016 0.9196
19.3914 7.6573 -2.0016 0.9196
19.1043 8.3479 -2.0016 0.9196
18.7926 9.0277 -2.0016 0.9196
18.4567 9.6959 -2.0016 0.9196
18.0971 10.3516 -2.0016 0.9196
17.3084 11.6223 -2.0016 0.9196
15.9599 13.4142 -2.0016 0.9196
15.4685 13.9780 -2.0016 0.9196
14.4267 15.0509 -2.0016 0.9196
13.8776 15.5586 -2.0016 0.9196
13.3107 16.0464 -2.0016 0.9196
12.7266 16.5134 -2.0016 0.9196
10.8792 17.7849 -2.0016 0.9196
8.2287 17.4172 -1.8494 0.9255
3.5789 13.3462 -1.3266 0.9460
3.0368 13.2002 -1.3004 0.9470
1.5200 12.7670 -1.2343 0.9496
1.0148 12.2534 -1.1804 0.9518
-0.7391 12.1286 -1.1666 0.9523
-1.1502 11.8530 -1.1433 0.9533
-3.3462 11.8095 -1.1784 0.9519
-3.7930 11.7609 -1.1864 0.9516
-4.2970 11.8505 -1.2102 0.9506
-4.7866 11.8556 -1.2275 0.9499
-5.3103 11.9040 -1.2514 0.9490
-5.8323 11.9069 -1.2729 0.9481
-6.3772 11.9172 -1.2976 0.9471
-8.4442 11.4644 -1.3670 0.9444
-9.0996 11.4687 -1.4055 0.9429
-10.5326 11.4781 -1.4956 0.9393
-15.1713 11.5085 -1.8282 0.9263
-15.7548 11.0840 -1.8494 0.9255
-16.1423 10.5118 -1.8494 0.9255
-16.8543 9.3276 -1.8494 0.9255
-17.1780 8.7171 -1.8494 0.9255
-17.8202 8.2531 -1.8854 0.9241
-19.7498 6.6789 -2.0016 0.9196
-19.9766 5.9662 -2.0016 0.9196
-20.1777 5.2459 -2.0016 0.9196
-20.3529 4.5188 -2.0016 0.9196
-20.8326 0.8152 -2.0016 0.9196
-20.8374 -0.6803 -2.0016 0.9196
-20.7350 -2.1723 -2.0016 0.9196
-20.3817 -4.3869 -2.0016 0.9196
-20.0148 -5.8367 -2.0016 0.9196
-19.7926 -6.5508 -2.0016 0.9196
-19.5449 -7.2565 -2.0016 0.9196
-18.9744 -8.6389 -2.0016 0.9196
-18.6524 -9.3139 -2.0016 0.9196
-17.5440 -11.2635 -2.0016 0.9196
-16.6915 -12.4922 -2.0016 0.9196
-15.7530 -13.6566 -2.0016 0.9196
-15.2531 -14.2128 -2.0016 0.9196
-9.4424 -13.9559 -2.0016 0.9344
-8.9358 -14.2856 -2.0016 0.9344
-6.2438 -15.6507 -2.0016 0.9344
-5.0928 -16.0171 -1.9965 0.9345
-4.5086 -16.1663 -1.9936 0.9346
-3.2822 -16.1725 -1.9602 0.9357
-1.5025 -16.1781 -1.9300 0.9366
-0.9197 -16.1926 -1.9266 0.9368
0.2451 -16.3294 -1.9399 0.9363
0.8380 -16.4551 -1.9572 0.9358
1.4459 -16.6242 -1.9822 0.9350
2.6592 -16.6359 -2.0012 0.9344
3.2547 -16.5328 -2.0016 0.9344
3.8456 -16.4055 -2.0016 0.9344
5.0117 -16.0876 -2.0016 0.9344
5.5855 -15.8975 -2.0016 0.9344
6.7108 -15.4562 -2.0016 0.9344
2.2056 -4.2225 -0.5659 0.9810
8.3321 -14.6459 -2.0016 0.9344
8.8521 -14.3377 -2.0016 0.9344
9.3606 -14.0109 -2.0016 0.9344
9.8571 -13.6662 -2.0016 0.9344
10.3409 -13.3039 -2.0016 0.9344
10.8114 -12.9244 -2.0016 0.9344
11.2680 -12.5284 -2.0016 0.9344
11.7101 -12.1162 -2.0016 0.9344
12.1371 -11.6884 -2.0016 0.9344
12.5485 -11.2455 -2.0016 0.9344
12.9438 -10.7882 -2.0016 0.9344
13.3224 -10.3171 -2.0016 0.9344
13.6838 -9.8326 -2.0016 0.9344
14.0277 -9.3355 -2.0016 0.9344
14.3535 -8.8264 -2.0016 0.9344
15.2185 -7.2336 -2.0016 0.9344
15.6979 -6.1240 -2.0016 0.9344
16.2649 -4.4024 -2.0016 0.9344
16.5386 -3.2251 -2.0016 0.9344
16.7273 -2.0312 -2.0016 0.9344
16.7894 -1.4300 -2.0016 0.9344
16.8299 -0.8269 -2.0016 0.9344
16.8487 -0.2228 -2.0016 0.9344
16.8213 0.9856 -2.0016 0.9344
16.7751 1.5883 -2.0016 0.9344
16.5075 3.3810 -2.0016 0.9344
16.0488 5.1346 -2.0016 0.9344
15.8543 5.7068 -2.0016 0.9344
15.4044 6.8287 -2.0016 0.9344
15.1496 7.3768 -2.0016 0.9344
14.8753 7.9154 -2.0016 0.9344
13.5905 9.9613 -2.0016 0.9344
13.2245 10.4423 -2.0016 0.9344
12.8414 10.9099 -2.0016 0.9344
12.0263 11.8023 -2.0016 0.9344
11.5953 12.2261 -2.0016 0.9344
10.6890 13.0259 -2.0016 0.9344
10.2149 13.4008 -2.0016 0.9344
7.5705 13.6043 -1.8494 0.9392
6.5758 14.1120 -1.8494 0.9392
6.0655 14.3387 -1.8494 0.9392
5.0220 14.7366 -1.8494 0.9392
4.4902 14.9073 -1.8494 0.9392
0.4958 11.9555 -1.4214 0.9529
0.0656 11.7615 -1.3971 0.9537
-0.7564 11.4141 -1.3588 0.9550
-1.2221 8.8051 -1.0559 0.9648
-2.4312 11.4250 -1.3875 0.9540
-2.8638 11.4279 -1.3994 0.9537
-3.7546 11.4337 -1.4295 0.9527
-4.2157 11.4367 -1.4479 0.9521
-5.1776 11.4430 -1.4919 0.9507
-5.6822 11.4463 -1.5180 0.9498
-6.7496 11.4533 -1.5792 0.9479
-7.3178 11.4571 -1.6149 0.9467
-7.9130 11.4610 -1.6544 0.9454
-8.5389 11.4651 -1.6981 0.9440
-9.9001 11.4740 -1.8002 0.9408
-10.9895 11.0282 -1.8494 0.9392
-11.3779 10.6269 -1.8494 0.9392
-11.7518 10.2120 -1.8494 0.9392
-12.7807 8.8906 -1.8494 0.9392
-13.0913 8.4265 -1.8494 0.9392
-13.8826 8.2471 -1.9181 0.9370
-14.7512 8.0618 -1.9968 0.9345
-15.0664 7.5453 -2.0016 0.9344
-15.7897 5.8833 -2.0016 0.9344
-16.1708 4.7363 -2.0016 0.9344
-16.4687 3.5649 -2.0016 0.9344
-16.7564 1.7753 -2.0016 0.9344
-16.8405 0.5696 -2.0016 0.9344
-16.8380 -0.6391 -2.0016 0.9344
-16.7489 -1.8445 -2.0016 0.9344
-16.6720 -2.4441 -2.0016 0.9344
-16.5736 -3.0404 -2.0016 0.9344
-16.3130 -4.2207 -2.0016 0.9344
-16.1511 -4.8031 -2.0016 0.9344
-15.2983 -7.0633 -2.0016 0.9344
-14.7526 -8.1418 -2.0016 0.9344
-13.4366 -10.1678 -2.0016 0.9344
-11.4070 -12.4019 -2.0016 0.9344
-10.9549 -12.8030 -2.0016 0.9344
-10.4887 -13.1877 -2.0016 0.9344
-10.0089 -13.5554 -2.0016 0.9344
-9.5163 -13.9057 -2.0016 0.9344
-7.9676 -14.8474 -2.0016 0.9344
-5.1787 -15.9931 -1.9969 0.9345
-3.9810 -16.1692 -1.9780 0.9351
-2.1772 -16.1764 -1.9389 0.9364
-1.5891 -16.1779 -1.9310 0.9366
-1.0057 -16.1902 -1.9269 0.9367
-0.4248 -16.2327 -1.9289 0.9367
0.7496 -16.4331 -1.9540 0.9359
1.9669 -16.6866 -1.9959 0.9346
3.1670 -16.5499 -2.0016 0.9344
4.3453 -16.2802 -2.0016 0.9344
6.6287 -15.4915 -2.0016 0.9344
8.2544 -14.6899 -2.0016 0.9344
10.7427 -12.9816 -2.0016 0.9344
11.6457 -12.1781 -2.0016 0.9344
12.0750 -11.7526 -2.0016 0.9344
12.4887 -11.3119 -2.0016 0.9344
12.8864 -10.8567 -2.0016 0.9344
13.2675 -10.3876 -2.0016 0.9344
14.6166 -8.3835 -2.0016 0.9344
15.1799 -7.3142 -2.0016 0.9344
15.6652 -6.2072 -2.0016 0.9344
15.8778 -5.6413 -2.0016 0.9344
16.0699 -5.0682 -2.0016 0.9344
16.5213 -3.3128 -2.0016 0.9344
16.6295 -2.7181 -2.0016 0.9344
16.7163 -2.1199 -2.0016 0.9344
16.8473 -0.3121 -2.0016 0.9344
16.8476 0.2924 -2.0016 0.9344
16.5252 3.2934 -2.0016 0.9344
16.3964 3.8840 -2.0016 0.9344
16.0758 5.0494 -2.0016 0.9344
15.8844 5.6227 -2.0016 0.9344
15.6725 6.1888 -2.0016 0.9344
14.9170 7.8364 -2.0016 0.9344
14.3169 8.8856 -2.0016 0.9344
13.6431 9.8891 -2.0016 0.9344
13.2797 10.3720 -2.0016 0.9344
12.8991 10.8416 -2.0016 0.9344
12.5020 11.2973 -2.0016 0.9344
12.0887 11.7384 -2.0016 0.9344
11.6599 12.1644 -2.0016 0.9344
11.2162 12.5748 -2.0016 0.9344
10.2859 13.3465 -2.0016 0.9344
8.7928 14.3741 -2.0016 0.9344
7.1512 13.8293 -1.8494 0.9392
6.6506 14.0769 -1.8494 0.9392
6.1414 14.3064 -1.8494 0.9392
5.6244 14.5174 -1.8494 0.9392
5.1001 14.7098 -1.8494 0.9392
4.5692 14.8833 -1.8494 0.9392
3.5789 13.3462 -1.6414 0.9459
3.0115 13.0903 -1.5956 0.9473
2.4742 12.8479 -1.5542 0.9487
1.4760 12.3977 -1.4831 0.9510
1.0093 12.1871 -1.4526 0.9519
0.5607 11.9848 -1.4252 0.9528
0.1283 11.7897 -1.4005 0.9536
-0.2900 11.6011 -1.3785 0.9543
-0.6956 11.4137 -1.3583 0.9550
-1.1079 11.4164 -1.3625 0.9548
-1.9429 11.4218 -1.3762 0.9544
-2.7993 11.4274 -1.3976 0.9537
-3.2387 11.4303 -1.4112 0.9533
-4.1468 11.4363 -1.4450 0.9522
-4.6186 11.4394 -1.4654 0.9515
-5.1045 11.4426 -1.4883 0.9508
-6.1268 11.4493 -1.5425 0.9490
-7.2322 11.4565 -1.6093 0.9469
-7.8232 11.4604 -1.6483 0.9456
-8.4442 11.4644 -1.6913 0.9443
-9.0996 11.4687 -1.7390 0.9427
-10.5262 11.4712 -1.8494 0.9392
-10.9308 11.0863 -1.8494 0.9392
-11.3214 10.6871 -1.8494 0.9392
-12.0584 9.8480 -1.8494 0.9392
-12.7334 8.9583 -1.8494 0.9392
-15.5341 6.5283 -2.0016 0.9344
-15.7582 5.9670 -2.0016 0.9344
-15.9621 5.3980 -2.0016 0.9344
-16.1455 4.8220 -2.0016 0.9344
-16.3080 4.2398 -2.0016 0.9344
-16.4496 3.6522 -2.0016 0.9344
-16.5700 3.0599 -2.0016 0.9344
-16.6691 2.4636 -2.0016 0.9344
-16.7467 1.8642 -2.0016 0.9344
-16.8028 1.2623 -2.0016 0.9344
-16.8106 -1.1535 -2.0016 0.9344
-16.3351 -4.1341 -2.0016 0.9344
-15.7966 -5.8648 -2.0016 0.9344
-15.5761 -6.4276 -2.0016 0.9344
-15.3355 -6.9821 -2.0016 0.9344
-15.0752 -7.5276 -2.0016 0.9344
-14.7955 -8.0635 -2.0016 0.9344
-13.4904 -10.0964 -2.0016 0.9344
-13.1196 -10.5738 -2.0016 0.9344
-12.7319 -11.0375 -2.0016 0.9344
-11.0226 -12.7448 -2.0016 0.9344
-7.9161 -11.7000 -2.0016 0.9445
-7.4914 -11.9764 -2.0016 0.9445
-6.6136 -12.4826 -2.0016 0.9445
-5.7017 -12.9246 -2.0016 0.9445
-4.2805 -13.4623 -2.0016 0.9445
-3.7949 -13.6071 -2.0016 0.9445
-3.3044 -13.7345 -2.0016 0.9445
-2.8097 -13.8442 -2.0016 0.9445
-1.8100 -14.0100 -2.0016 0.9445
-1.3064 -14.0659 -2.0016 0.9445
-0.2947 -14.1233 -2.0016 0.9445
0.2120 -14.1248 -2.0016 0.9445
1.2240 -14.0733 -2.0016 0.9445
1.7280 -14.0203 -2.0016 0.9445
3.7152 -13.6291 -2.0016 0.9445
4.2016 -13.4871 -2.0016 0.9445
4.6826 -13.3277 -2.0016 0.9445
5.6260 -12.9578 -2.0016 0.9445
2.2056 -4.2225 -0.6750 0.9809
7.4212 -12.0200 -2.0016 0.9445
8.2638 -11.4571 -2.0016 0.9445
9.0638 -10.8353 -2.0016 0.9445
9.4466 -10.5032 -2.0016 0.9445
9.8172 -10.1576 -2.0016 0.9445
11.4719 -8.2432 -2.0016 0.9445
11.7602 -7.8265 -2.0016 0.9445
12.2910 -6.9633 -2.0016 0.9445
12.7585 -6.0643 -2.0016 0.9445
13.1604 -5.1341 -2.0016 0.9445
13.9533 -2.2048 -2.0016 0.9445
14.0234 -1.7029 -2.0016 0.9445
14.0754 -1.1988 -2.0016 0.9445
14.1094 -0.6932 -2.0016 0.9445
14.1252 -0.1867 -2.0016 0.9445
14.1022 0.8263 -2.0016 0.9445
13.9319 2.3363 -2.0016 0.9445
13.7285 3.3290 -2.0016 0.9445
13.6003 3.8192 -2.0016 0.9445
13.4546 4.3046 -2.0016 0.9445
12.9144 5.7249 -2.0016 0.9445
12.7007 6.1844 -2.0016 0.9445
12.2247 7.0789 -2.0016 0.9445
11.9630 7.5128 -2.0016 0.9445
11.6858 7.9371 -2.0016 0.9445
11.3936 8.3511 -2.0016 0.9445
11.0868 8.7543 -2.0016 0.9445
9.7209 10.2498 -2.0016 0.9445
9.3471 10.5918 -2.0016 0.9445
8.5637 11.2347 -2.0016 0.9445
8.1553 11.5346 -2.0016 0.9445
7.2943 12.0677 -1.9980 0.9446
5.5129 11.8308 -1.8494 0.9486
4.6506 12.1956 -1.8494 0.9486
4.2102 12.3545 -1.8494 0.9486
3.7644 12.4976 -1.8494 0.9486
2.8588 12.7353 -1.8494 0.9486
2.3971 12.8131 -1.8470 0.9487
0.9419 12.1567 -1.7276 0.9519
0.4958 11.9555 -1.6954 0.9528
-0.3508 11.5737 -1.6406 0.9543
-1.1691 11.4168 -1.6261 0.9547
-1.2140 8.7465 -1.2512 0.9650
-2.0053 11.4222 -1.6432 0.9542
-3.3044 11.4308 -1.6859 0.9531
-4.2157 11.4367 -1.7270 0.9519
-4.6895 11.4398 -1.7518 0.9513
-6.2054 11.4498 -1.8452 0.9487
-7.0258 10.9999 -1.8494 0.9486
-7.4158 10.7409 -1.8494 0.9486
-7.7963 10.4680 -1.8494 0.9486
-8.1667 10.1816 -1.8494 0.9486
-9.5387 8.9091 -1.8494 0.9486
-9.8522 8.5613 -1.8494 0.9486
-10.2211 8.2575 -1.8618 0.9483
-11.8784 7.6458 -2.0016 0.9445
-12.6310 6.3257 -2.0016 0.9445
-12.8497 5.8686 -2.0016 0.9445
-13.5569 3.9707 -2.0016 0.9445
-13.6906 3.4819 -2.0016 0.9445
-13.8066 2.9887 -2.0016 0.9445
-13.9049 2.4916 -2.0016 0.9445
-14.0921 0.9836 -2.0016 0.9445
-14.1183 0.4775 -2.0016 0.9445
-14.1264 -0.0292 -2.0016 0.9445
-14.0879 -1.0418 -2.0016 0.9445
-13.9770 -2.0490 -2.0016 0.9445
-13.8945 -2.5490 -2.0016 0.9445
-12.7978 -2.8257 -1.8570 0.9484
-12.4202 -4.1840 -1.8570 0.9484
-12.2622 -4.6267 -1.8570 0.9484
-12.0883 -5.0635 -1.8570 0.9484
-12.1151 -7.2649 -2.0016 0.9445
-11.8467 -7.6948 -2.0016 0.9445
-10.6246 -9.3098 -2.0016 0.9445
-9.9299 -10.0475 -2.0016 0.9445
-9.5631 -10.3972 -2.0016 0.9445
-9.1841 -10.7335 -2.0016 0.9445
-8.7932 -11.0560 -2.0016 0.9445
-8.3910 -11.3642 -2.0016 0.9445
-7.1218 -12.1998 -2.0016 0.9445
-6.2289 -12.6789 -2.0016 0.9445
