ply
format ascii 1.0
element vertex 1594
property float32 x
property float32 y
property float32 z
property float32 I
end_header
5.2496 -6.7061 -2.0016 0.9656
5.7173 -6.3121 -2.0016 0.9656
5.9402 -6.1027 -2.0016 0.9656
6.3629 -5.6607 -2.0016 0.9656
7.1076 -4.6916 -2.0016 0.9656
7.4260 -4.1695 -2.0016 0.9656
8.1457 -2.4854 -2.0016 0.9656
8.2297 -2.1914 -2.0016 0.9656
8.3031 -1.8945 -2.0016 0.9656
8.3657 -1.5952 -2.0016 0.9656
8.4176 -1.2938 -2.0016 0.9656
8.4586 -0.9907 -2.0016 0.9656
8.4887 -0.6864 -2.0016 0.9656
8.5133 0.2303 -2.0016 0.9656
8.4749 0.8406 -2.0016 0.9656
8.4392 1.1443 -2.0016 0.9656
8.3354 1.7469 -2.0016 0.9656
7.9994 2.9221 -2.0016 0.9656
7.8894 3.2074 -2.0016 0.9656
7.7691 3.4886 -2.0016 0.9656
7.4988 4.0371 -2.0016 0.9656
6.6572 5.3114 -2.0016 0.9656
6.0476 5.9964 -2.0016 0.9656
5.8284 6.2097 -2.0016 0.9656
5.3677 6.6119 -2.0016 0.9656
5.1269 6.8003 -2.0016 0.9656
4.3660 7.3122 -2.0016 0.9656
3.8300 7.6066 -2.0016 0.9656
2.7017 8.0765 -2.0016 0.9656
2.4077 8.1603 -1.9996 0.9656
2.1106 8.2316 -1.9972 0.9657
1.1941 8.2779 -1.9656 0.9662
0.8905 8.2628 -1.9532 0.9664
-0.2993 8.2433 -1.9386 0.9667
-0.5961 8.2426 -1.9423 0.9666
-0.8944 8.2415 -1.9483 0.9665
-1.1949 8.2399 -1.9568 0.9664
-1.4984 8.2378 -1.9678 0.9662
-1.8056 8.2353 -1.9815 0.9660
-2.1136 8.2177 -1.9942 0.9657
-2.7016 8.0559 -1.9969 0.9657
-2.9915 7.9601 -1.9986 0.9657
-3.5603 7.7366 -2.0016 0.9656
-4.1063 7.4611 -2.0016 0.9656
-4.3715 7.3089 -2.0016 0.9656
-4.8847 6.9764 -2.0016 0.9656
-5.3727 6.6079 -2.0016 0.9656
-5.8330 6.2053 -2.0016 0.9656
-6.0521 5.9919 -2.0016 0.9656
-6.8474 5.0638 -2.0016 0.9656
-7.6417 3.7595 -2.0016 0.9656
-7.7717 3.4828 -2.0016 0.9656
-7.8918 3.2015 -2.0016 0.9656
-8.1012 2.6269 -2.0016 0.9656
-8.2688 2.0389 -2.0016 0.9656
-8.3367 1.7407 -2.0016 0.9656
-8.3938 1.4402 -2.0016 0.9656
-8.4401 1.1380 -2.0016 0.9656
-8.4755 0.8342 -2.0016 0.9656
-8.5135 0.2239 -2.0016 0.9656
-8.4882 -0.6928 -2.0016 0.9656
-8.4166 -1.3001 -2.0016 0.9656
-8.3016 -1.9007 -2.0016 0.9656
-8.2280 -2.1976 -2.0016 0.9656
-7.5556 -2.3116 -1.8570 0.9681
-7.3702 -2.8478 -1.8570 0.9681
-7.1469 -3.3693 -1.8570 0.9681
-6.8867 -3.8735 -1.8570 0.9681
-6.5910 -4.3577 -1.8570 0.9681
-6.0842 -5.0411 -1.8570 0.9681
-5.8993 -5.2563 -1.8570 0.9681
-5.7068 -5.4647 -1.8570 0.9681
-5.2446 -6.7100 -2.0016 0.9656
-3.9620 -7.5387 -2.0016 0.9656
-3.4108 -7.8036 -2.0016 0.9656
-2.5519 -8.1251 -2.0016 0.9656
-1.6635 -8.3524 -2.0016 0.9656
-1.3626 -8.4067 -2.0016 0.9656
-1.0599 -8.4502 -2.0016 0.9656
-0.7558 -8.4828 -2.0016 0.9656
-0.4508 -8.5045 -2.0016 0.9656
-2.3322 -7.3703 -2.0016 0.9686
-1.7973 -7.5187 -2.0016 0.9686
-1.5262 -7.5783 -2.0016 0.9686
-1.2531 -7.6282 -2.0016 0.9686
-0.9784 -7.6683 -2.0016 0.9686
-0.7025 -7.6985 -2.0016 0.9686
-0.1483 -7.7291 -2.0016 0.9686
0.4067 -7.7198 -2.0016 0.9686
0.6836 -7.7002 -2.0016 0.9686
1.2344 -7.6313 -2.0016 0.9686
1.5076 -7.5820 -2.0016 0.9686
1.7789 -7.5230 -2.0016 0.9686
2.0478 -7.4543 -2.0016 0.9686
3.0938 -7.0844 -2.0016 0.9686
2.1053 -4.3847 -1.2594 0.9801
2.3502 -4.1098 -1.2258 0.9806
4.3092 -6.4180 -2.0016 0.9686
4.5369 -6.2592 -2.0016 0.9686
4.7587 -6.0923 -2.0016 0.9686
5.3861 -5.5453 -2.0016 0.9686
5.5817 -5.3483 -2.0016 0.9686
5.9511 -4.9340 -2.0016 0.9686
6.1244 -4.7172 -2.0016 0.9686
6.2898 -4.4942 -2.0016 0.9686
6.4471 -4.2655 -2.0016 0.9686
6.5961 -4.0313 -2.0016 0.9686
7.3915 -2.2639 -2.0016 0.9686
7.4681 -1.9971 -2.0016 0.9686
7.5350 -1.7277 -2.0016 0.9686
7.6395 -1.1826 -2.0016 0.9686
7.6770 -0.9075 -2.0016 0.9686
7.7301 -0.0768 -2.0016 0.9686
7.7279 0.2008 -2.0016 0.9686
7.6936 0.7548 -2.0016 0.9686
7.6196 1.3049 -2.0016 0.9686
7.5678 1.5776 -2.0016 0.9686
7.2640 2.6447 -2.0016 0.9686
6.9375 3.4104 -2.0016 0.9686
6.6749 3.8994 -2.0016 0.9686
6.2170 4.5945 -2.0016 0.9686
5.4952 5.4372 -2.0016 0.9686
5.0909 5.8175 -2.0016 0.9686
4.8788 5.9965 -2.0016 0.9686
4.6603 6.1678 -2.0016 0.9686
4.4359 6.3311 -2.0016 0.9686
3.2339 7.0215 -2.0016 0.9686
2.4602 7.3286 -2.0016 0.9686
1.3858 7.6053 -2.0016 0.9686
1.1119 7.6501 -2.0016 0.9686
0.8365 7.6851 -2.0016 0.9686
0.5601 7.7102 -2.0016 0.9686
0.2829 7.7253 -2.0016 0.9686
-0.2722 7.7257 -2.0016 0.9686
-0.5494 7.7109 -2.0016 0.9686
-0.8259 7.6862 -2.0016 0.9686
-1.3753 7.6072 -2.0016 0.9686
-1.6475 7.5529 -2.0016 0.9686
-1.9176 7.4889 -2.0016 0.9686
-2.1853 7.4152 -2.0016 0.9686
-2.4501 7.3320 -2.0016 0.9686
-2.9699 7.1372 -2.0016 0.9686
-3.7201 6.7765 -2.0016 0.9686
-4.1968 6.4921 -2.0016 0.9686
-4.4271 6.3373 -2.0016 0.9686
-5.2887 5.6383 -2.0016 0.9686
-5.6797 5.2442 -2.0016 0.9686
-6.0413 4.8231 -2.0016 0.9686
-6.3719 4.3772 -2.0016 0.9686
-6.5249 4.1456 -2.0016 0.9686
-6.6695 3.9087 -2.0016 0.9686
-7.0511 3.1689 -2.0016 0.9686
-7.1604 2.9137 -2.0016 0.9686
-7.3510 2.3924 -2.0016 0.9686
-7.5037 1.8587 -2.0016 0.9686
-7.6177 1.3155 -2.0016 0.9686
-7.6601 1.0411 -2.0016 0.9686
-7.7276 0.2115 -2.0016 0.9686
-7.7302 -0.0661 -2.0016 0.9686
-7.7228 -0.3436 -2.0016 0.9686
-7.7055 -0.6207 -2.0016 0.9686
-7.6783 -0.8969 -2.0016 0.9686
-7.5941 -1.4456 -2.0016 0.9686
-6.7810 -2.3359 -1.8570 0.9708
-6.5959 -2.8165 -1.8570 0.9708
-6.2549 -3.5093 -1.8570 0.9708
-5.8413 -4.1615 -1.8570 0.9708
-5.6881 -4.3686 -1.8570 0.9708
-5.5276 -4.5700 -1.8570 0.9708
-5.3600 -4.7655 -1.8570 0.9708
-4.6226 -5.4837 -1.8570 0.9708
-4.4227 -5.6461 -1.8570 0.9708
-4.0851 -6.5630 -2.0016 0.9686
-3.8468 -6.7054 -2.0016 0.9686
-3.3558 -6.9641 -2.0016 0.9686
-3.1036 -7.0801 -2.0016 0.9686
-1.2450 -7.6296 -2.0016 0.9686
-0.9703 -7.6694 -2.0016 0.9686
-0.6943 -7.6992 -2.0016 0.9686
-0.4174 -7.7192 -2.0016 0.9686
0.4150 -7.7193 -2.0016 0.9686
1.2426 -7.6300 -2.0016 0.9686
2.0558 -7.4521 -2.0016 0.9686
2.3220 -7.3735 -2.0016 0.9686
2.5852 -7.2854 -2.0016 0.9686
2.8451 -7.1879 -2.0016 0.9686
3.1013 -7.0811 -2.0016 0.9686
2.1651 -4.1122 -1.2033 0.9810
2.3560 -4.1097 -1.2265 0.9806
4.0830 -6.5642 -2.0016 0.9686
4.5435 -6.2543 -2.0016 0.9686
4.7652 -6.0872 -2.0016 0.9686
5.1897 -5.7295 -2.0016 0.9686
6.4517 -4.2586 -2.0016 0.9686
6.7407 -3.7847 -2.0016 0.9686
6.8722 -3.5402 -2.0016 0.9686
6.9949 -3.2912 -2.0016 0.9686
7.1085 -3.0380 -2.0016 0.9686
7.3940 -2.2561 -2.0016 0.9686
7.4702 -1.9891 -2.0016 0.9686
7.6780 -0.8993 -2.0016 0.9686
7.7227 -0.3460 -2.0016 0.9686
7.7277 0.2090 -2.0016 0.9686
7.6927 0.7630 -2.0016 0.9686
7.5661 1.5857 -2.0016 0.9686
7.5043 1.8563 -2.0016 0.9686
7.3517 2.3900 -2.0016 0.9686
7.1613 2.9114 -2.0016 0.9686
7.0521 3.1667 -2.0016 0.9686
6.6708 3.9066 -2.0016 0.9686
6.5262 4.1435 -2.0016 0.9686
5.8659 5.0351 -2.0016 0.9686
5.6813 5.2424 -2.0016 0.9686
5.2905 5.6366 -2.0016 0.9686
4.6538 6.1728 -2.0016 0.9686
4.4291 6.3359 -2.0016 0.9686
3.7222 6.7754 -2.0016 0.9686
3.2264 7.0250 -2.0016 0.9686
2.7140 7.2384 -2.0016 0.9686
1.9200 7.4883 -2.0016 0.9686
1.3777 7.6067 -2.0016 0.9686
1.1037 7.6513 -2.0016 0.9686
0.2746 7.7256 -2.0016 0.9686
-0.0029 7.7305 -2.0016 0.9686
-0.2804 7.7254 -2.0016 0.9686
-0.5576 7.7103 -2.0016 0.9686
-1.1095 7.6505 -2.0016 0.9686
-1.3834 7.6057 -2.0016 0.9686
-1.9256 7.4868 -2.0016 0.9686
-2.9775 7.1341 -2.0016 0.9686
-3.2317 7.0226 -2.0016 0.9686
-3.7273 6.7726 -2.0016 0.9686
-4.2037 6.4876 -2.0016 0.9686
-4.4339 6.3325 -2.0016 0.9686
-4.8769 5.9980 -2.0016 0.9686
-5.2947 5.6326 -2.0016 0.9686
-5.6852 5.2382 -2.0016 0.9686
-5.8697 5.0307 -2.0016 0.9686
-6.2155 4.5965 -2.0016 0.9686
-6.3765 4.3704 -2.0016 0.9686
-6.8095 3.6594 -2.0016 0.9686
-6.9365 3.4126 -2.0016 0.9686
-7.0545 3.1614 -2.0016 0.9686
-7.1635 2.9060 -2.0016 0.9686
-7.2632 2.6470 -2.0016 0.9686
-7.5057 1.8507 -2.0016 0.9686
-7.5673 1.5800 -2.0016 0.9686
-7.6191 1.3073 -2.0016 0.9686
-7.7155 0.4805 -2.0016 0.9686
-7.7278 0.2032 -2.0016 0.9686
-7.7301 -0.0744 -2.0016 0.9686
-7.7049 -0.6289 -2.0016 0.9686
-7.6399 -1.1802 -2.0016 0.9686
-7.5926 -1.4537 -2.0016 0.9686
-7.5355 -1.7253 -2.0016 0.9686
-7.4687 -1.9948 -2.0016 0.9686
-7.2659 -2.2230 -1.9674 0.9691
-6.7785 -2.3431 -1.8570 0.9708
-6.3733 -3.2893 -1.8570 0.9708
-6.2511 -3.5160 -1.8570 0.9708
-5.9827 -3.9555 -1.8570 0.9708
-5.6834 -4.3746 -1.8570 0.9708
-5.5227 -4.5759 -1.8570 0.9708
-5.3549 -4.7712 -1.8570 0.9708
-4.9987 -5.1432 -1.8570 0.9708
-4.3112 -6.4167 -2.0016 0.9686
-3.8397 -6.7095 -2.0016 0.9686
-3.5963 -6.8430 -2.0016 0.9686
-3.0960 -7.0834 -2.0016 0.9686
-2.0501 -7.4537 -2.0016 0.9686
-1.7812 -7.5225 -2.0016 0.9686
-1.2368 -7.6309 -2.0016 0.9686
-0.9621 -7.6704 -2.0016 0.9686
-0.6861 -7.7000 -2.0016 0.9686
-2.1330 -6.7409 -2.0016 0.9710
-0.8949 -7.0135 -2.0016 0.9710
-0.6425 -7.0411 -2.0016 0.9710
-0.1356 -7.0690 -2.0016 0.9710
0.6253 -7.0426 -2.0016 0.9710
0.8777 -7.0156 -2.0016 0.9710
1.3789 -6.9346 -2.0016 0.9710
1.6269 -6.8806 -2.0016 0.9710
1.8729 -6.8178 -2.0016 0.9710
2.1165 -6.7461 -2.0016 0.9710
2.3573 -6.6658 -2.0016 0.9710
2.8296 -6.4794 -2.0016 0.9710
2.3420 -4.0954 -1.3356 0.9806
3.9412 -5.8699 -2.0016 0.9710
4.1494 -5.7247 -2.0016 0.9710
4.3523 -5.5720 -2.0016 0.9710
4.5495 -5.4121 -2.0016 0.9710
4.7409 -5.2453 -2.0016 0.9710
5.2774 -4.7052 -2.0016 0.9710
5.7527 -4.1104 -2.0016 0.9710
5.8966 -3.9013 -2.0016 0.9710
6.0329 -3.6870 -2.0016 0.9710
6.1613 -3.4681 -2.0016 0.9710
6.2819 -3.2446 -2.0016 0.9710
6.5943 -2.5504 -2.0016 0.9710
6.6816 -2.3120 -2.0016 0.9710
6.7603 -2.0706 -2.0016 0.9710
6.8915 -1.5802 -2.0016 0.9710
6.9438 -1.3317 -2.0016 0.9710
6.9871 -1.0816 -2.0016 0.9710
7.0467 -0.5774 -2.0016 0.9710
7.0679 0.1836 -2.0016 0.9710
7.0568 0.4373 -2.0016 0.9710
7.0366 0.6903 -2.0016 0.9710
6.9689 1.1935 -2.0016 0.9710
6.8653 1.6905 -2.0016 0.9710
6.8001 1.9359 -2.0016 0.9710
6.7263 2.1788 -2.0016 0.9710
6.6437 2.4188 -2.0016 0.9710
6.4530 2.8894 -2.0016 0.9710
6.2290 3.3450 -2.0016 0.9710
5.9729 3.7833 -2.0016 0.9710
5.8333 3.9953 -2.0016 0.9710
5.6861 4.2022 -2.0016 0.9710
5.5315 4.4036 -2.0016 0.9710
5.3699 4.5994 -2.0016 0.9710
4.8442 5.1501 -2.0016 0.9710
4.6562 5.3207 -2.0016 0.9710
4.4621 5.4844 -2.0016 0.9710
4.0571 5.7905 -2.0016 0.9710
3.4110 6.1931 -2.0016 0.9710
2.9578 6.4219 -2.0016 0.9710
2.4893 6.6176 -2.0016 0.9710
2.0080 6.7792 -2.0016 0.9710
1.7633 6.8469 -2.0016 0.9710
1.2675 6.9558 -2.0016 0.9710
0.7651 7.0288 -2.0016 0.9710
0.2587 7.0656 -2.0016 0.9710
0.0049 7.0703 -2.0016 0.9710
-0.2490 7.0660 -2.0016 0.9710
-0.5025 7.0525 -2.0016 0.9710
-0.7554 7.0299 -2.0016 0.9710
-1.0073 6.9982 -2.0016 0.9710
-1.2579 6.9575 -2.0016 0.9710
-1.5068 6.9079 -2.0016 0.9710
-1.7539 6.8493 -2.0016 0.9710
-1.9987 6.7820 -2.0016 0.9710
-2.2409 6.7058 -2.0016 0.9710
-2.4802 6.6211 -2.0016 0.9710
-2.7163 6.5277 -2.0016 0.9710
-2.9489 6.4260 -2.0016 0.9710
-3.1777 6.3160 -2.0016 0.9710
-3.4024 6.1978 -2.0016 0.9710
-3.6227 6.0717 -2.0016 0.9710
-4.6488 5.3271 -2.0016 0.9710
-5.1946 4.7964 -2.0016 0.9710
-5.6802 4.2100 -2.0016 0.9710
-5.8277 4.0034 -2.0016 0.9710
-6.1000 3.5749 -2.0016 0.9710
-6.3408 3.1279 -2.0016 0.9710
-6.4490 2.8983 -2.0016 0.9710
-6.6403 2.4280 -2.0016 0.9710
-6.7232 2.1881 -2.0016 0.9710
-6.7975 1.9453 -2.0016 0.9710
-7.0356 0.7001 -2.0016 0.9710
-7.0562 0.4470 -2.0016 0.9710
-7.0677 0.1934 -2.0016 0.9710
-7.0701 -0.0605 -2.0016 0.9710
-7.0633 -0.3143 -2.0016 0.9710
-7.0475 -0.5677 -2.0016 0.9710
-6.9456 -1.3221 -2.0016 0.9710
-6.8937 -1.5706 -2.0016 0.9710
-6.7632 -2.0613 -2.0016 0.9710
-6.1213 -2.3577 -1.8570 0.9731
-5.9363 -2.7909 -1.8570 0.9731
-5.8323 -3.0022 -1.8570 0.9731
-5.7207 -3.2097 -1.8570 0.9731
-5.6018 -3.4130 -1.8570 0.9731
-5.4757 -3.6119 -1.8570 0.9731
-5.2024 -3.9955 -1.8570 0.9731
-4.5768 -4.6991 -1.8570 0.9731
-3.6641 -5.4409 -1.8570 0.9731
-3.4664 -5.5689 -1.8570 0.9731
-3.5183 -6.1328 -2.0016 0.9710
-2.6042 -6.5733 -2.0016 0.9710
-2.3665 -6.6625 -2.0016 0.9710
-2.1258 -6.7432 -2.0016 0.9710
-1.8823 -6.8152 -2.0016 0.9710
-1.3885 -6.9327 -2.0016 0.9710
-1.1387 -6.9780 -2.0016 0.9710
-0.3818 -7.0600 -2.0016 0.9710
-0.1281 -7.0692 -2.0016 0.9710
0.1258 -7.0692 -2.0016 0.9710
0.6328 -7.0420 -2.0016 0.9710
0.8852 -7.0147 -2.0016 0.9710
1.1365 -6.9784 -2.0016 0.9710
1.3863 -6.9331 -2.0016 0.9710
1.6343 -6.8789 -2.0016 0.9710
1.8802 -6.8157 -2.0016 0.9710
2.1237 -6.7438 -2.0016 0.9710
2.3644 -6.6632 -2.0016 0.9710
2.6021 -6.5741 -2.0016 0.9710
3.9475 -5.8657 -2.0016 0.9710
4.1555 -5.7202 -2.0016 0.9710
4.3582 -5.5673 -2.0016 0.9710
4.7465 -5.2403 -2.0016 0.9710
5.1103 -4.8861 -2.0016 0.9710
5.7571 -4.1043 -2.0016 0.9710
5.9007 -3.8950 -2.0016 0.9710
6.5015 -2.7785 -2.0016 0.9710
6.5970 -2.5433 -2.0016 0.9710
6.8323 -1.8193 -2.0016 0.9710
6.8932 -1.5728 -2.0016 0.9710
6.9452 -1.3243 -2.0016 0.9710
6.9883 -1.0741 -2.0016 0.9710
7.0473 -0.5699 -2.0016 0.9710
7.0701 -0.0627 -2.0016 0.9710
7.0563 0.4448 -2.0016 0.9710
7.0358 0.6978 -2.0016 0.9710
7.0062 0.9500 -2.0016 0.9710
6.9676 1.2009 -2.0016 0.9710
6.9200 1.4503 -2.0016 0.9710
6.8635 1.6978 -2.0016 0.9710
6.7239 2.1859 -2.0016 0.9710
6.5497 2.6628 -2.0016 0.9710
6.3418 3.1259 -2.0016 0.9710
5.9689 3.7897 -2.0016 0.9710
5.6816 4.2083 -2.0016 0.9710
5.3649 4.6051 -2.0016 0.9710
5.0207 4.9782 -2.0016 0.9710
4.4563 5.4892 -2.0016 0.9710
4.2563 5.6456 -2.0016 0.9710
3.8402 5.9365 -2.0016 0.9710
3.6246 6.0705 -2.0016 0.9710
3.1797 6.3150 -2.0016 0.9710
2.9509 6.4251 -2.0016 0.9710
2.7183 6.5269 -2.0016 0.9710
2.4822 6.6203 -2.0016 0.9710
2.0008 6.7813 -2.0016 0.9710
1.7560 6.8488 -2.0016 0.9710
1.0095 6.9979 -2.0016 0.9710
0.7576 7.0296 -2.0016 0.9710
0.5047 7.0523 -2.0016 0.9710
0.2512 7.0659 -2.0016 0.9710
-0.2565 7.0657 -2.0016 0.9710
-0.7629 7.0291 -2.0016 0.9710
-1.2653 6.9562 -2.0016 0.9710
-1.7612 6.8475 -2.0016 0.9710
-2.4872 6.6184 -2.0016 0.9710
-2.7232 6.5248 -2.0016 0.9710
-2.9558 6.4229 -2.0016 0.9710
-3.4090 6.1942 -2.0016 0.9710
-3.8447 5.9336 -2.0016 0.9710
-4.4604 5.4858 -2.0016 0.9710
-4.8426 5.1516 -2.0016 0.9710
-5.1998 4.7908 -2.0016 0.9710
-5.3684 4.6011 -2.0016 0.9710
-5.5301 4.4054 -2.0016 0.9710
-5.6847 4.2040 -2.0016 0.9710
-5.8320 3.9972 -2.0016 0.9710
-6.2280 3.3469 -2.0016 0.9710
-6.3441 3.1212 -2.0016 0.9710
-6.5517 2.6579 -2.0016 0.9710
-6.7256 2.1809 -2.0016 0.9710
-6.7995 1.9380 -2.0016 0.9710
-6.8647 1.6926 -2.0016 0.9710
-6.9211 1.4451 -2.0016 0.9710
-7.0363 0.6926 -2.0016 0.9710
-7.0567 0.4395 -2.0016 0.9710
-7.0469 -0.5752 -2.0016 0.9710
-6.9875 -1.0794 -2.0016 0.9710
-6.9442 -1.3295 -2.0016 0.9710
-6.8920 -1.5780 -2.0016 0.9710
-6.8309 -1.8244 -2.0016 0.9710
-6.7610 -2.0685 -2.0016 0.9710
-6.4499 -2.2295 -1.9319 0.9720
-6.0299 -2.5824 -1.8570 0.9731
-5.9333 -2.7972 -1.8570 0.9731
-5.5982 -3.4190 -1.8570 0.9731
-5.4718 -3.6177 -1.8570 0.9731
-5.0511 -4.1851 -1.8570 0.9731
-4.7377 -4.5368 -1.8570 0.9731
-3.8514 -5.3099 -1.8570 0.9731
-3.6583 -5.4448 -1.8570 0.9731
-3.4604 -5.5726 -1.8570 0.9731
-3.0624 -6.3727 -2.0016 0.9710
-2.5972 -6.5760 -2.0016 0.9710
-2.1186 -6.7454 -2.0016 0.9710
-1.8751 -6.8172 -2.0016 0.9710
-1.6291 -6.8801 -2.0016 0.9710
-0.6275 -7.0424 -2.0016 0.9710
-0.3742 -7.0604 -2.0016 0.9710
-1.9632 -6.2043 -2.0016 0.9731
-1.7392 -6.2708 -2.0016 0.9731
-1.5129 -6.3292 -2.0016 0.9731
-1.0549 -6.4214 -2.0016 0.9731
-0.5914 -6.4806 -2.0016 0.9731
-0.3583 -6.4976 -2.0016 0.9731
0.3424 -6.4985 -2.0016 0.9731
0.8078 -6.4571 -2.0016 0.9731
1.0391 -6.4240 -2.0016 0.9731
1.4974 -6.3328 -2.0016 0.9731
2.1697 -6.1351 -2.0016 0.9731
2.2160 -5.6160 -1.8570 0.9751
2.0771 -4.3258 -1.4759 0.9801
2.3337 -4.0808 -1.4459 0.9805
3.6275 -5.4027 -2.0016 0.9731
4.0058 -5.1284 -2.0016 0.9731
4.1874 -4.9813 -2.0016 0.9731
4.3635 -4.8278 -2.0016 0.9731
4.6987 -4.5022 -2.0016 0.9731
4.8573 -4.3306 -2.0016 0.9731
5.0096 -4.1534 -2.0016 0.9731
5.6708 -3.1920 -2.0016 0.9731
5.7818 -2.9863 -2.0016 0.9731
6.0694 -2.3474 -2.0016 0.9731
6.1497 -2.1279 -2.0016 0.9731
6.2222 -1.9058 -2.0016 0.9731
6.2866 -1.6812 -2.0016 0.9731
6.4309 -0.9955 -2.0016 0.9731
6.5006 -0.2982 -2.0016 0.9731
6.5072 -0.0647 -2.0016 0.9731
6.5053 0.1690 -2.0016 0.9731
6.4764 0.6354 -2.0016 0.9731
6.4494 0.8675 -2.0016 0.9731
6.4141 1.0985 -2.0016 0.9731
6.1908 2.0053 -2.0016 0.9731
6.1148 2.2263 -2.0016 0.9731
5.9393 2.6593 -2.0016 0.9731
5.8400 2.8709 -2.0016 0.9731
5.7332 3.0787 -2.0016 0.9731
5.6189 3.2825 -2.0016 0.9731
4.9424 4.2332 -2.0016 0.9731
4.7872 4.4079 -2.0016 0.9731
4.6259 4.5770 -2.0016 0.9731
4.2855 4.8971 -2.0016 0.9731
4.1069 5.0478 -2.0016 0.9731
3.3421 5.5837 -2.0016 0.9731
3.1394 5.7001 -2.0016 0.9731
2.7223 5.9107 -2.0016 0.9731
2.5083 6.0046 -2.0016 0.9731
2.2911 6.0908 -2.0016 0.9731
2.0710 6.1691 -2.0016 0.9731
1.8482 6.2395 -2.0016 0.9731
1.1666 6.4021 -2.0016 0.9731
0.7042 6.4693 -2.0016 0.9731
0.4715 6.4904 -2.0016 0.9731
0.0045 6.5075 -2.0016 0.9731
-0.2291 6.5034 -2.0016 0.9731
-0.4625 6.4910 -2.0016 0.9731
-0.9271 6.4411 -2.0016 0.9731
-2.0625 6.1720 -2.0016 0.9731
-2.5000 6.0081 -2.0016 0.9731
-2.7141 5.9145 -2.0016 0.9731
-2.9247 5.8132 -2.0016 0.9731
-3.1315 5.7044 -2.0016 0.9731
-3.3343 5.5883 -2.0016 0.9731
-3.5328 5.4650 -2.0016 0.9731
-3.7267 5.3347 -2.0016 0.9731
-3.9159 5.1974 -2.0016 0.9731
-4.0999 5.0535 -2.0016 0.9731
-4.4520 4.7463 -2.0016 0.9731
-4.7811 4.4146 -2.0016 0.9731
-4.9365 4.2401 -2.0016 0.9731
-5.0856 4.0601 -2.0016 0.9731
-5.3638 3.6847 -2.0016 0.9731
-5.4926 3.4897 -2.0016 0.9731
-5.8360 2.8789 -2.0016 0.9731
-5.9356 2.6676 -2.0016 0.9731
-6.0275 2.4527 -2.0016 0.9731
-6.1880 2.0139 -2.0016 0.9731
-6.3166 1.5646 -2.0016 0.9731
-6.4126 1.1074 -2.0016 0.9731
-6.4482 0.8764 -2.0016 0.9731
-6.4755 0.6443 -2.0016 0.9731
-6.4945 0.4114 -2.0016 0.9731
-6.5050 0.1780 -2.0016 0.9731
-6.5072 -0.0557 -2.0016 0.9731
-6.4865 -0.5225 -2.0016 0.9731
-6.4323 -0.9866 -2.0016 0.9731
-6.2889 -1.6725 -2.0016 0.9731
-5.4637 -2.5687 -1.8570 0.9751
-5.3680 -2.7632 -1.8570 0.9751
-5.2653 -2.9541 -1.8570 0.9751
-5.1559 -3.1413 -1.8570 0.9751
-4.9171 -3.5032 -1.8570 0.9751
-4.6531 -3.8470 -1.8570 0.9751
-4.3650 -4.1709 -1.8570 0.9751
-4.0545 -4.4734 -1.8570 0.9751
-3.8913 -4.6161 -1.8570 0.9751
-3.7230 -4.7528 -1.8570 0.9751
-3.5500 -4.8834 -1.8570 0.9751
-3.1904 -5.1256 -1.8570 0.9751
-2.8144 -5.3413 -1.8570 0.9751
-2.2238 -5.6130 -1.8570 0.9751
-1.9566 -6.2064 -2.0016 0.9731
-1.0480 -6.4225 -2.0016 0.9731
-0.8168 -6.4560 -2.0016 0.9731
-0.1179 -6.5064 -2.0016 0.9731
0.1158 -6.5064 -2.0016 0.9731
0.3493 -6.4981 -2.0016 0.9731
0.8147 -6.4563 -2.0016 0.9731
1.0460 -6.4229 -2.0016 0.9731
2.2220 -5.6137 -1.8570 0.9751
2.1502 -4.0838 -1.4196 0.9809
2.3394 -4.0807 -1.4468 0.9805
4.0113 -5.1241 -2.0016 0.9731
4.7035 -4.4972 -2.0016 0.9731
5.0141 -4.1481 -2.0016 0.9731
5.1598 -3.9654 -2.0016 0.9731
5.2988 -3.7776 -2.0016 0.9731
5.4310 -3.5849 -2.0016 0.9731
5.5562 -3.3876 -2.0016 0.9731
5.7850 -2.9802 -2.0016 0.9731
5.9839 -2.5574 -2.0016 0.9731
6.1520 -2.1214 -2.0016 0.9731
6.2242 -1.8991 -2.0016 0.9731
6.2884 -1.6744 -2.0016 0.9731
6.3923 -1.2189 -2.0016 0.9731
6.4320 -0.9886 -2.0016 0.9731
6.4633 -0.7570 -2.0016 0.9731
6.5010 -0.2913 -2.0016 0.9731
6.5072 -0.0577 -2.0016 0.9731
6.4946 0.4094 -2.0016 0.9731
6.4485 0.8744 -2.0016 0.9731
6.4129 1.1053 -2.0016 0.9731
6.3171 1.5627 -2.0016 0.9731
6.1124 2.2328 -2.0016 0.9731
5.7299 3.0848 -2.0016 0.9731
5.6154 3.2885 -2.0016 0.9731
5.4937 3.4880 -2.0016 0.9731
5.3650 3.6830 -2.0016 0.9731
4.6210 4.5819 -2.0016 0.9731
4.4535 4.7449 -2.0016 0.9731
4.2803 4.9017 -2.0016 0.9731
4.1015 5.0522 -2.0016 0.9731
3.7284 5.3335 -2.0016 0.9731
3.3361 5.5873 -2.0016 0.9731
3.1333 5.7035 -2.0016 0.9731
2.7160 5.9136 -2.0016 0.9731
2.5019 6.0073 -2.0016 0.9731
2.0644 6.1713 -2.0016 0.9731
1.8415 6.2415 -2.0016 0.9731
1.1597 6.4033 -2.0016 0.9731
0.6973 6.4700 -2.0016 0.9731
0.2312 6.5034 -2.0016 0.9731
-0.0024 6.5075 -2.0016 0.9731
-0.7021 6.4695 -2.0016 0.9731
-0.9339 6.4401 -2.0016 0.9731
-1.6210 6.3024 -2.0016 0.9731
-2.5064 6.0054 -2.0016 0.9731
-2.9309 5.8101 -2.0016 0.9731
-3.3403 5.5848 -2.0016 0.9731
-3.5386 5.4612 -2.0016 0.9731
-4.4571 4.7415 -2.0016 0.9731
-4.6244 4.5784 -2.0016 0.9731
-5.0899 4.0547 -2.0016 0.9731
-5.2322 3.8693 -2.0016 0.9731
-5.3677 3.6790 -2.0016 0.9731
-6.0302 2.4463 -2.0016 0.9731
-6.1902 2.0073 -2.0016 0.9731
-6.2582 1.7837 -2.0016 0.9731
-6.3182 1.5579 -2.0016 0.9731
-6.4137 1.1005 -2.0016 0.9731
-6.4762 0.6374 -2.0016 0.9731
-6.5052 0.1711 -2.0016 0.9731
-6.5072 -0.0626 -2.0016 0.9731
-6.5007 -0.2962 -2.0016 0.9731
-6.4859 -0.5294 -2.0016 0.9731
-6.4627 -0.7619 -2.0016 0.9731
-6.4312 -0.9934 -2.0016 0.9731
-6.2871 -1.6792 -2.0016 0.9731
-6.2228 -1.9038 -2.0016 0.9731
-6.1504 -2.1260 -2.0016 0.9731
-5.7823 -2.2342 -1.9066 0.9744
-5.4610 -2.5745 -1.8570 0.9751
-5.3650 -2.7689 -1.8570 0.9751
-5.2622 -2.9598 -1.8570 0.9751
-4.7843 -3.6825 -1.8570 0.9751
-4.6490 -3.8519 -1.8570 0.9751
-4.0497 -4.4777 -1.8570 0.9751
-3.8863 -4.6203 -1.8570 0.9751
-3.1849 -5.1290 -1.8570 0.9751
-2.4179 -5.5321 -1.8570 0.9751
-2.1716 -6.1344 -2.0016 0.9731
-1.9500 -6.2085 -2.0016 0.9731
-1.4994 -6.3324 -2.0016 0.9731
-1.2711 -6.3821 -2.0016 0.9731
-0.5775 -6.4818 -2.0016 0.9731
-1.4931 -5.3833 -1.8570 0.9767
-1.2988 -5.4334 -1.8570 0.9767
-1.1029 -5.4765 -1.8570 0.9767
-0.1071 -5.5855 -1.8570 0.9767
0.0935 -5.5857 -1.8570 0.9767
0.2939 -5.5788 -1.8570 0.9767
0.4940 -5.5646 -1.8570 0.9767
0.6938 -5.5456 -1.8578 0.9767
1.2855 -5.4366 -1.8570 0.9767
1.4799 -5.3869 -1.8570 0.9767
1.6723 -5.3303 -1.8570 0.9767
2.0505 -5.1966 -1.8570 0.9767
2.0629 -4.2963 -1.5842 0.9801
2.1371 -4.0695 -1.5279 0.9808
2.3253 -4.0662 -1.5570 0.9804
3.8746 -4.6093 -2.0016 0.9749
4.0376 -4.4672 -2.0016 0.9749
4.7705 -3.6743 -2.0016 0.9749
5.0218 -3.3225 -2.0016 0.9749
5.1379 -3.1401 -2.0016 0.9749
5.5345 -2.3723 -2.0016 0.9749
5.6904 -1.9690 -2.0016 0.9749
5.7574 -1.7634 -2.0016 0.9749
5.8170 -1.5556 -2.0016 0.9749
5.8691 -1.3457 -2.0016 0.9749
5.9506 -0.9211 -2.0016 0.9749
6.0211 -0.0598 -2.0016 0.9749
6.0194 0.1564 -2.0016 0.9749
6.0099 0.3724 -2.0016 0.9749
5.9927 0.5879 -2.0016 0.9749
5.9677 0.8027 -2.0016 0.9749
5.8947 1.2289 -2.0016 0.9749
5.8468 1.4397 -2.0016 0.9749
5.7913 1.6487 -2.0016 0.9749
5.5805 2.2618 -2.0016 0.9749
5.4038 2.6564 -2.0016 0.9749
5.3049 2.8487 -2.0016 0.9749
5.1993 3.0374 -2.0016 0.9749
5.0869 3.2221 -2.0016 0.9749
4.9679 3.4026 -2.0016 0.9749
4.8425 3.5788 -2.0016 0.9749
4.7109 3.7503 -2.0016 0.9749
4.4297 4.0787 -2.0016 0.9749
4.1256 4.3861 -2.0016 0.9749
3.0925 5.1667 -2.0016 0.9749
2.7137 5.3753 -2.0016 0.9749
2.3210 5.5561 -2.0016 0.9749
2.1200 5.6359 -2.0016 0.9749
0.8661 5.9588 -2.0016 0.9749
0.6516 5.9861 -2.0016 0.9749
0.2204 6.0174 -2.0016 0.9749
-0.2120 6.0177 -2.0016 0.9749
-0.6433 5.9870 -2.0016 0.9749
-1.0713 5.9254 -2.0016 0.9749
-2.1122 5.6388 -2.0016 0.9749
-2.3133 5.5593 -2.0016 0.9749
-2.5114 5.4727 -2.0016 0.9749
-2.7063 5.3790 -2.0016 0.9749
-2.8977 5.2784 -2.0016 0.9749
-3.0853 5.1709 -2.0016 0.9749
-3.2690 5.0568 -2.0016 0.9749
-3.7937 4.6760 -2.0016 0.9749
-4.1195 4.3918 -2.0016 0.9749
-4.2745 4.2410 -2.0016 0.9749
-4.4240 4.0848 -2.0016 0.9749
-4.7057 3.7568 -2.0016 0.9749
-4.8376 3.5855 -2.0016 0.9749
-4.9632 3.4095 -2.0016 0.9749
-5.0824 3.2291 -2.0016 0.9749
-5.1950 3.0445 -2.0016 0.9749
-5.4001 2.6639 -2.0016 0.9749
-5.4923 2.4683 -2.0016 0.9749
-5.7258 1.8635 -2.0016 0.9749
-5.9666 0.8109 -2.0016 0.9749
-5.9918 0.5962 -2.0016 0.9749
-6.0094 0.3807 -2.0016 0.9749
-6.0212 -0.0515 -2.0016 0.9749
-6.0020 -0.4834 -2.0016 0.9749
-5.9808 -0.6986 -2.0016 0.9749
-5.9518 -0.9129 -2.0016 0.9749
-5.8710 -1.3376 -2.0016 0.9749
-5.8192 -1.5475 -2.0016 0.9749
-5.7599 -1.7555 -2.0016 0.9749
-5.6931 -1.9611 -2.0016 0.9749
-4.9670 -2.5568 -1.8570 0.9767
-4.7708 -2.9067 -1.8570 0.9767
-4.6633 -3.0761 -1.8570 0.9767
-4.5499 -3.2415 -1.8570 0.9767
-4.4306 -3.4028 -1.8570 0.9767
-4.3056 -3.5596 -1.8570 0.9767
-4.1750 -3.7119 -1.8570 0.9767
-3.7517 -4.1393 -1.8570 0.9767
-3.6006 -4.2713 -1.8570 0.9767
-3.2848 -4.5187 -1.8570 0.9767
-2.9521 -4.7428 -1.8570 0.9767
-2.7800 -4.8457 -1.8570 0.9767
-2.2428 -5.1165 -1.8570 0.9767
-2.0577 -5.1937 -1.8570 0.9767
-1.8699 -5.2643 -1.8570 0.9767
-1.2930 -5.4348 -1.8570 0.9767
-1.0971 -5.4777 -1.8570 0.9767
-0.8997 -5.5136 -1.8570 0.9767
-0.3017 -5.5783 -1.8570 0.9767
0.0994 -5.5856 -1.8570 0.9767
0.2999 -5.5784 -1.8570 0.9767
1.0953 -5.4781 -1.8570 0.9767
1.2913 -5.4352 -1.8570 0.9767
1.4856 -5.3853 -1.8570 0.9767
1.6780 -5.3285 -1.8570 0.9767
1.8682 -5.2648 -1.8570 0.9767
2.0560 -5.1944 -1.8570 0.9767
2.2412 -5.1172 -1.8570 0.9767
2.0634 -4.2855 -1.5811 0.9802
3.2834 -4.5197 -1.8570 0.9767
3.4436 -4.3989 -1.8570 0.9767
4.0424 -4.4629 -2.0016 0.9749
4.2000 -4.3149 -2.0016 0.9749
4.4988 -4.0023 -2.0016 0.9749
4.6396 -3.8382 -2.0016 0.9749
4.7744 -3.6692 -2.0016 0.9749
5.0254 -3.3171 -2.0016 0.9749
5.4485 -2.5636 -2.0016 0.9749
5.6184 -2.1660 -2.0016 0.9749
5.6925 -1.9629 -2.0016 0.9749
5.8187 -1.5494 -2.0016 0.9749
5.8706 -1.3395 -2.0016 0.9749
5.9149 -1.1278 -2.0016 0.9749
5.9516 -0.9148 -2.0016 0.9749
5.9806 -0.7005 -2.0016 0.9749
6.0018 -0.4853 -2.0016 0.9749
6.0154 -0.2695 -2.0016 0.9749
6.0192 0.1628 -2.0016 0.9749
5.8934 1.2352 -2.0016 0.9749
5.8452 1.4459 -2.0016 0.9749
5.7896 1.6549 -2.0016 0.9749
5.6559 2.0661 -2.0016 0.9749
5.5781 2.2678 -2.0016 0.9749
5.4931 2.4666 -2.0016 0.9749
5.4010 2.6622 -2.0016 0.9749
5.1960 3.0429 -2.0016 0.9749
5.0834 3.2275 -2.0016 0.9749
4.5691 3.9219 -2.0016 0.9749
4.4253 4.0834 -2.0016 0.9749
4.2758 4.2397 -2.0016 0.9749
4.1209 4.3905 -2.0016 0.9749
3.9606 4.5356 -2.0016 0.9749
3.4500 4.9351 -2.0016 0.9749
3.2706 5.0558 -2.0016 0.9749
3.0869 5.1700 -2.0016 0.9749
2.7080 5.3782 -2.0016 0.9749
2.5131 5.4719 -2.0016 0.9749
2.1140 5.6381 -2.0016 0.9749
1.7040 5.7753 -2.0016 0.9749
1.2852 5.8827 -2.0016 0.9749
1.0731 5.9250 -2.0016 0.9749
0.8597 5.9598 -2.0016 0.9749
0.6452 5.9868 -2.0016 0.9749
0.4298 6.0061 -2.0016 0.9749
0.2139 6.0176 -2.0016 0.9749
-0.0023 6.0214 -2.0016 0.9749
-0.4344 6.0058 -2.0016 0.9749
-1.2896 5.8817 -2.0016 0.9749
-1.4999 5.8316 -2.0016 0.9749
-1.9145 5.7090 -2.0016 0.9749
-2.1182 5.6366 -2.0016 0.9749
-2.3192 5.5569 -2.0016 0.9749
-2.9033 5.2753 -2.0016 0.9749
-3.0908 5.1677 -2.0016 0.9749
-3.4537 4.9325 -2.0016 0.9749
-3.9640 4.5326 -2.0016 0.9749
-4.1242 4.3874 -2.0016 0.9749
-4.2790 4.2365 -2.0016 0.9749
-4.4284 4.0801 -2.0016 0.9749
-4.5720 3.9185 -2.0016 0.9749
-4.8414 3.5803 -2.0016 0.9749
-4.9668 3.4042 -2.0016 0.9749
-5.0858 3.2237 -2.0016 0.9749
-5.1983 3.0390 -2.0016 0.9749
-5.3040 2.8504 -2.0016 0.9749
-5.4949 2.4624 -2.0016 0.9749
-5.6575 2.0618 -2.0016 0.9749
-5.7278 1.8574 -2.0016 0.9749
-5.9925 0.5898 -2.0016 0.9749
-6.0098 0.3743 -2.0016 0.9749
-6.0194 0.1583 -2.0016 0.9749
-6.0212 -0.0579 -2.0016 0.9749
-6.0152 -0.2741 -2.0016 0.9749
-6.0015 -0.4899 -2.0016 0.9749
-5.9800 -0.7050 -2.0016 0.9749
-5.9509 -0.9192 -2.0016 0.9749
-5.9140 -1.1323 -2.0016 0.9749
-5.8175 -1.5538 -2.0016 0.9749
-5.6910 -1.9672 -2.0016 0.9749
-4.9643 -2.5621 -1.8570 0.9767
-4.7677 -2.9118 -1.8570 0.9767
-4.6600 -3.0810 -1.8570 0.9767
-4.4269 -3.4075 -1.8570 0.9767
-4.1710 -3.7164 -1.8570 0.9767
-3.5961 -4.2752 -1.8570 0.9767
-3.4403 -4.4015 -1.8570 0.9767
-2.4197 -5.0353 -1.8570 0.9767
-2.2373 -5.1189 -1.8570 0.9767
-2.0521 -5.1959 -1.8570 0.9767
-1.8643 -5.2663 -1.8570 0.9767
-1.6740 -5.3298 -1.8570 0.9767
-0.6956 -5.5456 -1.8578 0.9767
-0.2957 -5.5787 -1.8570 0.9767
-1.5666 -4.9508 -1.8570 0.9782
-1.0252 -5.0906 -1.8570 0.9782
-0.8418 -5.1241 -1.8570 0.9782
-0.4719 -5.1713 -1.8570 0.9782
0.2732 -5.1856 -1.8570 0.9782
0.4592 -5.1724 -1.8570 0.9782
1.9060 -4.8304 -1.8570 0.9782
2.0782 -4.7588 -1.8570 0.9782
2.1295 -4.0551 -1.6379 0.9807
2.8946 -4.3112 -1.8570 0.9782
3.0475 -4.2045 -1.8570 0.9782
3.1965 -4.0923 -1.8570 0.9782
3.8997 -4.0149 -2.0016 0.9765
4.1778 -3.7248 -2.0016 0.9765
4.4343 -3.4154 -2.0016 0.9765
4.5540 -3.2540 -2.0016 0.9765
4.6679 -3.0884 -2.0016 0.9765
4.8775 -2.7454 -2.0016 0.9765
5.2203 -2.0190 -2.0016 0.9765
5.2894 -1.8302 -2.0016 0.9765
5.3517 -1.6392 -2.0016 0.9765
5.5584 -0.6571 -2.0016 0.9765
5.5968 -0.0556 -2.0016 0.9765
5.5952 0.1454 -2.0016 0.9765
5.5864 0.3462 -2.0016 0.9765
5.5704 0.5465 -2.0016 0.9765
5.5471 0.7461 -2.0016 0.9765
5.5168 0.9448 -2.0016 0.9765
5.0230 2.4692 -2.0016 0.9765
4.9311 2.6480 -2.0016 0.9765
4.8328 2.8233 -2.0016 0.9765
4.7284 2.9950 -2.0016 0.9765
4.2510 3.6410 -2.0016 0.9765
4.1175 3.7913 -2.0016 0.9765
3.8348 4.0770 -2.0016 0.9765
3.3742 4.4657 -2.0016 0.9765
3.2117 4.5839 -2.0016 0.9765
3.0451 4.6963 -2.0016 0.9765
2.8745 4.8026 -2.0016 0.9765
2.3415 5.0838 -2.0016 0.9765
2.1574 5.1646 -2.0016 0.9765
1.9706 5.2387 -2.0016 0.9765
1.7813 5.3061 -2.0016 0.9765
1.5896 5.3666 -2.0016 0.9765
1.0034 5.5064 -2.0016 0.9765
0.6057 5.5642 -2.0016 0.9765
0.4055 5.5824 -2.0016 0.9765
-0.1971 5.5936 -2.0016 0.9765
-0.5980 5.5651 -2.0016 0.9765
-0.7974 5.5400 -2.0016 0.9765
-1.3884 5.4222 -2.0016 0.9765
-1.7739 5.3085 -2.0016 0.9765
-1.9634 5.2414 -2.0016 0.9765
-2.6934 4.9064 -2.0016 0.9765
-3.2054 4.5884 -2.0016 0.9765
-3.6801 4.2171 -2.0016 0.9765
-3.8292 4.0823 -2.0016 0.9765
-4.1122 3.7970 -2.0016 0.9765
-4.3741 3.4921 -2.0016 0.9765
-4.4967 3.3328 -2.0016 0.9765
-4.6134 3.1692 -2.0016 0.9765
-4.7242 3.0015 -2.0016 0.9765
-5.1052 2.2944 -2.0016 0.9765
-5.1843 2.1096 -2.0016 0.9765
-5.5155 0.9524 -2.0016 0.9765
-5.5461 0.7538 -2.0016 0.9765
-5.5696 0.5542 -2.0016 0.9765
-5.5859 0.3539 -2.0016 0.9765
-5.5950 0.1531 -2.0016 0.9765
-5.5916 -0.2488 -2.0016 0.9765
-5.5593 -0.6494 -2.0016 0.9765
-5.4984 -1.0466 -2.0016 0.9765
-5.4572 -1.2434 -2.0016 0.9765
-5.4091 -1.4385 -2.0016 0.9765
-5.2919 -1.8229 -2.0016 0.9765
-5.1475 -2.1980 -2.0016 0.9765
-4.5287 -2.5409 -1.8570 0.9782
-4.1183 -3.1630 -1.8570 0.9782
-4.0021 -3.3088 -1.8570 0.9782
-3.8808 -3.4503 -1.8570 0.9782
-3.7544 -3.5874 -1.8570 0.9782
-3.6232 -3.7199 -1.8570 0.9782
-3.3469 -3.9703 -1.8570 0.9782
-3.2022 -4.0879 -1.8570 0.9782
-3.0534 -4.2003 -1.8570 0.9782
-2.9006 -4.3072 -1.8570 0.9782
-2.7441 -4.4085 -1.8570 0.9782
-2.4207 -4.5941 -1.8570 0.9782
-2.2542 -4.6780 -1.8570 0.9782
-2.0848 -4.7559 -1.8570 0.9782
-1.9127 -4.8277 -1.8570 0.9782
-1.7381 -4.8933 -1.8570 0.9782
-1.3825 -5.0054 -1.8570 0.9782
-0.8363 -5.1250 -1.8570 0.9782
-0.6517 -5.1517 -1.8570 0.9782
-0.2804 -5.1852 -1.8570 0.9782
0.0924 -5.1920 -1.8570 0.9782
0.8347 -5.1253 -1.8570 0.9782
1.2003 -5.0522 -1.8570 0.9782
1.3809 -5.0058 -1.8570 0.9782
1.5597 -4.9530 -1.8570 0.9782
1.9111 -4.8283 -1.8570 0.9782
2.0833 -4.7566 -1.8570 0.9782
2.1350 -4.0550 -1.6388 0.9807
2.3194 -4.0459 -1.6677 0.9804
3.0520 -4.2012 -1.8570 0.9782
3.3456 -3.9714 -1.8570 0.9782
4.0455 -3.8680 -2.0016 0.9765
4.1817 -3.7203 -2.0016 0.9765
4.4379 -3.4106 -2.0016 0.9765
4.6712 -3.0834 -2.0016 0.9765
4.7789 -2.9137 -2.0016 0.9765
5.1468 -2.1996 -2.0016 0.9765
5.2224 -2.0134 -2.0016 0.9765
5.4086 -1.4402 -2.0016 0.9765
5.4569 -1.2451 -2.0016 0.9765
5.5321 -0.8503 -2.0016 0.9765
5.5591 -0.6511 -2.0016 0.9765
5.5950 0.1513 -2.0016 0.9765
5.5860 0.3521 -2.0016 0.9765
5.5698 0.5524 -2.0016 0.9765
5.5158 0.9507 -2.0016 0.9765
5.4781 1.1481 -2.0016 0.9765
5.4333 1.3440 -2.0016 0.9765
5.2573 1.9204 -2.0016 0.9765
5.0203 2.4746 -2.0016 0.9765
4.9283 2.6532 -2.0016 0.9765
4.7252 3.0000 -2.0016 0.9765
4.4977 3.3314 -2.0016 0.9765
4.1134 3.7957 -2.0016 0.9765
3.8305 4.0811 -2.0016 0.9765
3.6815 4.2159 -2.0016 0.9765
3.2068 4.5873 -2.0016 0.9765
2.8694 4.8056 -2.0016 0.9765
2.6950 4.9056 -2.0016 0.9765
2.5171 4.9991 -2.0016 0.9765
2.1519 5.1669 -2.0016 0.9765
1.9650 5.2408 -2.0016 0.9765
1.3901 5.4217 -2.0016 0.9765
1.1946 5.4681 -2.0016 0.9765
0.9975 5.5075 -2.0016 0.9765
0.5997 5.5649 -2.0016 0.9765
0.3995 5.5828 -2.0016 0.9765
-0.6039 5.5644 -2.0016 0.9765
-1.0016 5.5067 -2.0016 0.9765
-1.1987 5.4672 -2.0016 0.9765
-1.7796 5.3066 -2.0016 0.9765
-1.9690 5.2393 -2.0016 0.9765
-2.1558 5.1653 -2.0016 0.9765
-2.6987 4.9035 -2.0016 0.9765
-2.8730 4.8035 -2.0016 0.9765
-3.0436 4.6972 -2.0016 0.9765
-3.6846 4.2132 -2.0016 0.9765
-3.8335 4.0782 -2.0016 0.9765
-4.2498 3.6423 -2.0016 0.9765
-4.5002 3.3280 -2.0016 0.9765
-4.6168 3.1643 -2.0016 0.9765
-4.7274 2.9965 -2.0016 0.9765
-4.9303 2.6495 -2.0016 0.9765
-5.1077 2.2889 -2.0016 0.9765
-5.2588 1.9165 -2.0016 0.9765
-5.3242 1.7265 -2.0016 0.9765
-5.3827 1.5342 -2.0016 0.9765
-5.4789 1.1440 -2.0016 0.9765
-5.5702 0.5482 -2.0016 0.9765
-5.5863 0.3479 -2.0016 0.9765
-5.5952 0.1471 -2.0016 0.9765
-5.5913 -0.2548 -2.0016 0.9765
-5.5785 -0.4553 -2.0016 0.9765
-5.3522 -1.6375 -2.0016 0.9765
-5.1451 -2.2035 -2.0016 0.9765
-4.7503 -2.2395 -1.8781 0.9779
-4.6145 -2.3816 -1.8570 0.9782
-4.4317 -2.7066 -1.8570 0.9782
-4.3316 -2.8639 -1.8570 0.9782
-4.1150 -3.1674 -1.8570 0.9782
-3.6192 -3.7238 -1.8570 0.9782
-3.4832 -3.8513 -1.8570 0.9782
-2.8960 -4.3103 -1.8570 0.9782
-2.5792 -4.5070 -1.8570 0.9782
-2.4158 -4.5967 -1.8570 0.9782
-2.2492 -4.6804 -1.8570 0.9782
-1.9075 -4.8298 -1.8570 0.9782
-1.7329 -4.8951 -1.8570 0.9782
-1.3771 -5.0069 -1.8570 0.9782
-0.8308 -5.1259 -1.8570 0.9782
-0.6463 -5.1524 -1.8570 0.9782
-1.4619 -4.6200 -1.8570 0.9795
-0.9567 -4.7504 -1.8570 0.9795
-0.7855 -4.7817 -1.8570 0.9795
-0.6133 -4.8068 -1.8570 0.9795
0.0811 -4.8451 -1.8570 0.9795
0.2550 -4.8390 -1.8570 0.9795
0.4285 -4.8268 -1.8570 0.9795
1.1151 -4.7157 -1.8570 0.9795
1.2836 -4.6726 -1.8570 0.9795
1.6156 -4.5685 -1.8570 0.9795
1.9393 -4.4408 -1.8570 0.9795
2.0012 -4.1678 -1.7717 0.9804
2.2877 -4.0005 -1.7660 0.9805
2.4828 -4.0010 -1.8045 0.9800
2.8439 -3.9235 -1.8570 0.9795
3.2492 -3.5950 -1.8570 0.9795
3.3762 -3.4760 -1.8570 0.9795
3.7713 -3.6135 -2.0016 0.9779
3.8986 -3.4758 -2.0016 0.9779
4.2497 -3.0365 -2.0016 0.9779
4.4566 -2.7237 -2.0016 0.9779
4.5515 -2.5620 -2.0016 0.9779
4.6406 -2.3969 -2.0016 0.9779
4.7236 -2.2287 -2.0016 0.9779
4.8714 -1.8840 -2.0016 0.9779
4.9940 -1.5296 -2.0016 0.9779
5.0457 -1.3493 -2.0016 0.9779
5.1616 -0.7990 -2.0016 0.9779
5.1869 -0.6132 -2.0016 0.9779
5.2175 -0.2394 -2.0016 0.9779
5.2213 0.1356 -2.0016 0.9779
5.1981 0.5100 -2.0016 0.9779
5.1764 0.6963 -2.0016 0.9779
5.1131 1.0659 -2.0016 0.9779
4.8406 1.9619 -2.0016 0.9779
4.6015 2.4710 -2.0016 0.9779
4.5099 2.6346 -2.0016 0.9779
4.4124 2.7948 -2.0016 0.9779
4.2004 3.1043 -2.0016 0.9779
4.0863 3.2531 -2.0016 0.9779
3.2963 4.0515 -2.0016 0.9779
2.9971 4.2776 -2.0016 0.9779
2.8416 4.3824 -2.0016 0.9779
2.3539 4.6625 -2.0016 0.9779
2.0133 4.8194 -2.0016 0.9779
1.8389 4.8886 -2.0016 0.9779
1.6622 4.9515 -2.0016 0.9779
1.4834 5.0080 -2.0016 0.9779
1.1202 5.1015 -2.0016 0.9779
0.9363 5.1384 -2.0016 0.9779
0.7512 5.1687 -2.0016 0.9779
0.5652 5.1924 -2.0016 0.9779
0.3784 5.2093 -2.0016 0.9779
0.1911 5.2195 -2.0016 0.9779
0.0036 5.2230 -2.0016 0.9779
-0.1839 5.2198 -2.0016 0.9779
-0.3712 5.2098 -2.0016 0.9779
-0.7441 5.1698 -2.0016 0.9779
-1.1131 5.1030 -2.0016 0.9779
-1.4765 5.0100 -2.0016 0.9779
-1.6554 4.9538 -2.0016 0.9779
-2.0066 4.8222 -2.0016 0.9779
-2.1784 4.7471 -2.0016 0.9779
-2.3474 4.6658 -2.0016 0.9779
-2.5134 4.5785 -2.0016 0.9779
-2.6762 4.4853 -2.0016 0.9779
-2.8355 4.3863 -2.0016 0.9779
-2.9912 4.2817 -2.0016 0.9779
-3.4342 3.9353 -2.0016 0.9779
-3.7077 3.6787 -2.0016 0.9779
-3.8374 3.5432 -2.0016 0.9779
-3.9621 3.4032 -2.0016 0.9779
-4.0818 3.2587 -2.0016 0.9779
-4.1961 3.1101 -2.0016 0.9779
-4.3051 2.9574 -2.0016 0.9779
-4.4085 2.8009 -2.0016 0.9779
-4.5062 2.6409 -2.0016 0.9779
-4.5981 2.4774 -2.0016 0.9779
-4.6841 2.3107 -2.0016 0.9779
-4.8378 1.9686 -2.0016 0.9779
-4.9054 1.7936 -2.0016 0.9779
-4.9666 1.6164 -2.0016 0.9779
-5.0698 1.2558 -2.0016 0.9779
-5.2126 0.3302 -2.0016 0.9779
-5.2228 -0.0447 -2.0016 0.9779
-5.1878 -0.6060 -2.0016 0.9779
-5.1627 -0.7918 -2.0016 0.9779
-5.0925 -1.1603 -2.0016 0.9779
-5.0476 -1.3424 -2.0016 0.9779
-4.9961 -1.5227 -2.0016 0.9779
-4.8035 -2.0511 -2.0016 0.9779
-4.3515 -2.2400 -1.8756 0.9793
-4.1382 -2.5213 -1.8570 0.9795
-4.0450 -2.6682 -1.8570 0.9795
-3.7347 -3.0877 -1.8570 0.9795
-3.1232 -3.7050 -1.8570 0.9795
-2.9882 -3.8147 -1.8570 0.9795
-2.5607 -4.1139 -1.8570 0.9795
-2.2589 -4.2870 -1.8570 0.9795
-2.1035 -4.3654 -1.8570 0.9795
-1.9454 -4.4381 -1.8570 0.9795
-1.7848 -4.5051 -1.8570 0.9795
-1.4570 -4.6215 -1.8570 0.9795
-0.9516 -4.7514 -1.8570 0.9795
-0.4352 -4.8262 -1.8570 0.9795
-0.2617 -4.8387 -1.8570 0.9795
-0.0878 -4.8450 -1.8570 0.9795
0.2601 -4.8388 -1.8570 0.9795
0.4337 -4.8263 -1.8570 0.9795
0.7789 -4.7827 -1.8570 0.9795
1.9440 -4.4387 -1.8570 0.9795
2.0012 -4.1565 -1.7678 0.9804
2.1060 -4.0000 -1.7323 0.9808
2.7055 -4.0202 -1.8570 0.9795
2.8481 -3.9204 -1.8570 0.9795
2.9870 -3.8157 -1.8570 0.9795
3.1220 -3.7060 -1.8570 0.9795
3.2531 -3.5915 -1.8570 0.9795
3.3799 -3.4724 -1.8570 0.9795
4.2529 -3.0320 -2.0016 0.9779
4.5543 -2.5571 -2.0016 0.9779
4.6431 -2.3919 -2.0016 0.9779
4.8734 -1.8788 -2.0016 0.9779
4.9957 -1.5243 -2.0016 0.9779
5.0472 -1.3439 -2.0016 0.9779
5.1306 -0.9783 -2.0016 0.9779
5.1624 -0.7935 -2.0016 0.9779
5.1876 -0.6076 -2.0016 0.9779
5.2060 -0.4210 -2.0016 0.9779
5.2127 0.3286 -2.0016 0.9779
5.1757 0.7018 -2.0016 0.9779
5.1471 0.8872 -2.0016 0.9779
5.0702 1.2542 -2.0016 0.9779
5.0219 1.4354 -2.0016 0.9779
4.8385 1.9671 -2.0016 0.9779
4.6848 2.3092 -2.0016 0.9779
4.5989 2.4759 -2.0016 0.9779
4.5070 2.6394 -2.0016 0.9779
4.4094 2.7996 -2.0016 0.9779
4.3060 2.9561 -2.0016 0.9779
4.0828 3.2574 -2.0016 0.9779
3.8385 3.5420 -2.0016 0.9779
3.7089 3.6775 -2.0016 0.9779
3.5745 3.8083 -2.0016 0.9779
3.4354 3.9342 -2.0016 0.9779
3.2920 4.0550 -2.0016 0.9779
3.1443 4.1706 -2.0016 0.9779
2.9925 4.2808 -2.0016 0.9779
2.0081 4.8216 -2.0016 0.9779
1.8337 4.8906 -2.0016 0.9779
1.6569 4.9532 -2.0016 0.9779
1.4780 5.0095 -2.0016 0.9779
1.2972 5.0594 -2.0016 0.9779
1.1147 5.1027 -2.0016 0.9779
0.9308 5.1394 -2.0016 0.9779
0.7457 5.1695 -2.0016 0.9779
0.3728 5.2097 -2.0016 0.9779
0.1856 5.2197 -2.0016 0.9779
-0.0020 5.2230 -2.0016 0.9779
-0.3768 5.2094 -2.0016 0.9779
-0.5635 5.1925 -2.0016 0.9779
-0.7496 5.1690 -2.0016 0.9779
-0.9347 5.1387 -2.0016 0.9779
-1.4818 5.0084 -2.0016 0.9779
-1.8374 4.8892 -2.0016 0.9779
-2.0117 4.8201 -2.0016 0.9779
-2.3524 4.6633 -2.0016 0.9779
-2.5183 4.5758 -2.0016 0.9779
-2.6810 4.4825 -2.0016 0.9779
-2.8402 4.3833 -2.0016 0.9779
-2.9957 4.2785 -2.0016 0.9779
-3.1474 4.1682 -2.0016 0.9779
-3.2950 4.0525 -2.0016 0.9779
-3.4384 3.9316 -2.0016 0.9779
-3.5773 3.8056 -2.0016 0.9779
-4.3082 2.9528 -2.0016 0.9779
-4.4115 2.7962 -2.0016 0.9779
-4.6008 2.4725 -2.0016 0.9779
-4.6866 2.3057 -2.0016 0.9779
-4.7663 2.1359 -2.0016 0.9779
-4.9683 1.6111 -2.0016 0.9779
-5.0230 1.4317 -2.0016 0.9779
-5.1762 0.6979 -2.0016 0.9779
-5.1979 0.5116 -2.0016 0.9779
-5.2228 -0.0502 -2.0016 0.9779
-5.2176 -0.2377 -2.0016 0.9779
-5.1299 -0.9822 -2.0016 0.9779
-5.0462 -1.3477 -2.0016 0.9779
-4.9945 -1.5280 -2.0016 0.9779
-4.3413 -2.2406 -1.8722 0.9793
-4.1355 -2.5257 -1.8570 0.9795
-3.8400 -2.9557 -1.8570 0.9795
-3.7314 -3.0916 -1.8570 0.9795
-3.6180 -3.2236 -1.8570 0.9795
-3.4999 -3.3514 -1.8570 0.9795
-3.3773 -3.4749 -1.8570 0.9795
-3.2504 -3.5939 -1.8570 0.9795
-3.1193 -3.7083 -1.8570 0.9795
-2.9841 -3.8179 -1.8570 0.9795
-2.7025 -4.0222 -1.8570 0.9795
-2.4069 -4.2058 -1.8570 0.9795
-1.9407 -4.4402 -1.8570 0.9795
-1.7800 -4.5070 -1.8570 0.9795
-1.6171 -4.5680 -1.8570 0.9795
-1.4520 -4.6231 -1.8570 0.9795
-1.2851 -4.6722 -1.8570 0.9795
-0.9465 -4.7524 -1.8570 0.9795
-0.6031 -4.8081 -1.8570 0.9795
-0.2565 -4.8390 -1.8570 0.9795
-1.3688 -4.3258 -1.8570 0.9806
-1.2126 -4.3722 -1.8570 0.9806
-0.8958 -4.4479 -1.8570 0.9806
-0.4123 -4.5185 -1.8570 0.9806
-0.2498 -4.5304 -1.8570 0.9806
-0.0870 -4.5364 -1.8570 0.9806
0.2387 -4.5310 -1.8570 0.9806
0.4013 -4.5195 -1.8570 0.9806
0.7245 -4.4790 -1.8570 0.9806
0.8849 -4.4501 -1.8570 0.9806
1.2019 -4.3752 -1.8570 0.9806
1.5128 -4.2776 -1.8570 0.9806
1.9639 -4.0902 -1.8570 0.9806
2.1006 -3.9999 -1.8491 0.9807
2.3923 -3.8553 -1.8570 0.9806
3.6504 -3.2545 -2.0016 0.9791
3.7648 -3.1214 -2.0016 0.9791
4.0786 -2.6985 -2.0016 0.9791
4.3451 -2.2443 -2.0016 0.9791
4.4229 -2.0868 -2.0016 0.9791
4.5612 -1.7641 -2.0016 0.9791
4.6216 -1.5992 -2.0016 0.9791
4.6761 -1.4322 -2.0016 0.9791
4.7668 -1.0930 -2.0016 0.9791
4.8030 -0.9211 -2.0016 0.9791
4.8329 -0.7481 -2.0016 0.9791
4.8742 -0.3994 -2.0016 0.9791
4.8903 -0.0486 -2.0016 0.9791
4.8811 0.3025 -2.0016 0.9791
4.8203 0.8255 -2.0016 0.9791
4.7487 1.1693 -2.0016 0.9791
4.7036 1.3390 -2.0016 0.9791
4.6525 1.5070 -2.0016 0.9791
4.5954 1.6731 -2.0016 0.9791
4.3889 2.1575 -2.0016 0.9791
4.3086 2.3137 -2.0016 0.9791
4.1315 2.6169 -2.0016 0.9791
4.0348 2.7635 -2.0016 0.9791
3.8261 3.0459 -2.0016 0.9791
3.5977 3.3127 -2.0016 0.9791
3.4764 3.4397 -2.0016 0.9791
3.3507 3.5623 -2.0016 0.9791
3.0864 3.7935 -2.0016 0.9791
2.9483 3.9019 -2.0016 0.9791
2.8063 4.0052 -2.0016 0.9791
2.5116 4.1963 -2.0016 0.9791
1.8851 4.5126 -2.0016 0.9791
1.7218 4.5774 -2.0016 0.9791
1.3890 4.6891 -2.0016 0.9791
1.0489 4.7767 -2.0016 0.9791
0.7034 4.8397 -2.0016 0.9791
0.1790 4.8872 -2.0016 0.9791
-0.1722 4.8875 -2.0016 0.9791
-0.6967 4.8406 -2.0016 0.9791
-1.0423 4.7782 -2.0016 0.9791
-1.5500 4.6384 -2.0016 0.9791
-1.8788 4.5152 -2.0016 0.9791
-2.0397 4.4448 -2.0016 0.9791
-2.1980 4.3687 -2.0016 0.9791
-2.3534 4.2870 -2.0016 0.9791
-2.8007 4.0091 -2.0016 0.9791
-2.9429 3.9060 -2.0016 0.9791
-3.2156 3.6847 -2.0016 0.9791
-3.3458 3.5669 -2.0016 0.9791
-3.4717 3.4445 -2.0016 0.9791
-3.7099 3.1865 -2.0016 0.9791
-3.8219 3.0512 -2.0016 0.9791
-3.9290 2.9121 -2.0016 0.9791
-4.0310 2.7691 -2.0016 0.9791
-4.1278 2.6226 -2.0016 0.9791
-4.3054 2.3196 -2.0016 0.9791
-4.4607 2.0047 -2.0016 0.9791
-4.5298 1.8433 -2.0016 0.9791
-4.6504 1.5135 -2.0016 0.9791
-4.7470 1.1759 -2.0016 0.9791
-2.1393 0.3694 -0.8885 0.9907
-1.9372 -0.0862 -0.7936 0.9917
-1.9551 -0.2284 -0.8056 0.9915
-1.9850 -0.3045 -0.8219 0.9914
-2.2105 -0.4208 -0.9210 0.9903
-4.7262 -1.2569 -2.0016 0.9791
-4.6239 -1.5928 -2.0016 0.9791
-4.4976 -1.9205 -2.0016 0.9791
-4.3122 -2.2197 -1.9850 0.9793
-3.9930 -2.2403 -1.8739 0.9804
-3.7875 -2.4983 -1.8570 0.9806
-3.6953 -2.6327 -1.8570 0.9806
-3.5984 -2.7637 -1.8570 0.9806
-3.4969 -2.8911 -1.8570 0.9806
-3.3908 -3.0148 -1.8570 0.9806
-3.2804 -3.1346 -1.8570 0.9806
-2.7979 -3.5719 -1.8570 0.9806
-2.6679 -3.6700 -1.8570 0.9806
-2.5344 -3.7634 -1.8570 0.9806
-2.2578 -3.9356 -1.8570 0.9806
-1.9696 -4.0875 -1.8570 0.9806
-1.5187 -4.2755 -1.8570 0.9806
-1.3642 -4.3273 -1.8570 0.9806
-0.8910 -4.4489 -1.8570 0.9806
-0.7307 -4.4780 -1.8570 0.9806
-0.5695 -4.5014 -1.8570 0.9806
-0.4075 -4.5189 -1.8570 0.9806
-0.2450 -4.5306 -1.8570 0.9806
-0.0822 -4.5365 -1.8570 0.9806
0.0807 -4.5365 -1.8570 0.9806
0.4061 -4.5190 -1.8570 0.9806
0.7293 -4.4782 -1.8570 0.9806
1.0488 -4.4144 -1.8570 0.9806
1.2066 -4.3739 -1.8570 0.9806
1.3628 -4.3277 -1.8570 0.9806
1.5173 -4.2760 -1.8570 0.9806
1.6699 -4.2188 -1.8570 0.9806
2.3964 -3.8527 -1.8570 0.9806
2.5332 -3.7642 -1.8570 0.9806
2.6667 -3.6708 -1.8570 0.9806
2.7968 -3.5727 -1.8570 0.9806
2.9233 -3.4700 -1.8570 0.9806
3.1647 -3.2513 -1.8570 0.9806
3.6538 -3.2506 -2.0016 0.9791
3.7682 -3.1174 -2.0016 0.9791
3.8777 -2.9801 -2.0016 0.9791
4.3475 -2.2397 -2.0016 0.9791
4.4251 -2.0821 -2.0016 0.9791
4.4970 -1.9219 -2.0016 0.9791
4.5631 -1.7592 -2.0016 0.9791
4.6233 -1.5943 -2.0016 0.9791
4.7680 -1.0879 -2.0016 0.9791
4.8040 -0.9160 -2.0016 0.9791
4.8573 -0.5689 -2.0016 0.9791
4.8746 -0.3942 -2.0016 0.9791
4.8856 -0.2189 -2.0016 0.9791
4.8887 0.1322 -2.0016 0.9791
4.8194 0.8307 -2.0016 0.9791
4.5304 1.8418 -2.0016 0.9791
4.4614 2.0033 -2.0016 0.9791
3.7109 3.1853 -2.0016 0.9791
3.4728 3.4434 -2.0016 0.9791
3.3469 3.5659 -2.0016 0.9791
3.2167 3.6837 -2.0016 0.9791
3.0824 3.7968 -2.0016 0.9791
2.9441 3.9050 -2.0016 0.9791
2.6563 4.1062 -2.0016 0.9791
2.5071 4.1990 -2.0016 0.9791
2.3548 4.2863 -2.0016 0.9791
2.1994 4.3680 -2.0016 0.9791
1.7170 4.5792 -2.0016 0.9791
1.3839 4.6906 -2.0016 0.9791
0.8716 4.8122 -2.0016 0.9791
0.6982 4.8404 -2.0016 0.9791
0.3491 4.8780 -2.0016 0.9791
0.1737 4.8874 -2.0016 0.9791
-0.1774 4.8873 -2.0016 0.9791
-0.3528 4.8778 -2.0016 0.9791
-0.5277 4.8620 -2.0016 0.9791
-1.2182 4.7364 -2.0016 0.9791
-1.7204 4.5779 -2.0016 0.9791
-1.8836 4.5132 -2.0016 0.9791
-2.0445 4.4427 -2.0016 0.9791
-2.2027 4.3664 -2.0016 0.9791
-2.3580 4.2845 -2.0016 0.9791
-2.8050 4.0061 -2.0016 0.9791
-3.0852 3.7945 -2.0016 0.9791
-3.2195 3.6813 -2.0016 0.9791
-3.3496 3.5633 -2.0016 0.9791
-3.5966 3.3138 -2.0016 0.9791
-3.8252 3.0472 -2.0016 0.9791
-4.0340 2.7648 -2.0016 0.9791
-4.1306 2.6182 -2.0016 0.9791
-4.3882 2.1589 -2.0016 0.9791
-4.7873 0.9996 -2.0016 0.9791
-2.1349 0.3663 -0.8865 0.9907
-1.9232 0.0506 -0.7874 0.9917
-1.9077 -0.0184 -0.7808 0.9918
-1.9380 -0.0883 -0.7940 0.9917
-1.9549 -0.2305 -0.8056 0.9915
-1.9935 -0.3079 -0.8256 0.9913
-4.7671 -1.0915 -2.0016 0.9791
-4.7249 -1.2619 -2.0016 0.9791
-4.3021 -2.2204 -1.9814 0.9793
-3.9840 -2.2409 -1.8708 0.9804
-3.5955 -2.7675 -1.8570 0.9806
-3.4938 -2.8948 -1.8570 0.9806
-3.3876 -3.0184 -1.8570 0.9806
-3.2771 -3.1381 -1.8570 0.9806
-3.1623 -3.2537 -1.8570 0.9806
-3.0434 -3.3651 -1.8570 0.9806
-2.3935 -3.8545 -1.8570 0.9806
-1.9652 -4.0896 -1.8570 0.9806
-1.8171 -4.1575 -1.8570 0.9806
-1.5141 -4.2772 -1.8570 0.9806
-1.3596 -4.3288 -1.8570 0.9806
-1.2033 -4.3748 -1.8570 0.9806
-1.0455 -4.4152 -1.8570 0.9806
-0.7259 -4.4788 -1.8570 0.9806
-1.2855 -4.0624 -1.8570 0.9816
-1.1388 -4.1059 -1.8570 0.9816
-0.9906 -4.1442 -1.8570 0.9816
-0.8412 -4.1771 -1.8570 0.9816
-0.5393 -4.2267 -1.8570 0.9816
0.2242 -4.2550 -1.8570 0.9816
0.3768 -4.2442 -1.8570 0.9816
0.5290 -4.2280 -1.8570 0.9816
0.9805 -4.1466 -1.8570 0.9816
1.2755 -4.0655 -1.8570 0.9816
1.8443 -3.8411 -1.8570 0.9816
2.3752 -3.5375 -1.8570 0.9816
2.5006 -3.4500 -1.8570 0.9816
2.6229 -3.3580 -1.8570 0.9816
2.7418 -3.2616 -1.8570 0.9816
3.1804 -2.8356 -1.8570 0.9816
3.5356 -2.9313 -2.0016 0.9802
3.6385 -2.8025 -2.0016 0.9802
4.0022 -2.2528 -2.0016 0.9802
4.1535 -1.9598 -2.0016 0.9802
4.2212 -1.8094 -2.0016 0.9802
4.3913 -1.3450 -2.0016 0.9802
4.4368 -1.1865 -2.0016 0.9802
4.4765 -1.0264 -2.0016 0.9802
4.5386 -0.7026 -2.0016 0.9802
4.5609 -0.5392 -2.0016 0.9802
4.5924 -0.0456 -2.0016 0.9802
4.5911 0.1193 -2.0016 0.9802
4.5707 0.4484 -2.0016 0.9802
4.5517 0.6122 -2.0016 0.9802
4.4960 0.9373 -2.0016 0.9802
4.3155 1.5712 -2.0016 0.9802
4.1917 1.8768 -2.0016 0.9802
4.0462 2.1728 -2.0016 0.9802
3.9656 2.3167 -2.0016 0.9802
3.7891 2.5952 -2.0016 0.9802
3.6935 2.7296 -2.0016 0.9802
3.5931 2.8604 -2.0016 0.9802
3.4881 2.9876 -2.0016 0.9802
2.8985 3.5625 -2.0016 0.9802
2.6354 3.7613 -2.0016 0.9802
2.3587 3.9407 -2.0016 0.9802
2.0698 4.0998 -2.0016 0.9802
1.7703 4.2378 -2.0016 0.9802
1.6170 4.2986 -2.0016 0.9802
1.3044 4.4035 -2.0016 0.9802
1.1454 4.4475 -2.0016 0.9802
0.9850 4.4858 -2.0016 0.9802
0.8233 4.5183 -2.0016 0.9802
0.3327 4.5806 -2.0016 0.9802
-0.3264 4.5811 -2.0016 0.9802
-0.8171 4.5194 -2.0016 0.9802
-0.9788 4.4872 -2.0016 0.9802
-1.1393 4.4491 -2.0016 0.9802
-1.4556 4.3559 -2.0016 0.9802
-1.9155 4.1741 -2.0016 0.9802
-2.4933 3.8570 -2.0016 0.9802
-3.0197 3.4603 -2.0016 0.9802
-3.1420 3.3497 -2.0016 0.9802
-3.3743 3.1156 -2.0016 0.9802
-3.4840 2.9924 -2.0016 0.9802
-3.5891 2.8654 -2.0016 0.9802
-3.9624 2.3221 -2.0016 0.9802
-4.0432 2.1784 -2.0016 0.9802
-4.1891 1.8826 -2.0016 0.9802
-1.5969 0.5839 -0.7410 0.9926
-1.5668 0.4484 -0.7102 0.9929
-1.5435 0.3823 -0.6930 0.9931
-1.5153 0.3181 -0.6748 0.9933
-1.5177 0.2063 -0.6675 0.9933
-1.5296 0.0969 -0.6680 0.9933
-1.5274 0.0418 -0.6659 0.9934
-1.5291 -0.0680 -0.6671 0.9933
-1.5287 -0.1231 -0.6684 0.9933
-1.5117 -0.2319 -0.6665 0.9933
-1.4987 -0.2853 -0.6649 0.9934
-1.5294 -0.3484 -0.6836 0.9932
-1.5761 -0.4804 -0.7181 0.9928
-4.2858 -1.6507 -2.0016 0.9802
-4.2237 -1.8035 -2.0016 0.9802
-3.6763 -2.2399 -1.8762 0.9814
-3.5568 -2.3462 -1.8570 0.9816
-3.3793 -2.5954 -1.8570 0.9816
-3.2839 -2.7150 -1.8570 0.9816
-2.8615 -3.1571 -1.8570 0.9816
-2.6275 -3.3543 -1.8570 0.9816
-2.2516 -3.6174 -1.8570 0.9816
-1.8496 -3.8385 -1.8570 0.9816
-1.5694 -3.9614 -1.8570 0.9816
-1.4262 -4.0151 -1.8570 0.9816
-0.6862 -4.2053 -1.8570 0.9816
-0.5348 -4.2272 -1.8570 0.9816
-0.2301 -4.2547 -1.8570 0.9816
-0.0772 -4.2602 -1.8570 0.9816
0.2287 -4.2548 -1.8570 0.9816
0.5335 -4.2274 -1.8570 0.9816
0.8354 -4.1782 -1.8570 0.9816
1.7094 -3.9030 -1.8570 0.9816
1.9851 -3.7703 -1.8570 0.9816
2.3790 -3.5350 -1.8570 0.9816
2.5043 -3.4473 -1.8570 0.9816
2.7453 -3.2587 -1.8570 0.9816
2.8605 -3.1580 -1.8570 0.9816
3.0843 -2.9490 -1.8598 0.9816
3.1856 -2.8341 -1.8583 0.9816
3.5387 -2.9275 -2.0016 0.9802
3.6415 -2.7986 -2.0016 0.9802
3.7396 -2.6660 -2.0016 0.9802
3.8329 -2.5300 -2.0016 0.9802
3.9213 -2.3908 -2.0016 0.9802
4.0046 -2.2485 -2.0016 0.9802
4.0828 -2.1032 -2.0016 0.9802
4.4776 -1.0216 -2.0016 0.9802
4.5114 -0.8602 -2.0016 0.9802
