ply
format ascii 1.0
element vertex 1600
property float32 x
property float32 y
property float32 z
property float32 I
end_header
7.2368 -4.4899 -2.0016 0.9656
7.3932 -4.2274 -2.0016 0.9656
7.5401 -3.9594 -2.0016 0.9656
7.6773 -3.6863 -2.0016 0.9656
7.8046 -3.4085 -2.0016 0.9656
7.9219 -3.1263 -2.0016 0.9656
8.0289 -2.8401 -2.0016 0.9656
8.1257 -2.5502 -2.0016 0.9656
8.2119 -2.2570 -2.0016 0.9656
8.2876 -1.9609 -2.0016 0.9656
8.3526 -1.6623 -2.0016 0.9656
8.4069 -1.3616 -2.0016 0.9656
8.4503 -1.0591 -2.0016 0.9656
8.5152 -0.1450 -2.0016 0.9656
8.4044 1.3770 -2.0016 0.9656
8.3496 1.6777 -2.0016 0.9656
8.2840 1.9762 -2.0016 0.9656
8.1210 2.5651 -2.0016 0.9656
7.9161 3.1408 -2.0016 0.9656
7.7983 3.4228 -2.0016 0.9656
7.6705 3.7004 -2.0016 0.9656
7.2285 4.5032 -2.0016 0.9656
6.8870 5.0099 -2.0016 0.9656
6.7028 5.2538 -2.0016 0.9656
6.3088 5.7209 -2.0016 0.9656
6.0995 5.9436 -2.0016 0.9656
5.6576 6.3657 -2.0016 0.9656
5.1865 6.7550 -2.0016 0.9656
4.9408 6.9367 -2.0016 0.9656
4.6888 7.1095 -2.0016 0.9656
4.4307 7.2732 -2.0016 0.9656
4.1669 7.4274 -2.0016 0.9656
3.6235 7.7071 -2.0016 0.9656
3.0615 7.9471 -2.0016 0.9656
2.4821 8.1408 -2.0002 0.9656
1.8876 8.2785 -1.9956 0.9657
1.5874 8.3309 -1.9932 0.9658
1.2731 8.2886 -1.9708 0.9661
0.3691 8.2432 -1.9393 0.9667
0.0731 8.2435 -1.9375 0.9667
-0.2228 8.2434 -1.9381 0.9667
-1.1166 8.2403 -1.9544 0.9664
-2.0352 8.2331 -1.9932 0.9658
-2.9152 7.9864 -1.9981 0.9657
-3.4864 7.7701 -2.0016 0.9656
-3.7629 7.6401 -2.0016 0.9656
-5.0660 6.8459 -2.0016 0.9656
-5.3083 6.6597 -2.0016 0.9656
-5.5438 6.4650 -2.0016 0.9656
-5.7722 6.2619 -2.0016 0.9656
-5.9932 6.0508 -2.0016 0.9656
-6.4116 5.6054 -2.0016 0.9656
-6.7971 5.1312 -2.0016 0.9656
-6.9768 4.8841 -2.0016 0.9656
-7.1475 4.6306 -2.0016 0.9656
-7.3091 4.3712 -2.0016 0.9656
-7.8592 3.2807 -2.0016 0.9656
-7.9718 2.9966 -2.0016 0.9656
-8.0742 2.7087 -2.0016 0.9656
-8.1662 2.4172 -2.0016 0.9656
-8.4950 -0.6047 -2.0016 0.9656
-8.4678 -0.9091 -2.0016 0.9656
-8.3808 -1.5140 -2.0016 0.9656
-8.3211 -1.8137 -2.0016 0.9656
-8.2506 -2.1111 -2.0016 0.9656
-7.3999 -2.7697 -1.8570 0.9681
-7.2958 -3.0334 -1.8570 0.9681
-7.1822 -3.2932 -1.8570 0.9681
-7.0595 -3.5488 -1.8570 0.9681
-6.3128 -4.7517 -1.8570 0.9681
2.2921 -7.3829 -2.0016 0.9686
2.8156 -7.1995 -2.0016 0.9686
3.3246 -6.9790 -2.0016 0.9686
4.0553 -6.5814 -2.0016 0.9686
4.2888 -6.4317 -2.0016 0.9686
4.9550 -5.9336 -2.0016 0.9686
5.1648 -5.7520 -2.0016 0.9686
5.5639 -5.3669 -2.0016 0.9686
5.7529 -5.1638 -2.0016 0.9686
6.1084 -4.7379 -2.0016 0.9686
6.2744 -4.5157 -2.0016 0.9686
7.0943 -3.0709 -2.0016 0.9686
7.2963 -2.5543 -2.0016 0.9686
7.5866 -1.4843 -2.0016 0.9686
7.6350 -1.2111 -2.0016 0.9686
7.6736 -0.9364 -2.0016 0.9686
7.7298 -0.1065 -2.0016 0.9686
7.6965 0.7247 -2.0016 0.9686
7.6247 1.2747 -2.0016 0.9686
7.5740 1.5474 -2.0016 0.9686
7.5136 1.8182 -2.0016 0.9686
7.2748 2.6150 -2.0016 0.9686
7.1763 2.8743 -2.0016 0.9686
6.9517 3.3815 -2.0016 0.9686
6.8259 3.6287 -2.0016 0.9686
6.3965 4.3411 -2.0016 0.9686
6.2366 4.5678 -2.0016 0.9686
5.8930 5.0033 -2.0016 0.9686
5.7097 5.2115 -2.0016 0.9686
5.5190 5.4130 -2.0016 0.9686
5.3213 5.6075 -2.0016 0.9686
4.2351 6.4672 -2.0016 0.9686
4.0003 6.6150 -2.0016 0.9686
3.7604 6.7542 -2.0016 0.9686
3.0129 7.1192 -2.0016 0.9686
2.7556 7.2227 -2.0016 0.9686
2.4947 7.3169 -2.0016 0.9686
0.5977 7.7073 -2.0016 0.9686
0.0434 7.7304 -2.0016 0.9686
-0.2339 7.7269 -2.0016 0.9686
-0.5110 7.7136 -2.0016 0.9686
-1.0628 7.6571 -2.0016 0.9686
-1.8794 7.4985 -2.0016 0.9686
-2.1472 7.4263 -2.0016 0.9686
-2.4123 7.3445 -2.0016 0.9686
-2.6742 7.2532 -2.0016 0.9686
-2.9328 7.1526 -2.0016 0.9686
-4.3932 6.3608 -2.0016 0.9686
-4.6186 6.1991 -2.0016 0.9686
-5.0512 5.8520 -2.0016 0.9686
-5.2579 5.6670 -2.0016 0.9686
-5.6508 5.2753 -2.0016 0.9686
-6.1849 4.6376 -2.0016 0.9686
-6.5015 4.1822 -2.0016 0.9686
-6.6474 3.9462 -2.0016 0.9686
-6.7847 3.7052 -2.0016 0.9686
-6.9132 3.4594 -2.0016 0.9686
-7.0329 3.2091 -2.0016 0.9686
-7.1435 2.9547 -2.0016 0.9686
-7.2449 2.6965 -2.0016 0.9686
-7.3370 2.4349 -2.0016 0.9686
-7.4927 1.9025 -2.0016 0.9686
-7.5562 1.6324 -2.0016 0.9686
-7.6538 1.0864 -2.0016 0.9686
-7.7262 0.2577 -2.0016 0.9686
-7.7305 -0.0196 -2.0016 0.9686
-7.7248 -0.2970 -2.0016 0.9686
-7.4085 -2.2078 -2.0016 0.9686
-6.7955 -2.2936 -1.8570 0.9708
-6.7088 -2.5359 -1.8570 0.9708
-6.5097 -3.0105 -1.8570 0.9708
-6.3975 -3.2421 -1.8570 0.9708
-6.2771 -3.4695 -1.8570 0.9708
-6.1485 -3.6925 -1.8570 0.9708
-5.8679 -4.1239 -1.8570 0.9708
-5.3908 -4.7305 -1.8570 0.9708
-4.8513 -5.2824 -1.8570 0.9708
-4.6587 -5.4530 -1.8570 0.9708
-4.5870 -6.2225 -2.0016 0.9686
-4.3608 -6.3831 -2.0016 0.9686
-3.6497 -6.8147 -2.0016 0.9686
-3.4029 -6.9412 -2.0016 0.9686
-2.8964 -7.1674 -2.0016 0.9686
-2.6373 -7.2667 -2.0016 0.9686
-2.1095 -7.4371 -2.0016 0.9686
-1.2981 -7.6207 -2.0016 0.9686
0.0827 -7.7300 -2.0016 0.9686
0.3600 -7.7221 -2.0016 0.9686
0.6368 -7.7042 -2.0016 0.9686
0.9128 -7.6764 -2.0016 0.9686
1.7324 -7.5339 -2.0016 0.9686
2.7923 -7.2086 -2.0016 0.9686
3.3020 -6.9898 -2.0016 0.9686
4.7191 -6.1229 -2.0016 0.9686
4.9358 -5.9497 -2.0016 0.9686
5.5465 -5.3849 -2.0016 0.9686
5.7361 -5.1824 -2.0016 0.9686
6.2597 -4.5361 -2.0016 0.9686
6.4184 -4.3086 -2.0016 0.9686
6.9688 -3.3461 -2.0016 0.9686
7.0843 -3.0939 -2.0016 0.9686
7.1908 -2.8378 -2.0016 0.9686
7.2880 -2.5780 -2.0016 0.9686
7.6310 -1.2359 -2.0016 0.9686
7.7189 0.4230 -2.0016 0.9686
7.6988 0.6997 -2.0016 0.9686
7.5195 1.7938 -2.0016 0.9686
7.3715 2.3284 -2.0016 0.9686
7.1856 2.8510 -2.0016 0.9686
6.5614 4.0876 -2.0016 0.9686
6.4105 4.3204 -2.0016 0.9686
5.9092 4.9842 -2.0016 0.9686
5.7266 5.1930 -2.0016 0.9686
5.3395 5.5902 -2.0016 0.9686
4.2561 6.4534 -2.0016 0.9686
3.5380 6.8733 -2.0016 0.9686
3.0360 7.1094 -2.0016 0.9686
2.5184 7.3088 -2.0016 0.9686
1.4470 7.5939 -2.0016 0.9686
0.8987 7.6781 -2.0016 0.9686
0.6227 7.7054 -2.0016 0.9686
0.0685 7.7302 -2.0016 0.9686
-0.2089 7.7277 -2.0016 0.9686
-0.7625 7.6928 -2.0016 0.9686
-1.0380 7.6605 -2.0016 0.9686
-1.3122 7.6183 -2.0016 0.9686
-1.5846 7.5663 -2.0016 0.9686
-2.1231 7.4332 -2.0016 0.9686
-2.3885 7.3523 -2.0016 0.9686
-2.9095 7.1621 -2.0016 0.9686
-3.1646 7.0531 -2.0016 0.9686
-3.6622 6.8080 -2.0016 0.9686
-3.9041 6.6722 -2.0016 0.9686
-4.1410 6.5278 -2.0016 0.9686
-4.3725 6.3751 -2.0016 0.9686
-4.5984 6.2141 -2.0016 0.9686
-5.6336 5.2937 -2.0016 0.9686
-5.8199 5.0881 -2.0016 0.9686
-6.3329 4.4333 -2.0016 0.9686
-6.6345 3.9678 -2.0016 0.9686
-7.1339 2.9779 -2.0016 0.9686
-7.2361 2.7201 -2.0016 0.9686
-7.3291 2.4587 -2.0016 0.9686
-7.4126 2.1942 -2.0016 0.9686
-7.6054 1.3850 -2.0016 0.9686
-7.7102 0.5598 -2.0016 0.9686
-7.7253 0.2828 -2.0016 0.9686
-7.7305 0.0054 -2.0016 0.9686
-7.6518 -1.1005 -2.0016 0.9686
-7.6074 -1.3743 -2.0016 0.9686
-7.4156 -2.1837 -2.0016 0.9686
-6.7170 -2.5141 -1.8570 0.9708
-6.6225 -2.7535 -1.8570 0.9708
-6.5194 -2.9893 -1.8570 0.9708
-6.4080 -3.2213 -1.8570 0.9708
-6.1605 -3.6725 -1.8570 0.9708
-5.7302 -4.3132 -1.8570 0.9708
2.0964 -6.7524 -2.0016 0.9710
2.0900 -4.3874 -1.3758 0.9800
2.1382 -4.1025 -1.3097 0.9810
2.3251 -4.0956 -1.3333 0.9806
3.7090 -6.0194 -2.0016 0.9710
4.5319 -5.4269 -2.0016 0.9710
4.7237 -5.2608 -2.0016 0.9710
5.0888 -4.9085 -2.0016 0.9710
5.2616 -4.7228 -2.0016 0.9710
5.4277 -4.5310 -2.0016 0.9710
5.8831 -3.9216 -2.0016 0.9710
6.0200 -3.7080 -2.0016 0.9710
6.1492 -3.4896 -2.0016 0.9710
6.3836 -3.0397 -2.0016 0.9710
6.5851 -2.5741 -2.0016 0.9710
6.6732 -2.3362 -2.0016 0.9710
6.7527 -2.0952 -2.0016 0.9710
6.9830 -1.1077 -2.0016 0.9710
7.0445 -0.6041 -2.0016 0.9710
7.0616 -0.3510 -2.0016 0.9710
7.0585 0.4098 -2.0016 0.9710
7.0109 0.9149 -2.0016 0.9710
6.9736 1.1658 -2.0016 0.9710
6.9272 1.4153 -2.0016 0.9710
6.6535 2.3917 -2.0016 0.9710
6.5634 2.6288 -2.0016 0.9710
6.4649 2.8626 -2.0016 0.9710
5.9889 3.7580 -2.0016 0.9710
5.8502 3.9704 -2.0016 0.9710
5.5505 4.3797 -2.0016 0.9710
5.3898 4.5760 -2.0016 0.9710
5.0477 4.9508 -2.0016 0.9710
4.8669 5.1287 -2.0016 0.9710
4.6797 5.3000 -2.0016 0.9710
4.4866 5.4645 -2.0016 0.9710
4.2876 5.6219 -2.0016 0.9710
3.8734 5.9149 -2.0016 0.9710
3.4393 6.1774 -2.0016 0.9710
3.2155 6.2969 -2.0016 0.9710
2.9875 6.4082 -2.0016 0.9710
2.7556 6.5112 -2.0016 0.9710
2.5203 6.6059 -2.0016 0.9710
1.5494 6.8985 -2.0016 0.9710
0.7992 7.0250 -2.0016 0.9710
0.5466 7.0492 -2.0016 0.9710
0.0397 7.0702 -2.0016 0.9710
-0.4674 7.0549 -2.0016 0.9710
-0.7202 7.0336 -2.0016 0.9710
-1.2227 6.9638 -2.0016 0.9710
-1.4718 6.9155 -2.0016 0.9710
-1.7189 6.8582 -2.0016 0.9710
-1.9639 6.7921 -2.0016 0.9710
-2.2063 6.7173 -2.0016 0.9710
-2.4459 6.6338 -2.0016 0.9710
-2.6823 6.5418 -2.0016 0.9710
-3.1445 6.3326 -2.0016 0.9710
-3.3697 6.2157 -2.0016 0.9710
-3.5905 6.0908 -2.0016 0.9710
-4.2242 5.6697 -2.0016 0.9710
-5.6567 4.2416 -2.0016 0.9710
-5.8052 4.0359 -2.0016 0.9710
-5.9463 3.8250 -2.0016 0.9710
-6.0797 3.6092 -2.0016 0.9710
-6.2053 3.3888 -2.0016 0.9710
-6.3229 3.1640 -2.0016 0.9710
-6.5335 2.7024 -2.0016 0.9710
-6.6262 2.4663 -2.0016 0.9710
-6.8529 1.7400 -2.0016 0.9710
-6.9109 1.4930 -2.0016 0.9710
-6.9600 1.2441 -2.0016 0.9710
-7.0534 0.4891 -2.0016 0.9710
-7.0664 0.2357 -2.0016 0.9710
-7.0508 -0.5249 -2.0016 0.9710
-7.0274 -0.7776 -2.0016 0.9710
-6.9950 -1.0292 -2.0016 0.9710
-6.9032 -1.5282 -2.0016 0.9710
-6.8439 -1.7748 -2.0016 0.9710
-6.5860 -2.2229 -1.9678 0.9715
-6.1359 -2.3193 -1.8570 0.9731
-5.8512 -2.9652 -1.8570 0.9731
-5.6235 -3.3772 -1.8570 0.9731
-5.4987 -3.5767 -1.8570 0.9731
-5.3668 -3.7717 -1.8570 0.9731
-4.9305 -4.3265 -1.8570 0.9731
-4.7721 -4.5006 -1.8570 0.9731
-4.6075 -4.6690 -1.8570 0.9731
-4.4371 -4.8313 -1.8570 0.9731
-4.2609 -4.9873 -1.8570 0.9731
-4.0792 -5.1370 -1.8570 0.9731
-3.5040 -5.5462 -1.8572 0.9731
-3.3024 -5.6677 -1.8570 0.9731
-3.3380 -6.2327 -2.0016 0.9710
-2.1721 -6.7284 -2.0016 0.9710
-1.6840 -6.8668 -2.0016 0.9710
-1.4366 -6.9228 -2.0016 0.9710
-1.1873 -6.9699 -2.0016 0.9710
-0.6844 -7.0371 -2.0016 0.9710
-0.1780 -7.0681 -2.0016 0.9710
0.0757 -7.0699 -2.0016 0.9710
0.3293 -7.0627 -2.0016 0.9710
0.8349 -7.0209 -2.0016 0.9710
1.0862 -6.9864 -2.0016 0.9710
1.3362 -6.9429 -2.0016 0.9710
1.5844 -6.8905 -2.0016 0.9710
2.0745 -6.7592 -2.0016 0.9710
2.7887 -6.4971 -2.0016 0.9710
2.0926 -4.4296 -1.3869 0.9798
2.1242 -4.1081 -1.3093 0.9810
2.3077 -4.0959 -1.3309 0.9806
4.1124 -5.7513 -2.0016 0.9710
4.3161 -5.6000 -2.0016 0.9710
4.5143 -5.4416 -2.0016 0.9710
5.4129 -4.5486 -2.0016 0.9710
6.0079 -3.7275 -2.0016 0.9710
6.2598 -3.2871 -2.0016 0.9710
6.8175 -1.8738 -2.0016 0.9710
6.9343 -1.3801 -2.0016 0.9710
6.9794 -1.1304 -2.0016 0.9710
7.0691 0.1333 -2.0016 0.9710
7.0413 0.6399 -2.0016 0.9710
6.9773 1.1432 -2.0016 0.9710
6.9318 1.3928 -2.0016 0.9710
6.8774 1.6406 -2.0016 0.9710
6.8141 1.8863 -2.0016 0.9710
6.5719 2.6075 -2.0016 0.9710
6.1313 3.5208 -2.0016 0.9710
6.0011 3.7385 -2.0016 0.9710
5.4046 4.5585 -2.0016 0.9710
5.0638 4.9343 -2.0016 0.9710
4.8835 5.1128 -2.0016 0.9710
4.6969 5.2848 -2.0016 0.9710
4.3058 5.6080 -2.0016 0.9710
3.6783 6.0382 -2.0016 0.9710
3.2359 6.2864 -2.0016 0.9710
2.3033 6.6846 -2.0016 0.9710
2.0620 6.7630 -2.0016 0.9710
1.8181 6.8326 -2.0016 0.9710
1.5718 6.8934 -2.0016 0.9710
1.0734 6.9884 -2.0016 0.9710
0.5695 7.0474 -2.0016 0.9710
0.3163 7.0633 -2.0016 0.9710
-0.1910 7.0677 -2.0016 0.9710
-0.4445 7.0563 -2.0016 0.9710
-1.2001 6.9677 -2.0016 0.9710
-1.6967 6.8637 -2.0016 0.9710
-1.9418 6.7985 -2.0016 0.9710
-2.6611 6.5504 -2.0016 0.9710
-2.8944 6.4508 -2.0016 0.9710
-3.5707 6.1024 -2.0016 0.9710
-3.7874 5.9704 -2.0016 0.9710
-4.2058 5.6834 -2.0016 0.9710
-4.6025 5.3672 -2.0016 0.9710
-5.4865 4.4596 -2.0016 0.9710
-6.0680 3.6290 -2.0016 0.9710
-6.1943 3.4089 -2.0016 0.9710
-6.3126 3.1845 -2.0016 0.9710
-6.4228 2.9559 -2.0016 0.9710
-6.5247 2.7236 -2.0016 0.9710
-6.7796 2.0068 -2.0016 0.9710
-6.9559 1.2667 -2.0016 0.9710
-6.9969 1.0163 -2.0016 0.9710
-7.0656 0.2586 -2.0016 0.9710
-7.0703 0.0050 -2.0016 0.9710
-7.0660 -0.2487 -2.0016 0.9710
-7.0525 -0.5020 -2.0016 0.9710
-7.0299 -0.7548 -2.0016 0.9710
-6.9983 -1.0065 -2.0016 0.9710
-6.9577 -1.2569 -2.0016 0.9710
-6.9081 -1.5057 -2.0016 0.9710
-6.7824 -1.9972 -2.0016 0.9710
-6.1434 -2.2994 -1.8570 0.9731
-6.0569 -2.5183 -1.8570 0.9731
-5.8608 -2.9462 -1.8570 0.9731
-5.6344 -3.3589 -1.8570 0.9731
-5.2409 -3.9448 -1.8570 0.9731
2.1512 -6.1416 -2.0016 0.9731
2.1990 -5.6227 -1.8570 0.9751
2.3993 -5.5402 -1.8570 0.9751
2.0758 -4.3576 -1.4846 0.9800
3.9892 -5.1413 -2.0016 0.9731
4.6837 -4.5178 -2.0016 0.9731
4.9956 -4.1703 -2.0016 0.9731
5.2818 -3.8013 -2.0016 0.9731
5.4148 -3.6094 -2.0016 0.9731
5.5408 -3.4128 -2.0016 0.9731
5.6596 -3.2118 -2.0016 0.9731
5.8754 -2.7977 -2.0016 0.9731
6.0609 -2.3692 -2.0016 0.9731
6.1420 -2.1502 -2.0016 0.9731
6.2804 -1.7042 -2.0016 0.9731
6.3864 -1.2495 -2.0016 0.9731
6.4271 -1.0195 -2.0016 0.9731
6.5069 -0.0897 -2.0016 0.9731
6.4184 1.0730 -2.0016 0.9731
6.3758 1.3026 -2.0016 0.9731
6.3249 1.5305 -2.0016 0.9731
6.2659 1.7565 -2.0016 0.9731
6.1989 1.9801 -2.0016 0.9731
6.1239 2.2013 -2.0016 0.9731
5.8519 2.8465 -2.0016 0.9731
5.3845 3.6544 -2.0016 0.9731
5.1086 4.0311 -2.0016 0.9731
4.6459 4.5566 -2.0016 0.9731
4.3072 4.8781 -2.0016 0.9731
3.9463 5.1744 -2.0016 0.9731
3.7581 5.3126 -2.0016 0.9731
3.5651 5.4440 -2.0016 0.9731
3.3675 5.5684 -2.0016 0.9731
3.1655 5.6857 -2.0016 0.9731
2.9595 5.7956 -2.0016 0.9731
2.7496 5.8980 -2.0016 0.9731
2.5363 5.9929 -2.0016 0.9731
2.1000 6.1593 -2.0016 0.9731
1.8777 6.2307 -2.0016 0.9731
1.6529 6.2941 -2.0016 0.9731
1.4260 6.3493 -2.0016 0.9731
0.7356 6.4658 -2.0016 0.9731
0.5031 6.4880 -2.0016 0.9731
0.2700 6.5019 -2.0016 0.9731
-0.4302 6.4932 -2.0016 0.9731
-1.1254 6.4094 -2.0016 0.9731
-1.3546 6.3649 -2.0016 0.9731
-1.5821 6.3122 -2.0016 0.9731
-2.0307 6.1825 -2.0016 0.9731
-2.2512 6.1057 -2.0016 0.9731
-2.4688 6.0210 -2.0016 0.9731
-2.8942 5.8285 -2.0016 0.9731
-3.5037 5.4837 -2.0016 0.9731
-3.8879 5.2184 -2.0016 0.9731
-4.0726 5.0755 -2.0016 0.9731
-4.4261 4.7704 -2.0016 0.9731
-4.7568 4.4408 -2.0016 0.9731
-4.9131 4.2672 -2.0016 0.9731
-5.3431 3.7146 -2.0016 0.9731
-5.7113 3.1190 -2.0016 0.9731
-6.0987 2.2699 -2.0016 0.9731
-6.3073 1.6015 -2.0016 0.9731
-6.3607 1.3742 -2.0016 0.9731
-6.4716 0.6828 -2.0016 0.9731
-6.4919 0.4501 -2.0016 0.9731
-6.5075 -0.0165 -2.0016 0.9731
-6.4895 -0.4831 -2.0016 0.9731
-6.4680 -0.7157 -2.0016 0.9731
-6.4382 -0.9473 -2.0016 0.9731
-6.4000 -1.1776 -2.0016 0.9731
-6.2991 -1.6335 -2.0016 0.9731
-6.2365 -1.8585 -2.0016 0.9731
-5.5672 -2.3359 -1.8570 0.9751
-5.2840 -2.9206 -1.8570 0.9751
-5.0609 -3.2920 -1.8570 0.9751
-4.9396 -3.4715 -1.8570 0.9751
-4.8119 -3.6464 -1.8570 0.9751
-4.6779 -3.8167 -1.8570 0.9751
-4.5380 -3.9821 -1.8570 0.9751
-4.3922 -4.1424 -1.8570 0.9751
-3.5824 -4.8597 -1.8570 0.9751
-3.4057 -4.9851 -1.8570 0.9751
-3.0395 -5.2165 -1.8570 0.9751
-2.6576 -5.4210 -1.8570 0.9751
-2.4614 -5.5129 -1.8570 0.9751
-2.2620 -5.5976 -1.8570 0.9751
-1.9992 -6.1928 -2.0016 0.9731
-1.7757 -6.2605 -2.0016 0.9731
-1.5500 -6.3202 -2.0016 0.9731
-1.3222 -6.3717 -2.0016 0.9731
-1.0928 -6.4151 -2.0016 0.9731
-0.3972 -6.4953 -2.0016 0.9731
0.0696 -6.5071 -2.0016 0.9731
0.3031 -6.5004 -2.0016 0.9731
0.7684 -6.4620 -2.0016 0.9731
0.9998 -6.4302 -2.0016 0.9731
1.2298 -6.3902 -2.0016 0.9731
1.6849 -6.2856 -2.0016 0.9731
2.1157 -4.0917 -1.4168 0.9809
2.2996 -4.0814 -1.4409 0.9806
3.5927 -5.4258 -2.0016 0.9731
4.1549 -5.0084 -2.0016 0.9731
4.8286 -4.3625 -2.0016 0.9731
4.9820 -4.1865 -2.0016 0.9731
5.4030 -3.6269 -2.0016 0.9731
5.5297 -3.4308 -2.0016 0.9731
5.8663 -2.8167 -2.0016 0.9731
5.9636 -2.6045 -2.0016 0.9731
6.0532 -2.3888 -2.0016 0.9731
6.2089 -1.9486 -2.0016 0.9731
6.2748 -1.7246 -2.0016 0.9731
6.4570 -0.8093 -2.0016 0.9731
6.4818 -0.5771 -2.0016 0.9731
6.5065 -0.1108 -2.0016 0.9731
6.4555 0.8211 -2.0016 0.9731
6.4219 1.0522 -2.0016 0.9731
6.3299 1.5100 -2.0016 0.9731
5.7559 3.0360 -2.0016 0.9731
5.6432 3.2405 -2.0016 0.9731
5.3963 3.6369 -2.0016 0.9731
5.1217 4.0145 -2.0016 0.9731
4.9743 4.1956 -2.0016 0.9731
4.8206 4.3714 -2.0016 0.9731
4.4947 4.7058 -2.0016 0.9731
3.3855 5.5575 -2.0016 0.9731
3.1840 5.6754 -2.0016 0.9731
2.9783 5.7859 -2.0016 0.9731
2.7688 5.8891 -2.0016 0.9731
2.3393 6.0725 -2.0016 0.9731
1.6733 6.2887 -2.0016 0.9731
1.4466 6.3446 -2.0016 0.9731
1.2181 6.3925 -2.0016 0.9731
0.9879 6.4321 -2.0016 0.9731
0.7565 6.4634 -2.0016 0.9731
0.5242 6.4863 -2.0016 0.9731
0.0577 6.5072 -2.0016 0.9731
-0.1758 6.5051 -2.0016 0.9731
-0.4091 6.4946 -2.0016 0.9731
-0.8738 6.4486 -2.0016 0.9731
-1.1046 6.4131 -2.0016 0.9731
-1.3339 6.3693 -2.0016 0.9731
-1.5616 6.3173 -2.0016 0.9731
-1.7872 6.2572 -2.0016 0.9731
-2.0106 6.1891 -2.0016 0.9731
-2.4492 6.0290 -2.0016 0.9731
-2.6640 5.9372 -2.0016 0.9731
-3.0828 5.7309 -2.0016 0.9731
-3.4859 5.4951 -2.0016 0.9731
-3.6808 5.3665 -2.0016 0.9731
-3.8710 5.2310 -2.0016 0.9731
-4.2361 4.9399 -2.0016 0.9731
-4.4106 4.7848 -2.0016 0.9731
-4.5794 4.6234 -2.0016 0.9731
-5.0497 4.1046 -2.0016 0.9731
-5.1937 3.9208 -2.0016 0.9731
-5.5849 3.3401 -2.0016 0.9731
-6.0913 2.2897 -2.0016 0.9731
-6.2399 1.8470 -2.0016 0.9731
-6.3562 1.3948 -2.0016 0.9731
-6.4022 1.1659 -2.0016 0.9731
-6.4399 0.9354 -2.0016 0.9731
-6.4904 0.4712 -2.0016 0.9731
-6.5031 0.2380 -2.0016 0.9731
-6.5075 0.0046 -2.0016 0.9731
-6.3044 -1.6131 -2.0016 0.9731
-6.2425 -1.8382 -2.0016 0.9731
-5.3942 -2.7117 -1.8570 0.9751
-4.9508 -3.4554 -1.8570 0.9751
1.8468 -5.2724 -1.8570 0.9767
2.2201 -5.1264 -1.8570 0.9767
2.0616 -4.3277 -1.5935 0.9800
2.3086 -4.0665 -1.5544 0.9805
2.9306 -4.7561 -1.8570 0.9767
3.2641 -4.5337 -1.8570 0.9767
3.4247 -4.4137 -1.8570 0.9767
4.1811 -4.3332 -2.0016 0.9749
4.3339 -4.1804 -2.0016 0.9749
4.4811 -4.0222 -2.0016 0.9749
4.7579 -3.6905 -2.0016 0.9749
4.8873 -3.5174 -2.0016 0.9749
5.0103 -3.3398 -2.0016 0.9749
5.2369 -2.9719 -2.0016 0.9749
5.3402 -2.7821 -2.0016 0.9749
5.5259 -2.3920 -2.0016 0.9749
5.6832 -1.9896 -2.0016 0.9749
5.8113 -1.5769 -2.0016 0.9749
5.8641 -1.3674 -2.0016 0.9749
5.9471 -0.9434 -2.0016 0.9749
5.9771 -0.7294 -2.0016 0.9749
5.9994 -0.5145 -2.0016 0.9749
6.0140 -0.2989 -2.0016 0.9749
6.0200 0.1331 -2.0016 0.9749
5.9949 0.5644 -2.0016 0.9749
5.9390 0.9929 -2.0016 0.9749
5.8525 1.4162 -2.0016 0.9749
5.7979 1.6253 -2.0016 0.9749
5.6665 2.0369 -2.0016 0.9749
5.5898 2.2389 -2.0016 0.9749
5.5058 2.4379 -2.0016 0.9749
5.4148 2.6339 -2.0016 0.9749
5.3168 2.8265 -2.0016 0.9749
5.2120 3.0154 -2.0016 0.9749
4.9823 3.3814 -2.0016 0.9749
4.8578 3.5580 -2.0016 0.9749
4.5902 3.8972 -2.0016 0.9749
4.4474 4.0594 -2.0016 0.9749
4.2989 4.2163 -2.0016 0.9749
4.1449 4.3678 -2.0016 0.9749
3.9855 4.5137 -2.0016 0.9749
3.8210 4.6538 -2.0016 0.9749
3.4774 4.9158 -2.0016 0.9749
3.2988 5.0374 -2.0016 0.9749
2.7384 5.3627 -2.0016 0.9749
2.5443 5.4575 -2.0016 0.9749
2.3468 5.5453 -2.0016 0.9749
2.1464 5.6259 -2.0016 0.9749
1.7374 5.7653 -2.0016 0.9749
0.8948 5.9546 -2.0016 0.9749
0.0338 6.0213 -2.0016 0.9749
-0.3980 6.0083 -2.0016 0.9749
-1.0413 5.9307 -2.0016 0.9749
-1.2534 5.8895 -2.0016 0.9749
-1.4639 5.8408 -2.0016 0.9749
-2.2844 5.5713 -2.0016 0.9749
-2.4828 5.4858 -2.0016 0.9749
-2.8698 5.2936 -2.0016 0.9749
-3.0579 5.1872 -2.0016 0.9749
-3.4220 4.9546 -2.0016 0.9749
-3.5975 4.8286 -2.0016 0.9749
-3.7684 4.6965 -2.0016 0.9749
-4.0955 4.4141 -2.0016 0.9749
-4.2512 4.2643 -2.0016 0.9749
-4.4015 4.1091 -2.0016 0.9749
-4.6848 3.7829 -2.0016 0.9749
-4.9440 3.4372 -2.0016 0.9749
-5.0642 3.2576 -2.0016 0.9749
-5.2847 2.8861 -2.0016 0.9749
-5.3849 2.6946 -2.0016 0.9749
-5.4781 2.4997 -2.0016 0.9749
-5.5642 2.3015 -2.0016 0.9749
-5.8362 1.4819 -2.0016 0.9749
-5.8857 1.2715 -2.0016 0.9749
-6.0070 0.4165 -2.0016 0.9749
-6.0170 -0.2313 -2.0016 0.9749
-5.9220 -1.0897 -2.0016 0.9749
-5.8286 -1.5115 -2.0016 0.9749
-5.7052 -1.9256 -2.0016 0.9749
-5.3199 -2.2322 -1.9177 0.9760
-4.8893 -2.7025 -1.8570 0.9767
-4.6829 -3.0461 -1.8570 0.9767
-4.5706 -3.2122 -1.8570 0.9767
-4.0641 -3.8330 -1.8570 0.9767
-3.9240 -3.9763 -1.8570 0.9767
-3.6288 -4.2475 -1.8570 0.9767
-3.3148 -4.4967 -1.8570 0.9767
-3.1514 -4.6128 -1.8570 0.9767
-2.9838 -4.7229 -1.8570 0.9767
-2.6375 -4.9247 -1.8570 0.9767
-2.4591 -5.0161 -1.8570 0.9767
-2.2776 -5.1011 -1.8570 0.9767
-1.9059 -5.2513 -1.8570 0.9767
-1.1351 -5.4700 -1.8570 0.9767
-0.7408 -5.5441 -1.8593 0.9767
-0.1407 -5.5847 -1.8570 0.9767
0.4602 -5.5675 -1.8570 0.9767
0.8583 -5.5202 -1.8570 0.9767
1.2519 -5.4444 -1.8570 0.9767
1.4464 -5.3960 -1.8570 0.9767
2.2034 -5.1336 -1.8570 0.9767
2.2914 -4.0668 -1.5517 0.9805
3.0842 -4.6579 -1.8570 0.9767
3.2494 -4.5443 -1.8570 0.9767
3.8446 -4.6343 -2.0016 0.9749
4.3203 -4.1944 -2.0016 0.9749
4.7459 -3.7059 -2.0016 0.9749
4.8758 -3.5333 -2.0016 0.9749
4.9995 -3.3560 -2.0016 0.9749
5.1167 -3.1745 -2.0016 0.9749
5.2273 -2.9889 -2.0016 0.9749
5.3311 -2.7994 -2.0016 0.9749
5.4281 -2.6064 -2.0016 0.9749
5.6768 -2.0080 -2.0016 0.9749
5.7451 -1.8031 -2.0016 0.9749
5.8061 -1.5958 -2.0016 0.9749
5.9056 -1.1753 -2.0016 0.9749
5.9440 -0.9627 -2.0016 0.9749
5.9977 -0.5340 -2.0016 0.9749
6.0130 -0.3184 -2.0016 0.9749
6.0204 0.1136 -2.0016 0.9749
6.0124 0.3295 -2.0016 0.9749
5.9733 0.7598 -2.0016 0.9749
5.9422 0.9736 -2.0016 0.9749
5.9034 1.1862 -2.0016 0.9749
5.8571 1.3972 -2.0016 0.9749
5.8032 1.6065 -2.0016 0.9749
5.6731 2.0185 -2.0016 0.9749
5.4233 2.6163 -2.0016 0.9749
5.3260 2.8092 -2.0016 0.9749
5.2218 2.9985 -2.0016 0.9749
4.9933 3.3652 -2.0016 0.9749
4.7391 3.7146 -2.0016 0.9749
4.6028 3.8823 -2.0016 0.9749
4.4605 4.0449 -2.0016 0.9749
4.3126 4.2023 -2.0016 0.9749
4.1590 4.3544 -2.0016 0.9749
4.0001 4.5008 -2.0016 0.9749
3.6671 4.7760 -2.0016 0.9749
3.3151 5.0267 -2.0016 0.9749
3.1327 5.1424 -2.0016 0.9749
1.5484 5.8190 -2.0016 0.9749
1.1271 5.9150 -2.0016 0.9749
0.9142 5.9516 -2.0016 0.9749
0.2694 6.0154 -2.0016 0.9749
0.0534 6.0212 -2.0016 0.9749
-0.3785 6.0095 -2.0016 0.9749
-0.8085 5.9669 -2.0016 0.9749
-1.0221 5.9341 -2.0016 0.9749
-1.2343 5.8936 -2.0016 0.9749
-1.6538 5.7899 -2.0016 0.9749
-1.8604 5.7268 -2.0016 0.9749
-2.0647 5.6564 -2.0016 0.9749
-2.2663 5.5787 -2.0016 0.9749
-2.6605 5.4018 -2.0016 0.9749
-3.0410 5.1971 -2.0016 0.9749
-3.4059 4.9657 -2.0016 0.9749
-3.5818 4.8403 -2.0016 0.9749
-4.2374 4.2781 -2.0016 0.9749
-4.3881 4.1233 -2.0016 0.9749
-4.8058 3.6280 -2.0016 0.9749
-5.3761 2.7121 -2.0016 0.9749
-5.4699 2.5174 -2.0016 0.9749
-5.6364 2.1187 -2.0016 0.9749
-5.7738 1.7091 -2.0016 0.9749
-5.8314 1.5008 -2.0016 0.9749
-5.8815 1.2906 -2.0016 0.9749
-5.9240 1.0788 -2.0016 0.9749
-5.9861 0.6512 -2.0016 0.9749
-6.0056 0.4360 -2.0016 0.9749
-6.0174 0.2203 -2.0016 0.9749
-6.0214 0.0042 -2.0016 0.9749
-5.8833 -1.2824 -2.0016 0.9749
-5.7762 -1.7009 -2.0016 0.9749
-5.7115 -1.9071 -2.0016 0.9749
-5.6394 -2.1108 -2.0016 0.9749
-4.8981 -2.6866 -1.8570 0.9767
-4.6928 -3.0309 -1.8570 0.9767
-4.5810 -3.1973 -1.8570 0.9767
1.5397 -4.9593 -1.8570 0.9782
1.7166 -4.9008 -1.8570 0.9782
1.8913 -4.8361 -1.8570 0.9782
2.1196 -4.0669 -1.6400 0.9807
2.2992 -4.0500 -1.6654 0.9804
2.8809 -4.3203 -1.8570 0.9782
3.0341 -4.2142 -1.8570 0.9782
3.3285 -3.9858 -1.8570 0.9782
3.8864 -4.0278 -2.0016 0.9765
4.0284 -3.8858 -2.0016 0.9765
4.1653 -3.7387 -2.0016 0.9765
4.2967 -3.5869 -2.0016 0.9765
4.4226 -3.4304 -2.0016 0.9765
4.5429 -3.2695 -2.0016 0.9765
4.7656 -2.9353 -2.0016 0.9765
4.9638 -2.5860 -2.0016 0.9765
5.0534 -2.4063 -2.0016 0.9765
5.2130 -2.0377 -2.0016 0.9765
5.4017 -1.4658 -2.0016 0.9765
5.4929 -1.0747 -2.0016 0.9765
5.5766 -0.4782 -2.0016 0.9765
5.5902 -0.2779 -2.0016 0.9765
5.5966 -0.0771 -2.0016 0.9765
5.5724 0.5247 -2.0016 0.9765
5.5500 0.7243 -2.0016 0.9765
5.5205 0.9229 -2.0016 0.9765
5.4401 1.3164 -2.0016 0.9765
5.2671 1.8933 -2.0016 0.9765
4.8447 2.8029 -2.0016 0.9765
4.2667 3.6225 -2.0016 0.9765
4.1340 3.7733 -2.0016 0.9765
3.9959 3.9192 -2.0016 0.9765
3.0663 4.6824 -2.0016 0.9765
1.4217 5.4135 -2.0016 0.9765
1.0298 5.5015 -2.0016 0.9765
0.8318 5.5349 -2.0016 0.9765
0.2322 5.5923 -2.0016 0.9765
0.0314 5.5970 -2.0016 0.9765
-0.5701 5.5680 -2.0016 0.9765
-0.7695 5.5439 -2.0016 0.9765
-1.1651 5.4745 -2.0016 0.9765
-1.5547 5.3768 -2.0016 0.9765
-1.7466 5.3176 -2.0016 0.9765
-2.3078 5.0992 -2.0016 0.9765
-2.4893 5.0131 -2.0016 0.9765
-2.6675 4.9205 -2.0016 0.9765
-3.0135 4.7166 -2.0016 0.9765
-3.1808 4.6054 -2.0016 0.9765
-3.6572 4.2370 -2.0016 0.9765
-4.0913 3.8195 -2.0016 0.9765
-4.2257 3.6703 -2.0016 0.9765
-4.3547 3.5163 -2.0016 0.9765
-4.4780 3.3578 -2.0016 0.9765
-4.5956 3.1950 -2.0016 0.9765
-4.7073 3.0280 -2.0016 0.9765
-4.8129 2.8572 -2.0016 0.9765
-4.9123 2.6826 -2.0016 0.9765
-5.0054 2.5047 -2.0016 0.9765
-5.1721 2.1393 -2.0016 0.9765
-5.2455 1.9524 -2.0016 0.9765
-5.3720 1.5712 -2.0016 0.9765
-5.4250 1.3775 -2.0016 0.9765
-5.4709 1.1819 -2.0016 0.9765
-5.5415 0.7866 -2.0016 0.9765
-5.5837 0.3872 -2.0016 0.9765
-5.5940 0.1866 -2.0016 0.9765
-5.5930 -0.2150 -2.0016 0.9765
-5.5816 -0.4156 -2.0016 0.9765
-5.5631 -0.6155 -2.0016 0.9765
-5.5047 -1.0129 -2.0016 0.9765
-5.4648 -1.2097 -2.0016 0.9765
-5.3032 -1.7899 -2.0016 0.9765
-5.2355 -1.9790 -2.0016 0.9765
-5.1612 -2.1656 -2.0016 0.9765
-4.8323 -2.2347 -1.9039 0.9776
-4.6320 -2.3474 -1.8570 0.9782
-3.2292 -4.0666 -1.8570 0.9782
-3.0812 -4.1798 -1.8570 0.9782
-2.9293 -4.2877 -1.8570 0.9782
-2.4516 -4.5776 -1.8570 0.9782
-1.9456 -4.8145 -1.8570 0.9782
-0.8720 -5.1191 -1.8570 0.9782
-0.6878 -5.1470 -1.8570 0.9782
-0.5027 -5.1684 -1.8570 0.9782
-0.3169 -5.1831 -1.8570 0.9782
0.2418 -5.1872 -1.8570 0.9782
0.4278 -5.1751 -1.8570 0.9782
0.6132 -5.1565 -1.8570 0.9782
0.9814 -5.0992 -1.8570 0.9782
2.1096 -4.0799 -1.6425 0.9807
3.0204 -4.2240 -1.8570 0.9782
4.0158 -3.8988 -2.0016 0.9765
5.0456 -2.4227 -2.0016 0.9765
5.2767 -1.8665 -2.0016 0.9765
5.4467 -1.2887 -2.0016 0.9765
5.5251 -0.8948 -2.0016 0.9765
5.5750 -0.4963 -2.0016 0.9765
5.5893 -0.2960 -2.0016 0.9765
5.5887 0.3063 -2.0016 0.9765
5.4874 1.1026 -2.0016 0.9765
5.4443 1.2987 -2.0016 0.9765
5.3942 1.4932 -2.0016 0.9765
5.0411 2.4320 -2.0016 0.9765
4.8538 2.7872 -2.0016 0.9765
4.7506 2.9595 -2.0016 0.9765
4.6414 3.1281 -2.0016 0.9765
4.5262 3.2926 -2.0016 0.9765
4.2784 3.6087 -2.0016 0.9765
3.7182 4.1836 -2.0016 0.9765
3.5657 4.3143 -2.0016 0.9765
3.0815 4.6724 -2.0016 0.9765
2.7385 4.8814 -2.0016 0.9765
2.5616 4.9765 -2.0016 0.9765
2.1982 5.1474 -2.0016 0.9765
1.8234 5.2918 -2.0016 0.9765
1.6324 5.3538 -2.0016 0.9765
0.6507 5.5591 -2.0016 0.9765
0.2504 5.5915 -2.0016 0.9765
-0.1512 5.5950 -2.0016 0.9765
-0.3519 5.5860 -2.0016 0.9765
-1.5372 5.3819 -2.0016 0.9765
-1.7293 5.3232 -2.0016 0.9765
-2.2913 5.1066 -2.0016 0.9765
-2.4730 5.0211 -2.0016 0.9765
-2.9982 4.7263 -2.0016 0.9765
-3.9388 3.9766 -2.0016 0.9765
-4.3432 3.5304 -2.0016 0.9765
-4.5852 3.2099 -2.0016 0.9765
-4.8036 2.8728 -2.0016 0.9765
-5.1651 2.1561 -2.0016 0.9765
-5.3065 1.7802 -2.0016 0.9765
-5.3669 1.5886 -2.0016 0.9765
-5.4205 1.3951 -2.0016 0.9765
-5.4670 1.1997 -2.0016 0.9765
-5.5065 1.0028 -2.0016 0.9765
-5.5824 0.4053 -2.0016 0.9765
-5.5971 0.0039 -2.0016 0.9765
-5.5936 -0.1969 -2.0016 0.9765
-5.5401 -0.7968 -2.0016 0.9765
-5.5079 -0.9950 -2.0016 0.9765
-5.4687 -1.1920 -2.0016 0.9765
-5.3691 -1.5811 -2.0016 0.9765
-5.3090 -1.7727 -2.0016 0.9765
-4.8690 -2.2326 -1.9155 0.9775
-4.6395 -2.3323 -1.8570 0.9782
-4.5529 -2.4973 -1.8570 0.9782
-4.3621 -2.8173 -1.8570 0.9782
-4.2582 -2.9720 -1.8570 0.9782
-4.1488 -3.1229 -1.8570 0.9782
1.7650 -4.5129 -1.8570 0.9795
2.0011 -4.2007 -1.7831 0.9803
2.0847 -3.9999 -1.7285 0.9809
2.9706 -3.8285 -1.8570 0.9795
3.1060 -3.7194 -1.8570 0.9795
3.2375 -3.6056 -1.8570 0.9795
4.0096 -3.3472 -2.0016 0.9779
4.1271 -3.2012 -2.0016 0.9779
4.2393 -3.0510 -2.0016 0.9779
4.3460 -2.8970 -2.0016 0.9779
4.5425 -2.5779 -2.0016 0.9779
5.0407 -1.3678 -2.0016 0.9779
5.0866 -1.1861 -2.0016 0.9779
5.1585 -0.8183 -2.0016 0.9779
5.1846 -0.6327 -2.0016 0.9779
5.2218 0.1155 -2.0016 0.9779
5.1515 0.8612 -2.0016 0.9779
4.9754 1.5893 -2.0016 0.9779
4.9151 1.7668 -2.0016 0.9779
4.8486 1.9420 -2.0016 0.9779
4.6968 2.2847 -2.0016 0.9779
4.6118 2.4517 -2.0016 0.9779
4.5209 2.6156 -2.0016 0.9779
4.4242 2.7761 -2.0016 0.9779
4.2137 3.0862 -2.0016 0.9779
4.1003 3.2354 -2.0016 0.9779
3.9815 3.3804 -2.0016 0.9779
3.7289 3.6573 -2.0016 0.9779
3.4570 3.9152 -2.0016 0.9779
3.3143 4.0367 -2.0016 0.9779
2.8614 4.3695 -2.0016 0.9779
2.7028 4.4693 -2.0016 0.9779
2.3753 4.6516 -2.0016 0.9779
2.0357 4.8100 -2.0016 0.9779
1.8618 4.8799 -2.0016 0.9779
1.3267 5.0517 -2.0016 0.9779
1.1446 5.0961 -2.0016 0.9779
0.9610 5.1339 -2.0016 0.9779
0.7762 5.1650 -2.0016 0.9779
0.5904 5.1896 -2.0016 0.9779
0.2167 5.2185 -2.0016 0.9779
0.0293 5.2230 -2.0016 0.9779
-0.1581 5.2206 -2.0016 0.9779
-0.3453 5.2116 -2.0016 0.9779
-0.5320 5.1959 -2.0016 0.9779
-0.7181 5.1734 -2.0016 0.9779
-0.9032 5.1443 -2.0016 0.9779
-1.4508 5.0175 -2.0016 0.9779
-1.6298 4.9622 -2.0016 0.9779
-1.8068 4.9005 -2.0016 0.9779
-1.9815 4.8326 -2.0016 0.9779
-2.1536 4.7584 -2.0016 0.9779
-2.8121 4.4014 -2.0016 0.9779
-3.8179 3.5642 -2.0016 0.9779
-3.9433 3.4250 -2.0016 0.9779
-4.4912 2.6662 -2.0016 0.9779
-4.6709 2.3373 -2.0016 0.9779
-4.7517 2.1682 -2.0016 0.9779
-4.8950 1.8219 -2.0016 0.9779
-5.1052 1.1029 -2.0016 0.9779
-5.1415 0.9191 -2.0016 0.9779
-5.1712 0.7340 -2.0016 0.9779
-5.2230 -0.0133 -2.0016 0.9779
-5.2192 -0.2007 -2.0016 0.9779
-5.2086 -0.3878 -2.0016 0.9779
-5.0996 -1.1289 -2.0016 0.9779
-5.0055 -1.4917 -2.0016 0.9779
-4.9488 -1.6703 -2.0016 0.9779
-4.8856 -1.8468 -2.0016 0.9779
-4.7406 -2.1923 -2.0016 0.9779
-4.4127 -2.2362 -1.8958 0.9790
-4.2410 -2.3441 -1.8570 0.9795
-4.1542 -2.4948 -1.8570 0.9795
-4.0620 -2.6422 -1.8570 0.9795
-3.9646 -2.7863 -1.8570 0.9795
-3.8621 -2.9267 -1.8570 0.9795
-3.7546 -3.0634 -1.8570 0.9795
-3.6423 -3.1961 -1.8570 0.9795
-3.5253 -3.3247 -1.8570 0.9795
-3.4037 -3.4491 -1.8570 0.9795
-3.0134 -3.7948 -1.8570 0.9795
-2.7335 -4.0012 -1.8570 0.9795
-2.4396 -4.1869 -1.8570 0.9795
-2.1330 -4.3510 -1.8570 0.9795
-1.9756 -4.4248 -1.8570 0.9795
-1.8155 -4.4928 -1.8570 0.9795
-1.6532 -4.5550 -1.8570 0.9795
-1.4887 -4.6114 -1.8570 0.9795
-0.9846 -4.7447 -1.8570 0.9795
-0.6418 -4.8031 -1.8570 0.9795
-0.4691 -4.8230 -1.8570 0.9795
-0.1220 -4.8442 -1.8570 0.9795
0.2257 -4.8405 -1.8570 0.9795
0.3992 -4.8293 -1.8570 0.9795
0.5722 -4.8119 -1.8570 0.9795
0.7445 -4.7882 -1.8570 0.9795
0.9158 -4.7584 -1.8570 0.9795
1.0859 -4.7225 -1.8570 0.9795
1.2546 -4.6805 -1.8570 0.9795
1.7503 -4.5186 -1.8570 0.9795
2.2539 -4.0004 -1.7596 0.9805
2.6753 -4.0403 -1.8570 0.9795
2.9581 -3.8381 -1.8570 0.9795
3.0939 -3.7295 -1.8570 0.9795
3.8755 -3.5015 -2.0016 0.9779
3.9987 -3.3602 -2.0016 0.9779
4.1167 -3.2145 -2.0016 0.9779
4.2293 -3.0648 -2.0016 0.9779
4.3366 -2.9111 -2.0016 0.9779
4.7084 -2.2608 -2.0016 0.9779
4.9241 -1.7418 -2.0016 0.9779
4.9834 -1.5640 -2.0016 0.9779
5.0363 -1.3842 -2.0016 0.9779
5.2025 -0.4632 -2.0016 0.9779
5.2223 -0.0889 -2.0016 0.9779
5.1813 0.6590 -2.0016 0.9779
5.1543 0.8445 -2.0016 0.9779
5.1207 1.0289 -2.0016 0.9779
5.0337 1.3934 -2.0016 0.9779
4.7826 2.0992 -2.0016 0.9779
4.7042 2.2694 -2.0016 0.9779
4.6198 2.4367 -2.0016 0.9779
4.5294 2.6009 -2.0016 0.9779
4.4332 2.7618 -2.0016 0.9779
4.2237 3.0725 -2.0016 0.9779
4.1107 3.2221 -2.0016 0.9779
3.8691 3.5086 -2.0016 0.9779
3.6075 3.7770 -2.0016 0.9779
3.4697 3.9040 -2.0016 0.9779
3.3274 4.0260 -2.0016 0.9779
3.1808 4.1428 -2.0016 0.9779
3.0302 4.2542 -2.0016 0.9779
2.8756 4.3602 -2.0016 0.9779
2.7173 4.4605 -2.0016 0.9779
2.5555 4.5552 -2.0016 0.9779
2.3904 4.6439 -2.0016 0.9779
2.2223 4.7267 -2.0016 0.9779
2.0513 4.8034 -2.0016 0.9779
1.8776 4.8739 -2.0016 0.9779
1.7015 4.9381 -2.0016 0.9779
1.5233 4.9960 -2.0016 0.9779
1.1611 5.0923 -2.0016 0.9779
0.7929 5.1625 -2.0016 0.9779
0.4207 5.2061 -2.0016 0.9779
0.2336 5.2178 -2.0016 0.9779
0.0463 5.2228 -2.0016 0.9779
-0.3283 5.2127 -2.0016 0.9779
-0.5152 5.1976 -2.0016 0.9779
-1.0706 5.1121 -2.0016 0.9779
-1.2534 5.0704 -2.0016 0.9779
-1.7909 4.9064 -2.0016 0.9779
-1.9658 4.8390 -2.0016 0.9779
-2.1381 4.7653 -2.0016 0.9779
-2.4744 4.5997 -2.0016 0.9779
-2.6378 4.5080 -2.0016 0.9779
-2.7978 4.4105 -2.0016 0.9779
-3.1069 4.1985 -2.0016 0.9779
-3.6755 3.7109 -2.0016 0.9779
-3.9322 3.4377 -2.0016 0.9779
-4.1686 3.1469 -2.0016 0.9779
-4.3835 2.8399 -2.0016 0.9779
-4.6633 2.3525 -2.0016 0.9779
-4.7447 2.1836 -2.0016 0.9779
-4.9518 1.6612 -2.0016 0.9779
-5.0082 1.4825 -2.0016 0.9779
-5.0582 1.3018 -2.0016 0.9779
-5.1688 0.7508 -2.0016 0.9779
-5.1924 0.5649 -2.0016 0.9779
-5.2093 0.3782 -2.0016 0.9779
-5.2198 -0.1837 -2.0016 0.9779
-5.1932 -0.5576 -2.0016 0.9779
-5.1398 -0.9285 -2.0016 0.9779
-5.1032 -1.1123 -2.0016 0.9779
-5.0600 -1.2947 -2.0016 0.9779
-4.8916 -1.8309 -2.0016 0.9779
-4.8228 -2.0052 -2.0016 0.9779
-4.7477 -2.1770 -2.0016 0.9779
-4.4445 -2.2343 -1.9063 0.9789
-4.2486 -2.3304 -1.8570 0.9795
-4.0706 -2.6290 -1.8570 0.9795
-3.8716 -2.9142 -1.8570 0.9795
1.3453 -4.3332 -1.8570 0.9806
1.6526 -4.2256 -1.8570 0.9806
2.0847 -3.9999 -1.8461 0.9807
2.2400 -3.9457 -1.8570 0.9806
2.3802 -3.8628 -1.8570 0.9806
2.5172 -3.7749 -1.8570 0.9806
2.6510 -3.6822 -1.8570 0.9806
3.0313 -3.3760 -1.8570 0.9806
3.1505 -3.2651 -1.8570 0.9806
3.9694 -2.8568 -2.0016 0.9791
4.0693 -2.7125 -2.0016 0.9791
4.3372 -2.2596 -2.0016 0.9791
4.4155 -2.1025 -2.0016 0.9791
4.5549 -1.7805 -2.0016 0.9791
4.7198 -1.2808 -2.0016 0.9791
4.7995 -0.9390 -2.0016 0.9791
4.8301 -0.7662 -2.0016 0.9791
4.8845 -0.2428 -2.0016 0.9791
4.8893 0.1081 -2.0016 0.9791
4.8236 0.8064 -2.0016 0.9791
4.7915 0.9789 -2.0016 0.9791
4.7533 1.1502 -2.0016 0.9791
4.7090 1.3200 -2.0016 0.9791
4.6586 1.4881 -2.0016 0.9791
4.5399 1.8183 -2.0016 0.9791
4.4717 1.9801 -2.0016 0.9791
4.3978 2.1392 -2.0016 0.9791
4.3182 2.2956 -2.0016 0.9791
4.0466 2.7463 -2.0016 0.9791
3.9454 2.8897 -2.0016 0.9791
3.7281 3.1652 -2.0016 0.9791
3.6121 3.2969 -2.0016 0.9791
3.4915 3.4244 -2.0016 0.9791
3.3664 3.5475 -2.0016 0.9791
3.2369 3.6660 -2.0016 0.9791
2.6792 4.0913 -2.0016 0.9791
2.5307 4.1848 -2.0016 0.9791
2.3790 4.2729 -2.0016 0.9791
2.2241 4.3555 -2.0016 0.9791
1.9061 4.5038 -2.0016 0.9791
1.7433 4.5693 -2.0016 0.9791
1.5782 4.6289 -2.0016 0.9791
1.0717 4.7716 -2.0016 0.9791
0.8998 4.8070 -2.0016 0.9791
0.5528 4.8592 -2.0016 0.9791
0.0275 4.8904 -2.0016 0.9791
-0.1480 4.8883 -2.0016 0.9791
-0.8457 4.8168 -2.0016 0.9791
-1.0180 4.7834 -2.0016 0.9791
-1.3584 4.6981 -2.0016 0.9791
-1.5261 4.6463 -2.0016 0.9791
-1.6918 4.5886 -2.0016 0.9791
-1.8553 4.5249 -2.0016 0.9791
-2.1750 4.3802 -2.0016 0.9791
-2.3308 4.2994 -2.0016 0.9791
-2.6331 4.1211 -2.0016 0.9791
-2.9218 3.9217 -2.0016 0.9791
-3.0607 3.8144 -2.0016 0.9791
-3.1955 3.7021 -2.0016 0.9791
-3.3263 3.5851 -2.0016 0.9791
-3.4528 3.4634 -2.0016 0.9791
-3.8049 3.0724 -2.0016 0.9791
-3.9127 2.9339 -2.0016 0.9791
-4.2053 2.4965 -2.0016 0.9791
-4.3735 2.1885 -2.0016 0.9791
-4.4492 2.0302 -2.0016 0.9791
-4.5192 1.8692 -2.0016 0.9791
-4.7401 1.2036 -2.0016 0.9791
-2.1636 0.3868 -0.8996 0.9905
-1.9572 0.2065 -0.8055 0.9915
-1.9515 0.1353 -0.8006 0.9916
-1.9290 0.0643 -0.7899 0.9917
-1.9537 -0.1454 -0.8018 0.9916
-1.9431 -0.2859 -0.8038 0.9915
-4.7749 -1.0570 -2.0016 0.9791
-4.6868 -1.3967 -2.0016 0.9791
-4.5746 -1.7292 -2.0016 0.9791
-4.3623 -2.2107 -2.0016 0.9791
-3.8897 -2.3360 -1.8570 0.9806
-3.8034 -2.4740 -1.8570 0.9806
-3.6162 -2.7404 -1.8570 0.9806
-3.5156 -2.8684 -1.8570 0.9806
-3.1870 -3.2295 -1.8570 0.9806
-2.9472 -3.4497 -1.8570 0.9806
-2.6923 -3.6522 -1.8570 0.9806
-2.2842 -3.9203 -1.8570 0.9806
-1.9972 -4.0740 -1.8570 0.9806
-1.7000 -4.2068 -1.8570 0.9806
-1.5479 -4.2650 -1.8570 0.9806
-1.3939 -4.3178 -1.8570 0.9806
-1.0807 -4.4067 -1.8570 0.9806
-0.7619 -4.4728 -1.8570 0.9806
-0.4392 -4.5159 -1.8570 0.9806
-0.1143 -4.5358 -1.8570 0.9806
0.2113 -4.5323 -1.8570 0.9806
0.5358 -4.5055 -1.8570 0.9806
1.0168 -4.4218 -1.8570 0.9806
1.1748 -4.3825 -1.8570 0.9806
1.3312 -4.3376 -1.8570 0.9806
1.4860 -4.2870 -1.8570 0.9806
1.7896 -4.1694 -1.8570 0.9806
2.3676 -3.8705 -1.8570 0.9806
2.7698 -3.5937 -1.8570 0.9806
2.8970 -3.4920 -1.8570 0.9806
3.1399 -3.2753 -1.8570 0.9806
3.6288 -3.2785 -2.0016 0.9791
3.7441 -3.1462 -2.0016 0.9791
3.8546 -3.0099 -2.0016 0.9791
4.3298 -2.2736 -2.0016 0.9791
4.4086 -2.1168 -2.0016 0.9791
4.4817 -1.9573 -2.0016 0.9791
4.6106 -1.6309 -2.0016 0.9791
4.6661 -1.4644 -2.0016 0.9791
4.7156 -1.2961 -2.0016 0.9791
4.7591 -1.1260 -2.0016 0.9791
4.7964 -0.9546 -2.0016 0.9791
4.8276 -0.7819 -2.0016 0.9791
4.8525 -0.6082 -2.0016 0.9791
4.8898 -0.0832 -2.0016 0.9791
4.8832 0.2676 -2.0016 0.9791
4.8704 0.4426 -2.0016 0.9791
4.8514 0.6171 -2.0016 0.9791
4.8262 0.7908 -2.0016 0.9791
4.3257 2.2816 -2.0016 0.9791
4.2410 2.4353 -2.0016 0.9791
3.9548 2.8769 -2.0016 0.9791
3.8490 3.0170 -2.0016 0.9791
3.6228 3.2852 -2.0016 0.9791
3.3779 3.5365 -2.0016 0.9791
3.2488 3.6554 -2.0016 0.9791
2.9783 3.8790 -2.0016 0.9791
2.8372 3.9834 -2.0016 0.9791
2.3928 4.2652 -2.0016 0.9791
2.0808 4.4258 -2.0016 0.9791
1.7581 4.5636 -2.0016 0.9791
1.5932 4.6237 -2.0016 0.9791
1.4263 4.6779 -2.0016 0.9791
1.2575 4.7261 -2.0016 0.9791
1.0872 4.7681 -2.0016 0.9791
0.9154 4.8041 -2.0016 0.9791
0.7425 4.8338 -2.0016 0.9791
0.5686 4.8573 -2.0016 0.9791
0.3939 4.8746 -2.0016 0.9791
0.0434 4.8903 -2.0016 0.9791
-0.3074 4.8808 -2.0016 0.9791
-0.8301 4.8195 -2.0016 0.9791
-1.1736 4.7476 -2.0016 0.9791
-1.3431 4.7024 -2.0016 0.9791
-1.5110 4.6512 -2.0016 0.9791
-1.6769 4.5940 -2.0016 0.9791
-2.3168 4.3069 -2.0016 0.9791
-2.4698 4.2210 -2.0016 0.9791
-2.9091 3.9312 -2.0016 0.9791
-3.4415 3.4746 -2.0016 0.9791
-3.6818 3.2189 -2.0016 0.9791
-3.9032 2.9466 -2.0016 0.9791
-4.0064 2.8046 -2.0016 0.9791
-4.1972 2.5101 -2.0016 0.9791
-4.4426 2.0446 -2.0016 0.9791
-4.5778 1.7208 -2.0016 0.9791
-4.6366 1.5554 -2.0016 0.9791
-4.7362 1.2189 -2.0016 0.9791
-2.1771 0.3965 -0.9057 0.9905
-1.9442 0.2824 -0.8040 0.9915
-1.9567 0.2129 -0.8056 0.9915
-1.9529 0.1418 -0.8014 0.9916
-1.9315 0.0707 -0.7910 0.9917
-1.8985 0.0013 -0.7770 0.9918
-1.9304 -0.0679 -0.7906 0.9917
-1.9449 -0.2797 -0.8042 0.9915
-4.6913 -1.3815 -2.0016 0.9791
-4.5802 -1.7143 -2.0016 0.9791
-4.5157 -1.8775 -2.0016 0.9791
-4.4455 -2.0384 -2.0016 0.9791
-4.3695 -2.1965 -2.0016 0.9791
-3.8973 -2.3233 -1.8570 0.9806
-3.8114 -2.4617 -1.8570 0.9806
-3.6251 -2.7286 -1.8570 0.9806
1.6933 -3.9100 -1.8570 0.9816
2.1036 -3.7054 -1.8570 0.9816
2.2352 -3.6276 -1.8570 0.9816
2.3639 -3.5450 -1.8570 0.9816
2.4896 -3.4579 -1.8570 0.9816
2.9586 -3.0662 -1.8570 0.9816
3.5256 -2.9432 -2.0016 0.9802
3.6290 -2.8148 -2.0016 0.9802
3.7276 -2.6828 -2.0016 0.9802
3.9943 -2.2667 -2.0016 0.9802
4.2147 -1.8244 -2.0016 0.9802
4.3347 -1.5175 -2.0016 0.9802
4.4324 -1.2028 -2.0016 0.9802
4.4727 -1.0430 -2.0016 0.9802
4.5915 0.1015 -2.0016 0.9802
4.5849 0.2662 -2.0016 0.9802
4.5298 0.7573 -2.0016 0.9802
4.4997 0.9193 -2.0016 0.9802
4.4638 1.0802 -2.0016 0.9802
4.3219 1.5536 -2.0016 0.9802
4.1994 1.8595 -2.0016 0.9802
4.0552 2.1558 -2.0016 0.9802
3.9753 2.2999 -2.0016 0.9802
3.8902 2.4411 -2.0016 0.9802
3.5010 2.9725 -2.0016 0.9802
3.3921 3.0961 -2.0016 0.9802
3.2789 3.2159 -2.0016 0.9802
3.0398 3.4427 -2.0016 0.9802
2.7851 3.6518 -2.0016 0.9802
2.6523 3.7494 -2.0016 0.9802
1.7900 4.2295 -2.0016 0.9802
1.4821 4.3470 -2.0016 0.9802
1.3252 4.3973 -2.0016 0.9802
1.1666 4.4420 -2.0016 0.9802
0.3551 4.5789 -2.0016 0.9802
0.1906 4.5887 -2.0016 0.9802
0.0258 4.5926 -2.0016 0.9802
-0.1390 4.5906 -2.0016 0.9802
-0.3036 4.5826 -2.0016 0.9802
-0.9560 4.4921 -2.0016 0.9802
-1.2757 4.4119 -2.0016 0.9802
-1.5888 4.3091 -2.0016 0.9802
-1.7423 4.2493 -2.0016 0.9802
-1.8937 4.1841 -2.0016 0.9802
-2.1888 4.0375 -2.0016 0.9802
-2.3323 3.9564 -2.0016 0.9802
-2.4727 3.8702 -2.0016 0.9802
-2.7439 3.6829 -2.0016 0.9802
-2.8743 3.5821 -2.0016 0.9802
-3.1237 3.3667 -2.0016 0.9802
-3.3571 3.1341 -2.0016 0.9802
-3.4674 3.0116 -2.0016 0.9802
-3.5732 2.8853 -2.0016 0.9802
-3.6744 2.7552 -2.0016 0.9802
-3.8625 2.4846 -2.0016 0.9802
-3.9492 2.3444 -2.0016 0.9802
-4.1782 1.9065 -2.0016 0.9802
-1.5701 0.4592 -0.7129 0.9929
-1.5202 0.3284 -0.6778 0.9932
-1.5294 0.1060 -0.6681 0.9933
-1.5287 -0.0588 -0.6667 0.9933
-1.5292 -0.1138 -0.6683 0.9933
-1.4984 -0.2757 -0.6640 0.9934
-4.2350 -1.7770 -2.0016 0.9802
-3.5718 -2.3233 -1.8570 0.9816
-3.4861 -2.4500 -1.8570 0.9816
-3.3960 -2.5735 -1.8570 0.9816
-3.3015 -2.6937 -1.8570 0.9816
-2.9929 -3.0328 -1.8570 0.9816
-2.7677 -3.2396 -1.8570 0.9816
-2.6497 -3.3368 -1.8570 0.9816
-2.5283 -3.4298 -1.8570 0.9816
-2.2758 -3.6022 -1.8570 0.9816
-2.1451 -3.6815 -1.8570 0.9816
-2.0117 -3.7561 -1.8570 0.9816
-1.7371 -3.8907 -1.8570 0.9816
-1.5964 -3.9506 -1.8570 0.9816
-1.3090 -4.0549 -1.8570 0.9816
-1.0149 -4.1383 -1.8570 0.9816
-0.8658 -4.1720 -1.8570 0.9816
-0.7155 -4.2004 -1.8570 0.9816
-0.5644 -4.2234 -1.8570 0.9816
-0.4125 -4.2409 -1.8570 0.9816
-0.1073 -4.2596 -1.8570 0.9816
0.0456 -4.2607 -1.8570 0.9816
0.1984 -4.2563 -1.8570 0.9816
0.5031 -4.2311 -1.8570 0.9816
0.8052 -4.1841 -1.8570 0.9816
1.1032 -4.1156 -1.8570 0.9816
1.3955 -4.0259 -1.8570 0.9816
1.9571 -3.7849 -1.8570 0.9816
2.0916 -3.7122 -1.8570 0.9816
2.6011 -3.3749 -1.8570 0.9816
2.7205 -3.2794 -1.8570 0.9816
3.1617 -2.8565 -1.8570 0.9816
3.7189 -2.6949 -2.0016 0.9802
3.8132 -2.5597 -2.0016 0.9802
4.0661 -2.1352 -2.0016 0.9802
4.1401 -1.9879 -2.0016 0.9802
4.2088 -1.8381 -2.0016 0.9802
4.4693 -1.0575 -2.0016 0.9802
4.5570 -0.5711 -2.0016 0.9802
4.5746 -0.4073 -2.0016 0.9802
4.5858 0.2513 -2.0016 0.9802
4.5560 0.5795 -2.0016 0.9802
4.5322 0.7426 -2.0016 0.9802
4.5027 0.9047 -2.0016 0.9802
4.4262 1.2253 -2.0016 0.9802
4.2689 1.6938 -2.0016 0.9802
4.2054 1.8458 -2.0016 0.9802
4.1365 1.9955 -2.0016 0.9802
4.0622 2.1426 -2.0016 0.9802
3.9827 2.2870 -2.0016 0.9802
3.8981 2.4284 -2.0016 0.9802
3.7139 2.7017 -2.0016 0.9802
2.9258 3.5401 -2.0016 0.9802
2.7969 3.6428 -2.0016 0.9802
2.2471 4.0054 -2.0016 0.9802
2.1019 4.0834 -2.0016 0.9802
1.9541 4.1562 -2.0016 0.9802
1.8037 4.2237 -2.0016 0.9802
1.6510 4.2856 -2.0016 0.9802
1.1810 4.4382 -2.0016 0.9802
0.8597 4.5115 -2.0016 0.9802
0.6972 4.5394 -2.0016 0.9802
0.5339 4.5615 -2.0016 0.9802
0.3699 4.5777 -2.0016 0.9802
0.2054 4.5881 -2.0016 0.9802
0.0407 4.5925 -2.0016 0.9802
-0.1241 4.5910 -2.0016 0.9802
-0.4530 4.5703 -2.0016 0.9802
-0.9414 4.4951 -2.0016 0.9802
-1.2613 4.4161 -2.0016 0.9802
-1.4190 4.3680 -2.0016 0.9802
-1.5748 4.3142 -2.0016 0.9802
-1.8801 4.1902 -2.0016 0.9802
-2.0292 4.1201 -2.0016 0.9802
-2.4602 3.8782 -2.0016 0.9802
-2.7319 3.6918 -2.0016 0.9802
-2.9896 3.4864 -2.0016 0.9802
-3.1128 3.3769 -2.0016 0.9802
-3.2319 3.2630 -2.0016 0.9802
-3.4576 3.0228 -2.0016 0.9802
-3.5638 2.8968 -2.0016 0.9802
-3.6655 2.7671 -2.0016 0.9802
-3.7624 2.6338 -2.0016 0.9802
-4.0236 2.2143 -2.0016 0.9802
-4.2990 1.6160 -2.0016 0.9802
-1.5884 0.5329 -0.7302 0.9927
-1.5719 0.4653 -0.7144 0.9929
-1.5146 0.2200 -0.6670 0.9933
-1.5293 0.1110 -0.6682 0.9933
-1.5285 0.0560 -0.6666 0.9933
-1.5283 -0.0538 -0.6665 0.9933
-1.5000 -0.2710 -0.6643 0.9934
-1.5217 -0.3317 -0.6788 0.9932
-1.5489 -0.3963 -0.6968 0.9930
-1.5711 -0.4626 -0.7138 0.9929
-1.5986 -0.5984 -0.7439 0.9926
-4.2407 -1.7632 -2.0016 0.9802
-4.0267 -2.2087 -2.0016 0.9802
-3.4043 -2.5625 -1.8570 0.9816
1.1895 -3.8314 -1.8570 0.9825
1.3262 -3.7862 -1.8570 0.9825
1.4612 -3.7362 -1.8570 0.9825
2.4593 -3.1695 -1.8570 0.9825
2.5714 -3.0793 -1.8570 0.9825
2.6803 -2.9850 -1.8570 0.9825
2.7856 -2.8869 -1.8570 0.9825
3.5096 -2.5259 -2.0016 0.9811
3.5980 -2.3984 -2.0016 0.9811
3.6817 -2.2677 -2.0016 0.9811
3.7607 -2.1342 -2.0016 0.9811
3.8349 -1.9979 -2.0016 0.9811
4.0273 -1.5743 -2.0016 0.9811
4.1732 -1.1324 -2.0016 0.9811
4.2436 -0.8303 -2.0016 0.9811
4.2923 -0.5238 -2.0016 0.9811
4.3083 -0.3695 -2.0016 0.9811
4.3188 -0.2147 -2.0016 0.9811
4.3230 0.0956 -2.0016 0.9811
4.2366 0.8656 -2.0016 0.9811
4.1636 1.1671 -2.0016 0.9811
4.1190 1.3158 -2.0016 0.9811
4.0141 1.6078 -2.0016 0.9811
3.9538 1.7507 -2.0016 0.9811
3.8885 1.8915 -2.0016 0.9811
3.8181 2.0298 -2.0016 0.9811
3.6627 2.2983 -2.0016 0.9811
3.5779 2.4283 -2.0016 0.9811
3.4885 2.5551 -2.0016 0.9811
3.2963 2.7986 -2.0016 0.9811
3.1938 2.9151 -2.0016 0.9811
3.0871 3.0278 -2.0016 0.9811
2.9765 3.1366 -2.0016 0.9811
2.8620 3.2414 -2.0016 0.9811
2.4972 3.5301 -2.0016 0.9811
2.3689 3.6175 -2.0016 0.9811
2.2376 3.7001 -2.0016 0.9811
1.9665 3.8511 -2.0016 0.9811
1.5414 4.0401 -2.0016 0.9811
1.2477 4.1402 -2.0016 0.9811
1.0983 4.1823 -2.0016 0.9811
0.9476 4.2190 -2.0016 0.9811
0.6426 4.2761 -2.0016 0.9811
0.1794 4.3204 -2.0016 0.9811
-0.1309 4.3221 -2.0016 0.9811
-0.2858 4.3146 -2.0016 0.9811
-0.7478 4.2590 -2.0016 0.9811
-0.9001 4.2294 -2.0016 0.9811
-1.4959 4.0571 -2.0016 0.9811
-1.6405 4.0008 -2.0016 0.9811
-1.7829 3.9394 -2.0016 0.9811
-1.9231 3.8729 -2.0016 0.9811
-2.1959 3.7250 -2.0016 0.9811
-2.4574 3.5580 -2.0016 0.9811
-2.5834 3.4675 -2.0016 0.9811
-3.2646 2.8355 -2.0016 0.9811
-3.3643 2.7165 -2.0016 0.9811
-3.4596 2.5941 -2.0016 0.9811
-3.7951 2.0725 -2.0016 0.9811
-3.8670 1.9350 -2.0016 0.9811
-1.3264 0.5486 -0.6644 0.9937
-1.3237 0.3872 -0.6384 0.9939
-1.3111 0.3329 -0.6262 0.9941
-1.3278 0.1885 -0.6208 0.9941
-1.3354 0.1409 -0.6216 0.9941
-1.3385 0.0928 -0.6210 0.9941
-1.3337 -0.0034 -0.6174 0.9941
-1.3264 -0.1952 -0.6206 0.9941
-1.3147 -0.2419 -0.6188 0.9941
-1.2996 -0.2877 -0.6161 0.9942
-1.3132 -0.3405 -0.6279 0.9940
-1.3252 -0.3949 -0.6401 0.9939
-1.3331 -0.4500 -0.6513 0.9938
-1.3319 -0.5035 -0.6591 0.9937
-1.3132 -0.6073 -0.6697 0.9936
-3.2823 -2.3067 -1.8570 0.9825
-3.1974 -2.4230 -1.8570 0.9825
-3.1084 -2.5362 -1.8570 0.9825
-2.8179 -2.8555 -1.8570 0.9825
-2.4948 -3.1417 -1.8570 0.9825
-2.2631 -3.3125 -1.8570 0.9825
-1.8940 -3.5365 -1.8570 0.9825
-1.6356 -3.6632 -1.8570 0.9825
-1.5031 -3.7195 -1.8570 0.9825
-1.3687 -3.7711 -1.8570 0.9825
-1.0947 -3.8595 -1.8570 0.9825
-0.9555 -3.8963 -1.8570 0.9825
-0.8151 -3.9281 -1.8570 0.9825
-0.6737 -3.9548 -1.8570 0.9825
-0.1010 -4.0105 -1.8570 0.9825
0.3305 -3.9981 -1.8570 0.9825
0.4737 -3.9837 -1.8570 0.9825
0.6163 -3.9641 -1.8570 0.9825
0.7582 -3.9395 -1.8570 0.9825
0.8990 -3.9097 -1.8570 0.9825
1.3139 -3.7905 -1.8570 0.9825
1.4491 -3.7409 -1.8570 0.9825
1.9693 -3.4952 -1.8570 0.9825
2.0934 -3.4222 -1.8570 0.9825
2.2148 -3.3449 -1.8570 0.9825
2.7762 -2.8960 -1.8570 0.9825
2.9768 -2.6894 -1.8570 0.9825
3.3105 -2.7818 -2.0016 0.9811
3.5902 -2.4100 -2.0016 0.9811
3.9627 -1.7306 -2.0016 0.9811
4.0222 -1.5873 -2.0016 0.9811
4.1257 -1.2948 -2.0016 0.9811
4.2685 -0.6913 -2.0016 0.9811
4.3071 -0.3834 -2.0016 0.9811
4.3064 0.3914 -2.0016 0.9811
4.2394 0.8518 -2.0016 0.9811
4.2061 1.0034 -2.0016 0.9811
4.1233 1.3024 -2.0016 0.9811
3.9595 1.7379 -2.0016 0.9811
3.8247 2.0174 -2.0016 0.9811
3.7498 2.1533 -2.0016 0.9811
3.6702 2.2864 -2.0016 0.9811
3.5858 2.4166 -2.0016 0.9811
3.2032 2.9047 -2.0016 0.9811
2.9867 3.1269 -2.0016 0.9811
2.7547 3.3331 -2.0016 0.9811
2.6334 3.4297 -2.0016 0.9811
2.5086 3.5220 -2.0016 0.9811
2.3807 3.6098 -2.0016 0.9811
2.1157 3.7712 -2.0016 0.9811
1.9790 3.8447 -2.0016 0.9811
1.8398 3.9132 -2.0016 0.9811
1.6982 3.9767 -2.0016 0.9811
1.5545 4.0350 -2.0016 0.9811
1.4087 4.0882 -2.0016 0.9811
1.2611 4.1361 -2.0016 0.9811
0.9613 4.2159 -2.0016 0.9811
0.8094 4.2477 -2.0016 0.9811
0.5027 4.2948 -2.0016 0.9811
0.1934 4.3198 -2.0016 0.9811
-0.8864 4.2323 -2.0016 0.9811
-1.0377 4.1978 -2.0016 0.9811
-1.3360 4.1125 -2.0016 0.9811
-1.6275 4.0061 -2.0016 0.9811
-2.0485 3.8081 -2.0016 0.9811
-2.3163 3.6514 -2.0016 0.9811
-2.4458 3.5659 -2.0016 0.9811
-2.6952 3.3814 -2.0016 0.9811
-2.8148 3.2825 -2.0016 0.9811
-3.1512 2.9610 -2.0016 0.9811
-3.3554 2.7274 -2.0016 0.9811
-3.5424 2.4798 -2.0016 0.9811
-3.6291 2.3511 -2.0016 0.9811
-3.7883 2.0848 -2.0016 0.9811
-3.8607 1.9476 -2.0016 0.9811
-1.3321 0.5007 -0.6587 0.9937
-1.3328 0.4471 -0.6507 0.9938
-1.3247 0.3921 -0.6395 0.9939
-1.3154 0.2395 -0.6189 0.9941
-1.3269 0.1927 -0.6206 0.9941
-1.3377 0.0490 -0.6196 0.9941
-1.3376 -0.0471 -0.6195 0.9941
-1.3384 -0.0953 -0.6211 0.9941
-1.3119 -0.3357 -0.6268 0.9940
-1.3243 -0.3900 -0.6390 0.9939
-1.3326 -0.4450 -0.6503 0.9938
-1.3323 -0.4987 -0.6585 0.9937
-1.3260 -0.5513 -0.6647 0.9937
-1.3145 -0.6027 -0.6694 0.9936
-3.4594 -2.2343 -1.9062 0.9820
1.2515 -3.5729 -1.8570 0.9833
1.3789 -3.5257 -1.8570 0.9833
1.7497 -3.3571 -1.8570 0.9833
1.8690 -3.2922 -1.8570 0.9833
1.9859 -3.2230 -1.8570 0.9833
2.2119 -3.0723 -1.8570 0.9833
2.3207 -2.9910 -1.8570 0.9833
2.4265 -2.9058 -1.8570 0.9833
2.5292 -2.8168 -1.8570 0.9833
2.6287 -2.7243 -1.8570 0.9833
2.8173 -2.5288 -1.8570 0.9833
3.3119 -2.3836 -2.0016 0.9820
3.3953 -2.2632 -2.0016 0.9820
3.5488 -2.0139 -2.0016 0.9820
3.6841 -1.7543 -2.0016 0.9820
3.8513 -1.3483 -2.0016 0.9820
