ply
format ascii 1.0
element vertex 1592
property float32 x
property float32 y
property float32 z
property float32 I
end_header
6.2623 11.4518 -1.8494 0.9486
5.8466 11.6695 -1.8494 0.9486
5.4234 11.8721 -1.8494 0.9486
4.5566 12.2310 -1.8494 0.9486
4.1140 12.3869 -1.8494 0.9486
3.2136 12.6504 -1.8494 0.9486
2.7568 12.7578 -1.8494 0.9486
1.2977 12.3172 -1.7549 0.9512
0.8371 12.1095 -1.7199 0.9521
0.3940 11.9096 -1.6884 0.9530
-0.0337 11.7167 -1.6601 0.9538
-0.4479 11.5299 -1.6349 0.9545
-0.8551 11.4147 -1.6219 0.9548
-2.1096 11.4229 -1.6459 0.9542
-2.9733 11.4286 -1.6732 0.9534
-3.4171 11.4315 -1.6905 0.9529
-4.3360 11.4375 -1.7331 0.9518
-4.8143 11.4406 -1.7587 0.9511
-5.3075 11.4439 -1.7874 0.9503
-5.8178 11.4472 -1.8194 0.9494
-6.3280 11.4156 -1.8494 0.9486
-6.7342 11.1808 -1.8494 0.9486
-7.5200 10.6682 -1.8494 0.9486
-7.8986 10.3910 -1.8494 0.9486
-8.9711 9.4805 -1.8494 0.9486
-9.3061 9.1519 -1.8494 0.9486
-9.6290 8.8115 -1.8494 0.9486
-9.9395 8.4598 -1.8494 0.9486
-11.2205 8.2370 -1.9722 0.9453
-11.9585 7.5199 -2.0016 0.9445
-12.2211 7.0853 -2.0016 0.9445
-12.4678 6.6415 -2.0016 0.9445
-12.6985 6.1890 -2.0016 0.9445
-12.9127 5.7287 -2.0016 0.9445
-13.4543 4.3055 -2.0016 0.9445
-13.6003 3.8191 -2.0016 0.9445
-13.7288 3.3279 -2.0016 0.9445
-13.8396 2.8323 -2.0016 0.9445
-13.9324 2.3330 -2.0016 0.9445
-14.0640 1.3262 -2.0016 0.9445
-8.5606 -8.6218 -2.0016 0.9519
-7.9191 -9.2145 -2.0016 0.9519
-7.5828 -9.4932 -2.0016 0.9519
-7.2367 -9.7596 -2.0016 0.9519
-6.8812 -10.0134 -2.0016 0.9519
-5.7634 -10.6959 -2.0016 0.9519
-5.3753 -10.8961 -2.0016 0.9519
-4.9802 -11.0823 -2.0016 0.9519
-4.1712 -11.4114 -2.0016 0.9519
-3.7584 -11.5540 -2.0016 0.9519
-2.9187 -11.7941 -2.0016 0.9519
-1.1985 -12.0906 -2.0016 0.9519
0.5465 -12.1376 -2.0016 0.9519
0.9824 -12.1101 -2.0016 0.9519
1.4170 -12.0670 -2.0016 0.9519
1.8498 -12.0082 -2.0016 0.9519
3.1316 -11.7394 -2.0016 0.9519
3.5515 -11.6192 -2.0016 0.9519
4.3770 -11.3341 -2.0016 0.9519
5.1798 -10.9904 -2.0016 0.9519
2.1911 -4.2461 -0.7871 0.9808
5.9560 -10.5899 -2.0016 0.9519
6.3327 -10.3690 -2.0016 0.9519
7.0612 -9.8873 -2.0016 0.9519
7.7533 -9.3545 -2.0016 0.9519
8.0845 -9.0698 -2.0016 0.9519
9.0137 -8.1469 -2.0016 0.9519
9.5757 -7.4783 -2.0016 0.9519
10.7584 -5.6459 -2.0016 0.9519
10.9544 -5.2556 -2.0016 0.9519
11.1362 -4.8585 -2.0016 0.9519
11.3036 -4.4551 -2.0016 0.9519
11.4564 -4.0460 -2.0016 0.9519
11.9952 -1.9326 -2.0016 0.9519
12.0569 -1.5003 -2.0016 0.9519
12.1474 0.2430 -2.0016 0.9519
12.0986 1.1150 -2.0016 0.9519
12.0507 1.5491 -2.0016 0.9519
11.9873 1.9812 -2.0016 0.9519
11.8140 2.8372 -2.0016 0.9519
11.7044 3.2600 -2.0016 0.9519
11.5796 3.6785 -2.0016 0.9519
11.2855 4.5009 -2.0016 0.9519
11.1164 4.9036 -2.0016 0.9519
10.7354 5.6894 -2.0016 0.9519
10.0607 6.8119 -2.0016 0.9519
9.5453 7.5170 -2.0016 0.9519
9.2690 7.8553 -2.0016 0.9519
8.9807 8.1833 -2.0016 0.9519
8.6808 8.5008 -2.0016 0.9519
8.0477 9.1024 -2.0016 0.9519
7.7153 9.3858 -2.0016 0.9519
7.3730 9.6570 -2.0016 0.9519
6.6602 10.1617 -2.0016 0.9519
5.1074 9.9969 -1.8494 0.9555
4.7448 10.1740 -1.8494 0.9555
4.0017 10.4885 -1.8494 0.9555
3.2379 10.7489 -1.8494 0.9555
2.4574 10.9537 -1.8494 0.9555
1.6642 11.1020 -1.8494 0.9555
-0.3474 11.2206 -1.8494 0.9555
-0.7505 11.2009 -1.8494 0.9555
-1.2190 8.7262 -1.4515 0.9649
-2.3478 10.9777 -1.8494 0.9555
-2.7409 10.8862 -1.8494 0.9555
-3.1304 10.7807 -1.8494 0.9555
-3.8967 10.5280 -1.8494 0.9555
-4.2726 10.3811 -1.8494 0.9555
-4.6429 10.2209 -1.8494 0.9555
-5.3652 9.8609 -1.8494 0.9555
-6.0597 9.4500 -1.8494 0.9555
-7.0416 8.7429 -1.8494 0.9555
-7.6920 8.2580 -1.8592 0.9553
-8.2543 8.2463 -1.9221 0.9538
-8.8562 8.2334 -1.9921 0.9522
-9.4698 7.6120 -2.0016 0.9519
-9.7372 7.2668 -2.0016 0.9519
-11.2399 4.6134 -2.0016 0.9519
-11.3985 4.2064 -2.0016 0.9519
-11.5423 3.7940 -2.0016 0.9519
-11.7850 2.9551 -2.0016 0.9519
-12.1235 0.8006 -2.0016 0.9519
-12.1444 0.3643 -2.0016 0.9519
-12.1392 -0.5090 -2.0016 0.9519
-12.0139 -1.8127 -2.0016 0.9519
-11.9410 -2.2433 -2.0016 0.9519
-10.9965 -2.4781 -1.8570 0.9553
-10.5279 -4.0283 -1.8570 0.9553
-10.2113 -4.7742 -1.8570 0.9553
-10.0331 -5.1381 -1.8570 0.9553
-9.8419 -5.4954 -1.8570 0.9553
-9.6499 -7.3823 -2.0016 0.9519
-9.3784 -7.7244 -2.0016 0.9519
-9.0947 -8.0564 -2.0016 0.9519
-8.4924 -8.6890 -2.0016 0.9519
-8.1747 -8.9886 -2.0016 0.9519
-6.4360 -10.3052 -2.0016 0.9519
-6.0615 -10.5299 -2.0016 0.9519
-5.6791 -10.7409 -2.0016 0.9519
-5.2894 -10.9381 -2.0016 0.9519
-4.4900 -11.2898 -2.0016 0.9519
-3.6674 -11.5832 -2.0016 0.9519
-2.3993 -11.9106 -2.0016 0.9519
-1.9696 -11.9892 -2.0016 0.9519
-0.6677 -12.1315 -2.0016 0.9519
-0.2313 -12.1477 -2.0016 0.9519
1.0776 -12.1020 -2.0016 0.9519
1.5119 -12.0554 -2.0016 0.9519
1.9442 -11.9933 -2.0016 0.9519
2.8007 -11.8227 -2.0016 0.9519
3.2238 -11.7144 -2.0016 0.9519
4.4660 -11.2993 -2.0016 0.9519
5.2662 -10.9493 -2.0016 0.9519
7.1388 -9.8314 -2.0016 0.9519
7.4876 -9.5685 -2.0016 0.9519
7.8266 -9.2932 -2.0016 0.9519
8.4740 -8.7069 -2.0016 0.9519
9.0776 -8.0757 -2.0016 0.9519
9.3620 -7.7442 -2.0016 0.9519
9.8941 -7.0517 -2.0016 0.9519
10.1411 -6.6915 -2.0016 0.9519
10.3751 -6.3227 -2.0016 0.9519
10.5956 -5.9458 -2.0016 0.9519
10.8025 -5.5611 -2.0016 0.9519
11.6227 -3.5403 -2.0016 0.9519
11.9362 -2.2686 -2.0016 0.9519
12.0683 -1.4053 -2.0016 0.9519
12.1495 -0.0982 -2.0016 0.9519
11.9713 2.0755 -2.0016 0.9519
11.6783 3.3520 -2.0016 0.9519
11.5503 3.7695 -2.0016 0.9519
11.4074 4.1822 -2.0016 0.9519
11.0775 4.9909 -2.0016 0.9519
10.2479 6.5268 -2.0016 0.9519
9.4859 7.5919 -2.0016 0.9519
9.2069 7.9280 -2.0016 0.9519
8.6136 8.5689 -2.0016 0.9519
8.3001 8.8729 -2.0016 0.9519
7.9758 9.1655 -2.0016 0.9519
7.6412 9.4462 -2.0016 0.9519
6.9429 9.9707 -2.0016 0.9519
6.5800 10.2138 -2.0016 0.9519
6.2023 10.4330 -1.9995 0.9520
5.6727 10.3737 -1.9478 0.9532
4.6646 10.2110 -1.8494 0.9555
1.9752 11.0509 -1.8494 0.9555
0.3712 11.2198 -1.8494 0.9555
-0.0323 11.2259 -1.8494 0.9555
-0.4357 11.2175 -1.8494 0.9555
-1.2404 11.1573 -1.8494 0.9555
-1.2883 8.7207 -1.4522 0.9649
-2.0387 11.0393 -1.8494 0.9555
-2.4342 10.9589 -1.8494 0.9555
-2.8265 10.8643 -1.8494 0.9555
-3.5996 10.6332 -1.8494 0.9555
-4.7232 10.1840 -1.8494 0.9555
-5.4426 9.8184 -1.8494 0.9555
-5.7920 9.6164 -1.8494 0.9555
-6.4678 9.1755 -1.8494 0.9555
-6.7934 8.9371 -1.8494 0.9555
-7.1102 8.6872 -1.8494 0.9555
-7.4179 8.4260 -1.8494 0.9555
-7.8120 8.2555 -1.8724 0.9550
-9.7941 7.1899 -2.0016 0.9519
-10.2853 6.4678 -2.0016 0.9519
-10.5111 6.0939 -2.0016 0.9519
-10.7233 5.7122 -2.0016 0.9519
-11.4312 4.1166 -2.0016 0.9519
-11.5718 3.7031 -2.0016 0.9519
-11.8079 2.8622 -2.0016 0.9519
-11.9830 2.0066 -2.0016 0.9519
-12.0474 1.5746 -2.0016 0.9519
-8.2727 -6.7052 -2.0016 0.9576
-7.5029 -7.5567 -2.0016 0.9576
-6.9407 -8.0761 -2.0016 0.9576
-6.3426 -8.5539 -2.0016 0.9576
-5.7118 -8.9874 -2.0016 0.9576
-5.0514 -9.3745 -2.0016 0.9576
-4.7112 -9.5500 -2.0016 0.9576
-4.0130 -9.8637 -2.0016 0.9576
-3.2941 -10.1265 -2.0016 0.9576
-2.5581 -10.3370 -2.0016 0.9576
-1.4306 -10.5523 -2.0016 0.9576
-1.0504 -10.5969 -2.0016 0.9576
-0.6689 -10.6278 -2.0016 0.9576
-0.2865 -10.6450 -2.0016 0.9576
0.4790 -10.6380 -2.0016 0.9576
1.2419 -10.5762 -2.0016 0.9576
1.6212 -10.5247 -2.0016 0.9576
1.9985 -10.4596 -2.0016 0.9576
2.3731 -10.3810 -2.0016 0.9576
2.7447 -10.2890 -2.0016 0.9576
3.1127 -10.1837 -2.0016 0.9576
3.4767 -10.0653 -2.0016 0.9576
4.5399 -9.6326 -2.0016 0.9576
2.1911 -4.2461 -0.8981 0.9807
5.2201 -9.2816 -2.0016 0.9576
5.8734 -8.8826 -2.0016 0.9576
7.3668 -7.6895 -2.0016 0.9576
8.1517 -6.8518 -2.0016 0.9576
8.3927 -6.5544 -2.0016 0.9576
8.6228 -6.2486 -2.0016 0.9576
8.8418 -5.9346 -2.0016 0.9576
9.2453 -5.2841 -2.0016 0.9576
9.7603 -4.2583 -2.0016 0.9576
10.1620 -3.1829 -2.0016 0.9576
10.5673 -1.3149 -2.0016 0.9576
10.6078 -0.9343 -2.0016 0.9576
10.6345 -0.5524 -2.0016 0.9576
10.6467 0.2130 -2.0016 0.9576
10.6039 0.9772 -2.0016 0.9576
10.5619 1.3577 -2.0016 0.9576
10.4371 2.1129 -2.0016 0.9576
10.3544 2.4867 -2.0016 0.9576
10.1490 3.2241 -2.0016 0.9576
9.8912 3.9448 -2.0016 0.9576
9.5823 4.6452 -2.0016 0.9576
9.2238 5.3215 -2.0016 0.9576
9.0266 5.6496 -2.0016 0.9576
7.6083 7.4506 -2.0016 0.9576
7.3356 7.7192 -2.0016 0.9576
7.0534 7.9779 -2.0016 0.9576
6.7621 8.2262 -2.0016 0.9576
6.1537 8.6907 -2.0016 0.9576
5.1825 9.3026 -2.0016 0.9576
4.8331 9.4600 -1.9967 0.9577
3.5073 9.1927 -1.8494 0.9607
2.8379 9.4209 -1.8494 0.9607
2.4975 9.5168 -1.8494 0.9607
2.1538 9.6004 -1.8494 0.9607
0.0491 9.8390 -1.8494 0.9607
-0.6578 9.8171 -1.8494 0.9607
-1.2162 8.7059 -1.6523 0.9649
-1.7106 9.6892 -1.8494 0.9607
-3.0815 9.3441 -1.8494 0.9607
-4.0693 8.9581 -1.8494 0.9607
-4.3887 8.8061 -1.8494 0.9607
-5.0099 8.4681 -1.8494 0.9607
-5.3110 8.2825 -1.8494 0.9607
-5.7207 8.2527 -1.8874 0.9600
-6.6320 8.2342 -1.9873 0.9579
-7.7991 7.2506 -2.0016 0.9576
-8.2998 6.6716 -2.0016 0.9576
-8.5342 6.3690 -2.0016 0.9576
-9.1702 5.4134 -2.0016 0.9576
-9.6996 4.3949 -2.0016 0.9576
-9.8513 4.0434 -2.0016 0.9576
-9.9903 3.6867 -2.0016 0.9576
-10.1163 3.3253 -2.0016 0.9576
-10.4155 2.2171 -2.0016 0.9576
-10.5478 1.4631 -2.0016 0.9576
-10.5936 1.0831 -2.0016 0.9576
-10.6395 -0.4461 -2.0016 0.9576
-10.6166 -0.8283 -2.0016 0.9576
-10.5799 -1.2093 -2.0016 0.9576
-9.9116 -2.2336 -1.9097 0.9595
-9.5536 -2.5170 -1.8570 0.9606
-9.4570 -2.8587 -1.8570 0.9606
-9.3481 -3.1968 -1.8570 0.9606
-9.0944 -3.8600 -1.8570 0.9606
-8.7936 -4.5033 -1.8570 0.9606
-8.6260 -4.8165 -1.8570 0.9606
-8.2577 -5.4237 -1.8570 0.9606
-8.6848 -6.1621 -2.0016 0.9576
-7.9711 -7.0611 -2.0016 0.9576
-7.1647 -7.8781 -2.0016 0.9576
-6.8769 -8.1305 -2.0016 0.9576
-5.6409 -9.0320 -2.0016 0.9576
-5.3126 -9.2290 -2.0016 0.9576
-4.9775 -9.4139 -2.0016 0.9576
-4.6359 -9.5867 -2.0016 0.9576
-4.2884 -9.7472 -2.0016 0.9576
-3.2143 -10.1521 -2.0016 0.9576
-2.4767 -10.3568 -2.0016 0.9576
-2.1029 -10.4391 -2.0016 0.9576
-1.7263 -10.5080 -2.0016 0.9576
-0.5852 -10.6327 -2.0016 0.9576
-0.2027 -10.6469 -2.0016 0.9576
0.5627 -10.6339 -2.0016 0.9576
1.3251 -10.5660 -2.0016 0.9576
1.7040 -10.5116 -2.0016 0.9576
2.0807 -10.4436 -2.0016 0.9576
4.2677 -9.7562 -2.0016 0.9576
2.2148 -4.2105 -0.8942 0.9808
5.6217 -9.0440 -2.0016 0.9576
5.9431 -8.8361 -2.0016 0.9576
7.4271 -7.6312 -2.0016 0.9576
7.6965 -7.3594 -2.0016 0.9576
7.9561 -7.0780 -2.0016 0.9576
8.6717 -6.1805 -2.0016 0.9576
8.8883 -5.8648 -2.0016 0.9576
9.0933 -5.5416 -2.0016 0.9576
9.6370 -4.5306 -2.0016 0.9576
9.7936 -4.1813 -2.0016 0.9576
9.9375 -3.8266 -2.0016 0.9576
10.0686 -3.4670 -2.0016 0.9576
10.1867 -3.1029 -2.0016 0.9576
10.3833 -2.3631 -2.0016 0.9576
10.4615 -1.9884 -2.0016 0.9576
10.5262 -1.6111 -2.0016 0.9576
10.5773 -1.2317 -2.0016 0.9576
10.6447 0.2967 -2.0016 0.9576
10.6271 0.6791 -2.0016 0.9576
10.5959 1.0606 -2.0016 0.9576
10.5509 1.4408 -2.0016 0.9576
10.4201 2.1950 -2.0016 0.9576
10.3345 2.5681 -2.0016 0.9576
10.2355 2.9379 -2.0016 0.9576
10.1233 3.3038 -2.0016 0.9576
9.9981 3.6656 -2.0016 0.9576
9.7089 4.3743 -2.0016 0.9576
9.1817 5.3939 -2.0016 0.9576
8.7705 6.0396 -2.0016 0.9576
8.5477 6.3509 -2.0016 0.9576
8.0694 6.9485 -2.0016 0.9576
7.8145 7.2340 -2.0016 0.9576
7.2746 7.7767 -2.0016 0.9576
6.6972 8.2792 -2.0016 0.9576
6.3953 8.5146 -2.0016 0.9576
6.0851 8.7389 -2.0016 0.9576
5.1080 9.3411 -2.0011 0.9576
4.2469 9.2966 -1.9211 0.9593
2.4225 9.5362 -1.8494 0.9607
1.3819 9.7415 -1.8494 0.9607
-0.7350 9.8116 -1.8494 0.9607
-1.7868 9.6755 -1.8494 0.9607
-2.4773 9.5221 -1.8494 0.9607
-2.8179 9.4269 -1.8494 0.9607
-3.1549 9.3195 -1.8494 0.9607
-3.4878 9.2001 -1.8494 0.9607
-3.8162 9.0688 -1.8494 0.9607
-4.1397 8.9258 -1.8494 0.9607
-4.4578 8.7713 -1.8494 0.9607
-6.7203 8.2107 -1.9943 0.9577
-7.0248 7.9795 -1.9982 0.9577
-7.3192 7.7348 -2.0016 0.9576
-7.5925 7.4667 -2.0016 0.9576
-8.1092 6.9020 -2.0016 0.9576
-8.5841 6.3016 -2.0016 0.9576
-8.8050 5.9890 -2.0016 0.9576
-9.3985 5.0065 -2.0016 0.9576
-9.7339 4.3184 -2.0016 0.9576
-9.8828 3.9658 -2.0016 0.9576
-10.0190 3.6080 -2.0016 0.9576
-10.1422 3.2456 -2.0016 0.9576
-10.3491 2.5086 -2.0016 0.9576
-10.6018 0.9997 -2.0016 0.9576
-6.8248 -5.5316 -1.8570 0.9647
-6.4259 -6.9549 -2.0016 0.9620
-6.1717 -7.1814 -2.0016 0.9620
-5.6399 -7.6062 -2.0016 0.9620
-5.3629 -7.8039 -2.0016 0.9620
-5.0790 -7.9917 -2.0016 0.9620
-3.2509 -8.8935 -2.0016 0.9620
-2.2747 -9.1917 -2.0016 0.9620
-1.2721 -9.3832 -2.0016 0.9620
-0.9340 -9.4228 -2.0016 0.9620
0.0856 -9.4686 -2.0016 0.9620
0.4259 -9.4594 -2.0016 0.9620
0.7656 -9.4380 -2.0016 0.9620
1.1043 -9.4044 -2.0016 0.9620
1.4416 -9.3586 -2.0016 0.9620
1.7771 -9.3008 -2.0016 0.9620
2.7678 -9.0555 -2.0016 0.9620
3.0915 -8.9501 -2.0016 0.9620
3.7265 -8.7049 -2.0016 0.9620
5.2227 -7.8985 -2.0016 0.9620
5.7766 -7.5029 -2.0016 0.9620
6.0425 -7.2904 -2.0016 0.9620
6.3006 -7.0685 -2.0016 0.9620
7.0249 -6.3493 -2.0016 0.9620
7.4628 -5.8283 -2.0016 0.9620
7.8622 -5.2771 -2.0016 0.9620
8.3846 -4.4002 -2.0016 0.9620
8.5373 -4.0960 -2.0016 0.9620
8.6790 -3.7865 -2.0016 0.9620
9.0361 -2.8303 -2.0016 0.9620
9.2883 -1.8412 -2.0016 0.9620
9.3966 -1.1692 -2.0016 0.9620
9.4325 -0.8308 -2.0016 0.9620
9.4678 -0.1510 -2.0016 0.9620
9.4542 0.5295 -2.0016 0.9620
9.3917 1.2073 -2.0016 0.9620
9.3423 1.5441 -2.0016 0.9620
9.2072 2.2112 -2.0016 0.9620
9.0246 2.8669 -2.0016 0.9620
8.5206 4.1305 -2.0016 0.9620
8.3667 4.4341 -2.0016 0.9620
8.2019 4.7319 -2.0016 0.9620
8.0265 5.0237 -2.0016 0.9620
7.8408 5.3089 -2.0016 0.9620
7.6449 5.5873 -2.0016 0.9620
7.4392 5.8584 -2.0016 0.9620
7.2238 6.1220 -2.0016 0.9620
6.7654 6.6251 -2.0016 0.9620
6.5229 6.8640 -2.0016 0.9620
6.2720 7.0940 -2.0016 0.9620
6.0129 7.3148 -2.0016 0.9620
5.7462 7.5262 -2.0016 0.9620
5.4719 7.7279 -2.0016 0.9620
4.9027 8.1010 -2.0016 0.9620
3.6849 8.7052 -1.9982 0.9621
3.3629 8.8143 -1.9942 0.9622
2.9625 8.6904 -1.9408 0.9632
2.5806 8.5667 -1.8912 0.9641
2.2273 8.4873 -1.8548 0.9648
1.9152 8.5368 -1.8494 0.9649
1.2970 8.6523 -1.8494 0.9649
0.9852 8.6934 -1.8494 0.9649
0.6721 8.7231 -1.8494 0.9649
-0.5849 8.7294 -1.8494 0.9649
-0.8983 8.7028 -1.8494 0.9649
-1.2105 8.6649 -1.8494 0.9649
-1.5211 8.6157 -1.8494 0.9649
-1.8298 8.5555 -1.8494 0.9649
-2.4397 8.4020 -1.8494 0.9649
-2.7401 8.3088 -1.8494 0.9649
-3.0564 8.2576 -1.8612 0.9646
-3.3967 8.2529 -1.8865 0.9642
-3.7466 8.2477 -1.9148 0.9636
-4.1074 8.2418 -1.9465 0.9631
-5.1037 7.9592 -1.9986 0.9621
-5.3945 7.7822 -2.0016 0.9620
-6.4540 6.9288 -2.0016 0.9620
-6.6988 6.6924 -2.0016 0.9620
-6.9350 6.4473 -2.0016 0.9620
-7.1623 6.1939 -2.0016 0.9620
-7.3803 5.9324 -2.0016 0.9620
-7.5887 5.6634 -2.0016 0.9620
-8.1542 4.8136 -2.0016 0.9620
-8.3220 4.5174 -2.0016 0.9620
-8.6250 3.9080 -2.0016 0.9620
-8.7599 3.5954 -2.0016 0.9620
-8.8834 3.2783 -2.0016 0.9620
-8.9955 2.9569 -2.0016 0.9620
-9.2615 1.9715 -2.0016 0.9620
-9.3264 1.6373 -2.0016 0.9620
-9.4199 0.9631 -2.0016 0.9620
-9.4078 -1.0753 -2.0016 0.9620
-9.3062 -1.7483 -2.0016 0.9620
-9.2374 -2.0817 -2.0016 0.9620
-8.5191 -2.2444 -1.8622 0.9646
-8.3124 -2.8426 -1.8570 0.9647
-8.0868 -3.4324 -1.8570 0.9647
-7.6703 -4.2829 -1.8570 0.9647
-7.5114 -4.5558 -1.8570 0.9647
-7.3429 -4.8228 -1.8570 0.9647
-7.1648 -5.0836 -1.8570 0.9647
-6.9774 -5.3378 -1.8570 0.9647
-6.6186 -6.7718 -2.0016 0.9620
-6.3709 -7.0052 -2.0016 0.9620
-4.4260 -8.3710 -2.0016 0.9620
-3.4993 -8.7987 -2.0016 0.9620
-2.5319 -9.1243 -2.0016 0.9620
-1.8699 -9.2826 -2.0016 0.9620
-1.5350 -9.3438 -2.0016 0.9620
-1.1982 -9.3929 -2.0016 0.9620
-0.8599 -9.4299 -2.0016 0.9620
-0.5204 -9.4547 -2.0016 0.9620
0.5003 -9.4558 -2.0016 0.9620
1.5152 -9.3470 -2.0016 0.9620
2.8390 -9.0334 -2.0016 0.9620
3.4806 -8.8061 -2.0016 0.9620
3.7948 -8.6753 -2.0016 0.9620
4.1042 -8.5333 -2.0016 0.9620
2.2148 -4.2105 -1.0056 0.9807
5.2847 -7.8571 -2.0016 0.9620
5.5637 -7.6621 -2.0016 0.9620
7.0746 -6.2938 -2.0016 0.9620
7.2963 -6.0355 -2.0016 0.9620
7.5085 -5.7694 -2.0016 0.9620
7.9035 -5.2151 -2.0016 0.9620
8.2577 -4.6338 -2.0016 0.9620
8.4189 -4.3340 -2.0016 0.9620
8.7085 -3.7181 -2.0016 0.9620
8.8365 -3.4027 -2.0016 0.9620
8.9531 -3.0829 -2.0016 0.9620
9.1514 -2.4318 -2.0016 0.9620
9.2329 -2.1013 -2.0016 0.9620
9.3025 -1.7681 -2.0016 0.9620
9.3600 -1.4326 -2.0016 0.9620
9.4598 -0.4168 -2.0016 0.9620
9.4653 0.2639 -2.0016 0.9620
9.4219 0.9431 -2.0016 0.9620
9.3298 1.6175 -2.0016 0.9620
9.1015 2.6124 -2.0016 0.9620
8.8904 3.2594 -2.0016 0.9620
8.6332 3.8897 -2.0016 0.9620
8.4879 4.1974 -2.0016 0.9620
7.9867 5.0867 -2.0016 0.9620
7.7988 5.3704 -2.0016 0.9620
7.3928 5.9168 -2.0016 0.9620
6.9487 6.4326 -2.0016 0.9620
6.7130 6.6782 -2.0016 0.9620
6.4687 6.9151 -2.0016 0.9620
6.2159 7.1431 -2.0016 0.9620
5.9552 7.3619 -2.0016 0.9620
5.1282 7.9602 -2.0016 0.9620
4.2416 8.4659 -2.0016 0.9620
3.9342 8.6122 -2.0014 0.9620
2.8770 8.6622 -1.9294 0.9634
1.2288 8.6623 -1.8494 0.9649
0.2893 8.7442 -1.8494 0.9649
-0.3396 8.7424 -1.8494 0.9649
-0.6536 8.7245 -1.8494 0.9649
-0.9667 8.6954 -1.8494 0.9649
-1.8971 8.5408 -1.8494 0.9649
-3.8246 8.2464 -1.9215 0.9635
-4.5642 8.2337 -1.9900 0.9622
-4.8728 8.0903 -1.9964 0.9621
-5.1678 7.9213 -1.9992 0.9621
-6.5083 6.8778 -2.0016 0.9620
-6.7513 6.6394 -2.0016 0.9620
-7.2108 6.1373 -2.0016 0.9620
-7.4267 5.8742 -2.0016 0.9620
-7.6330 5.6035 -2.0016 0.9620
-8.0159 5.0407 -2.0016 0.9620
-8.3573 4.4518 -2.0016 0.9620
-8.6555 3.8400 -2.0016 0.9620
-8.7879 3.5264 -2.0016 0.9620
-9.0185 2.8860 -2.0016 0.9620
-9.1164 2.5600 -2.0016 0.9620
-9.2025 2.2307 -2.0016 0.9620
-9.3390 1.5639 -2.0016 0.9620
-5.7650 -5.4032 -1.8570 0.9681
-5.3151 -6.6543 -2.0016 0.9656
-5.0726 -6.8410 -2.0016 0.9656
-4.8234 -7.0189 -2.0016 0.9656
-4.5680 -7.1877 -2.0016 0.9656
-4.3067 -7.3472 -2.0016 0.9656
-4.0399 -7.4973 -2.0016 0.9656
-3.7678 -7.6376 -2.0016 0.9656
-3.2094 -7.8886 -2.0016 0.9656
-2.3417 -8.1882 -2.0016 0.9656
-2.0459 -8.2671 -2.0016 0.9656
-1.1441 -8.4392 -2.0016 0.9656
-0.8401 -8.4749 -2.0016 0.9656
-0.5349 -8.4996 -2.0016 0.9656
0.9932 -8.4583 -2.0016 0.9656
1.8979 -8.3023 -2.0016 0.9656
2.1951 -8.2287 -2.0016 0.9656
2.4894 -8.1445 -2.0016 0.9656
3.0680 -7.9446 -2.0016 0.9656
3.3516 -7.8292 -2.0016 0.9656
3.6308 -7.7037 -2.0016 0.9656
2.3395 -4.1597 -1.1216 0.9806
4.9496 -6.9305 -2.0016 0.9656
5.1955 -6.7481 -2.0016 0.9656
6.7121 -5.2419 -2.0016 0.9656
7.0713 -4.7462 -2.0016 0.9656
7.2373 -4.4890 -2.0016 0.9656
7.3940 -4.2260 -2.0016 0.9656
7.6785 -3.6839 -2.0016 0.9656
7.9233 -3.1228 -2.0016 0.9656
8.0304 -2.8360 -2.0016 0.9656
8.1271 -2.5456 -2.0016 0.9656
8.2134 -2.2518 -2.0016 0.9656
8.3539 -1.6560 -2.0016 0.9656
8.4080 -1.3547 -2.0016 0.9656
8.4513 -1.0516 -2.0016 0.9656
8.4836 -0.7472 -2.0016 0.9656
8.5050 -0.4418 -2.0016 0.9656
8.5154 -0.1358 -2.0016 0.9656
8.5147 0.1703 -2.0016 0.9656
8.5031 0.4762 -2.0016 0.9656
8.4805 0.7815 -2.0016 0.9656
8.3471 1.6898 -2.0016 0.9656
8.2042 2.2851 -2.0016 0.9656
8.0188 2.8685 -2.0016 0.9656
7.9105 3.1549 -2.0016 0.9656
7.7920 3.4371 -2.0016 0.9656
7.6635 3.7150 -2.0016 0.9656
7.5250 3.9880 -2.0016 0.9656
7.3768 4.2559 -2.0016 0.9656
7.0520 4.7748 -2.0016 0.9656
6.8758 5.0252 -2.0016 0.9656
6.6908 5.2691 -2.0016 0.9656
6.0848 5.9586 -2.0016 0.9656
5.8667 6.1735 -2.0016 0.9656
5.6410 6.3804 -2.0016 0.9656
4.6685 7.1229 -2.0016 0.9656
4.4095 7.2860 -2.0016 0.9656
4.1447 7.4398 -2.0016 0.9656
3.8747 7.5840 -2.0016 0.9656
3.3198 7.8427 -2.0016 0.9656
3.0358 7.9570 -2.0016 0.9656
2.4545 8.1481 -2.0000 0.9656
2.1574 8.2211 -1.9976 0.9657
1.5560 8.3267 -1.9908 0.9658
1.2418 8.2843 -1.9688 0.9662
0.0412 8.2435 -1.9374 0.9667
-0.5523 8.2427 -1.9416 0.9666
-0.8507 8.2417 -1.9473 0.9665
-1.1511 8.2401 -1.9554 0.9664
-1.4544 8.2382 -1.9661 0.9662
-2.0715 8.2276 -1.9940 0.9657
-2.6608 8.0685 -1.9967 0.9657
-2.9514 7.9740 -1.9983 0.9657
-3.2390 7.8697 -2.0001 0.9656
-3.7987 7.6223 -2.0016 0.9656
-4.0702 7.4809 -2.0016 0.9656
-4.3365 7.3297 -2.0016 0.9656
-4.5971 7.1691 -2.0016 0.9656
-4.8518 6.9993 -2.0016 0.9656
-5.3421 6.6327 -2.0016 0.9656
-5.5770 6.4364 -2.0016 0.9656
-6.0249 6.0191 -2.0016 0.9656
-6.2374 5.7987 -2.0016 0.9656
-6.4418 5.5708 -2.0016 0.9656
-6.6378 5.3357 -2.0016 0.9656
-7.1736 4.5902 -2.0016 0.9656
-7.4848 4.0630 -2.0016 0.9656
-7.6260 3.7914 -2.0016 0.9656
-7.8786 3.2337 -2.0016 0.9656
-8.1809 2.3669 -2.0016 0.9656
-8.3298 1.7731 -2.0016 0.9656
-8.4357 1.1702 -2.0016 0.9656
-8.4723 0.8662 -2.0016 0.9656
-8.5126 0.2554 -2.0016 0.9656
-8.5090 -0.3568 -2.0016 0.9656
-8.4906 -0.6624 -2.0016 0.9656
-8.4614 -0.9671 -2.0016 0.9656
-8.3700 -1.5725 -2.0016 0.9656
-7.5633 -2.2863 -1.8570 0.9681
-7.3795 -2.8237 -1.8570 0.9681
-7.1576 -3.3465 -1.8570 0.9681
-7.0327 -3.6016 -1.8570 0.9681
-6.8987 -3.8520 -1.8570 0.9681
-6.4440 -4.5722 -1.8570 0.9681
-6.2755 -4.8008 -1.8570 0.9681
-5.7223 -5.4484 -1.8570 0.9681
-5.5228 -5.6506 -1.8570 0.9681
-5.2626 -6.6959 -2.0016 0.9656
-5.0186 -6.8807 -2.0016 0.9656
-4.5113 -7.2234 -2.0016 0.9656
-4.2488 -7.3809 -2.0016 0.9656
-3.9808 -7.5288 -2.0016 0.9656
-3.7076 -7.6670 -2.0016 0.9656
-3.4296 -7.7953 -2.0016 0.9656
-2.5706 -8.1192 -2.0016 0.9656
-1.9807 -8.2829 -2.0016 0.9656
-1.6818 -8.3487 -2.0016 0.9656
-1.3806 -8.4038 -2.0016 0.9656
-0.1621 -8.5149 -2.0016 0.9656
0.1440 -8.5152 -2.0016 0.9656
0.7554 -8.4829 -2.0016 0.9656
1.3628 -8.4067 -2.0016 0.9656
2.2598 -8.2112 -2.0016 0.9656
2.5534 -8.1246 -2.0016 0.9656
3.1305 -7.9202 -2.0016 0.9656
3.4131 -7.8026 -2.0016 0.9656
2.1990 -4.1804 -1.1101 0.9808
4.7530 -7.0667 -2.0016 0.9656
5.7167 -6.3127 -2.0016 0.9656
5.9398 -6.1031 -2.0016 0.9656
6.9353 -4.9429 -2.0016 0.9656
7.1084 -4.6904 -2.0016 0.9656
7.2724 -4.4319 -2.0016 0.9656
7.4270 -4.1677 -2.0016 0.9656
7.7072 -3.6234 -2.0016 0.9656
7.8325 -3.3440 -2.0016 0.9656
7.9476 -3.0604 -2.0016 0.9656
8.0524 -2.7727 -2.0016 0.9656
8.1469 -2.4815 -2.0016 0.9656
8.3667 -1.5902 -2.0016 0.9656
8.4184 -1.2885 -2.0016 0.9656
8.5082 -0.3748 -2.0016 0.9656
8.5131 0.2373 -2.0016 0.9656
8.4991 0.5431 -2.0016 0.9656
8.4741 0.8482 -2.0016 0.9656
8.1859 2.3496 -2.0016 0.9656
8.0962 2.6423 -2.0016 0.9656
7.9960 2.9315 -2.0016 0.9656
7.8855 3.2170 -2.0016 0.9656
7.6340 3.7752 -2.0016 0.9656
7.4934 4.0471 -2.0016 0.9656
7.3431 4.3138 -2.0016 0.9656
7.1833 4.5750 -2.0016 0.9656
7.0142 4.8302 -2.0016 0.9656
6.8361 5.0791 -2.0016 0.9656
6.4536 5.5571 -2.0016 0.9656
6.2497 5.7855 -2.0016 0.9656
4.8666 6.9890 -2.0016 0.9656
3.8149 7.6142 -2.0016 0.9656
3.5387 7.7464 -2.0016 0.9656
2.9731 7.9806 -2.0016 0.9656
2.6844 8.0823 -2.0016 0.9656
2.3896 8.1650 -1.9994 0.9656
1.7929 8.2971 -1.9950 0.9657
1.4866 8.3174 -1.9858 0.9659
1.1739 8.2751 -1.9643 0.9662
0.2727 8.2433 -1.9384 0.9667
-0.0237 8.2435 -1.9374 0.9667
-0.3202 8.2432 -1.9388 0.9667
-1.2173 8.2398 -1.9575 0.9664
-1.5213 8.2377 -1.9688 0.9662
-1.8291 8.2351 -1.9826 0.9659
-2.4318 8.1354 -1.9956 0.9657
-2.7247 8.0486 -1.9971 0.9657
-3.0146 7.9520 -1.9987 0.9657
-3.3015 7.8456 -2.0005 0.9656
-3.5832 7.7260 -2.0016 0.9656
-3.8586 7.5922 -2.0016 0.9656
-4.6534 7.1327 -2.0016 0.9656
-4.9067 6.9609 -2.0016 0.9656
-5.1537 6.7800 -2.0016 0.9656
-5.3941 6.5904 -2.0016 0.9656
-5.6275 6.3923 -2.0016 0.9656
-6.2828 5.7494 -2.0016 0.9656
-7.3678 4.2715 -2.0016 0.9656
-7.5165 4.0040 -2.0016 0.9656
-7.6556 3.7312 -2.0016 0.9656
-7.7847 3.4537 -2.0016 0.9656
-8.1112 2.5957 -2.0016 0.9656
-8.1993 2.3025 -2.0016 0.9656
-8.4446 1.1037 -2.0016 0.9656
-8.4788 0.7995 -2.0016 0.9656
-5.0533 -5.0895 -1.8570 0.9708
-4.6746 -5.4393 -1.8570 0.9708
-4.4761 -5.6038 -1.8570 0.9708
-4.6044 -6.2097 -2.0016 0.9686
-4.3783 -6.3711 -2.0016 0.9686
-3.4201 -6.9328 -2.0016 0.9686
-3.1687 -7.0512 -2.0016 0.9686
-2.9132 -7.1605 -2.0016 0.9686
-1.8571 -7.5041 -2.0016 0.9686
-1.3132 -7.6181 -2.0016 0.9686
-1.0385 -7.6604 -2.0016 0.9686
0.0699 -7.7302 -2.0016 0.9686
1.7227 -7.5361 -2.0016 0.9686
2.2596 -7.3929 -2.0016 0.9686
4.9331 -5.9519 -2.0016 0.9686
5.3479 -5.5821 -2.0016 0.9686
5.7351 -5.1835 -2.0016 0.9686
6.0926 -4.7582 -2.0016 0.9686
6.5694 -4.0747 -2.0016 0.9686
6.7116 -3.8360 -2.0016 0.9686
6.9698 -3.3439 -2.0016 0.9686
7.0855 -3.0913 -2.0016 0.9686
7.2893 -2.5743 -2.0016 0.9686
7.4554 -2.0440 -2.0016 0.9686
7.5240 -1.7747 -2.0016 0.9686
7.6321 -1.2297 -2.0016 0.9686
7.6713 -0.9546 -2.0016 0.9686
7.7007 -0.6782 -2.0016 0.9686
7.7201 -0.4010 -2.0016 0.9686
7.7295 -0.1233 -2.0016 0.9686
7.7289 0.1546 -2.0016 0.9686
7.6979 0.7094 -2.0016 0.9686
7.6674 0.9856 -2.0016 0.9686
7.6270 1.2605 -2.0016 0.9686
7.4470 2.0742 -2.0016 0.9686
7.2788 2.6038 -2.0016 0.9686
7.0729 3.1199 -2.0016 0.9686
6.9562 3.3721 -2.0016 0.9686
6.8305 3.6200 -2.0016 0.9686
6.6960 3.8631 -2.0016 0.9686
6.2413 4.5614 -2.0016 0.9686
6.0733 4.7828 -2.0016 0.9686
5.8975 4.9980 -2.0016 0.9686
5.7141 5.2067 -2.0016 0.9686
5.5232 5.4087 -2.0016 0.9686
5.3253 5.6037 -2.0016 0.9686
4.2376 6.4655 -2.0016 0.9686
3.2674 7.0060 -2.0016 0.9686
3.0135 7.1189 -2.0016 0.9686
2.7557 7.2227 -2.0016 0.9686
2.4943 7.3170 -2.0016 0.9686
1.6922 7.5430 -2.0016 0.9686
1.4200 7.5989 -2.0016 0.9686
1.1460 7.6451 -2.0016 0.9686
0.8705 7.6813 -2.0016 0.9686
0.5938 7.7076 -2.0016 0.9686
0.0386 7.7304 -2.0016 0.9686
-1.0696 7.6561 -2.0016 0.9686
-1.3440 7.6128 -2.0016 0.9686
-1.6168 7.5595 -2.0016 0.9686
-1.8874 7.4965 -2.0016 0.9686
-2.6834 7.2498 -2.0016 0.9686
-2.9422 7.1487 -2.0016 0.9686
-3.4481 6.9189 -2.0016 0.9686
-3.6946 6.7905 -2.0016 0.9686
-3.9363 6.6533 -2.0016 0.9686
-4.4040 6.3533 -2.0016 0.9686
-5.0623 5.8424 -2.0016 0.9686
-6.0252 4.8432 -2.0016 0.9686
-6.1954 4.6236 -2.0016 0.9686
-6.3576 4.3979 -2.0016 0.9686
-6.6571 3.9298 -2.0016 0.9686
-6.7940 3.6880 -2.0016 0.9686
-6.9222 3.4415 -2.0016 0.9686
-7.0414 3.1904 -2.0016 0.9686
-7.2524 2.6764 -2.0016 0.9686
-7.3439 2.4140 -2.0016 0.9686
-7.4259 2.1485 -2.0016 0.9686
-7.4983 1.8802 -2.0016 0.9686
-7.6140 1.3367 -2.0016 0.9686
-7.7303 -0.0461 -2.0016 0.9686
-7.7237 -0.3239 -2.0016 0.9686
-7.6440 -1.1534 -2.0016 0.9686
-7.4754 -1.9694 -2.0016 0.9686
-7.3425 -2.2195 -1.9861 0.9688
-6.7863 -2.3207 -1.8570 0.9708
-6.4970 -3.0376 -1.8570 0.9708
-6.3837 -3.2692 -1.8570 0.9708
-6.2621 -3.4965 -1.8570 0.9708
-5.9947 -3.9373 -1.8570 0.9708
-5.8493 -4.1502 -1.8570 0.9708
-5.3686 -4.7557 -1.8570 0.9708
-5.0131 -5.1291 -1.8570 0.9708
-4.8255 -5.3060 -1.8570 0.9708
-4.6317 -5.4760 -1.8570 0.9708
-4.4319 -5.6389 -1.8570 0.9708
-4.0950 -6.5568 -2.0016 0.9686
-3.8567 -6.6997 -2.0016 0.9686
-3.6134 -6.8340 -2.0016 0.9686
-3.3654 -6.9595 -2.0016 0.9686
-3.1131 -7.0759 -2.0016 0.9686
-2.8568 -7.1833 -2.0016 0.9686
-2.5968 -7.2813 -2.0016 0.9686
-2.0670 -7.4490 -2.0016 0.9686
-1.7979 -7.5185 -2.0016 0.9686
-0.7020 -7.6985 -2.0016 0.9686
-0.1471 -7.7291 -2.0016 0.9686
0.1307 -7.7294 -2.0016 0.9686
0.6857 -7.7000 -2.0016 0.9686
2.0512 -7.4534 -2.0016 0.9686
2.3178 -7.3748 -2.0016 0.9686
2.8416 -7.1893 -2.0016 0.9686
3.0981 -7.0825 -2.0016 0.9686
2.3542 -4.1097 -1.2263 0.9806
4.0811 -6.5655 -2.0016 0.9686
4.3144 -6.4145 -2.0016 0.9686
4.5422 -6.2553 -2.0016 0.9686
4.7640 -6.0880 -2.0016 0.9686
4.9798 -5.9129 -2.0016 0.9686
5.1891 -5.7301 -2.0016 0.9686
5.3917 -5.5399 -2.0016 0.9686
5.7757 -5.1383 -2.0016 0.9686
5.9567 -4.9273 -2.0016 0.9686
6.1299 -4.7101 -2.0016 0.9686
6.2952 -4.4867 -2.0016 0.9686
6.4524 -4.2576 -2.0016 0.9686
6.8732 -3.5383 -2.0016 0.9686
7.1096 -3.0354 -2.0016 0.9686
7.3950 -2.2525 -2.0016 0.9686
7.5377 -1.7155 -2.0016 0.9686
7.5945 -1.4434 -2.0016 0.9686
7.6415 -1.1696 -2.0016 0.9686
7.6786 -0.8942 -2.0016 0.9686
7.7058 -0.6176 -2.0016 0.9686
7.7230 -0.3402 -2.0016 0.9686
7.7275 0.2154 -2.0016 0.9686
7.6594 1.0459 -2.0016 0.9686
7.6169 1.3205 -2.0016 0.9686
7.5645 1.5935 -2.0016 0.9686
6.8018 3.6736 -2.0016 0.9686
6.6654 3.9157 -2.0016 0.9686
5.8580 5.0443 -2.0016 0.9686
4.8618 6.0103 -2.0016 0.9686
4.1866 6.4987 -2.0016 0.9686
3.9504 6.6449 -2.0016 0.9686
3.4628 6.9115 -2.0016 0.9686
3.2121 7.0315 -2.0016 0.9686
2.9574 7.1424 -2.0016 0.9686
2.1714 7.4193 -2.0016 0.9686
1.6328 7.5561 -2.0016 0.9686
1.3602 7.6099 -2.0016 0.9686
0.8100 7.6879 -2.0016 0.9686
0.2556 7.7263 -2.0016 0.9686
-0.3001 7.7247 -2.0016 0.9686
-0.8542 7.6832 -2.0016 0.9686
-1.1298 7.6475 -2.0016 0.9686
-1.4039 7.6019 -2.0016 0.9686
-1.6762 7.5466 -2.0016 0.9686
-2.2140 7.4067 -2.0016 0.9686
-2.4788 7.3223 -2.0016 0.9686
-3.5025 6.8915 -2.0016 0.9686
-3.7479 6.7612 -2.0016 0.9686
-3.9885 6.6221 -2.0016 0.9686
-4.2239 6.4745 -2.0016 0.9686
-4.4539 6.3185 -2.0016 0.9686
-4.6781 6.1543 -2.0016 0.9686
-5.1081 5.8024 -2.0016 0.9686
-5.3134 5.6150 -2.0016 0.9686
-5.5117 5.4204 -2.0016 0.9686
-5.7030 5.2188 -2.0016 0.9686
-5.8869 5.0105 -2.0016 0.9686
-6.0632 4.7957 -2.0016 0.9686
-6.3920 4.3477 -2.0016 0.9686
-6.5441 4.1152 -2.0016 0.9686
-6.6878 3.8773 -2.0016 0.9686
-6.8228 3.6344 -2.0016 0.9686
-6.9491 3.3869 -2.0016 0.9686
-7.0663 3.1349 -2.0016 0.9686
-7.1744 2.8789 -2.0016 0.9686
-7.2732 2.6192 -2.0016 0.9686
-7.3627 2.3561 -2.0016 0.9686
-7.5129 1.8211 -2.0016 0.9686
-7.6963 0.7257 -2.0016 0.9686
-4.7861 -4.4857 -1.8570 0.9731
-4.4515 -4.8180 -1.8570 0.9731
-4.0939 -5.1253 -1.8570 0.9731
-3.1280 -6.3407 -2.0016 0.9710
-2.8981 -6.4491 -2.0016 0.9710
-2.6645 -6.5491 -2.0016 0.9710
-2.4274 -6.6406 -2.0016 0.9710
-1.2011 -6.9676 -2.0016 0.9710
-0.6974 -7.0358 -2.0016 0.9710
-0.4441 -7.0564 -2.0016 0.9710
0.0639 -7.0700 -2.0016 0.9710
1.0764 -6.9879 -2.0016 0.9710
1.3269 -6.9447 -2.0016 0.9710
2.0667 -6.7615 -2.0016 0.9710
2.3084 -6.6829 -2.0016 0.9710
2.5471 -6.5956 -2.0016 0.9710
2.3036 -4.0959 -1.3303 0.9807
3.6852 -6.0340 -2.0016 0.9710
4.1091 -5.7537 -2.0016 0.9710
4.5118 -5.4436 -2.0016 0.9710
5.0715 -4.9264 -2.0016 0.9710
5.2453 -4.7409 -2.0016 0.9710
5.7252 -4.1488 -2.0016 0.9710
6.0084 -3.7268 -2.0016 0.9710
6.1385 -3.5084 -2.0016 0.9710
6.3746 -3.0584 -2.0016 0.9710
6.4804 -2.8273 -2.0016 0.9710
6.8187 -1.8695 -2.0016 0.9710
7.0162 -0.8730 -2.0016 0.9710
7.0694 -0.1128 -2.0016 0.9710
7.0689 0.1414 -2.0016 0.9710
7.0593 0.3954 -2.0016 0.9710
6.9298 1.4029 -2.0016 0.9710
6.8749 1.6510 -2.0016 0.9710
6.8111 1.8971 -2.0016 0.9710
6.5673 2.6192 -2.0016 0.9710
6.4689 2.8535 -2.0016 0.9710
5.9933 3.7511 -2.0016 0.9710
5.7083 4.1719 -2.0016 0.9710
5.2261 4.7621 -2.0016 0.9710
5.0516 4.9468 -2.0016 0.9710
4.6831 5.2970 -2.0016 0.9710
3.8758 5.9134 -2.0016 0.9710
3.4409 6.1765 -2.0016 0.9710
2.5203 6.6059 -2.0016 0.9710
2.2813 6.6922 -2.0016 0.9710
2.0393 6.7699 -2.0016 0.9710
1.7947 6.8388 -2.0016 0.9710
1.5477 6.8989 -2.0016 0.9710
1.0481 6.9922 -2.0016 0.9710
0.7961 7.0254 -2.0016 0.9710
0.2894 7.0644 -2.0016 0.9710
-0.2188 7.0669 -2.0016 0.9710
-0.4727 7.0545 -2.0016 0.9710
-0.9782 7.0023 -2.0016 0.9710
-1.2293 6.9627 -2.0016 0.9710
-1.9716 6.7899 -2.0016 0.9710
-2.2143 6.7146 -2.0016 0.9710
-2.4542 6.6307 -2.0016 0.9710
-2.9242 6.4373 -2.0016 0.9710
-3.3791 6.2106 -2.0016 0.9710
-3.8165 5.9518 -2.0016 0.9710
-4.0279 5.8108 -2.0016 0.9710
-4.2342 5.6623 -2.0016 0.9710
-4.6300 5.3435 -2.0016 0.9710
-4.8191 5.1736 -2.0016 0.9710
-5.0019 4.9971 -2.0016 0.9710
-5.1783 4.8141 -2.0016 0.9710
-5.3479 4.6248 -2.0016 0.9710
-6.0886 3.5942 -2.0016 0.9710
-6.5408 2.6846 -2.0016 0.9710
-6.8580 1.7196 -2.0016 0.9710
-6.9154 1.4720 -2.0016 0.9710
-6.9638 1.2225 -2.0016 0.9710
-7.0337 0.7191 -2.0016 0.9710
-7.0702 -0.0421 -2.0016 0.9710
-7.0641 -0.2962 -2.0016 0.9710
-7.0489 -0.5499 -2.0016 0.9710
-6.9912 -1.0549 -2.0016 0.9710
-6.9488 -1.3055 -2.0016 0.9710
-6.8974 -1.5544 -2.0016 0.9710
-6.7679 -2.0458 -2.0016 0.9710
-6.0382 -2.5629 -1.8570 0.9731
-5.7273 -3.1979 -1.8570 0.9731
-5.4828 -3.6011 -1.8570 0.9731
-4.9101 -4.3496 -1.8570 0.9731
-4.7506 -4.5233 -1.8570 0.9731
-4.2362 -5.0083 -1.8570 0.9731
-4.0534 -5.1574 -1.8570 0.9731
-3.8654 -5.2997 -1.8570 0.9731
-3.4747 -5.5637 -1.8570 0.9731
-3.3048 -6.2504 -2.0016 0.9710
-3.0780 -6.3652 -2.0016 0.9710
-2.8473 -6.4717 -2.0016 0.9710
-2.6128 -6.5698 -2.0016 0.9710
-2.3750 -6.6595 -2.0016 0.9710
-1.8905 -6.8129 -2.0016 0.9710
-1.6444 -6.8764 -2.0016 0.9710
-1.3962 -6.9311 -2.0016 0.9710
-1.1462 -6.9768 -2.0016 0.9710
-0.6420 -7.0411 -2.0016 0.9710
0.1196 -7.0693 -2.0016 0.9710
0.3736 -7.0605 -2.0016 0.9710
0.6271 -7.0425 -2.0016 0.9710
1.1314 -6.9792 -2.0016 0.9710
1.3815 -6.9341 -2.0016 0.9710
2.5989 -6.5754 -2.0016 0.9710
2.0914 -4.3484 -1.3660 0.9801
2.1557 -4.0981 -1.3109 0.9809
3.7326 -6.0048 -2.0016 0.9710
4.3572 -5.5682 -2.0016 0.9710
4.5545 -5.4079 -2.0016 0.9710
5.1102 -4.8863 -2.0016 0.9710
5.2825 -4.6995 -2.0016 0.9710
5.4480 -4.5066 -2.0016 0.9710
5.6064 -4.3079 -2.0016 0.9710
5.7576 -4.1036 -2.0016 0.9710
6.5981 -2.5407 -2.0016 0.9710
6.6851 -2.3019 -2.0016 0.9710
6.8332 -1.8157 -2.0016 0.9710
6.8940 -1.5690 -2.0016 0.9710
6.9460 -1.3202 -2.0016 0.9710
7.0229 -0.8178 -2.0016 0.9710
7.0676 0.1970 -2.0016 0.9710
7.0559 0.4509 -2.0016 0.9710
7.0352 0.7042 -2.0016 0.9710
6.9185 1.4574 -2.0016 0.9710
6.7959 1.9506 -2.0016 0.9710
6.7214 2.1936 -2.0016 0.9710
6.4463 2.9043 -2.0016 0.9710
6.3377 3.1341 -2.0016 0.9710
6.0962 3.5813 -2.0016 0.9710
5.9635 3.7981 -2.0016 0.9710
5.8232 4.0100 -2.0016 0.9710
5.5201 4.4180 -2.0016 0.9710
5.3577 4.6135 -2.0016 0.9710
5.0125 4.9864 -2.0016 0.9710
4.8300 5.1634 -2.0016 0.9710
4.6413 5.3336 -2.0016 0.9710
4.2462 5.6533 -2.0016 0.9710
3.8291 5.9437 -2.0016 0.9710
3.6130 6.0775 -2.0016 0.9710
3.3922 6.2034 -2.0016 0.9710
2.7048 6.5325 -2.0016 0.9710
2.2286 6.7099 -2.0016 0.9710
1.9860 6.7857 -2.0016 0.9710
1.4934 6.9108 -2.0016 0.9710
1.2440 6.9600 -2.0016 0.9710
0.7408 7.0314 -2.0016 0.9710
0.2338 7.0665 -2.0016 0.9710
-0.2744 7.0650 -2.0016 0.9710
-0.5282 7.0506 -2.0016 0.9710
-0.7812 7.0270 -2.0016 0.9710
-1.2840 6.9528 -2.0016 0.9710
-1.5331 6.9021 -2.0016 0.9710
-2.9748 6.4141 -2.0016 0.9710
-3.2034 6.3030 -2.0016 0.9710
-3.4278 6.1838 -2.0016 0.9710
-3.6479 6.0566 -2.0016 0.9710
-4.0735 5.7789 -2.0016 0.9710
-4.2786 5.6288 -2.0016 0.9710
-4.4781 5.4714 -2.0016 0.9710
-4.6719 5.3069 -2.0016 0.9710
-4.8596 5.1355 -2.0016 0.9710
-5.2160 4.7732 -2.0016 0.9710
-5.5454 4.3861 -2.0016 0.9710
-5.9853 3.7638 -2.0016 0.9710
-6.1167 3.5462 -2.0016 0.9710
-6.2402 3.3241 -2.0016 0.9710
-6.5617 2.6331 -2.0016 0.9710
-6.6521 2.3955 -2.0016 0.9710
-6.8070 1.9115 -2.0016 0.9710
-6.8713 1.6656 -2.0016 0.9710
-6.9268 1.4176 -2.0016 0.9710
-6.9732 1.1677 -2.0016 0.9710
-7.0107 0.9163 -2.0016 0.9710
-4.6903 -3.8015 -1.8570 0.9751
-4.2538 -4.2843 -1.8570 0.9751
-4.0971 -4.4344 -1.8570 0.9751
-3.9351 -4.5788 -1.8570 0.9751
-3.7680 -4.7173 -1.8570 0.9751
-3.4194 -4.9758 -1.8570 0.9751
-3.0531 -5.2086 -1.8570 0.9751
-2.8639 -5.3149 -1.8570 0.9751
-2.4747 -5.5069 -1.8570 0.9751
-2.0727 -5.6705 -1.8570 0.9751
-2.0130 -6.1883 -2.0016 0.9731
-1.5633 -6.3169 -2.0016 0.9731
-1.3352 -6.3690 -2.0016 0.9731
-1.1054 -6.4129 -2.0016 0.9731
-0.4087 -6.4946 -2.0016 0.9731
0.5262 -6.4862 -2.0016 0.9731
0.7589 -6.4631 -2.0016 0.9731
0.9907 -6.4316 -2.0016 0.9731
1.2213 -6.3919 -2.0016 0.9731
1.4502 -6.3438 -2.0016 0.9731
1.9022 -6.2233 -2.0016 0.9731
2.3760 -5.5502 -1.8570 0.9751
2.0742 -4.4009 -1.4964 0.9798
2.1126 -4.0941 -1.4170 0.9809
2.2955 -4.0815 -1.4403 0.9806
3.3918 -5.5536 -2.0016 0.9731
3.5892 -5.4281 -2.0016 0.9731
3.7820 -5.2956 -2.0016 0.9731
3.9699 -5.1563 -2.0016 0.9731
4.3300 -4.8578 -2.0016 0.9731
4.6678 -4.5342 -2.0016 0.9731
4.9815 -4.1871 -2.0016 0.9731
5.4032 -3.6266 -2.0016 0.9731
5.6498 -3.2291 -2.0016 0.9731
5.7622 -3.0240 -2.0016 0.9731
5.9645 -2.6022 -2.0016 0.9731
6.0542 -2.3862 -2.0016 0.9731
6.1361 -2.1670 -2.0016 0.9731
6.2100 -1.9451 -2.0016 0.9731
6.2759 -1.7206 -2.0016 0.9731
6.3337 -1.4940 -2.0016 0.9731
6.3833 -1.2654 -2.0016 0.9731
6.4824 -0.5709 -2.0016 0.9731
6.4987 -0.3376 -2.0016 0.9731
6.5067 -0.1038 -2.0016 0.9731
6.4800 0.5972 -2.0016 0.9731
6.4204 1.0611 -2.0016 0.9731
6.3781 1.2912 -2.0016 0.9731
6.3276 1.5196 -2.0016 0.9731
6.1272 2.1919 -2.0016 0.9731
6.0445 2.4107 -2.0016 0.9731
5.9540 2.6263 -2.0016 0.9731
5.7499 3.0473 -2.0016 0.9731
5.6367 3.2520 -2.0016 0.9731
5.3885 3.6485 -2.0016 0.9731
5.1125 4.0261 -2.0016 0.9731
4.8101 4.3830 -2.0016 0.9731
4.4828 4.7172 -2.0016 0.9731
4.3103 4.8753 -2.0016 0.9731
3.7605 5.3109 -2.0016 0.9731
2.7505 5.8976 -2.0016 0.9731
2.5367 5.9927 -2.0016 0.9731
2.0997 6.1594 -2.0016 0.9731
1.8770 6.2309 -2.0016 0.9731
1.6518 6.2944 -2.0016 0.9731
1.4245 6.3497 -2.0016 0.9731
1.1954 6.3968 -2.0016 0.9731
0.9647 6.4356 -2.0016 0.9731
0.7328 6.4661 -2.0016 0.9731
0.4999 6.4883 -2.0016 0.9731
0.2664 6.5020 -2.0016 0.9731
-0.2014 6.5044 -2.0016 0.9731
-0.4350 6.4929 -2.0016 0.9731
-0.6681 6.4731 -2.0016 0.9731
-1.1314 6.4084 -2.0016 0.9731
-1.3610 6.3636 -2.0016 0.9731
-1.5888 6.3105 -2.0016 0.9731
-1.8146 6.2494 -2.0016 0.9731
-2.2588 6.1029 -2.0016 0.9731
-2.4767 6.0177 -2.0016 0.9731
-2.9026 5.8243 -2.0016 0.9731
-3.7073 5.3482 -2.0016 0.9731
-4.0819 5.0681 -2.0016 0.9731
-4.2614 4.9181 -2.0016 0.9731
-4.4354 4.7618 -2.0016 0.9731
-4.6037 4.5993 -2.0016 0.9731
-5.4814 3.5074 -2.0016 0.9731
-5.7192 3.1046 -2.0016 0.9731
-5.9274 2.6857 -2.0016 0.9731
-6.1050 2.2530 -2.0016 0.9731
-6.1821 2.0321 -2.0016 0.9731
-6.2511 1.8086 -2.0016 0.9731
-6.4458 0.8941 -2.0016 0.9731
-6.4933 0.4288 -2.0016 0.9731
-6.5074 -0.0388 -2.0016 0.9731
-6.5018 -0.2726 -2.0016 0.9731
-6.4878 -0.5061 -2.0016 0.9731
-6.4654 -0.7390 -2.0016 0.9731
-6.3956 -1.2015 -2.0016 0.9731
-6.3483 -1.4306 -2.0016 0.9731
-6.1574 -2.1056 -2.0016 0.9731
-5.2714 -2.9433 -1.8570 0.9751
-5.1622 -3.1309 -1.8570 0.9751
-5.0463 -3.3144 -1.8570 0.9751
-4.9239 -3.4936 -1.8570 0.9751
-4.7952 -3.6684 -1.8570 0.9751
-4.5193 -4.0033 -1.8570 0.9751
-4.3725 -4.1632 -1.8570 0.9751
-3.8989 -4.6096 -1.8570 0.9751
-3.1981 -5.1208 -1.8570 0.9751
-2.8220 -5.3373 -1.8570 0.9751
-2.4313 -5.5262 -1.8570 0.9751
-2.2311 -5.6100 -1.8570 0.9751
-2.1859 -6.1293 -2.0016 0.9731
-1.9642 -6.2040 -2.0016 0.9731
-1.7400 -6.2705 -2.0016 0.9731
-1.5135 -6.3290 -2.0016 0.9731
-1.0549 -6.4214 -2.0016 0.9731
-0.5909 -6.4806 -2.0016 0.9731
-0.1239 -6.5063 -2.0016 0.9731
0.1101 -6.5065 -2.0016 0.9731
0.3438 -6.4984 -2.0016 0.9731
0.5772 -6.4818 -2.0016 0.9731
1.0413 -6.4236 -2.0016 0.9731
1.5001 -6.3322 -2.0016 0.9731
2.1729 -6.1340 -2.0016 0.9731
2.0773 -4.3191 -1.4741 0.9801
2.1482 -4.0838 -1.4193 0.9809
3.4354 -5.5268 -2.0016 0.9731
3.6318 -5.3997 -2.0016 0.9731
3.8236 -5.2657 -2.0016 0.9731
4.1919 -4.9774 -2.0016 0.9731
4.3681 -4.8236 -2.0016 0.9731
4.5387 -4.6634 -2.0016 0.9731
5.1601 -3.9649 -2.0016 0.9731
5.4316 -3.5840 -2.0016 0.9731
5.5569 -3.3865 -2.0016 0.9731
5.6750 -3.1845 -2.0016 0.9731
5.7858 -2.9785 -2.0016 0.9731
5.9848 -2.5552 -2.0016 0.9731
6.2251 -1.8962 -2.0016 0.9731
6.3452 -1.4441 -2.0016 0.9731
6.3930 -1.2151 -2.0016 0.9731
6.4326 -0.9845 -2.0016 0.9731
6.4867 -0.5199 -2.0016 0.9731
6.5012 -0.2864 -2.0016 0.9731
6.5050 0.1813 -2.0016 0.9731
6.4476 0.8805 -2.0016 0.9731
6.3154 1.5694 -2.0016 0.9731
6.2549 1.7953 -2.0016 0.9731
6.0253 2.4582 -2.0016 0.9731
5.7258 3.0924 -2.0016 0.9731
5.6109 3.2962 -2.0016 0.9731
5.4888 3.4958 -2.0016 0.9731
5.3596 3.6908 -2.0016 0.9731
5.2235 3.8810 -2.0016 0.9731
5.0806 4.0662 -2.0016 0.9731
4.6134 4.5895 -2.0016 0.9731
4.4455 4.7523 -2.0016 0.9731
4.2718 4.9090 -2.0016 0.9731
3.3254 5.5937 -2.0016 0.9731
2.4895 6.0125 -2.0016 0.9731
2.0511 6.1758 -2.0016 0.9731
1.8279 6.2455 -2.0016 0.9731
1.3745 6.3607 -2.0016 0.9731
1.1450 6.4060 -2.0016 0.9731
0.9140 6.4430 -2.0016 0.9731
0.6818 6.4717 -2.0016 0.9731
0.4488 6.4920 -2.0016 0.9731
0.2152 6.5039 -2.0016 0.9731
-0.4861 6.4893 -2.0016 0.9731
-0.7190 6.4676 -2.0016 0.9731
-0.9510 6.4376 -2.0016 0.9731
-1.1818 6.3993 -2.0016 0.9731
-1.6384 6.2978 -2.0016 0.9731
-2.5240 5.9981 -2.0016 0.9731
-3.7493 5.3189 -2.0016 0.9731
-4.1217 5.0358 -2.0016 0.9731
-4.3000 4.8844 -2.0016 0.9731
-4.4728 4.7267 -2.0016 0.9731
-4.6398 4.5629 -2.0016 0.9731
-4.9555 4.2178 -2.0016 0.9731
-5.1039 4.0370 -2.0016 0.9731
-5.2457 3.8509 -2.0016 0.9731
-5.5088 3.4641 -2.0016 0.9731
-5.7434 3.0595 -2.0016 0.9731
-5.9484 2.6390 -2.0016 0.9731
-6.0394 2.4235 -2.0016 0.9731
-6.1226 2.2048 -2.0016 0.9731
-6.1979 1.9834 -2.0016 0.9731
-6.2652 1.7593 -2.0016 0.9731
-6.3243 1.5330 -2.0016 0.9731
-6.3753 1.3047 -2.0016 0.9731
-6.4526 0.8434 -2.0016 0.9731
-6.4787 0.6109 -2.0016 0.9731
-4.3400 -3.5176 -1.8570 0.9767
-4.2107 -3.6713 -1.8570 0.9767
-3.7911 -4.1032 -1.8570 0.9767
-3.3274 -4.4874 -1.8570 0.9767
-3.1640 -4.6041 -1.8570 0.9767
-2.8251 -4.8195 -1.8570 0.9767
-1.9179 -5.2469 -1.8570 0.9767
-1.7281 -5.3125 -1.8570 0.9767
-1.3420 -5.4229 -1.8570 0.9767
-0.7516 -5.5438 -1.8596 0.9767
-0.3509 -5.5755 -1.8570 0.9767
0.0505 -5.5863 -1.8570 0.9767
0.2513 -5.5808 -1.8570 0.9767
0.6515 -5.5484 -1.8570 0.9767
0.8505 -5.5214 -1.8570 0.9767
1.0484 -5.4872 -1.8570 0.9767
1.2450 -5.4460 -1.8570 0.9767
1.6330 -5.3425 -1.8570 0.9767
1.8239 -5.2804 -1.8570 0.9767
2.0125 -5.2114 -1.8570 0.9767
2.1985 -5.1357 -1.8570 0.9767
2.0599 -4.3705 -1.6061 0.9798
2.2873 -4.0669 -1.5510 0.9805
2.9118 -4.7676 -1.8570 0.9767
3.4080 -4.4265 -1.8570 0.9767
4.1656 -4.3481 -2.0016 0.9749
4.3192 -4.1955 -2.0016 0.9749
4.4672 -4.0376 -2.0016 0.9749
4.6094 -3.8744 -2.0016 0.9749
4.7457 -3.7062 -2.0016 0.9749
4.8758 -3.5333 -2.0016 0.9749
5.1171 -3.1739 -2.0016 0.9749
5.2278 -2.9879 -2.0016 0.9749
5.3318 -2.7981 -2.0016 0.9749
5.4289 -2.6047 -2.0016 0.9749
5.6020 -2.2079 -2.0016 0.9749
5.6778 -2.0052 -2.0016 0.9749
5.7462 -1.7998 -2.0016 0.9749
5.8071 -1.5921 -2.0016 0.9749
5.8606 -1.3824 -2.0016 0.9749
5.9448 -0.9578 -2.0016 0.9749
6.0133 -0.3124 -2.0016 0.9749
6.0207 -0.0960 -2.0016 0.9749
6.0120 0.3367 -2.0016 0.9749
5.9960 0.5526 -2.0016 0.9749
5.9723 0.7677 -2.0016 0.9749
5.9408 0.9819 -2.0016 0.9749
5.8006 1.6156 -2.0016 0.9749
5.7388 1.8231 -2.0016 0.9749
5.6696 2.0281 -2.0016 0.9749
5.4184 2.6266 -2.0016 0.9749
5.2157 3.0091 -2.0016 0.9749
5.1042 3.1946 -2.0016 0.9749
4.9860 3.3760 -2.0016 0.9749
4.3022 4.2130 -2.0016 0.9749
4.1480 4.3649 -2.0016 0.9749
3.8237 4.6516 -2.0016 0.9749
3.6540 4.7860 -2.0016 0.9749
3.4797 4.9142 -2.0016 0.9749
3.3008 5.0361 -2.0016 0.9749
2.9305 5.2602 -2.0016 0.9749
2.5450 5.4572 -2.0016 0.9749
2.3473 5.5451 -2.0016 0.9749
2.1465 5.6259 -2.0016 0.9749
1.9429 5.6994 -2.0016 0.9749
1.7368 5.7655 -2.0016 0.9749
1.5284 5.8242 -2.0016 0.9749
1.3181 5.8754 -2.0016 0.9749
0.6780 5.9831 -2.0016 0.9749
0.4626 6.0037 -2.0016 0.9749
0.2465 6.0164 -2.0016 0.9749
-0.4026 6.0080 -2.0016 0.9749
-1.2593 5.8883 -2.0016 0.9749
-1.4702 5.8392 -2.0016 0.9749
-1.6791 5.7826 -2.0016 0.9749
-2.2917 5.5683 -2.0016 0.9749
-2.4904 5.4823 -2.0016 0.9749
-3.0660 5.1824 -2.0016 0.9749
-3.4304 4.9488 -2.0016 0.9749
-3.6060 4.8223 -2.0016 0.9749
-3.7770 4.6895 -2.0016 0.9749
-4.1042 4.4061 -2.0016 0.9749
-4.2599 4.2557 -2.0016 0.9749
-4.5546 3.9387 -2.0016 0.9749
-4.6932 3.7725 -2.0016 0.9749
-4.8257 3.6014 -2.0016 0.9749
-4.9521 3.4256 -2.0016 0.9749
-5.3918 2.6806 -2.0016 0.9749
-5.5705 2.2864 -2.0016 0.9749
-5.6491 2.0847 -2.0016 0.9749
-5.7203 1.8803 -2.0016 0.9749
-5.8406 1.4645 -2.0016 0.9749
-5.9307 1.0412 -2.0016 0.9749
-6.0187 0.1806 -2.0016 0.9749
-6.0213 -0.0359 -2.0016 0.9749
-6.0032 -0.4683 -2.0016 0.9749
-5.8741 -1.3238 -2.0016 0.9749
-5.7639 -1.7423 -2.0016 0.9749
-5.6975 -1.9484 -2.0016 0.9749
-5.6238 -2.1519 -2.0016 0.9749
-4.9724 -2.5464 -1.8570 0.9767
-4.8776 -2.7235 -1.8570 0.9767
-4.7766 -2.8971 -1.8570 0.9767
-4.5561 -3.2327 -1.8570 0.9767
-4.4370 -3.3944 -1.8570 0.9767
-4.3122 -3.5516 -1.8570 0.9767
-4.1817 -3.7043 -1.8570 0.9767
-4.0459 -3.8522 -1.8570 0.9767
-3.7587 -4.1329 -1.8570 0.9767
-3.6077 -4.2654 -1.8570 0.9767
-3.2920 -4.5135 -1.8570 0.9767
-2.9593 -4.7383 -1.8570 0.9767
-2.6112 -4.9387 -1.8570 0.9767
-2.4320 -5.0293 -1.8570 0.9767
-2.2497 -5.1135 -1.8570 0.9767
-2.0645 -5.1910 -1.8570 0.9767
-1.8766 -5.2619 -1.8570 0.9767
-1.6862 -5.3259 -1.8570 0.9767
-1.2993 -5.4333 -1.8570 0.9767
-1.1032 -5.4765 -1.8570 0.9767
-0.7074 -5.5452 -1.8582 0.9767
-0.5073 -5.5634 -1.8570 0.9767
-0.3070 -5.5780 -1.8570 0.9767
-0.1063 -5.5855 -1.8570 0.9767
1.2878 -5.4360 -1.8570 0.9767
1.4823 -5.3862 -1.8570 0.9767
1.6750 -5.3295 -1.8570 0.9767
2.0535 -5.1954 -1.8570 0.9767
2.2389 -5.1182 -1.8570 0.9767
2.3292 -4.0662 -1.5577 0.9804
2.9492 -4.7446 -1.8570 0.9767
3.1178 -4.6355 -1.8570 0.9767
3.2824 -4.5205 -1.8570 0.9767
3.4428 -4.3996 -1.8570 0.9767
3.8789 -4.6057 -2.0016 0.9749
4.0419 -4.4633 -2.0016 0.9749
4.1997 -4.3151 -2.0016 0.9749
4.3521 -4.1614 -2.0016 0.9749
5.0259 -3.3163 -2.0016 0.9749
5.1419 -3.1335 -2.0016 0.9749
5.2512 -2.9467 -2.0016 0.9749
5.3537 -2.7561 -2.0016 0.9749
5.4493 -2.5619 -2.0016 0.9749
5.5378 -2.3644 -2.0016 0.9749
5.6192 -2.1638 -2.0016 0.9749
5.7602 -1.7545 -2.0016 0.9749
5.8713 -1.3362 -2.0016 0.9749
5.9155 -1.1243 -2.0016 0.9749
5.9810 -0.6965 -2.0016 0.9749
6.0156 -0.2650 -2.0016 0.9749
6.0191 0.1678 -2.0016 0.9749
5.7243 1.8682 -2.0016 0.9749
5.6535 2.0727 -2.0016 0.9749
5.5753 2.2746 -2.0016 0.9749
5.4900 2.4735 -2.0016 0.9749
5.3975 2.6692 -2.0016 0.9749
5.2981 2.8615 -2.0016 0.9749
4.9593 3.4151 -2.0016 0.9749
4.8334 3.5911 -2.0016 0.9749
4.7012 3.7625 -2.0016 0.9749
4.4187 4.0905 -2.0016 0.9749
4.2689 4.2467 -2.0016 0.9749
4.1135 4.3974 -2.0016 0.9749
3.6163 4.8146 -2.0016 0.9749
3.4409 4.9415 -2.0016 0.9749
3.2611 5.0619 -2.0016 0.9749
2.6972 5.3835 -2.0016 0.9749
2.3035 5.5634 -2.0016 0.9749
2.1021 5.6426 -2.0016 0.9749
1.8980 5.7145 -2.0016 0.9749
0.1991 6.0181 -2.0016 0.9749
-0.0173 6.0214 -2.0016 0.9749
-0.4498 6.0046 -2.0016 0.9749
-0.6653 5.9846 -2.0016 0.9749
-0.8800 5.9568 -2.0016 0.9749
-1.3056 5.8782 -2.0016 0.9749
-1.5161 5.8275 -2.0016 0.9749
-1.9308 5.7035 -2.0016 0.9749
-2.1345 5.6304 -2.0016 0.9749
-2.5335 5.4625 -2.0016 0.9749
-2.9193 5.2664 -2.0016 0.9749
-3.1067 5.1581 -2.0016 0.9749
-3.4692 4.9216 -2.0016 0.9749
-3.6439 4.7937 -2.0016 0.9749
-3.9788 4.5196 -2.0016 0.9749
-4.1387 4.3737 -2.0016 0.9749
-4.2932 4.2221 -2.0016 0.9749
-4.4422 4.0651 -2.0016 0.9749
-4.5854 3.9028 -2.0016 0.9749
-4.7227 3.7354 -2.0016 0.9749
-4.8539 3.5633 -2.0016 0.9749
-5.2093 3.0201 -2.0016 0.9749
-5.3145 2.8309 -2.0016 0.9749
-5.4128 2.6381 -2.0016 0.9749
-5.5041 2.4419 -2.0016 0.9749
-5.5883 2.2425 -2.0016 0.9749
-5.7972 1.6279 -2.0016 0.9749
-5.8520 1.4185 -2.0016 0.9749
-5.9387 0.9945 -2.0016 0.9749
-5.9707 0.7804 -2.0016 0.9749
-3.9140 -3.4126 -1.8570 0.9782
-3.6587 -3.6849 -1.8570 0.9782
-3.5239 -3.8141 -1.8570 0.9782
-3.2408 -4.0573 -1.8570 0.9782
-3.0929 -4.1712 -1.8570 0.9782
-2.6260 -4.4799 -1.8570 0.9782
-2.4633 -4.5714 -1.8570 0.9782
-2.1285 -4.7365 -1.8570 0.9782
-1.9569 -4.8099 -1.8570 0.9782
-1.4278 -4.9926 -1.8570 0.9782
-0.8821 -5.1173 -1.8570 0.9782
-0.5122 -5.1675 -1.8570 0.9782
-0.3262 -5.1825 -1.8570 0.9782
0.0470 -5.1926 -1.8570 0.9782
0.2336 -5.1875 -1.8570 0.9782
0.4199 -5.1758 -1.8570 0.9782
0.6056 -5.1574 -1.8570 0.9782
1.1572 -5.0622 -1.8570 0.9782
1.3384 -5.0173 -1.8570 0.9782
1.6954 -4.9082 -1.8570 0.9782
1.8707 -4.8441 -1.8570 0.9782
2.1062 -4.0817 -1.6425 0.9807
2.4519 -4.0147 -1.6823 0.9802
3.1679 -4.1146 -1.8570 0.9782
3.8720 -4.0416 -2.0016 0.9765
4.0148 -3.8999 -2.0016 0.9765
4.1524 -3.7530 -2.0016 0.9765
4.2846 -3.6014 -2.0016 0.9765
4.7564 -2.9502 -2.0016 0.9765
5.0464 -2.4211 -2.0016 0.9765
5.2776 -1.8639 -2.0016 0.9765
5.3412 -1.6730 -2.0016 0.9765
5.4476 -1.2850 -2.0016 0.9765
5.4903 -1.0883 -2.0016 0.9765
5.5543 -0.6911 -2.0016 0.9765
5.5755 -0.4911 -2.0016 0.9765
5.5896 -0.2903 -2.0016 0.9765
5.5964 -0.0893 -2.0016 0.9765
5.5883 0.3130 -2.0016 0.9765
5.5735 0.5136 -2.0016 0.9765
5.5514 0.7136 -2.0016 0.9765
5.5222 0.9127 -2.0016 0.9765
5.4858 1.1106 -2.0016 0.9765
5.3344 1.6946 -2.0016 0.9765
5.1989 2.0734 -2.0016 0.9765
4.6346 3.1381 -2.0016 0.9765
4.2700 3.6187 -2.0016 0.9765
3.9990 3.9161 -2.0016 0.9765
3.5542 4.3238 -2.0016 0.9765
3.3965 4.4487 -2.0016 0.9765
2.8979 4.7885 -2.0016 0.9765
2.5465 4.9843 -2.0016 0.9765
2.3657 5.0726 -2.0016 0.9765
1.9952 5.2294 -2.0016 0.9765
1.8059 5.2977 -2.0016 0.9765
1.4207 5.4138 -2.0016 0.9765
1.0281 5.5019 -2.0016 0.9765
0.8297 5.5353 -2.0016 0.9765
0.4300 5.5806 -2.0016 0.9765
0.2291 5.5924 -2.0016 0.9765
0.0280 5.5970 -2.0016 0.9765
-0.1732 5.5944 -2.0016 0.9765
-0.3742 5.5846 -2.0016 0.9765
-0.5746 5.5675 -2.0016 0.9765
-0.9731 5.5118 -2.0016 0.9765
-1.3666 5.4277 -2.0016 0.9765
-1.7529 5.3155 -2.0016 0.9765
-2.3149 5.0960 -2.0016 0.9765
-2.4965 5.0095 -2.0016 0.9765
-2.6750 4.9165 -2.0016 0.9765
-2.8500 4.8172 -2.0016 0.9765
-3.0213 4.7116 -2.0016 0.9765
-3.1886 4.6000 -2.0016 0.9765
-3.6652 4.2301 -2.0016 0.9765
-3.9596 3.9558 -2.0016 0.9765
-4.3624 3.5066 -2.0016 0.9765
-4.4857 3.3476 -2.0016 0.9765
-4.6031 3.1842 -2.0016 0.9765
-5.0119 2.4917 -2.0016 0.9765
-5.0982 2.3100 -2.0016 0.9765
-5.1779 2.1252 -2.0016 0.9765
