ply
format ascii 1.0
element vertex 1577
property float32 x
property float32 y
property float32 z
property float32 I
end_header
-7.9601 -14.8514 -2.0016 0.9344
-7.4223 -15.1274 -2.0016 0.9344
-6.3186 -15.6206 -2.0016 0.9344
-5.1702 -15.9955 -1.9968 0.9345
-4.5871 -16.1495 -1.9942 0.9346
-2.1682 -16.1764 -1.9387 0.9364
0.1676 -16.3146 -1.9380 0.9364
0.7590 -16.4354 -1.9544 0.9359
2.5797 -16.6429 -2.0006 0.9344
3.1767 -16.5480 -2.0016 0.9344
3.7682 -16.4234 -2.0016 0.9344
7.1894 -15.2394 -2.0016 0.9344
8.2635 -14.6848 -2.0016 0.9344
8.7849 -14.3789 -2.0016 0.9344
9.7932 -13.7121 -2.0016 0.9344
10.7511 -12.9747 -2.0016 0.9344
11.2096 -12.5807 -2.0016 0.9344
11.6536 -12.1705 -2.0016 0.9344
12.0827 -11.7446 -2.0016 0.9344
12.4962 -11.3037 -2.0016 0.9344
13.9844 -9.4003 -2.0016 0.9344
14.3125 -8.8926 -2.0016 0.9344
14.9133 -7.8436 -2.0016 0.9344
15.4372 -6.7542 -2.0016 0.9344
15.8817 -5.6301 -2.0016 0.9344
16.0735 -5.0568 -2.0016 0.9344
16.3947 -3.8914 -2.0016 0.9344
16.5237 -3.3008 -2.0016 0.9344
16.8259 -0.9037 -2.0016 0.9344
16.8474 0.3050 -2.0016 0.9344
16.3934 3.8967 -2.0016 0.9344
16.0718 5.0620 -2.0016 0.9344
15.6676 6.2012 -2.0016 0.9344
15.4351 6.7592 -2.0016 0.9344
14.9107 7.8484 -2.0016 0.9344
14.3097 8.8972 -2.0016 0.9344
13.9813 9.4048 -2.0016 0.9344
13.2711 10.3830 -2.0016 0.9344
12.8901 10.8523 -2.0016 0.9344
12.4925 11.3077 -2.0016 0.9344
11.6497 12.1743 -2.0016 0.9344
11.2055 12.5843 -2.0016 0.9344
10.7469 12.9781 -2.0016 0.9344
9.7888 13.7152 -2.0016 0.9344
8.7803 14.3817 -2.0016 0.9344
7.6307 13.5706 -1.8494 0.9392
6.6381 14.0828 -1.8494 0.9392
5.6115 14.5224 -1.8494 0.9392
4.5558 14.8874 -1.8494 0.9392
1.4638 12.3922 -1.4822 0.9510
0.9975 12.1818 -1.4519 0.9520
0.5493 11.9797 -1.4245 0.9528
0.1172 11.7847 -1.3999 0.9536
-1.1188 11.4164 -1.3626 0.9548
-1.1847 8.8171 -1.0568 0.9648
-1.9541 11.4219 -1.3765 0.9544
-3.2507 11.4304 -1.4116 0.9533
-5.6206 11.4459 -1.5147 0.9499
-7.2483 11.4566 -1.6104 0.9469
-11.7081 10.2620 -1.8494 0.9392
-12.0687 9.8355 -1.8494 0.9392
-13.0554 8.4821 -1.8494 0.9392
-14.7096 8.1203 -1.9959 0.9346
-15.9680 5.3807 -2.0016 0.9344
-16.3126 4.2220 -2.0016 0.9344
-16.6718 2.4452 -2.0016 0.9344
-16.7488 1.8456 -2.0016 0.9344
-16.8042 1.2436 -2.0016 0.9344
-16.8501 0.0357 -2.0016 0.9344
-16.8405 -0.5688 -2.0016 0.9344
-16.7564 -1.7747 -2.0016 0.9344
-16.6820 -2.3746 -2.0016 0.9344
-16.4688 -3.5645 -2.0016 0.9344
-15.5685 -6.4458 -2.0016 0.9344
-15.3273 -7.0001 -2.0016 0.9344
-15.0664 -7.5454 -2.0016 0.9344
-14.7860 -8.0810 -2.0016 0.9344
-14.1686 -9.1202 -2.0016 0.9344
-13.4783 -10.1126 -2.0016 0.9344
-11.8934 -11.9363 -2.0016 0.9344
-10.5423 -13.1449 -2.0016 0.9344
-10.0640 -13.5146 -2.0016 0.9344
-9.5728 -13.8669 -2.0016 0.9344
-9.0692 -14.2013 -2.0016 0.9344
-8.5540 -14.5175 -2.0016 0.9344
-8.0277 -14.8150 -2.0016 0.9344
-7.4911 -15.0934 -2.0016 0.9344
-6.9449 -15.3524 -2.0016 0.9344
-4.6614 -16.1310 -1.9945 0.9346
-4.0500 -16.1688 -1.9800 0.9351
-3.4394 -16.1718 -1.9639 0.9356
-2.8377 -16.1742 -1.9506 0.9360
-1.6546 -16.1778 -1.9317 0.9366
-1.0707 -16.1883 -1.9271 0.9367
-0.4896 -16.2274 -1.9285 0.9367
0.0932 -16.3017 -1.9364 0.9364
1.2867 -16.5755 -1.9749 0.9352
3.1012 -16.5623 -2.0016 0.9344
4.2807 -16.2973 -2.0016 0.9344
5.4381 -15.9485 -2.0016 0.9344
6.0067 -15.7432 -2.0016 0.9344
6.5675 -15.5176 -2.0016 0.9344
7.1199 -15.2720 -2.0016 0.9344
2.1847 -4.2782 -0.5706 0.9808
2.3426 -4.2078 -0.5720 0.9808
10.6918 -13.0235 -2.0016 0.9344
11.1521 -12.6316 -2.0016 0.9344
12.4446 -11.3605 -2.0016 0.9344
12.8440 -10.9068 -2.0016 0.9344
13.2270 -10.4391 -2.0016 0.9344
14.2719 -8.9577 -2.0016 0.9344
14.8774 -7.9115 -2.0016 0.9344
15.6412 -6.2675 -2.0016 0.9344
16.0503 -5.1300 -2.0016 0.9344
16.3768 -3.9660 -2.0016 0.9344
16.6189 -2.7817 -2.0016 0.9344
16.7080 -2.1838 -2.0016 0.9344
16.7756 -1.5831 -2.0016 0.9344
16.8486 0.2282 -2.0016 0.9344
16.8296 0.8324 -2.0016 0.9344
16.7266 2.0369 -2.0016 0.9344
16.6428 2.6356 -2.0016 0.9344
16.4110 3.8220 -2.0016 0.9344
16.2633 4.4082 -2.0016 0.9344
16.0947 4.9887 -2.0016 0.9344
15.9054 5.5628 -2.0016 0.9344
15.4657 6.6888 -2.0016 0.9344
14.9463 7.7804 -2.0016 0.9344
14.6576 8.3115 -2.0016 0.9344
13.3183 10.3224 -2.0016 0.9344
11.7050 12.1211 -2.0016 0.9344
10.8059 12.9291 -2.0016 0.9344
5.1539 14.6910 -1.8494 0.9392
4.6236 14.8665 -1.8494 0.9392
3.0677 13.1156 -1.6000 0.9472
1.5244 12.4195 -1.4863 0.9508
-0.6542 11.4134 -1.3580 0.9550
-9.5413 8.9064 -1.8494 0.9486
-10.2270 8.2574 -1.8624 0.9483
-11.5732 8.0455 -1.9971 0.9446
-11.8808 7.6422 -2.0016 0.9445
-12.1472 7.2111 -2.0016 0.9445
-12.3981 6.7707 -2.0016 0.9445
-13.0537 5.3996 -2.0016 0.9445
-13.5582 3.9661 -2.0016 0.9445
-13.9058 2.4867 -2.0016 0.9445
-14.0483 1.4833 -2.0016 0.9445
-14.1160 -0.5412 -2.0016 0.9445
-13.9762 -2.0545 -2.0016 0.9445
-12.2602 -4.6318 -1.8570 0.9484
-12.6020 -6.3832 -2.0016 0.9445
-12.3649 -6.8311 -2.0016 0.9445
-12.1119 -7.2703 -2.0016 0.9445
-11.5595 -8.1199 -2.0016 0.9445
-11.2608 -8.5293 -2.0016 0.9445
-10.2794 -9.6897 -2.0016 0.9445
-9.9252 -10.0522 -2.0016 0.9445
-9.5582 -10.4017 -2.0016 0.9445
-8.3855 -11.3683 -2.0016 0.9445
-7.5489 -11.9402 -2.0016 0.9445
-6.2225 -12.6821 -2.0016 0.9445
-5.7636 -12.8971 -2.0016 0.9445
-4.8241 -13.2772 -2.0016 0.9445
-4.3448 -13.4417 -2.0016 0.9445
-3.8598 -13.5889 -2.0016 0.9445
-2.8756 -13.8306 -2.0016 0.9445
-1.8767 -14.0012 -2.0016 0.9445
1.1574 -14.0789 -2.0016 0.9445
1.6617 -14.0283 -2.0016 0.9445
3.1591 -13.7686 -2.0016 0.9445
3.6509 -13.6465 -2.0016 0.9445
4.1381 -13.5067 -2.0016 0.9445
4.6199 -13.3496 -2.0016 0.9445
5.0958 -13.1753 -2.0016 0.9445
6.0273 -12.7760 -2.0016 0.9445
2.1916 -4.2439 -0.6768 0.9809
6.9277 -12.3110 -2.0016 0.9445
8.2102 -11.4956 -2.0016 0.9445
9.0132 -10.8774 -2.0016 0.9445
9.3976 -10.5471 -2.0016 0.9445
9.7698 -10.2032 -2.0016 0.9445
10.1296 -9.8462 -2.0016 0.9445
10.4762 -9.4765 -2.0016 0.9445
10.8094 -9.0946 -2.0016 0.9445
11.4336 -8.2962 -2.0016 0.9445
12.7304 -6.1230 -2.0016 0.9445
12.9419 -5.6624 -2.0016 0.9445
13.4753 -4.2394 -2.0016 0.9445
13.7445 -3.2624 -2.0016 0.9445
13.8527 -2.7672 -2.0016 0.9445
14.0698 -1.2631 -2.0016 0.9445
14.1242 -0.2511 -2.0016 0.9445
14.1241 0.2557 -2.0016 0.9445
14.0149 1.7715 -2.0016 0.9445
13.7435 3.2668 -2.0016 0.9445
13.4739 4.2437 -2.0016 0.9445
13.3130 4.7243 -2.0016 0.9445
12.9400 5.6666 -2.0016 0.9445
12.2564 7.0239 -2.0016 0.9445
11.9966 7.4590 -2.0016 0.9445
11.7213 7.8846 -2.0016 0.9445
11.4309 8.2999 -2.0016 0.9445
11.1259 8.7046 -2.0016 0.9445
10.8065 9.0981 -2.0016 0.9445
10.4732 9.4799 -2.0016 0.9445
9.7666 10.2063 -2.0016 0.9445
9.3942 10.5501 -2.0016 0.9445
8.6136 11.1965 -2.0016 0.9445
6.3973 11.3770 -1.8494 0.9486
5.9851 11.5991 -1.8494 0.9486
5.1381 11.9984 -1.8494 0.9486
4.7044 12.1750 -1.8494 0.9486
4.2646 12.3359 -1.8494 0.9486
2.9148 12.7226 -1.8494 0.9486
-0.7064 11.4137 -1.6203 0.9549
-1.1188 11.4164 -1.6253 0.9547
-1.1751 8.7456 -1.2503 0.9650
-1.9541 11.4219 -1.6419 0.9543
-2.8110 11.4275 -1.6674 0.9536
-3.2507 11.4304 -1.6838 0.9531
-3.6997 11.4333 -1.7027 0.9526
-4.1595 11.4364 -1.7243 0.9520
-5.1180 11.4426 -1.7761 0.9506
-5.6206 11.4459 -1.8067 0.9498
-7.3696 10.7726 -1.8494 0.9486
-7.7513 10.5014 -1.8494 0.9486
-8.4842 9.9186 -1.8494 0.9486
-8.8345 9.6079 -1.8494 0.9486
-9.5006 8.9498 -1.8494 0.9486
-10.8912 8.2439 -1.9354 0.9463
-11.5316 8.0948 -1.9963 0.9447
-11.8458 7.6962 -2.0016 0.9445
-12.1143 7.2663 -2.0016 0.9445
-12.3671 6.8271 -2.0016 0.9445
-12.8248 5.9229 -2.0016 0.9445
-13.0290 5.4591 -2.0016 0.9445
-13.2164 4.9882 -2.0016 0.9445
-13.3868 4.5109 -2.0016 0.9445
-13.7939 3.0467 -2.0016 0.9445
-13.9769 2.0499 -2.0016 0.9445
-14.0414 1.5473 -2.0016 0.9445
-14.0879 1.0426 -2.0016 0.9445
-14.1162 0.5366 -2.0016 0.9445
-14.1264 0.0299 -2.0016 0.9445
-14.1184 -0.4768 -2.0016 0.9445
-13.9854 -1.9908 -2.0016 0.9445
-13.9050 -2.4911 -2.0016 0.9445
-12.8094 -2.7725 -1.8570 0.9484
-12.4374 -4.1325 -1.8570 0.9484
-12.1092 -5.0135 -1.8570 0.9484
-11.9215 -5.4446 -1.8570 0.9484
-12.6309 -6.3257 -2.0016 0.9445
-12.3959 -6.7747 -2.0016 0.9445
-11.8783 -7.6460 -2.0016 0.9445
-11.5964 -8.0672 -2.0016 0.9445
-10.6627 -9.2662 -2.0016 0.9445
-8.8382 -11.0201 -2.0016 0.9445
-8.4372 -11.3300 -2.0016 0.9445
-8.0254 -11.6253 -2.0016 0.9445
-7.6032 -11.9057 -2.0016 0.9445
-7.1713 -12.1708 -2.0016 0.9445
-6.7301 -12.4202 -2.0016 0.9445
-3.4323 -13.7031 -2.0016 0.9445
-2.4411 -13.9139 -2.0016 0.9445
-0.4260 -14.1200 -2.0016 0.9445
0.5874 -14.1142 -2.0016 0.9445
1.5978 -14.0358 -2.0016 0.9445
2.1002 -13.9694 -2.0016 0.9445
3.0963 -13.7829 -2.0016 0.9445
5.0357 -13.1984 -2.0016 0.9445
5.9690 -12.8034 -2.0016 0.9445
2.1846 -4.2782 -0.6807 0.9808
2.3426 -4.2077 -0.6823 0.9807
7.3099 -12.0881 -2.0016 0.9445
8.1577 -11.5329 -2.0016 0.9445
8.5661 -11.2328 -2.0016 0.9445
10.0846 -9.8922 -2.0016 0.9445
10.7679 -9.1438 -2.0016 0.9445
11.3957 -8.3482 -2.0016 0.9445
12.7024 -6.1809 -2.0016 0.9445
12.9159 -5.7213 -2.0016 0.9445
13.4558 -4.3007 -2.0016 0.9445
13.6014 -3.8153 -2.0016 0.9445
13.9326 -2.3321 -2.0016 0.9445
14.0073 -1.8308 -2.0016 0.9445
14.0639 -1.3272 -2.0016 0.9445
14.1229 -0.3155 -2.0016 0.9445
14.1091 0.6979 -2.0016 0.9445
14.0750 1.2035 -2.0016 0.9445
13.9525 2.2095 -2.0016 0.9445
13.8643 2.7086 -2.0016 0.9445
13.7582 3.2042 -2.0016 0.9445
13.4931 4.1823 -2.0016 0.9445
13.3344 4.6636 -2.0016 0.9445
13.1585 5.1389 -2.0016 0.9445
12.9657 5.6076 -2.0016 0.9445
12.5303 6.5227 -2.0016 0.9445
12.0304 7.4043 -2.0016 0.9445
11.7571 7.8311 -2.0016 0.9445
11.4686 8.2478 -2.0016 0.9445
11.1654 8.6538 -2.0016 0.9445
10.8478 9.0488 -2.0016 0.9445
10.5162 9.4321 -2.0016 0.9445
10.1712 9.8032 -2.0016 0.9445
8.6645 11.1571 -2.0016 0.9445
6.4490 11.3477 -1.8494 0.9486
6.0378 11.5717 -1.8494 0.9486
5.6189 11.7809 -1.8494 0.9486
5.1927 11.9748 -1.8494 0.9486
4.3208 12.3163 -1.8494 0.9486
2.5149 12.8076 -1.8494 0.9486
2.0141 12.6404 -1.8136 0.9496
1.5244 12.4195 -1.7729 0.9507
1.0556 12.2080 -1.7362 0.9517
-0.6542 11.4134 -1.6198 0.9549
-8.8211 8.2341 -1.9879 0.9523
-9.1600 7.9552 -1.9986 0.9520
-9.7209 7.2886 -2.0016 0.9519
-9.9761 6.9352 -2.0016 0.9519
-10.2184 6.5729 -2.0016 0.9519
-10.4476 6.2021 -2.0016 0.9519
-10.6634 5.8234 -2.0016 0.9519
-11.2273 4.6441 -2.0016 0.9519
-11.3866 4.2384 -2.0016 0.9519
-11.5313 3.8273 -2.0016 0.9519
-11.6612 3.4112 -2.0016 0.9519
-11.7760 2.9907 -2.0016 0.9519
-12.1207 0.8415 -2.0016 0.9519
-12.1431 0.4062 -2.0016 0.9519
-12.1498 -0.0296 -2.0016 0.9519
-12.1165 -0.9006 -2.0016 0.9519
-12.0763 -1.3347 -2.0016 0.9519
-12.0207 -1.7670 -2.0016 0.9519
-11.9496 -2.1970 -2.0016 0.9519
-10.6809 -3.6030 -1.8570 0.9553
-10.2321 -4.7295 -1.8570 0.9553
-10.0558 -5.0935 -1.8570 0.9553
-9.6852 -7.3359 -2.0016 0.9519
-9.4159 -7.6786 -2.0016 0.9519
-8.8411 -8.3339 -2.0016 0.9519
-8.5365 -8.6457 -2.0016 0.9519
-7.5583 -9.5127 -2.0016 0.9519
-6.8569 -10.0301 -2.0016 0.9519
-6.4927 -10.2696 -2.0016 0.9519
-5.7397 -10.7087 -2.0016 0.9519
-4.9572 -11.0926 -2.0016 0.9519
-4.5561 -11.2633 -2.0016 0.9519
-3.7369 -11.5609 -2.0016 0.9519
-1.6141 -12.0422 -2.0016 0.9519
-1.1811 -12.0923 -2.0016 0.9519
-0.3111 -12.1459 -2.0016 0.9519
0.5605 -12.1369 -2.0016 0.9519
0.9955 -12.1090 -2.0016 0.9519
1.4292 -12.0655 -2.0016 0.9519
1.8611 -12.0065 -2.0016 0.9519
2.2906 -11.9320 -2.0016 0.9519
2.7171 -11.8422 -2.0016 0.9519
3.9735 -11.4818 -2.0016 0.9519
4.7864 -11.1673 -2.0016 0.9519
5.1839 -10.9885 -2.0016 0.9519
2.1915 -4.2439 -0.7868 0.9808
5.9584 -10.5885 -2.0016 0.9519
6.3344 -10.3680 -2.0016 0.9519
6.7022 -10.1341 -2.0016 0.9519
7.0614 -9.8871 -2.0016 0.9519
7.4115 -9.6275 -2.0016 0.9519
8.7123 -8.4685 -2.0016 0.9519
9.5716 -7.4836 -2.0016 0.9519
9.8339 -7.1355 -2.0016 0.9519
10.0835 -6.7781 -2.0016 0.9519
10.5435 -6.0377 -2.0016 0.9519
10.7533 -5.6557 -2.0016 0.9519
10.9492 -5.2663 -2.0016 0.9519
11.1311 -4.8702 -2.0016 0.9519
11.2986 -4.4677 -2.0016 0.9519
11.5898 -3.6462 -2.0016 0.9519
11.9145 -2.3801 -2.0016 0.9519
11.9922 -1.9512 -2.0016 0.9519
12.1480 -0.2160 -2.0016 0.9519
12.1322 0.6555 -2.0016 0.9519
12.0540 1.5236 -2.0016 0.9519
11.9915 1.9550 -2.0016 0.9519
11.9137 2.3839 -2.0016 0.9519
11.8205 2.8097 -2.0016 0.9519
11.5887 3.6500 -2.0016 0.9519
11.1295 4.8738 -2.0016 0.9519
10.5415 6.0411 -2.0016 0.9519
10.3181 6.4154 -2.0016 0.9519
9.5692 7.4867 -2.0016 0.9519
8.7095 8.4713 -2.0016 0.9519
7.7491 9.3579 -2.0016 0.9519
7.4084 9.6299 -2.0016 0.9519
7.0582 9.8894 -2.0016 0.9519
6.3310 10.3700 -2.0016 0.9519
4.7865 10.1544 -1.8494 0.9555
4.4192 10.3196 -1.8494 0.9555
3.2850 10.7346 -1.8494 0.9555
2.5069 10.9425 -1.8494 0.9555
0.9162 11.1885 -1.8494 0.9555
-0.2911 11.2222 -1.8494 0.9555
-1.1725 8.7262 -1.4505 0.9649
-2.2888 10.9902 -1.8494 0.9555
-3.0708 10.7978 -1.8494 0.9555
-3.4561 10.6807 -1.8494 0.9555
-3.8370 10.5499 -1.8494 0.9555
-4.2130 10.4055 -1.8494 0.9555
-6.6667 9.0320 -1.8494 0.9555
-6.9864 8.7871 -1.8494 0.9555
-7.2971 8.5308 -1.8494 0.9555
-8.7427 8.2358 -1.9787 0.9525
-9.1206 7.9942 -1.9980 0.9520
-9.4183 7.6756 -2.0016 0.9519
-9.6876 7.3328 -2.0016 0.9519
-9.9444 6.9806 -2.0016 0.9519
-10.6367 5.8719 -2.0016 0.9519
-10.8405 5.4866 -2.0016 0.9519
-11.2060 4.6952 -2.0016 0.9519
-11.5138 3.8798 -2.0016 0.9519
-11.6455 3.4643 -2.0016 0.9519
-11.7623 3.0443 -2.0016 0.9519
-11.8639 2.6204 -2.0016 0.9519
-11.9503 2.1932 -2.0016 0.9519
-12.0213 1.7631 -2.0016 0.9519
-12.1167 0.8967 -2.0016 0.9519
-12.1498 0.0257 -2.0016 0.9519
-12.1429 -0.4101 -2.0016 0.9519
-12.0823 -1.2796 -2.0016 0.9519
-12.0286 -1.7122 -2.0016 0.9519
-10.9245 -2.7782 -1.8570 0.9553
-10.6972 -3.5543 -1.8570 0.9553
-10.5629 -3.9357 -1.8570 0.9553
-10.4149 -4.3121 -1.8570 0.9553
-10.0789 -5.0476 -1.8570 0.9553
-9.8914 -5.4059 -1.8570 0.9553
-10.2163 -6.5762 -2.0016 0.9519
-9.9739 -6.9384 -2.0016 0.9519
-9.4507 -7.6356 -2.0016 0.9519
-9.1708 -7.9697 -2.0016 0.9519
-8.8790 -8.2935 -2.0016 0.9519
-7.9367 -9.1994 -2.0016 0.9519
-7.6016 -9.4782 -2.0016 0.9519
-7.2567 -9.7447 -2.0016 0.9519
-6.9025 -9.9988 -2.0016 0.9519
-6.5394 -10.2399 -2.0016 0.9519
-6.1679 -10.4679 -2.0016 0.9519
-5.7884 -10.6824 -2.0016 0.9519
-5.4015 -10.8832 -2.0016 0.9519
-5.0077 -11.0699 -2.0016 0.9519
-4.6074 -11.2424 -2.0016 0.9519
-4.2011 -11.4004 -2.0016 0.9519
-3.3730 -11.6723 -2.0016 0.9519
-2.0995 -11.9671 -2.0016 0.9519
0.5052 -12.1394 -2.0016 0.9519
1.3742 -12.0719 -2.0016 0.9519
2.2362 -11.9423 -2.0016 0.9519
3.5061 -11.6330 -2.0016 0.9519
3.9212 -11.4997 -2.0016 0.9519
5.1338 -11.0120 -2.0016 0.9519
2.1846 -4.2782 -0.7913 0.9807
7.0163 -9.9192 -2.0016 0.9519
7.3676 -9.6612 -2.0016 0.9519
9.5374 -7.5271 -2.0016 0.9519
9.8012 -7.1802 -2.0016 0.9519
10.0525 -6.8240 -2.0016 0.9519
10.9251 -5.3161 -2.0016 0.9519
11.1088 -4.9208 -2.0016 0.9519
11.2781 -4.5192 -2.0016 0.9519
11.6983 -3.2815 -2.0016 0.9519
11.8085 -2.8597 -2.0016 0.9519
11.9035 -2.4343 -2.0016 0.9519
11.9832 -2.0058 -2.0016 0.9519
12.0474 -1.5746 -2.0016 0.9519
12.0961 -1.1415 -2.0016 0.9519
12.1293 -0.7069 -2.0016 0.9519
12.1468 -0.2713 -2.0016 0.9519
12.1488 0.1646 -2.0016 0.9519
12.1350 0.6002 -2.0016 0.9519
12.1057 1.0351 -2.0016 0.9519
12.0608 1.4687 -2.0016 0.9519
11.8332 2.7559 -2.0016 0.9519
11.6052 3.5971 -2.0016 0.9519
11.4687 4.0111 -2.0016 0.9519
11.3174 4.4199 -2.0016 0.9519
11.1516 4.8230 -2.0016 0.9519
10.7771 5.6101 -2.0016 0.9519
10.1121 6.7354 -2.0016 0.9519
9.6032 7.4430 -2.0016 0.9519
9.3300 7.7827 -2.0016 0.9519
9.0448 8.1124 -2.0016 0.9519
8.4400 8.7399 -2.0016 0.9519
8.1210 9.0371 -2.0016 0.9519
7.4522 9.5960 -2.0016 0.9519
6.7451 10.1056 -2.0016 0.9519
6.3782 10.3411 -2.0016 0.9519
5.9856 10.5322 -1.9957 0.9521
3.3339 10.7195 -1.8494 0.9555
2.9472 10.8322 -1.8494 0.9555
2.5568 10.9310 -1.8494 0.9555
2.1630 11.0156 -1.8494 0.9555
1.7665 11.0861 -1.8494 0.9555
1.3677 11.1424 -1.8494 0.9555
0.1628 11.2248 -1.8494 0.9555
-0.6424 11.2076 -1.8494 0.9555
-8.2853 6.6896 -2.0016 0.9576
-9.5230 4.7654 -2.0016 0.9576
-9.6878 4.4207 -2.0016 0.9576
-9.9799 3.7148 -2.0016 0.9576
-10.1067 3.3544 -2.0016 0.9576
-10.2205 2.9897 -2.0016 0.9576
-10.3212 2.6212 -2.0016 0.9576
-10.4085 2.2493 -2.0016 0.9576
-10.6232 0.7376 -2.0016 0.9576
-10.5844 -1.1698 -2.0016 0.9576
-10.5356 -1.5487 -2.0016 0.9576
-10.4733 -1.9256 -2.0016 0.9576
-10.0727 -2.2282 -1.9390 0.9589
-9.5637 -2.4786 -1.8570 0.9606
-9.4686 -2.8200 -1.8570 0.9606
-9.2421 -3.4916 -1.8570 0.9606
-8.9679 -4.1452 -1.8570 0.9606
-8.2829 -5.3852 -1.8570 0.9606
-8.4887 -6.4296 -2.0016 0.9576
-8.0059 -7.0216 -2.0016 0.9576
-7.4819 -7.5775 -2.0016 0.9576
-6.9193 -8.0945 -2.0016 0.9576
-6.6245 -8.3375 -2.0016 0.9576
-6.0097 -8.7909 -2.0016 0.9576
-5.6905 -9.0008 -2.0016 0.9576
-5.0306 -9.3857 -2.0016 0.9576
-4.6907 -9.5601 -2.0016 0.9576
-4.3448 -9.7222 -2.0016 0.9576
-3.9932 -9.8718 -2.0016 0.9576
-2.9096 -10.2436 -2.0016 0.9576
-2.1677 -10.4258 -2.0016 0.9576
-1.7924 -10.4969 -2.0016 0.9576
-0.6543 -10.6287 -2.0016 0.9576
-0.2727 -10.6453 -2.0016 0.9576
0.8725 -10.6130 -2.0016 0.9576
1.6311 -10.5231 -2.0016 0.9576
2.7522 -10.2870 -2.0016 0.9576
3.1194 -10.1817 -2.0016 0.9576
5.2223 -9.2804 -2.0016 0.9576
6.4959 -8.4381 -2.0016 0.9576
7.6359 -7.4223 -2.0016 0.9576
8.1484 -6.8557 -2.0016 0.9576
8.6189 -6.2539 -2.0016 0.9576
9.2409 -5.2918 -2.0016 0.9576
9.4248 -4.9569 -2.0016 0.9576
9.5965 -4.6157 -2.0016 0.9576
9.7559 -4.2685 -2.0016 0.9576
9.9027 -3.9158 -2.0016 0.9576
10.0368 -3.5580 -2.0016 0.9576
10.3610 -2.4593 -2.0016 0.9576
10.4425 -2.0860 -2.0016 0.9576
10.5106 -1.7101 -2.0016 0.9576
10.5652 -1.3320 -2.0016 0.9576
10.6471 -0.1893 -2.0016 0.9576
10.6471 0.1927 -2.0016 0.9576
10.3602 2.4626 -2.0016 0.9576
10.2652 2.8326 -2.0016 0.9576
10.0357 3.5613 -2.0016 0.9576
9.7545 4.2716 -2.0016 0.9576
9.5950 4.6188 -2.0016 0.9576
9.4232 4.9600 -2.0016 0.9576
9.2392 5.2948 -2.0016 0.9576
9.0433 5.6228 -2.0016 0.9576
8.8358 5.9436 -2.0016 0.9576
7.8949 7.1462 -2.0016 0.9576
7.6335 7.4247 -2.0016 0.9576
7.3623 7.6938 -2.0016 0.9576
6.7917 8.2018 -2.0016 0.9576
6.1862 8.6676 -2.0016 0.9576
5.2193 9.2820 -2.0016 0.9576
3.9012 9.1101 -1.8627 0.9605
3.2148 9.2991 -1.8494 0.9607
2.8792 9.4084 -1.8494 0.9607
2.1972 9.5906 -1.8494 0.9607
1.5040 9.7234 -1.8494 0.9607
1.1542 9.7711 -1.8494 0.9607
0.0979 9.8386 -1.8494 0.9607
-0.9596 9.7922 -1.8494 0.9607
-1.1698 8.7059 -1.6511 0.9649
-2.0060 9.6324 -1.8494 0.9607
-2.3502 9.5543 -1.8494 0.9607
-2.6914 9.4638 -1.8494 0.9607
-4.0173 8.9816 -1.8494 0.9607
-4.3368 8.8317 -1.8494 0.9607
-4.9589 8.4981 -1.8494 0.9607
-5.6467 8.2542 -1.8798 0.9601
-6.0862 8.2455 -1.9263 0.9591
-6.5483 8.2360 -1.9777 0.9581
-6.9050 8.0724 -1.9967 0.9577
-7.2046 7.8353 -2.0007 0.9576
-8.2548 6.7273 -2.0016 0.9576
-8.4907 6.4269 -2.0016 0.9576
-8.7158 6.1182 -2.0016 0.9576
-8.9297 5.8016 -2.0016 0.9576
-9.5012 4.8087 -2.0016 0.9576
-9.8215 4.1152 -2.0016 0.9576
-9.9628 3.7602 -2.0016 0.9576
-10.0913 3.4004 -2.0016 0.9576
-10.2068 3.0363 -2.0016 0.9576
-10.3091 2.6682 -2.0016 0.9576
-10.4739 1.9222 -2.0016 0.9576
-10.5847 1.1664 -2.0016 0.9576
-10.6427 -0.3595 -2.0016 0.9576
-10.4819 -1.8779 -2.0016 0.9576
-9.5748 -2.4350 -1.8570 0.9606
-9.4813 -2.7768 -1.8570 0.9606
-9.3756 -3.1152 -1.8570 0.9606
-8.9867 -4.1043 -1.8570 0.9606
-8.8337 -4.4240 -1.8570 0.9606
-8.4938 -5.0460 -1.8570 0.9606
-8.3074 -5.3474 -1.8570 0.9606
-8.1102 -5.6419 -1.8570 0.9606
-8.5179 -6.3909 -2.0016 0.9576
-8.2831 -6.6923 -2.0016 0.9576
-7.7821 -7.2689 -2.0016 0.9576
-7.5163 -7.5434 -2.0016 0.9576
-6.3602 -8.5408 -2.0016 0.9576
-6.0497 -8.7635 -2.0016 0.9576
-5.4059 -9.1746 -2.0016 0.9576
-5.0733 -9.3626 -2.0016 0.9576
-4.7342 -9.5386 -2.0016 0.9576
-2.2152 -10.4159 -2.0016 0.9576
-1.8402 -10.4886 -2.0016 0.9576
-1.4628 -10.5479 -2.0016 0.9576
-1.0835 -10.5936 -2.0016 0.9576
-0.7028 -10.6256 -2.0016 0.9576
0.0608 -10.6486 -2.0016 0.9576
0.4428 -10.6396 -2.0016 0.9576
0.8241 -10.6169 -2.0016 0.9576
1.2044 -10.5805 -2.0016 0.9576
1.5832 -10.5305 -2.0016 0.9576
3.0730 -10.1958 -2.0016 0.9576
3.4367 -10.0790 -2.0016 0.9576
4.1505 -9.8067 -2.0016 0.9576
4.4996 -9.6515 -2.0016 0.9576
2.1846 -4.2781 -0.9029 0.9806
2.3425 -4.2076 -0.9052 0.9806
6.1495 -8.6937 -2.0016 0.9576
6.4574 -8.4676 -2.0016 0.9576
7.3296 -7.7249 -2.0016 0.9576
7.8646 -7.1795 -2.0016 0.9576
8.5903 -6.2931 -2.0016 0.9576
9.4021 -4.9998 -2.0016 0.9576
9.7363 -4.3129 -2.0016 0.9576
9.8848 -3.9609 -2.0016 0.9576
10.1433 -3.2420 -2.0016 0.9576
10.3496 -2.5064 -2.0016 0.9576
10.5027 -1.7580 -2.0016 0.9576
10.6017 -1.0005 -2.0016 0.9576
10.6308 -0.6195 -2.0016 0.9576
10.6358 0.5261 -2.0016 0.9576
10.5177 1.6656 -2.0016 0.9576
10.4512 2.0418 -2.0016 0.9576
10.2780 2.7858 -2.0016 0.9576
10.1714 3.1527 -2.0016 0.9576
10.0518 3.5155 -2.0016 0.9576
9.7739 4.2271 -2.0016 0.9576
9.2632 5.2527 -2.0016 0.9576
9.0688 5.5816 -2.0016 0.9576
8.6453 6.2174 -2.0016 0.9576
7.1177 7.9206 -2.0016 0.9576
6.5315 8.4105 -2.0016 0.9576
5.2615 9.2582 -2.0016 0.9576
3.9621 9.1369 -1.8719 0.9603
3.2571 9.2843 -1.8494 0.9607
2.9220 9.3952 -1.8494 0.9607
2.2409 9.5805 -1.8494 0.9607
1.1987 9.7658 -1.8494 0.9607
0.4955 9.8266 -1.8494 0.9607
-6.9219 6.4613 -2.0016 0.9620
-7.3674 5.9485 -2.0016 0.9620
-8.6145 3.9310 -2.0016 0.9620
-8.7500 3.6194 -2.0016 0.9620
-8.8742 3.3032 -2.0016 0.9620
-9.0882 2.6585 -2.0016 0.9620
-9.2554 2.0001 -2.0016 0.9620
-9.3212 1.6668 -2.0016 0.9620
-9.4463 0.6558 -2.0016 0.9620
-9.4637 0.3166 -2.0016 0.9620
-9.4621 -0.3627 -2.0016 0.9620
-9.4430 -0.7019 -2.0016 0.9620
-9.4117 -1.0402 -2.0016 0.9620
-9.3683 -1.3771 -2.0016 0.9620
-8.6358 -2.2381 -1.8857 0.9642
-8.3242 -2.8080 -1.8570 0.9647
-8.2181 -3.1048 -1.8570 0.9647
-7.9744 -3.6860 -1.8570 0.9647
-7.6896 -4.2482 -1.8570 0.9647
-7.5323 -4.5213 -1.8570 0.9647
-7.3652 -4.7886 -1.8570 0.9647
-7.1887 -5.0497 -1.8570 0.9647
-6.8082 -5.5521 -1.8570 0.9647
-7.1189 -6.2437 -2.0016 0.9620
-6.8903 -6.4950 -2.0016 0.9620
-6.4070 -6.9723 -2.0016 0.9620
-5.6209 -7.6203 -2.0016 0.9620
-5.0601 -8.0036 -2.0016 0.9620
-4.4732 -8.3458 -2.0016 0.9620
-3.8634 -8.6450 -2.0016 0.9620
-3.2336 -8.8998 -2.0016 0.9620
-2.2589 -9.1956 -2.0016 0.9620
-1.2579 -9.3851 -2.0016 0.9620
-0.2425 -9.4659 -2.0016 0.9620
0.0972 -9.4685 -2.0016 0.9620
0.4368 -9.4589 -2.0016 0.9620
0.7758 -9.4372 -2.0016 0.9620
1.7851 -9.2992 -2.0016 0.9620
2.7738 -9.0536 -2.0016 0.9620
3.0968 -8.9483 -2.0016 0.9620
2.1915 -4.2438 -1.0096 0.9807
4.6437 -8.2522 -2.0016 0.9620
4.9367 -8.0803 -2.0016 0.9620
5.5033 -7.7056 -2.0016 0.9620
5.7762 -7.5032 -2.0016 0.9620
6.0416 -7.2912 -2.0016 0.9620
6.7899 -6.6000 -2.0016 0.9620
7.0223 -6.3522 -2.0016 0.9620
7.2456 -6.0962 -2.0016 0.9620
7.6640 -5.5610 -2.0016 0.9620
8.0430 -4.9972 -2.0016 0.9620
8.2171 -4.7055 -2.0016 0.9620
8.6750 -3.7956 -2.0016 0.9620
9.1287 -2.5159 -2.0016 0.9620
9.2130 -2.1868 -2.0016 0.9620
9.2856 -1.8549 -2.0016 0.9620
9.3461 -1.5206 -2.0016 0.9620
9.4311 -0.8467 -2.0016 0.9620
9.4675 -0.1683 -2.0016 0.9620
9.4308 0.8497 -2.0016 0.9620
9.3943 1.1874 -2.0016 0.9620
9.2850 1.8579 -2.0016 0.9620
9.0316 2.8446 -2.0016 0.9620
8.9238 3.1667 -2.0016 0.9620
8.8045 3.4848 -2.0016 0.9620
8.5320 4.1071 -2.0016 0.9620
8.3792 4.4105 -2.0016 0.9620
8.2156 4.7082 -2.0016 0.9620
8.0414 4.9998 -2.0016 0.9620
6.7878 6.6021 -2.0016 0.9620
6.5466 6.8414 -2.0016 0.9620
6.0393 7.2931 -2.0016 0.9620
5.2208 7.8997 -2.0016 0.9620
4.9341 8.0819 -2.0016 0.9620
4.6410 8.2537 -2.0016 0.9620
4.3420 8.4148 -2.0016 0.9620
4.0373 8.5652 -2.0016 0.9620
3.4011 8.8020 -1.9946 0.9622
2.6253 8.5789 -1.8964 0.9640
2.2699 8.4953 -1.8587 0.9647
1.9538 8.5280 -1.8494 0.9649
1.6466 8.5926 -1.8494 0.9649
1.0263 8.6886 -1.8494 0.9649
0.7140 8.7198 -1.8494 0.9649
0.4008 8.7398 -1.8494 0.9649
-0.2268 8.7460 -1.8494 0.9649
-0.5404 8.7323 -1.8494 0.9649
-1.4754 8.6237 -1.8494 0.9649
-1.7838 8.5652 -1.8494 0.9649
-2.0898 8.4957 -1.8494 0.9649
-2.3932 8.4153 -1.8494 0.9649
-2.6936 8.3240 -1.8494 0.9649
-3.0036 8.2583 -1.8575 0.9647
-3.3418 8.2537 -1.8822 0.9642
-3.6894 8.2485 -1.9100 0.9637
-4.0477 8.2428 -1.9411 0.9632
-4.4180 8.2364 -1.9757 0.9625
-4.7574 8.1528 -1.9953 0.9621
-5.6233 7.6184 -2.0016 0.9620
-6.6551 6.7359 -2.0016 0.9620
-6.8924 6.4928 -2.0016 0.9620
-7.3402 5.9820 -2.0016 0.9620
-7.9403 5.1588 -2.0016 0.9620
-8.1203 4.8707 -2.0016 0.9620
-8.5965 3.9702 -2.0016 0.9620
-8.7334 3.6592 -2.0016 0.9620
-8.9733 3.0237 -2.0016 0.9620
-9.1670 2.3726 -2.0016 0.9620
-9.2462 2.0422 -2.0016 0.9620
-9.3688 1.3741 -2.0016 0.9620
-9.4121 1.0371 -2.0016 0.9620
-9.4636 -0.3196 -2.0016 0.9620
-9.3206 -1.6698 -2.0016 0.9620
-9.2547 -2.0031 -2.0016 0.9620
-8.7795 -2.2327 -1.9149 0.9636
-8.4309 -2.4692 -1.8570 0.9647
-8.3369 -2.7700 -1.8570 0.9647
-7.9911 -3.6496 -1.8570 0.9647
-7.8550 -3.9339 -1.8570 0.9647
-7.7089 -4.2131 -1.8570 0.9647
-7.5528 -4.4869 -1.8570 0.9647
-7.3870 -4.7550 -1.8570 0.9647
-7.0271 -5.2723 -1.8570 0.9647
-6.8334 -5.5210 -1.8570 0.9647
-6.9199 -6.4636 -2.0016 0.9620
-6.6836 -6.7076 -2.0016 0.9620
-5.9243 -7.3868 -2.0016 0.9620
-5.6555 -7.5946 -2.0016 0.9620
-5.3795 -7.7925 -2.0016 0.9620
-4.8069 -8.1582 -2.0016 0.9620
-4.5112 -8.3253 -2.0016 0.9620
-3.9027 -8.6273 -2.0016 0.9620
-3.5907 -8.7618 -2.0016 0.9620
-2.9533 -8.9967 -2.0016 0.9620
-1.9698 -9.2619 -2.0016 0.9620
-0.9634 -9.4199 -2.0016 0.9620
-0.2856 -9.4647 -2.0016 0.9620
0.0541 -9.4689 -2.0016 0.9620
0.3937 -9.4608 -2.0016 0.9620
1.4078 -9.3638 -2.0016 0.9620
1.7428 -9.3073 -2.0016 0.9620
3.6906 -8.7202 -2.0016 0.9620
2.3425 -4.2076 -1.0179 0.9805
4.8999 -8.1027 -2.0016 0.9620
5.4682 -7.7306 -2.0016 0.9620
6.7598 -6.6308 -2.0016 0.9620
6.9933 -6.3841 -2.0016 0.9620
7.4330 -5.8663 -2.0016 0.9620
7.6386 -5.5959 -2.0016 0.9620
8.0202 -5.0338 -2.0016 0.9620
8.7896 -3.5220 -2.0016 0.9620
8.9103 -3.2045 -2.0016 0.9620
9.1171 -2.5574 -2.0016 0.9620
9.3892 -1.2272 -2.0016 0.9620
9.4271 -0.8896 -2.0016 0.9620
9.4682 0.1282 -2.0016 0.9620
9.3996 1.1446 -2.0016 0.9620
9.1392 2.4772 -2.0016 0.9620
9.0445 2.8034 -2.0016 0.9620
8.8203 3.4446 -2.0016 0.9620
8.5506 4.0681 -2.0016 0.9620
7.8809 5.2492 -2.0016 0.9620
7.6875 5.5285 -2.0016 0.9620
7.4843 5.8007 -2.0016 0.9620
7.2714 6.0654 -2.0016 0.9620
6.8178 6.5712 -2.0016 0.9620
6.5777 6.8115 -2.0016 0.9620
4.0763 8.5467 -2.0016 0.9620
3.0601 8.7227 -1.9540 0.9629
2.6730 8.5947 -1.9026 0.9639
2.3142 8.5055 -1.8633 0.9646
1.6858 8.5850 -1.8494 0.9649
1.3767 8.6400 -1.8494 0.9649
0.4406 8.7379 -1.8494 0.9649
0.1269 8.7481 -1.8494 0.9649
-0.1870 8.7470 -1.8494 0.9649
-6.4300 5.5843 -2.0016 0.9656
-6.6262 5.3500 -2.0016 0.9656
-7.3233 4.3474 -2.0016 0.9656
-7.7479 3.5355 -2.0016 0.9656
-7.8697 3.2553 -2.0016 0.9656
-8.1739 2.3911 -2.0016 0.9656
-8.2544 2.0963 -2.0016 0.9656
-8.3243 1.7989 -2.0016 0.9656
-8.4318 1.1975 -2.0016 0.9656
-8.4694 0.8942 -2.0016 0.9656
-8.5164 -0.0208 -2.0016 0.9656
-8.5102 -0.3262 -2.0016 0.9656
-8.4930 -0.6313 -2.0016 0.9656
-8.4649 -0.9355 -2.0016 0.9656
-8.4259 -1.2386 -2.0016 0.9656
-8.3154 -1.8395 -2.0016 0.9656
-8.2441 -2.1366 -2.0016 0.9656
-7.4868 -2.5255 -1.8570 0.9681
-7.2865 -3.0558 -1.8570 0.9681
-6.9160 -3.8208 -1.8570 0.9681
-6.7745 -4.0665 -1.8570 0.9681
-6.6243 -4.3068 -1.8570 0.9681
-6.4656 -4.5417 -1.8570 0.9681
-6.2985 -4.7707 -1.8570 0.9681
-6.1233 -4.9935 -1.8570 0.9681
-5.5514 -5.6224 -1.8570 0.9681
-5.7624 -6.2709 -2.0016 0.9656
-5.2980 -6.6679 -2.0016 0.9656
-4.8063 -7.0306 -2.0016 0.9656
-4.5510 -7.1985 -2.0016 0.9656
-4.0232 -7.5062 -2.0016 0.9656
-3.4747 -7.7754 -2.0016 0.9656
-2.9083 -8.0045 -2.0016 0.9656
-2.3270 -8.1924 -2.0016 0.9656
-1.7337 -8.3381 -2.0016 0.9656
-1.4334 -8.3949 -2.0016 0.9656
-1.1314 -8.4410 -2.0016 0.9656
-0.8279 -8.4761 -2.0016 0.9656
-0.5233 -8.5004 -2.0016 0.9656
-0.2181 -8.5137 -2.0016 0.9656
0.6978 -8.4878 -2.0016 0.9656
1.0018 -8.4573 -2.0016 0.9656
1.3045 -8.4159 -2.0016 0.9656
1.6056 -8.3637 -2.0016 0.9656
1.9045 -8.3008 -2.0016 0.9656
2.4948 -8.1429 -2.0016 0.9656
2.7852 -8.0481 -2.0016 0.9656
3.0721 -7.9430 -2.0016 0.9656
3.3551 -7.8277 -2.0016 0.9656
2.3413 -4.1607 -1.1221 0.9806
4.4401 -7.2674 -2.0016 0.9656
4.6979 -7.1035 -2.0016 0.9656
4.9497 -6.9304 -2.0016 0.9656
5.4338 -6.5577 -2.0016 0.9656
5.6656 -6.3586 -2.0016 0.9656
5.8900 -6.1512 -2.0016 0.9656
6.1069 -5.9360 -2.0016 0.9656
6.5167 -5.4829 -2.0016 0.9656
6.7092 -5.2456 -2.0016 0.9656
7.0680 -4.7511 -2.0016 0.9656
7.3904 -4.2322 -2.0016 0.9656
7.6749 -3.6914 -2.0016 0.9656
7.9198 -3.1317 -2.0016 0.9656
8.0270 -2.8456 -2.0016 0.9656
8.1239 -2.5558 -2.0016 0.9656
8.2103 -2.2628 -2.0016 0.9656
8.2862 -1.9668 -2.0016 0.9656
8.4059 -1.3677 -2.0016 0.9656
8.4496 -1.0653 -2.0016 0.9656
8.4823 -0.7615 -2.0016 0.9656
8.5150 0.1542 -2.0016 0.9656
8.5040 0.4595 -2.0016 0.9656
8.3509 1.6710 -2.0016 0.9656
8.2856 1.9695 -2.0016 0.9656
8.2096 2.2654 -2.0016 0.9656
8.1231 2.5584 -2.0016 0.9656
7.6737 3.6939 -2.0016 0.9656
7.5362 3.9668 -2.0016 0.9656
7.3891 4.2345 -2.0016 0.9656
7.0665 4.7534 -2.0016 0.9656
6.5149 5.4850 -2.0016 0.9656
6.3140 5.7152 -2.0016 0.9656
6.1049 5.9380 -2.0016 0.9656
5.8880 6.1531 -2.0016 0.9656
5.6635 6.3604 -2.0016 0.9656
5.4317 6.5594 -2.0016 0.9656
4.9475 6.9320 -2.0016 0.9656
3.9052 7.5683 -2.0016 0.9656
3.6312 7.7035 -2.0016 0.9656
3.3525 7.8288 -2.0016 0.9656
3.0696 7.9440 -2.0016 0.9656
1.5967 8.3321 -1.9939 0.9657
1.2822 8.2898 -1.9715 0.9661
0.9765 8.2664 -1.9563 0.9664
0.6758 8.2535 -1.9463 0.9665
0.3780 8.2432 -1.9394 0.9667
0.0820 8.2435 -1.9375 0.9667
-0.5101 8.2428 -1.9410 0.9666
-0.8077 8.2418 -1.9463 0.9665
-1.1072 8.2404 -1.9541 0.9664
-1.7152 8.2361 -1.9772 0.9660
-2.0253 8.2332 -1.9927 0.9658
-4.0257 7.5049 -2.0016 0.9656
-4.2923 7.3557 -2.0016 0.9656
-4.5534 7.1970 -2.0016 0.9656
-4.8086 7.0290 -2.0016 0.9656
-5.3002 6.6662 -2.0016 0.9656
-5.5359 6.4718 -2.0016 0.9656
-5.7644 6.2691 -2.0016 0.9656
-5.9856 6.0583 -2.0016 0.9656
-6.1991 5.8396 -2.0016 0.9656
-6.7905 5.1399 -2.0016 0.9656
-7.1415 4.6399 -2.0016 0.9656
-7.4558 4.1159 -2.0016 0.9656
-7.8548 3.2911 -2.0016 0.9656
-8.0706 2.7195 -2.0016 0.9656
-8.1629 2.4283 -2.0016 0.9656
-8.2448 2.1339 -2.0016 0.9656
-8.3160 1.8368 -2.0016 0.9656
-8.3765 1.5373 -2.0016 0.9656
-8.4263 1.2359 -2.0016 0.9656
-8.5103 0.3235 -2.0016 0.9656
-8.5164 0.0180 -2.0016 0.9656
-8.5116 -0.2875 -2.0016 0.9656
-8.4691 -0.8970 -2.0016 0.9656
-8.4315 -1.2002 -2.0016 0.9656
-8.3830 -1.5018 -2.0016 0.9656
-8.3237 -1.8016 -2.0016 0.9656
-8.2537 -2.0990 -2.0016 0.9656
-7.6496 -2.2404 -1.8734 0.9678
-7.4982 -2.4914 -1.8570 0.9681
-7.4040 -2.7587 -1.8570 0.9681
-7.3003 -3.0225 -1.8570 0.9681
-7.1872 -3.2824 -1.8570 0.9681
-7.0648 -3.5381 -1.8570 0.9681
-6.7930 -4.0355 -1.8570 0.9681
-6.4862 -4.5122 -1.8570 0.9681
-5.9639 -5.1828 -1.8570 0.9681
-5.7909 -6.2446 -2.0016 0.9656
-5.5632 -6.4483 -2.0016 0.9656
-4.8383 -7.0086 -2.0016 0.9656
-4.3234 -7.3375 -2.0016 0.9656
-3.2295 -7.8804 -2.0016 0.9656
-2.9448 -7.9911 -2.0016 0.9656
-2.6562 -8.0916 -2.0016 0.9656
-2.3643 -8.1817 -2.0016 0.9656
-1.7716 -8.3304 -2.0016 0.9656
-1.4717 -8.3883 -2.0016 0.9656
-1.1698 -8.4357 -2.0016 0.9656
-0.8665 -8.4723 -2.0016 0.9656
0.0487 -8.5163 -2.0016 0.9656
0.6591 -8.4909 -2.0016 0.9656
0.9633 -8.4618 -2.0016 0.9656
1.2662 -8.4218 -2.0016 0.9656
1.5674 -8.3710 -2.0016 0.9656
1.8667 -8.3094 -2.0016 0.9656
2.4576 -8.1541 -2.0016 0.9656
2.7485 -8.0607 -2.0016 0.9656
3.0359 -7.9570 -2.0016 0.9656
2.1589 -4.2277 -1.1157 0.9807
4.4069 -7.2876 -2.0016 0.9656
4.6655 -7.1248 -2.0016 0.9656
4.9181 -6.9529 -2.0016 0.9656
5.4039 -6.5824 -2.0016 0.9656
5.6365 -6.3843 -2.0016 0.9656
5.8619 -6.1780 -2.0016 0.9656
6.0798 -5.9638 -2.0016 0.9656
6.2898 -5.7418 -2.0016 0.9656
6.4917 -5.5125 -2.0016 0.9656
6.8702 -5.0329 -2.0016 0.9656
7.0463 -4.7833 -2.0016 0.9656
7.2133 -4.5274 -2.0016 0.9656
7.3711 -4.2658 -2.0016 0.9656
7.6580 -3.7263 -2.0016 0.9656
8.2000 -2.3001 -2.0016 0.9656
8.4788 -0.8001 -2.0016 0.9656
8.5020 -0.4955 -2.0016 0.9656
8.5143 -0.1902 -2.0016 0.9656
8.5157 0.1153 -2.0016 0.9656
8.4855 0.7256 -2.0016 0.9656
8.4116 1.3321 -2.0016 0.9656
8.3584 1.6329 -2.0016 0.9656
8.2199 2.2280 -2.0016 0.9656
8.1346 2.5214 -2.0016 0.9656
8.0390 2.8116 -2.0016 0.9656
7.9329 3.0981 -2.0016 0.9656
7.8167 3.3807 -2.0016 0.9656
7.5542 3.9324 -2.0016 0.9656
7.4083 4.2008 -2.0016 0.9656
7.0881 4.7212 -2.0016 0.9656
6.7313 5.2172 -2.0016 0.9656
6.3400 5.6863 -2.0016 0.9656
5.6924 6.3345 -2.0016 0.9656
5.4615 6.5346 -2.0016 0.9656
4.9790 6.9094 -2.0016 0.9656
4.7280 7.0835 -2.0016 0.9656
4.4708 7.2486 -2.0016 0.9656
3.6663 7.6869 -2.0016 0.9656
2.5280 8.1284 -2.0006 0.9656
2.2321 8.2037 -1.9982 0.9657
1.3218 8.2952 -1.9741 0.9661
0.4156 8.2432 -1.9398 0.9667
0.1196 8.2434 -1.9376 0.9667
-5.8366 5.0689 -2.0016 0.9686
-6.0147 4.8563 -2.0016 0.9686
-6.3474 4.4126 -2.0016 0.9686
-6.6474 3.9462 -2.0016 0.9686
-7.2449 2.6968 -2.0016 0.9686
-7.4196 2.1704 -2.0016 0.9686
-7.4926 1.9029 -2.0016 0.9686
-7.6537 1.0869 -2.0016 0.9686
-7.7262 0.2585 -2.0016 0.9686
-7.7305 -0.0189 -2.0016 0.9686
-7.7248 -0.2961 -2.0016 0.9686
-7.7092 -0.5730 -2.0016 0.9686
-7.6837 -0.8492 -2.0016 0.9686
-7.6483 -1.1243 -2.0016 0.9686
-7.6030 -1.3979 -2.0016 0.9686
-7.4833 -1.9394 -2.0016 0.9686
-6.7959 -2.2924 -1.8570 0.9708
-6.7093 -2.5347 -1.8570 0.9708
-6.0130 -3.9094 -1.8570 0.9708
-5.7172 -4.3304 -1.8570 0.9708
-5.2189 -4.9195 -1.8570 0.9708
-4.8528 -5.2810 -1.8570 0.9708
-4.6602 -5.4517 -1.8570 0.9708
-4.5889 -6.2212 -2.0016 0.9686
-4.1310 -6.5341 -2.0016 0.9686
-3.6519 -6.8135 -2.0016 0.9686
-2.3776 -7.3558 -2.0016 0.9686
-1.8441 -7.5073 -2.0016 0.9686
-1.0270 -7.6620 -2.0016 0.9686
-0.1979 -7.7280 -2.0016 0.9686
0.0794 -7.7301 -2.0016 0.9686
0.9093 -7.6768 -2.0016 0.9686
1.1841 -7.6393 -2.0016 0.9686
1.7288 -7.5347 -2.0016 0.9686
2.2645 -7.3914 -2.0016 0.9686
2.7886 -7.2100 -2.0016 0.9686
2.1310 -4.1267 -1.2025 0.9810
2.3130 -4.1103 -1.2212 0.9807
4.2644 -6.4479 -2.0016 0.9686
4.7157 -6.1256 -2.0016 0.9686
4.9324 -5.9525 -2.0016 0.9686
5.1427 -5.7717 -2.0016 0.9686
5.3464 -5.5836 -2.0016 0.9686
5.9153 -4.9769 -2.0016 0.9686
6.0900 -4.7615 -2.0016 0.9686
6.2569 -4.5400 -2.0016 0.9686
6.4157 -4.3126 -2.0016 0.9686
6.5663 -4.0797 -2.0016 0.9686
6.7084 -3.8416 -2.0016 0.9686
6.8419 -3.5985 -2.0016 0.9686
7.0823 -3.0987 -2.0016 0.9686
7.1889 -2.8427 -2.0016 0.9686
7.3742 -2.3199 -2.0016 0.9686
7.4526 -2.0539 -2.0016 0.9686
7.5807 -1.5143 -2.0016 0.9686
7.6302 -1.2414 -2.0016 0.9686
7.6698 -0.9670 -2.0016 0.9686
7.7194 -0.4146 -2.0016 0.9686
7.7192 0.4171 -2.0016 0.9686
7.6695 0.9694 -2.0016 0.9686
7.6298 1.2439 -2.0016 0.9686
7.5802 1.5168 -2.0016 0.9686
7.5209 1.7877 -2.0016 0.9686
7.4520 2.0563 -2.0016 0.9686
7.3734 2.3223 -2.0016 0.9686
7.2854 2.5853 -2.0016 0.9686
6.8407 3.6007 -2.0016 0.9686
6.4143 4.3147 -2.0016 0.9686
6.2554 4.5420 -2.0016 0.9686
6.0885 4.7635 -2.0016 0.9686
5.3446 5.5853 -2.0016 0.9686
4.9304 5.9541 -2.0016 0.9686
4.7137 6.1271 -2.0016 0.9686
3.2961 6.9926 -2.0016 0.9686
2.5258 7.3062 -2.0016 0.9686
2.2621 7.3921 -2.0016 0.9686
1.7263 7.5353 -2.0016 0.9686
1.4549 7.5923 -2.0016 0.9686
0.9069 7.6771 -2.0016 0.9686
0.6309 7.7047 -2.0016 0.9686
0.0769 7.7301 -2.0016 0.9686
-0.2004 7.7279 -2.0016 0.9686
-0.4775 7.7157 -2.0016 0.9686
-1.0295 7.6616 -2.0016 0.9686
-1.3036 7.6198 -2.0016 0.9686
-1.8466 7.5067 -2.0016 0.9686
-2.1146 7.4356 -2.0016 0.9686
-2.3800 7.3550 -2.0016 0.9686
-2.6423 7.2649 -2.0016 0.9686
-2.9012 7.1654 -2.0016 0.9686
-3.4074 6.9390 -2.0016 0.9686
-3.8962 6.6769 -2.0016 0.9686
-4.3648 6.3803 -2.0016 0.9686
-4.5909 6.2197 -2.0016 0.9686
-5.4332 5.4992 -2.0016 0.9686
-5.6270 5.3007 -2.0016 0.9686
-5.8135 5.0955 -2.0016 0.9686
-6.4825 4.2117 -2.0016 0.9686
-7.0182 3.2412 -2.0016 0.9686
-7.2325 2.7297 -2.0016 0.9686
-7.3258 2.4685 -2.0016 0.9686
-7.4096 2.2042 -2.0016 0.9686
-7.5485 1.6673 -2.0016 0.9686
-7.6035 1.3954 -2.0016 0.9686
-7.6487 1.1218 -2.0016 0.9686
-7.6840 0.8467 -2.0016 0.9686
-7.7094 0.5705 -2.0016 0.9686
-7.7261 -0.2609 -2.0016 0.9686
-7.7118 -0.5379 -2.0016 0.9686
-7.6875 -0.8142 -2.0016 0.9686
-7.5555 -1.6353 -2.0016 0.9686
-7.4920 -1.9053 -2.0016 0.9686
-6.6266 -2.7436 -1.8570 0.9708
-6.1661 -3.6631 -1.8570 0.9708
-5.8876 -4.0958 -1.8570 0.9708
-5.7369 -4.3043 -1.8570 0.9708
-5.0623 -5.0805 -1.8570 0.9708
-4.8768 -5.2589 -1.8570 0.9708
-4.6850 -5.4304 -1.8570 0.9708
-4.6172 -6.2002 -2.0016 0.9686
-4.3918 -6.3618 -2.0016 0.9686
-4.1608 -6.5153 -2.0016 0.9686
-3.9244 -6.6603 -2.0016 0.9686
-3.4368 -6.9245 -2.0016 0.9686
-3.1862 -7.0433 -2.0016 0.9686
-2.6730 -7.2537 -2.0016 0.9686
-2.4111 -7.3449 -2.0016 0.9686
-2.1461 -7.4266 -2.0016 0.9686
-1.3359 -7.6142 -2.0016 0.9686
-1.0619 -7.6572 -2.0016 0.9686
-0.7865 -7.6904 -2.0016 0.9686
-0.5102 -7.7136 -2.0016 0.9686
0.5983 -7.7073 -2.0016 0.9686
1.1493 -7.6446 -2.0016 0.9686
1.4228 -7.5984 -2.0016 0.9686
1.9639 -7.4769 -2.0016 0.9686
2.2308 -7.4016 -2.0016 0.9686
2.4949 -7.3168 -2.0016 0.9686
2.7557 -7.2226 -2.0016 0.9686
3.2665 -7.0065 -2.0016 0.9686
2.1173 -4.1464 -1.2054 0.9809
4.0002 -6.6150 -2.0016 0.9686
4.2349 -6.4673 -2.0016 0.9686
4.4642 -6.3112 -2.0016 0.9686
5.3209 -5.6079 -2.0016 0.9686
5.8926 -5.0038 -2.0016 0.9686
6.3960 -4.3418 -2.0016 0.9686
6.5476 -4.1096 -2.0016 0.9686
6.6908 -3.8721 -2.0016 0.9686
6.8254 -3.6296 -2.0016 0.9686
6.9512 -3.3824 -2.0016 0.9686
7.0681 -3.1309 -2.0016 0.9686
7.1758 -2.8754 -2.0016 0.9686
7.3635 -2.3535 -2.0016 0.9686
7.4432 -2.0879 -2.0016 0.9686
7.5133 -1.8195 -2.0016 0.9686
7.5737 -1.5489 -2.0016 0.9686
7.6244 -1.2762 -2.0016 0.9686
7.6963 -0.7263 -2.0016 0.9686
7.7174 -0.4497 -2.0016 0.9686
7.7286 -0.1726 -2.0016 0.9686
7.7024 0.6586 -2.0016 0.9686
7.6738 0.9345 -2.0016 0.9686
7.6353 1.2091 -2.0016 0.9686
7.3839 2.2887 -2.0016 0.9686
7.2971 2.5521 -2.0016 0.9686
7.0953 3.0687 -2.0016 0.9686
6.8571 3.5695 -2.0016 0.9686
6.7246 3.8131 -2.0016 0.9686
6.2761 4.5135 -2.0016 0.9686
5.9363 4.9518 -2.0016 0.9686
5.1671 5.7499 -2.0016 0.9686
4.9575 5.9316 -2.0016 0.9686
4.7415 6.1056 -2.0016 0.9686
3.8196 6.7209 -2.0016 0.9686
3.5760 6.8536 -2.0016 0.9686
3.3279 6.9775 -2.0016 0.9686
2.8191 7.1981 -2.0016 0.9686
2.5591 7.2946 -2.0016 0.9686
2.2958 7.3817 -2.0016 0.9686
2.0295 7.4593 -2.0016 0.9686
1.7607 7.5273 -2.0016 0.9686
1.4895 7.5856 -2.0016 0.9686
0.6660 7.7017 -2.0016 0.9686
0.1121 7.7297 -2.0016 0.9686
-0.1652 7.7287 -2.0016 0.9686
-5.9464 3.8249 -2.0016 0.9710
-6.2053 3.3888 -2.0016 0.9710
-6.4323 2.9352 -2.0016 0.9710
-6.5334 2.7026 -2.0016 0.9710
-6.6262 2.4665 -2.0016 0.9710
-6.7104 2.2272 -2.0016 0.9710
-7.0001 0.9941 -2.0016 0.9710
-7.0533 0.4897 -2.0016 0.9710
-7.0703 -0.0172 -2.0016 0.9710
-7.0651 -0.2709 -2.0016 0.9710
-7.0275 -0.7767 -2.0016 0.9710
-6.9952 -1.0283 -2.0016 0.9710
-6.9034 -1.5271 -2.0016 0.9710
-6.8442 -1.7738 -2.0016 0.9710
-6.5893 -2.2227 -1.9686 0.9715
-6.1363 -2.3183 -1.8570 0.9731
-6.0492 -2.5369 -1.8570 0.9731
-5.9543 -2.7522 -1.8570 0.9731
-5.7417 -3.1720 -1.8570 0.9731
-5.6242 -3.3760 -1.8570 0.9731
-5.4995 -3.5755 -1.8570 0.9731
-5.3677 -3.7705 -1.8570 0.9731
-5.2290 -3.9606 -1.8570 0.9731
-4.9316 -4.3253 -1.8570 0.9731
-4.7733 -4.4994 -1.8570 0.9731
-4.6088 -4.6677 -1.8570 0.9731
-4.4384 -4.8300 -1.8570 0.9731
-3.8938 -5.2789 -1.8570 0.9731
-3.7020 -5.4152 -1.8570 0.9731
-3.5063 -5.5459 -1.8575 0.9731
-3.3042 -5.6666 -1.8570 0.9731
-2.8847 -6.4551 -2.0016 0.9710
-2.6513 -6.5544 -2.0016 0.9710
-1.9319 -6.8013 -2.0016 0.9710
-1.4393 -6.9223 -2.0016 0.9710
-0.9393 -7.0077 -2.0016 0.9710
-0.4345 -7.0570 -2.0016 0.9710
-0.1810 -7.0680 -2.0016 0.9710
0.0726 -7.0700 -2.0016 0.9710
0.3262 -7.0628 -2.0016 0.9710
0.5793 -7.0466 -2.0016 0.9710
1.0830 -6.9869 -2.0016 0.9710
1.8273 -6.8301 -2.0016 0.9710
2.0711 -6.7602 -2.0016 0.9710
2.3123 -6.6815 -2.0016 0.9710
2.3049 -4.0959 -1.3305 0.9807
3.6861 -6.0334 -2.0016 0.9710
3.9002 -5.8973 -2.0016 0.9710
4.1092 -5.7536 -2.0016 0.9710
4.3130 -5.6025 -2.0016 0.9710
4.8899 -5.1067 -2.0016 0.9710
5.2434 -4.7430 -2.0016 0.9710
5.4102 -4.5519 -2.0016 0.9710
5.5700 -4.3549 -2.0016 0.9710
5.8678 -3.9444 -2.0016 0.9710
6.0055 -3.7313 -2.0016 0.9710
6.1355 -3.5135 -2.0016 0.9710
6.2576 -3.2912 -2.0016 0.9710
6.5750 -2.5999 -2.0016 0.9710
6.6640 -2.3624 -2.0016 0.9710
6.8792 -1.6328 -2.0016 0.9710
7.0148 -0.8844 -2.0016 0.9710
7.0420 -0.6322 -2.0016 0.9710
7.0600 0.3815 -2.0016 0.9710
7.0418 0.6345 -2.0016 0.9710
6.9782 1.1377 -2.0016 0.9710
6.9329 1.3873 -2.0016 0.9710
6.8787 1.6351 -2.0016 0.9710
6.7437 2.1240 -2.0016 0.9710
6.6632 2.3645 -2.0016 0.9710
6.5741 2.6020 -2.0016 0.9710
6.4766 2.8362 -2.0016 0.9710
6.3707 3.0667 -2.0016 0.9710
6.1344 3.5155 -2.0016 0.9710
6.0043 3.7333 -2.0016 0.9710
5.5686 4.3567 -2.0016 0.9710
4.5094 5.4456 -2.0016 0.9710
4.3112 5.6039 -2.0016 0.9710
3.6842 6.0346 -2.0016 0.9710
2.7833 6.4995 -2.0016 0.9710
2.5483 6.5951 -2.0016 0.9710
2.0689 6.7608 -2.0016 0.9710
0.8294 7.0215 -2.0016 0.9710
0.5770 7.0468 -2.0016 0.9710
0.3239 7.0629 -2.0016 0.9710
0.0703 7.0700 -2.0016 0.9710
-0.1833 7.0679 -2.0016 0.9710
-0.9415 7.0074 -2.0016 0.9710
-1.1923 6.9691 -2.0016 0.9710
-1.6889 6.8657 -2.0016 0.9710
-2.1767 6.7269 -2.0016 0.9710
-2.4166 6.6445 -2.0016 0.9710
-2.6534 6.5535 -2.0016 0.9710
-2.8868 6.4541 -2.0016 0.9710
-3.1165 6.3464 -2.0016 0.9710
-3.3421 6.2306 -2.0016 0.9710
-3.7802 5.9749 -2.0016 0.9710
-4.4002 5.5343 -2.0016 0.9710
-4.5958 5.3729 -2.0016 0.9710
-4.7856 5.2046 -2.0016 0.9710
-4.9692 5.0295 -2.0016 0.9710
-5.4808 4.4666 -2.0016 0.9710
-5.6375 4.2671 -2.0016 0.9710
-5.9289 3.8520 -2.0016 0.9710
-6.3084 3.1928 -2.0016 0.9710
-6.6149 2.4966 -2.0016 0.9710
-6.7002 2.2577 -2.0016 0.9710
-6.7768 2.0159 -2.0016 0.9710
-6.9542 1.2763 -2.0016 0.9710
-6.9955 1.0260 -2.0016 0.9710
-7.0278 0.7744 -2.0016 0.9710
-7.0652 0.2686 -2.0016 0.9710
-7.0663 -0.2387 -2.0016 0.9710
-7.0532 -0.4920 -2.0016 0.9710
-7.0310 -0.7447 -2.0016 0.9710
-6.9998 -0.9964 -2.0016 0.9710
-6.7853 -1.9873 -2.0016 0.9710
-6.6768 -2.2185 -1.9918 0.9712
-6.1468 -2.2903 -1.8570 0.9731
-6.0607 -2.5093 -1.8570 0.9731
-5.7561 -3.1459 -1.8570 0.9731
-5.5157 -3.5504 -1.8570 0.9731
-5.1024 -4.1224 -1.8570 0.9731
-4.2849 -4.9667 -1.8570 0.9731
-4.1040 -5.1172 -1.8570 0.9731
-3.3300 -5.6515 -1.8570 0.9731
-3.3684 -6.2164 -2.0016 0.9710
-2.9141 -6.4419 -2.0016 0.9710
-2.4447 -6.6342 -2.0016 0.9710
-1.9628 -6.7924 -2.0016 0.9710
-1.4708 -6.9157 -2.0016 0.9710
-0.2132 -7.0671 -2.0016 0.9710
0.0404 -7.0702 -2.0016 0.9710
0.2940 -7.0642 -2.0016 0.9710
0.5472 -7.0491 -2.0016 0.9710
0.7997 -7.0250 -2.0016 0.9710
1.5497 -6.8984 -2.0016 0.9710
1.7962 -6.8384 -2.0016 0.9710
2.0403 -6.7695 -2.0016 0.9710
2.5204 -6.6058 -2.0016 0.9710
2.7557 -6.5112 -2.0016 0.9710
2.1065 -4.1253 -1.3113 0.9809
3.6586 -6.0501 -2.0016 0.9710
4.0830 -5.7723 -2.0016 0.9710
4.6794 -5.3002 -2.0016 0.9710
4.8665 -5.1290 -2.0016 0.9710
5.0474 -4.9511 -2.0016 0.9710
5.2217 -4.7669 -2.0016 0.9710
5.3894 -4.5765 -2.0016 0.9710
5.7036 -4.1783 -2.0016 0.9710
5.8498 -3.9711 -2.0016 0.9710
5.9885 -3.7587 -2.0016 0.9710
6.1195 -3.5414 -2.0016 0.9710
6.4645 -2.8635 -2.0016 0.9710
6.5630 -2.6298 -2.0016 0.9710
6.6532 -2.3927 -2.0016 0.9710
6.7347 -2.1525 -2.0016 0.9710
7.0107 -0.9163 -2.0016 0.9710
7.0391 -0.6643 -2.0016 0.9710
7.0185 0.8547 -2.0016 0.9710
6.9392 1.3557 -2.0016 0.9710
6.8860 1.6037 -2.0016 0.9710
6.6739 2.3342 -2.0016 0.9710
6.4894 2.8066 -2.0016 0.9710
6.2715 3.2647 -2.0016 0.9710
6.1503 3.4875 -2.0016 0.9710
6.0213 3.7059 -2.0016 0.9710
5.8845 3.9195 -2.0016 0.9710
5.2634 4.7208 -2.0016 0.9710
4.9114 5.0860 -2.0016 0.9710
4.7258 5.2589 -2.0016 0.9710
4.1335 5.7361 -2.0016 0.9710
3.9251 5.8807 -2.0016 0.9710
3.7117 6.0177 -2.0016 0.9710
3.2707 6.2684 -2.0016 0.9710
3.0437 6.3816 -2.0016 0.9710
2.3405 6.6717 -2.0016 0.9710
2.0997 6.7513 -2.0016 0.9710
1.6103 6.8845 -2.0016 0.9710
1.3623 6.9378 -2.0016 0.9710
1.1126 6.9822 -2.0016 0.9710
0.8614 7.0177 -2.0016 0.9710
0.6091 7.0440 -2.0016 0.9710
0.3561 7.0614 -2.0016 0.9710
0.1025 7.0696 -2.0016 0.9710
-0.4046 7.0587 -2.0016 0.9710
-4.7570 4.4405 -2.0016 0.9731
-4.9133 4.2670 -2.0016 0.9731
-5.2065 3.9038 -2.0016 0.9731
-5.3432 3.7145 -2.0016 0.9731
-5.4730 3.5204 -2.0016 0.9731
-5.7113 3.1190 -2.0016 0.9731
-5.8195 2.9121 -2.0016 0.9731
-6.0987 2.2701 -2.0016 0.9731
-6.2457 1.8270 -2.0016 0.9731
-6.3607 1.3745 -2.0016 0.9731
-6.4059 1.1455 -2.0016 0.9731
-6.4919 0.4507 -2.0016 0.9731
-6.5038 0.2176 -2.0016 0.9731
-6.5027 -0.2493 -2.0016 0.9731
-6.4896 -0.4824 -2.0016 0.9731
-6.4383 -0.9464 -2.0016 0.9731
-6.3539 -1.4056 -2.0016 0.9731
-6.2994 -1.6326 -2.0016 0.9731
-6.2368 -1.8575 -2.0016 0.9731
-6.1661 -2.0800 -2.0016 0.9731
-5.8979 -2.2282 -1.9392 0.9740
-5.5676 -2.3349 -1.8570 0.9751
-5.4803 -2.5331 -1.8570 0.9751
-5.3859 -2.7281 -1.8570 0.9751
-5.2846 -2.9195 -1.8570 0.9751
-5.1765 -3.1072 -1.8570 0.9751
-5.0617 -3.2909 -1.8570 0.9751
-4.8127 -3.6453 -1.8570 0.9751
-4.5390 -3.9810 -1.8570 0.9751
-4.3933 -4.1412 -1.8570 0.9751
-3.9230 -4.5892 -1.8570 0.9751
-3.7558 -4.7270 -1.8570 0.9751
-3.5838 -4.8586 -1.8570 0.9751
-3.4073 -4.9841 -1.8570 0.9751
-3.2263 -5.1031 -1.8570 0.9751
-3.0412 -5.2155 -1.8570 0.9751
-1.7781 -6.2599 -2.0016 0.9731
-1.5524 -6.3196 -2.0016 0.9731
-0.8645 -6.4498 -2.0016 0.9731
-0.6326 -6.4767 -2.0016 0.9731
-0.3999 -6.4952 -2.0016 0.9731
0.0668 -6.5071 -2.0016 0.9731
0.3002 -6.5006 -2.0016 0.9731
0.5332 -6.4856 -2.0016 0.9731
1.2268 -6.3908 -2.0016 0.9731
1.4553 -6.3427 -2.0016 0.9731
1.6818 -6.2864 -2.0016 0.9731
2.1779 -5.6309 -1.8570 0.9751
2.3784 -5.5492 -1.8570 0.9751
2.1137 -4.0931 -1.4169 0.9809
3.3927 -5.5531 -2.0016 0.9731
3.5897 -5.4278 -2.0016 0.9731
3.7821 -5.2956 -2.0016 0.9731
4.1520 -5.0108 -2.0016 0.9731
4.3291 -4.8586 -2.0016 0.9731
4.6663 -4.5357 -2.0016 0.9731
4.8260 -4.3654 -2.0016 0.9731
4.9795 -4.1895 -2.0016 0.9731
5.6471 -3.2338 -2.0016 0.9731
5.9618 -2.6085 -2.0016 0.9731
6.0515 -2.3929 -2.0016 0.9731
6.1335 -2.1743 -2.0016 0.9731
6.3316 -1.5028 -2.0016 0.9731
6.3814 -1.2748 -2.0016 0.9731
6.4230 -1.0450 -2.0016 0.9731
6.4814 -0.5819 -2.0016 0.9731
6.5064 -0.1157 -2.0016 0.9731
6.5064 0.1178 -2.0016 0.9731
6.4980 0.3511 -2.0016 0.9731
6.4227 1.0471 -2.0016 0.9731
6.3810 1.2768 -2.0016 0.9731
6.0508 2.3949 -2.0016 0.9731
5.9610 2.6104 -2.0016 0.9731
5.8635 2.8225 -2.0016 0.9731
5.6461 3.2356 -2.0016 0.9731
5.5264 3.4361 -2.0016 0.9731
5.3995 3.6321 -2.0016 0.9731
5.2658 3.8234 -2.0016 0.9731
5.1252 4.0099 -2.0016 0.9731
4.8246 4.3670 -2.0016 0.9731
4.6648 4.5373 -2.0016 0.9731
4.4991 4.7017 -2.0016 0.9731
4.3275 4.8600 -2.0016 0.9731
4.1504 5.0121 -2.0016 0.9731
3.5880 5.4290 -2.0016 0.9731
3.3909 5.5542 -2.0016 0.9731
2.9840 5.7830 -2.0016 0.9731
2.7746 5.8863 -2.0016 0.9731
2.5617 5.9821 -2.0016 0.9731
2.3455 6.0701 -2.0016 0.9731
2.1262 6.1503 -2.0016 0.9731
1.9043 6.2226 -2.0016 0.9731
1.6798 6.2869 -2.0016 0.9731
1.4532 6.3431 -2.0016 0.9731
0.7634 6.4625 -2.0016 0.9731
0.5311 6.4858 -2.0016 0.9731
0.0647 6.5072 -2.0016 0.9731
-0.1687 6.5053 -2.0016 0.9731
-0.8666 6.4495 -2.0016 0.9731
-1.3267 6.3708 -2.0016 0.9731
-1.5544 6.3191 -2.0016 0.9731
-1.7801 6.2593 -2.0016 0.9731
-2.0035 6.1914 -2.0016 0.9731
-2.6570 5.9403 -2.0016 0.9731
-4.0499 5.0937 -2.0016 0.9731
-4.5736 4.6292 -2.0016 0.9731
-4.8938 4.2893 -2.0016 0.9731
-5.0445 4.1110 -2.0016 0.9731
-5.3262 3.7388 -2.0016 0.9731
-5.5806 3.3473 -2.0016 0.9731
-5.8062 2.9386 -2.0016 0.9731
-6.0883 2.2979 -2.0016 0.9731
-6.1668 2.0780 -2.0016 0.9731
-6.2373 1.8555 -2.0016 0.9731
-6.3543 1.4035 -2.0016 0.9731
-6.4006 1.1747 -2.0016 0.9731
-6.4386 0.9443 -2.0016 0.9731
-6.4683 0.7128 -2.0016 0.9731
-6.4897 0.4803 -2.0016 0.9731
-6.5028 0.2472 -2.0016 0.9731
-6.5075 0.0138 -2.0016 0.9731
-6.5038 -0.2197 -2.0016 0.9731
-6.4713 -0.6854 -2.0016 0.9731
-6.3602 -1.3766 -2.0016 0.9731
-6.2452 -1.8290 -2.0016 0.9731
-6.1755 -2.0519 -2.0016 0.9731
-5.3983 -2.7035 -1.8570 0.9751
-5.0766 -3.2678 -1.8570 0.9751
-4.9561 -3.4478 -1.8570 0.9751
-4.8293 -3.6233 -1.8570 0.9751
-4.6962 -3.7942 -1.8570 0.9751
-4.2614 -4.2768 -1.8570 0.9751
-3.6059 -4.8423 -1.8570 0.9751
-3.4299 -4.9685 -1.8570 0.9751
-3.0649 -5.2016 -1.8570 0.9751
-2.4884 -5.5008 -1.8570 0.9751
-2.2895 -5.5865 -1.8570 0.9751
-2.0876 -5.6650 -1.8570 0.9751
-1.8066 -6.2517 -2.0016 0.9731
0.2706 -6.5019 -2.0016 0.9731
1.1977 -6.3963 -2.0016 0.9731
1.6532 -6.2940 -2.0016 0.9731
2.3198 -6.0800 -2.0016 0.9731
2.5511 -5.4720 -1.8570 0.9751
2.0979 -4.1083 -1.4189 0.9809
2.2725 -4.0819 -1.4370 0.9806
3.1241 -5.1663 -1.8570 0.9751
3.5650 -5.4441 -2.0016 0.9731
3.7579 -5.3127 -2.0016 0.9731
3.9461 -5.1745 -2.0016 0.9731
4.1292 -5.0296 -2.0016 0.9731
5.1082 -4.0315 -2.0016 0.9731
5.2496 -3.8457 -2.0016 0.9731
5.3841 -3.6549 -2.0016 0.9731
