ply
format ascii 1.0
element vertex 1583
property float32 x
property float32 y
property float32 z
property float32 I
end_header
8.7476 -11.0921 -2.0016 0.9445
9.5202 -10.4365 -2.0016 0.9445
9.8884 -10.0883 -2.0016 0.9445
10.9149 -8.9678 -2.0016 0.9445
11.8150 -7.7435 -2.0016 0.9445
12.0851 -7.3147 -2.0016 0.9445
12.3397 -6.8765 -2.0016 0.9445
13.3686 -4.5647 -2.0016 0.9445
13.5237 -4.0822 -2.0016 0.9445
13.8840 -2.6060 -2.0016 0.9445
14.0350 -1.6040 -2.0016 0.9445
14.1139 -0.5937 -2.0016 0.9445
14.0960 0.9258 -2.0016 0.9445
13.9934 1.9339 -2.0016 0.9445
13.9150 2.4346 -2.0016 0.9445
13.8187 2.9321 -2.0016 0.9445
13.2574 4.8781 -2.0016 0.9445
12.8736 5.8160 -2.0016 0.9445
12.6567 6.2739 -2.0016 0.9445
12.4236 6.7239 -2.0016 0.9445
9.2719 10.6577 -2.0016 0.9445
8.8837 10.9834 -2.0016 0.9445
8.0735 11.5920 -2.0016 0.9445
7.6525 11.8741 -2.0016 0.9445
4.1226 12.3841 -1.8494 0.9486
3.6758 12.5239 -1.8494 0.9486
2.2950 12.7671 -1.8380 0.9489
1.3126 12.3240 -1.7560 0.9512
0.8524 12.1164 -1.7210 0.9521
0.4096 11.9166 -1.6895 0.9530
-0.0178 11.7239 -1.6611 0.9537
-0.4316 11.5372 -1.6358 0.9544
-0.8377 11.4146 -1.6217 0.9548
-1.2510 11.4173 -1.6274 0.9547
-1.2766 8.7417 -1.2517 0.9649
-2.0890 11.4228 -1.6453 0.9542
-2.5161 11.4256 -1.6577 0.9538
-3.3927 11.4313 -1.6895 0.9530
-4.3084 11.4373 -1.7317 0.9518
-4.7849 11.4405 -1.7571 0.9511
-6.3005 11.4308 -1.8494 0.9486
-7.1038 10.9497 -1.8494 0.9486
-7.4919 10.6879 -1.8494 0.9486
-7.8704 10.4123 -1.8494 0.9486
-8.9434 9.5067 -1.8494 0.9486
-9.2786 9.1798 -1.8494 0.9486
-10.3674 8.2545 -1.8777 0.9479
-11.6351 7.9715 -1.9984 0.9446
-11.9325 7.5611 -2.0016 0.9445
-12.1960 7.1283 -2.0016 0.9445
-12.6757 6.2356 -2.0016 0.9445
-13.0901 5.3109 -2.0016 0.9445
-13.4371 4.3588 -2.0016 0.9445
-13.5848 3.8741 -2.0016 0.9445
-13.7150 3.3844 -2.0016 0.9445
-13.8276 2.8903 -2.0016 0.9445
-13.9992 1.8916 -2.0016 0.9445
-14.0580 1.3883 -2.0016 0.9445
-14.0988 0.8831 -2.0016 0.9445
-14.1214 0.3769 -2.0016 0.9445
-14.1258 -0.1298 -2.0016 0.9445
-14.0802 -1.1421 -2.0016 0.9445
-14.0301 -1.6464 -2.0016 0.9445
-12.7773 -2.9169 -1.8570 0.9484
-12.5353 -3.8253 -1.8570 0.9484
-12.3900 -4.2725 -1.8570 0.9484
-12.2288 -4.7141 -1.8570 0.9484
-11.8594 -5.5786 -1.8570 0.9484
-12.5589 -6.4676 -2.0016 0.9445
-11.5049 -8.1971 -2.0016 0.9445
-11.2035 -8.6045 -2.0016 0.9445
-10.8877 -9.0007 -2.0016 0.9445
-10.5579 -9.3855 -2.0016 0.9445
-10.2144 -9.7581 -2.0016 0.9445
-9.8579 -10.1182 -2.0016 0.9445
-8.7140 -11.1185 -2.0016 0.9445
-8.3096 -11.4239 -2.0016 0.9445
-7.8945 -11.7146 -2.0016 0.9445
-7.4693 -11.9902 -2.0016 0.9445
-5.6778 -12.9351 -2.0016 0.9445
-5.2102 -13.1305 -2.0016 0.9445
-4.2555 -13.4702 -2.0016 0.9445
-3.2790 -13.7406 -2.0016 0.9445
-2.7840 -13.8493 -2.0016 0.9445
-1.7840 -14.0133 -2.0016 0.9445
-0.7749 -14.1051 -2.0016 0.9445
0.2383 -14.1244 -2.0016 0.9445
1.7541 -14.0171 -2.0016 0.9445
2.2557 -13.9451 -2.0016 0.9445
2.7544 -13.8553 -2.0016 0.9445
3.2496 -13.7476 -2.0016 0.9445
3.7406 -13.6222 -2.0016 0.9445
4.2268 -13.4792 -2.0016 0.9445
5.1822 -13.1415 -2.0016 0.9445
6.1109 -12.7362 -2.0016 0.9445
2.2113 -4.2141 -0.6743 0.9810
7.0082 -12.2654 -2.0016 0.9445
7.4436 -12.0061 -2.0016 0.9445
8.6902 -11.1371 -2.0016 0.9445
9.0841 -10.8183 -2.0016 0.9445
9.4662 -10.4855 -2.0016 0.9445
10.1936 -9.7799 -2.0016 0.9445
10.8684 -9.0240 -2.0016 0.9445
11.1851 -8.6283 -2.0016 0.9445
11.4874 -8.2216 -2.0016 0.9445
12.7699 -6.0402 -2.0016 0.9445
12.9783 -5.5783 -2.0016 0.9445
13.1701 -5.1093 -2.0016 0.9445
13.7654 -3.1734 -2.0016 0.9445
13.8703 -2.6776 -2.0016 0.9445
14.0266 -1.6764 -2.0016 0.9445
14.0777 -1.1722 -2.0016 0.9445
14.1107 -0.6665 -2.0016 0.9445
14.1006 0.8530 -2.0016 0.9445
14.0610 1.3582 -2.0016 0.9445
14.0032 1.8617 -2.0016 0.9445
13.8337 2.8607 -2.0016 0.9445
13.7222 3.3551 -2.0016 0.9445
13.4464 4.3301 -2.0016 0.9445
13.2824 4.8096 -2.0016 0.9445
12.9035 5.7494 -2.0016 0.9445
12.6889 6.2085 -2.0016 0.9445
12.2112 7.1022 -2.0016 0.9445
11.9486 7.5356 -2.0016 0.9445
11.6707 7.9593 -2.0016 0.9445
11.0700 8.7755 -2.0016 0.9445
10.4125 9.5465 -2.0016 0.9445
10.0634 9.9138 -2.0016 0.9445
9.3268 10.6097 -2.0016 0.9445
8.5422 11.2510 -2.0016 0.9445
7.7137 11.8344 -2.0016 0.9445
6.3249 11.4173 -1.8494 0.9486
5.9113 11.6369 -1.8494 0.9486
5.0619 12.0307 -1.8494 0.9486
4.6272 12.2045 -1.8494 0.9486
3.2894 12.6309 -1.8494 0.9486
1.3804 12.3545 -1.7614 0.9510
-0.3728 11.5637 -1.6393 0.9543
-0.7785 11.4142 -1.6210 0.9548
-1.1914 11.4169 -1.6264 0.9547
-2.0281 11.4224 -1.6437 0.9542
-2.8873 11.4280 -1.6701 0.9535
-3.3285 11.4309 -1.6869 0.9530
-3.7792 11.4339 -1.7063 0.9525
-5.2045 11.4432 -1.7812 0.9505
-6.6486 11.2319 -1.8494 0.9486
-7.0472 10.9863 -1.8494 0.9486
-7.4367 10.7264 -1.8494 0.9486
-7.8166 10.4528 -1.8494 0.9486
-8.1865 10.1657 -1.8494 0.9486
-8.5458 9.8656 -1.8494 0.9486
-8.8942 9.5527 -1.8494 0.9486
-9.5561 8.8905 -1.8494 0.9486
-9.8688 8.5421 -1.8494 0.9486
-10.2609 8.2567 -1.8661 0.9482
-11.8933 7.6226 -2.0016 0.9445
-12.1591 7.1911 -2.0016 0.9445
-12.6433 6.3010 -2.0016 0.9445
-12.8612 5.8434 -2.0016 0.9445
-13.0625 5.3784 -2.0016 0.9445
-13.8125 2.9616 -2.0016 0.9445
-13.9892 1.9638 -2.0016 0.9445
-7.8464 8.2548 -1.8762 0.9549
-8.4180 8.2428 -1.9409 0.9534
-8.9519 8.1577 -1.9952 0.9521
-9.2628 7.8517 -2.0004 0.9520
-9.5440 7.5188 -2.0016 0.9519
-9.8075 7.1717 -2.0016 0.9519
-10.5211 6.0767 -2.0016 0.9519
-10.9296 5.3068 -2.0016 0.9519
-11.4364 4.1021 -2.0016 0.9519
-11.5762 3.6893 -2.0016 0.9519
-11.7011 3.2717 -2.0016 0.9519
-11.8109 2.8499 -2.0016 0.9519
-11.9055 2.4245 -2.0016 0.9519
-12.0487 1.5647 -2.0016 0.9519
-12.1486 -0.1744 -2.0016 0.9519
-12.1345 -0.6100 -2.0016 0.9519
-12.1049 -1.0448 -2.0016 0.9519
-12.0596 -1.4783 -2.0016 0.9519
-11.9988 -1.9099 -2.0016 0.9519
-10.7643 -3.3457 -1.8570 0.9553
-10.1752 -4.8507 -1.8570 0.9553
-9.9947 -5.2125 -1.8570 0.9553
-10.3424 -6.3762 -2.0016 0.9519
-9.5976 -7.4502 -2.0016 0.9519
-8.7418 -8.4380 -2.0016 0.9519
-8.1144 -9.0430 -2.0016 0.9519
-7.7849 -9.3282 -2.0016 0.9519
-7.4453 -9.6014 -2.0016 0.9519
-7.0961 -9.8623 -2.0016 0.9519
-6.7378 -10.1104 -2.0016 0.9519
-5.2227 -10.9701 -2.0016 0.9519
-4.8259 -11.1503 -2.0016 0.9519
-4.0142 -11.4676 -2.0016 0.9519
-3.6003 -11.6042 -2.0016 0.9519
-1.9038 -11.9998 -2.0016 0.9519
-1.4722 -12.0604 -2.0016 0.9519
-1.0387 -12.1054 -2.0016 0.9519
-0.1682 -12.1487 -2.0016 0.9519
1.1377 -12.0965 -2.0016 0.9519
1.5709 -12.0479 -2.0016 0.9519
2.0020 -11.9838 -2.0016 0.9519
2.4305 -11.9043 -2.0016 0.9519
3.2776 -11.6994 -2.0016 0.9519
3.6951 -11.5743 -2.0016 0.9519
4.1079 -11.4344 -2.0016 0.9519
4.5154 -11.2797 -2.0016 0.9519
4.9170 -11.1105 -2.0016 0.9519
2.2313 -4.1995 -0.7834 0.9809
6.8204 -10.0549 -2.0016 0.9519
7.1766 -9.8038 -2.0016 0.9519
7.5236 -9.5401 -2.0016 0.9519
7.8610 -9.2642 -2.0016 0.9519
9.1050 -8.0448 -2.0016 0.9519
9.3877 -7.7130 -2.0016 0.9519
9.9165 -7.0202 -2.0016 0.9519
10.3942 -6.2913 -2.0016 0.9519
10.6132 -5.9144 -2.0016 0.9519
10.8185 -5.5299 -2.0016 0.9519
11.3499 -4.3359 -2.0016 0.9519
11.7499 -3.0916 -2.0016 0.9519
11.8533 -2.6682 -2.0016 0.9519
12.1391 -0.5106 -2.0016 0.9519
12.1496 -0.0749 -2.0016 0.9519
12.1238 0.7963 -2.0016 0.9519
12.0355 1.6633 -2.0016 0.9519
11.8853 2.5219 -2.0016 0.9519
11.7872 2.9465 -2.0016 0.9519
11.6739 3.3674 -2.0016 0.9519
11.5456 3.7839 -2.0016 0.9519
11.4025 4.1956 -2.0016 0.9519
11.2447 4.6018 -2.0016 0.9519
11.0724 5.0022 -2.0016 0.9519
10.8858 5.3961 -2.0016 0.9519
10.6853 5.7831 -2.0016 0.9519
10.4710 6.1626 -2.0016 0.9519
10.0023 6.8974 -2.0016 0.9519
9.7485 7.2517 -2.0016 0.9519
9.4821 7.5967 -2.0016 0.9519
8.9131 8.2569 -2.0016 0.9519
8.6112 8.5712 -2.0016 0.9519
8.2983 8.8746 -2.0016 0.9519
7.6407 9.4466 -2.0016 0.9519
6.9438 9.9701 -2.0016 0.9519
6.5818 10.2127 -2.0016 0.9519
6.2050 10.4317 -1.9995 0.9520
4.6694 10.2088 -1.8494 0.9555
3.9255 10.5173 -1.8494 0.9555
3.5458 10.6513 -1.8494 0.9555
3.1615 10.7716 -1.8494 0.9555
2.3811 10.9706 -1.8494 0.9555
1.9861 11.0489 -1.8494 0.9555
-0.0170 11.2260 -1.8494 0.9555
-0.8217 11.1959 -1.8494 0.9555
-1.2227 11.1592 -1.8494 0.9555
-1.2743 8.7263 -1.4528 0.9649
-2.4143 10.9633 -1.8494 0.9555
-2.8060 10.8696 -1.8494 0.9555
-3.1940 10.7620 -1.8494 0.9555
-5.0629 10.0195 -1.8494 0.9555
-5.7681 9.6308 -1.8494 0.9555
-6.7692 8.9555 -1.8494 0.9555
-7.0861 8.7069 -1.8494 0.9555
-8.3334 8.2446 -1.9312 0.9536
-9.5050 7.5679 -2.0016 0.9519
-10.0231 6.8671 -2.0016 0.9519
-10.9021 5.3632 -2.0016 0.9519
-11.2585 4.5678 -2.0016 0.9519
-11.4151 4.1611 -2.0016 0.9519
-11.5570 3.7490 -2.0016 0.9519
-11.6840 3.3320 -2.0016 0.9519
-11.7960 2.9108 -2.0016 0.9519
-11.8928 2.4859 -2.0016 0.9519
-12.1456 0.3242 -2.0016 0.9519
-12.1494 -0.1117 -2.0016 0.9519
-12.1375 -0.5473 -2.0016 0.9519
-12.1101 -0.9823 -2.0016 0.9519
-12.0671 -1.4161 -2.0016 0.9519
-12.0085 -1.8480 -2.0016 0.9519
-10.7814 -3.2901 -1.8570 0.9553
-10.6565 -3.6747 -1.8570 0.9553
-10.5178 -4.0545 -1.8570 0.9553
-10.3656 -4.4291 -1.8570 0.9553
-10.2001 -4.7981 -1.8570 0.9553
-9.8299 -5.5170 -1.8570 0.9553
-10.3751 -6.3227 -2.0016 0.9519
-9.3643 -7.7414 -2.0016 0.9519
-9.0806 -8.0723 -2.0016 0.9519
-8.1610 -9.0010 -2.0016 0.9519
-7.4947 -9.5629 -2.0016 0.9519
-6.7899 -10.0755 -2.0016 0.9519
-6.4242 -10.3126 -2.0016 0.9519
-6.0502 -10.5364 -2.0016 0.9519
-5.6684 -10.7466 -2.0016 0.9519
-5.2793 -10.9430 -2.0016 0.9519
-4.8834 -11.1253 -2.0016 0.9519
-4.4812 -11.2933 -2.0016 0.9519
-4.0733 -11.4467 -2.0016 0.9519
-3.2422 -11.7093 -2.0016 0.9519
-2.8202 -11.8180 -2.0016 0.9519
-2.3945 -11.9116 -2.0016 0.9519
-1.9657 -11.9898 -2.0016 0.9519
0.6405 -12.1330 -2.0016 0.9519
1.5087 -12.0558 -2.0016 0.9519
2.3690 -11.9167 -2.0016 0.9519
2.7949 -11.8240 -2.0016 0.9519
3.6354 -11.5933 -2.0016 0.9519
6.0277 -10.5492 -2.0016 0.9519
6.4021 -10.3263 -2.0016 0.9519
6.7684 -10.0900 -2.0016 0.9519
7.1259 -9.8407 -2.0016 0.9519
7.4743 -9.5788 -2.0016 0.9519
9.0634 -8.0917 -2.0016 0.9519
9.6201 -7.4211 -2.0016 0.9519
9.8801 -7.0713 -2.0016 0.9519
10.1274 -6.7124 -2.0016 0.9519
10.5825 -5.9691 -2.0016 0.9519
10.7898 -5.5857 -2.0016 0.9519
11.3274 -4.3944 -2.0016 0.9519
11.4777 -3.9853 -2.0016 0.9519
11.7338 -3.1522 -2.0016 0.9519
11.8393 -2.7293 -2.0016 0.9519
11.9296 -2.3030 -2.0016 0.9519
12.0045 -1.8736 -2.0016 0.9519
12.1462 0.2982 -2.0016 0.9519
12.0936 1.1682 -2.0016 0.9519
12.0439 1.6012 -2.0016 0.9519
11.8022 2.8856 -2.0016 0.9519
11.6911 3.3071 -2.0016 0.9519
11.5650 3.7243 -2.0016 0.9519
11.4240 4.1367 -2.0016 0.9519
11.2683 4.5438 -2.0016 0.9519
11.0980 4.9450 -2.0016 0.9519
10.5027 6.1085 -2.0016 0.9519
10.2768 6.4812 -2.0016 0.9519
9.7857 7.2013 -2.0016 0.9519
9.2443 7.8843 -2.0016 0.9519
8.9556 8.2108 -2.0016 0.9519
8.0218 9.1252 -2.0016 0.9519
7.6894 9.4071 -2.0016 0.9519
7.3470 9.6768 -2.0016 0.9519
6.9952 9.9341 -2.0016 0.9519
6.6344 10.1786 -2.0016 0.9519
4.7220 10.1846 -1.8494 0.9555
4.3537 10.3474 -1.8494 0.9555
3.9797 10.4969 -1.8494 0.9555
3.6007 10.6329 -1.8494 0.9555
3.2170 10.7552 -1.8494 0.9555
2.0431 11.0385 -1.8494 0.9555
0.4436 11.2172 -1.8494 0.9555
0.0409 11.2259 -1.8494 0.9555
-0.3617 11.2202 -1.8494 0.9555
-0.7639 11.2000 -1.8494 0.9555
-1.1651 11.1654 -1.8494 0.9555
-1.9625 11.0531 -1.8494 0.9555
-2.3577 10.9756 -1.8494 0.9555
-2.7498 10.8840 -1.8494 0.9555
-3.1385 10.7783 -1.8494 0.9555
-3.5230 10.6588 -1.8494 0.9555
-3.9031 10.5256 -1.8494 0.9555
-4.6476 10.2188 -1.8494 0.9555
-5.7183 9.6604 -1.8494 0.9555
-6.3961 9.2256 -1.8494 0.9555
-7.6887 8.2580 -1.8588 0.9553
-8.2496 8.2464 -1.9216 0.9538
-8.8499 8.2335 -1.9913 0.9522
-9.1743 7.9409 -1.9989 0.9520
-9.7329 7.2725 -2.0016 0.9519
-9.9875 6.9187 -2.0016 0.9519
-10.4578 6.1850 -2.0016 0.9519
-10.8743 5.4194 -2.0016 0.9519
-11.0617 5.0258 -2.0016 0.9519
-11.3935 4.2199 -2.0016 0.9519
-11.7809 2.9717 -2.0016 0.9519
-11.8799 2.5472 -2.0016 0.9519
-7.3365 7.7184 -2.0016 0.9576
-7.6086 7.4503 -2.0016 0.9576
-8.1231 6.8857 -2.0016 0.9576
-8.3648 6.5899 -2.0016 0.9576
-8.8157 5.9733 -2.0016 0.9576
-9.0243 5.6532 -2.0016 0.9576
-9.7400 4.3046 -2.0016 0.9576
-10.0235 3.5953 -2.0016 0.9576
-10.1460 3.2335 -2.0016 0.9576
-10.3517 2.4978 -2.0016 0.9576
-10.5601 1.3714 -2.0016 0.9576
-10.6025 0.9918 -2.0016 0.9576
-10.6313 0.6109 -2.0016 0.9576
-10.6463 0.2292 -2.0016 0.9576
-10.6354 -0.5346 -2.0016 0.9576
-10.6094 -0.9157 -2.0016 0.9576
-9.5335 -2.5921 -1.8570 0.9606
-9.1999 -3.6011 -1.8570 0.9606
-8.5904 -4.8798 -1.8570 0.9606
-8.4098 -5.1847 -1.8570 0.9606
-8.6407 -6.2238 -2.0016 0.9576
-8.4119 -6.5297 -2.0016 0.9576
-8.1723 -6.8272 -2.0016 0.9576
-7.9221 -7.1160 -2.0016 0.9576
-7.6618 -7.3955 -2.0016 0.9576
-6.8231 -8.1757 -2.0016 0.9576
-6.2194 -8.6438 -2.0016 0.9576
-5.9054 -8.8613 -2.0016 0.9576
-5.2550 -9.2619 -2.0016 0.9576
-4.2297 -9.7728 -2.0016 0.9576
-3.8765 -9.9182 -2.0016 0.9576
-3.5182 -10.0508 -2.0016 0.9576
-2.7887 -10.2772 -2.0016 0.9576
-1.2903 -10.5704 -2.0016 0.9576
-0.9104 -10.6098 -2.0016 0.9576
-0.5292 -10.6357 -2.0016 0.9576
0.6163 -10.6310 -2.0016 0.9576
0.9972 -10.6020 -2.0016 0.9576
1.7546 -10.5033 -2.0016 0.9576
2.1302 -10.4336 -2.0016 0.9576
2.5031 -10.3505 -2.0016 0.9576
2.8727 -10.2540 -2.0016 0.9576
3.6004 -10.0217 -2.0016 0.9576
3.9575 -9.8861 -2.0016 0.9576
4.6560 -9.5770 -2.0016 0.9576
5.3306 -9.2186 -2.0016 0.9576
5.9778 -8.8127 -2.0016 0.9576
6.2900 -8.5926 -2.0016 0.9576
6.8898 -8.1196 -2.0016 0.9576
7.4541 -7.6048 -2.0016 0.9576
7.9801 -7.0509 -2.0016 0.9576
8.2279 -6.7601 -2.0016 0.9576
8.4651 -6.4607 -2.0016 0.9576
9.1101 -5.5140 -2.0016 0.9576
9.3020 -5.1837 -2.0016 0.9576
9.4819 -4.8467 -2.0016 0.9576
9.6496 -4.5035 -2.0016 0.9576
9.8050 -4.1545 -2.0016 0.9576
9.9477 -3.8002 -2.0016 0.9576
10.0775 -3.4410 -2.0016 0.9576
10.1945 -3.0773 -2.0016 0.9576
10.2983 -2.7097 -2.0016 0.9576
10.4661 -1.9644 -2.0016 0.9576
10.5298 -1.5878 -2.0016 0.9576
10.5800 -1.2091 -2.0016 0.9576
10.6165 -0.8289 -2.0016 0.9576
10.6441 0.3163 -2.0016 0.9576
10.6259 0.6979 -2.0016 0.9576
10.5941 1.0786 -2.0016 0.9576
10.4895 1.8352 -2.0016 0.9576
10.4169 2.2103 -2.0016 0.9576
10.2317 2.9514 -2.0016 0.9576
9.8554 4.0333 -2.0016 0.9576
9.5409 4.7294 -2.0016 0.9576
8.9777 5.7269 -2.0016 0.9576
8.7665 6.0453 -2.0016 0.9576
8.5441 6.3558 -2.0016 0.9576
8.0665 6.9519 -2.0016 0.9576
6.3955 8.5144 -2.0016 0.9576
6.0860 8.7383 -2.0016 0.9576
5.4439 9.1521 -2.0016 0.9576
5.1111 9.3397 -2.0012 0.9576
3.7690 9.0886 -1.8494 0.9607
3.4405 9.2179 -1.8494 0.9607
2.4305 9.5341 -1.8494 0.9607
1.3923 9.7401 -1.8494 0.9607
1.0421 9.7837 -1.8494 0.9607
0.6905 9.8148 -1.8494 0.9607
-0.0149 9.8391 -1.8494 0.9607
-2.4593 9.5268 -1.8494 0.9607
-2.7994 9.4324 -1.8494 0.9607
-3.1359 9.3259 -1.8494 0.9607
-3.4684 9.2075 -1.8494 0.9607
-3.7964 9.0771 -1.8494 0.9607
-5.0555 8.4409 -1.8494 0.9607
-5.3612 8.2638 -1.8515 0.9607
-5.7841 8.2515 -1.8941 0.9598
-6.2304 8.2426 -1.9421 0.9588
-7.5700 7.4894 -2.0016 0.9576
-7.8338 7.2131 -2.0016 0.9576
-8.0875 6.9275 -2.0016 0.9576
-8.3307 6.6330 -2.0016 0.9576
-8.7848 6.0187 -2.0016 0.9576
-9.7177 4.3548 -2.0016 0.9576
-10.3387 2.5512 -2.0016 0.9576
-10.4950 1.8035 -2.0016 0.9576
-10.6450 0.2841 -2.0016 0.9576
-10.6140 -0.8610 -2.0016 0.9576
-10.5763 -1.2411 -2.0016 0.9576
-9.8008 -2.2374 -1.8896 0.9599
-9.4494 -2.8836 -1.8570 0.9606
-8.7833 -4.5232 -1.8570 0.9606
-8.2467 -5.4405 -1.8570 0.9606
-8.6727 -6.1792 -2.0016 0.9576
-8.4455 -6.4862 -2.0016 0.9576
-7.9588 -7.0750 -2.0016 0.9576
-7.6999 -7.3559 -2.0016 0.9576
-7.1527 -7.8889 -2.0016 0.9576
-6.5688 -8.3814 -2.0016 0.9576
-6.2640 -8.6116 -2.0016 0.9576
-5.9511 -8.8307 -2.0016 0.9576
-4.9681 -9.4189 -2.0016 0.9576
-3.5701 -10.0325 -2.0016 0.9576
-3.2079 -10.1541 -2.0016 0.9576
-2.0987 -10.4400 -2.0016 0.9576
-1.7229 -10.5085 -2.0016 0.9576
-0.2024 -10.6469 -2.0016 0.9576
0.5614 -10.6340 -2.0016 0.9576
1.3223 -10.5664 -2.0016 0.9576
2.8197 -10.2687 -2.0016 0.9576
3.1862 -10.1610 -2.0016 0.9576
4.2592 -9.7599 -2.0016 0.9576
4.6065 -9.6009 -2.0016 0.9576
5.2830 -9.2459 -2.0016 0.9576
5.6112 -9.0505 -2.0016 0.9576
6.2456 -8.6250 -2.0016 0.9576
6.5509 -8.3954 -2.0016 0.9576
8.1929 -6.8025 -2.0016 0.9576
8.6595 -6.1977 -2.0016 0.9576
8.8762 -5.8831 -2.0016 0.9576
9.2751 -5.2316 -2.0016 0.9576
9.6263 -4.5533 -2.0016 0.9576
9.7834 -4.2051 -2.0016 0.9576
9.9279 -3.8515 -2.0016 0.9576
10.0597 -3.4929 -2.0016 0.9576
10.1785 -3.1299 -2.0016 0.9576
10.2842 -2.7628 -2.0016 0.9576
10.5214 -1.6421 -2.0016 0.9576
10.5736 -1.2637 -2.0016 0.9576
10.6121 -0.8836 -2.0016 0.9576
10.6370 -0.5025 -2.0016 0.9576
10.6456 0.2614 -2.0016 0.9576
10.5995 1.0239 -2.0016 0.9576
10.5559 1.4034 -2.0016 0.9576
10.4988 1.7811 -2.0016 0.9576
10.2468 2.8985 -2.0016 0.9576
10.1362 3.2642 -2.0016 0.9576
9.8761 3.9824 -2.0016 0.9576
9.7269 4.3341 -2.0016 0.9576
9.3912 5.0202 -2.0016 0.9576
8.5768 6.3116 -2.0016 0.9576
8.1022 6.9102 -2.0016 0.9576
7.5860 7.4733 -2.0016 0.9576
7.3131 7.7405 -2.0016 0.9576
7.0308 7.9979 -2.0016 0.9576
6.7394 8.2449 -2.0016 0.9576
6.1310 8.7068 -2.0016 0.9576
5.8148 8.9211 -2.0016 0.9576
4.8103 9.4694 -1.9964 0.9577
4.3326 9.3446 -1.9360 0.9589
3.1559 9.3192 -1.8494 0.9607
2.8196 9.4264 -1.8494 0.9607
1.7907 9.6747 -1.8494 0.9607
1.4426 9.7327 -1.8494 0.9607
1.0925 9.7782 -1.8494 0.9607
0.7411 9.8111 -1.8494 0.9607
0.3888 9.8314 -1.8494 0.9607
0.0359 9.8390 -1.8494 0.9607
-1.0212 9.7859 -1.8494 0.9607
-1.2255 8.7059 -1.6525 0.9648
-1.7201 9.6876 -1.8494 0.9607
-2.4101 9.5393 -1.8494 0.9607
-3.0878 9.3420 -1.8494 0.9607
-3.7495 9.0966 -1.8494 0.9607
-5.0119 8.4669 -1.8494 0.9607
-5.3123 8.2817 -1.8494 0.9607
-6.9575 8.0320 -1.9973 0.9577
-7.2558 7.7931 -2.0014 0.9576
-7.7965 7.2534 -2.0016 0.9576
-8.0516 6.9692 -2.0016 0.9576
-9.3543 5.0886 -2.0016 0.9576
-9.5308 4.7498 -2.0016 0.9576
-9.6950 4.4049 -2.0016 0.9576
-10.2253 2.9732 -2.0016 0.9576
-10.4855 1.8576 -2.0016 0.9576
-10.5454 1.4804 -2.0016 0.9576
-6.5237 6.8632 -2.0016 0.9620
-6.9989 6.3779 -2.0016 0.9620
-7.8390 5.3115 -2.0016 0.9620
-8.1996 4.7359 -2.0016 0.9620
-8.5180 4.1359 -2.0016 0.9620
-9.0219 2.8752 -2.0016 0.9620
-9.2048 2.2211 -2.0016 0.9620
-9.4534 0.5432 -2.0016 0.9620
-9.4668 0.2038 -2.0016 0.9620
-9.4680 -0.1359 -2.0016 0.9620
-9.4571 -0.4754 -2.0016 0.9620
-9.3987 -1.1521 -2.0016 0.9620
-9.2919 -1.8229 -2.0016 0.9620
-9.2205 -2.1550 -2.0016 0.9620
-8.2902 -2.9067 -1.8570 0.9647
-8.0605 -3.4935 -1.8570 0.9647
-7.9301 -3.7804 -1.8570 0.9647
-7.7894 -4.0624 -1.8570 0.9647
-7.6387 -4.3391 -1.8570 0.9647
-7.1284 -5.1345 -1.8570 0.9647
-6.9396 -5.3869 -1.8570 0.9647
-6.8130 -6.5762 -2.0016 0.9620
-5.8025 -7.4829 -2.0016 0.9620
-5.2511 -7.8796 -2.0016 0.9620
-4.9652 -8.0629 -2.0016 0.9620
-4.0703 -8.5495 -2.0016 0.9620
-3.7611 -8.6900 -2.0016 0.9620
-3.4470 -8.8193 -2.0016 0.9620
-2.8059 -9.0437 -2.0016 0.9620
-2.1503 -9.2216 -2.0016 0.9620
-1.8182 -9.2928 -2.0016 0.9620
-1.1473 -9.3993 -2.0016 0.9620
0.8867 -9.4274 -2.0016 0.9620
1.2243 -9.3895 -2.0016 0.9620
1.5602 -9.3396 -2.0016 0.9620
2.2258 -9.2037 -2.0016 0.9620
3.8321 -8.6589 -2.0016 0.9620
2.2313 -4.1995 -1.0052 0.9807
5.3155 -7.8363 -2.0016 0.9620
5.8636 -7.4351 -2.0016 0.9620
6.1265 -7.2200 -2.0016 0.9620
6.6283 -6.7623 -2.0016 0.9620
7.0960 -6.2697 -2.0016 0.9620
7.5272 -5.7449 -2.0016 0.9620
7.7284 -5.4712 -2.0016 0.9620
8.1007 -4.9031 -2.0016 0.9620
8.4314 -4.3098 -2.0016 0.9620
8.8455 -3.3792 -2.0016 0.9620
9.2379 -2.0795 -2.0016 0.9620
9.4078 -1.0751 -2.0016 0.9620
9.4688 -0.0584 -2.0016 0.9620
9.4487 0.6206 -2.0016 0.9620
9.4203 0.9591 -2.0016 0.9620
9.3273 1.6319 -2.0016 0.9620
9.2628 1.9654 -2.0016 0.9620
9.0981 2.6244 -2.0016 0.9620
8.9981 2.9490 -2.0016 0.9620
8.8865 3.2698 -2.0016 0.9620
8.7635 3.5865 -2.0016 0.9620
8.3276 4.5071 -2.0016 0.9620
8.1606 4.8028 -2.0016 0.9620
7.9831 5.0924 -2.0016 0.9620
7.7953 5.3755 -2.0016 0.9620
7.5975 5.6516 -2.0016 0.9620
7.1728 6.1817 -2.0016 0.9620
6.9464 6.4350 -2.0016 0.9620
6.7112 6.6800 -2.0016 0.9620
6.4673 6.9164 -2.0016 0.9620
6.2150 7.1439 -2.0016 0.9620
5.9548 7.3623 -2.0016 0.9620
5.6869 7.5711 -2.0016 0.9620
4.8408 8.1381 -2.0016 0.9620
4.2449 8.4642 -2.0016 0.9620
3.2832 8.7962 -1.9846 0.9623
2.5096 8.5504 -1.8836 0.9642
2.1612 8.4779 -1.8494 0.9649
1.2381 8.6610 -1.8494 0.9649
0.6140 8.7274 -1.8494 0.9649
-0.0132 8.7490 -1.8494 0.9649
-0.3270 8.7429 -1.8494 0.9649
-0.6404 8.7255 -1.8494 0.9649
-1.2643 8.6572 -1.8494 0.9649
-1.5740 8.6062 -1.8494 0.9649
-1.8816 8.5443 -1.8494 0.9649
-3.4514 8.2521 -1.8908 0.9641
-3.8022 8.2468 -1.9196 0.9636
-4.5386 8.2342 -1.9874 0.9623
-4.8522 8.1016 -1.9962 0.9621
-5.1470 7.9336 -1.9990 0.9621
-5.7098 7.5538 -2.0016 0.9620
-6.2366 7.1251 -2.0016 0.9620
-6.9659 6.4140 -2.0016 0.9620
-7.4078 5.8981 -2.0016 0.9620
-7.6145 5.6286 -2.0016 0.9620
-7.8115 5.3519 -2.0016 0.9620
-8.1751 4.7781 -2.0016 0.9620
-8.6410 3.8723 -2.0016 0.9620
-8.7744 3.5599 -2.0016 0.9620
-8.8964 3.2429 -2.0016 0.9620
-9.2687 1.9374 -2.0016 0.9620
-9.3322 1.6037 -2.0016 0.9620
-9.3837 1.2679 -2.0016 0.9620
-9.4232 0.9306 -2.0016 0.9620
-9.4656 0.2526 -2.0016 0.9620
-9.4594 -0.4266 -2.0016 0.9620
-9.3012 -1.7749 -2.0016 0.9620
-9.2315 -2.1074 -2.0016 0.9620
-8.4891 -2.2611 -1.8570 0.9647
-8.4025 -2.5641 -1.8570 0.9647
-8.1971 -3.1599 -1.8570 0.9647
-7.9495 -3.7394 -1.8570 0.9647
-7.6609 -4.2996 -1.8570 0.9647
-7.3330 -4.8378 -1.8570 0.9647
-7.1548 -5.0977 -1.8570 0.9647
-6.9673 -5.3510 -1.8570 0.9647
-6.6078 -6.7823 -2.0016 0.9620
-6.3603 -7.0149 -2.0016 0.9620
-6.1046 -7.2385 -2.0016 0.9620
-5.8410 -7.4528 -2.0016 0.9620
-5.0067 -8.0371 -2.0016 0.9620
-4.7152 -8.2115 -2.0016 0.9620
-4.4177 -8.3754 -2.0016 0.9620
-4.1144 -8.5284 -2.0016 0.9620
-3.8059 -8.6705 -2.0016 0.9620
-3.4925 -8.8014 -2.0016 0.9620
-3.1745 -8.9210 -2.0016 0.9620
-2.8525 -9.0291 -2.0016 0.9620
-2.5268 -9.1256 -2.0016 0.9620
-1.8661 -9.2833 -2.0016 0.9620
-1.1958 -9.3932 -2.0016 0.9620
-0.5194 -9.4548 -2.0016 0.9620
-0.1799 -9.4673 -2.0016 0.9620
0.1597 -9.4677 -2.0016 0.9620
0.8380 -9.4319 -2.0016 0.9620
1.1758 -9.3957 -2.0016 0.9620
1.5120 -9.3475 -2.0016 0.9620
1.8463 -9.2873 -2.0016 0.9620
3.1555 -8.9278 -2.0016 0.9620
3.4737 -8.8089 -2.0016 0.9620
3.7874 -8.6786 -2.0016 0.9620
4.0962 -8.5372 -2.0016 0.9620
4.6977 -8.2216 -2.0016 0.9620
4.9895 -8.0478 -2.0016 0.9620
5.8251 -7.4653 -2.0016 0.9620
6.3453 -7.0285 -2.0016 0.9620
6.8328 -6.5555 -2.0016 0.9620
7.0635 -6.3062 -2.0016 0.9620
7.2852 -6.0488 -2.0016 0.9620
8.2475 -4.6520 -2.0016 0.9620
8.4090 -4.3532 -2.0016 0.9620
8.5598 -4.0488 -2.0016 0.9620
8.6995 -3.7392 -2.0016 0.9620
8.8280 -3.4248 -2.0016 0.9620
9.2270 -2.1271 -2.0016 0.9620
9.2974 -1.7948 -2.0016 0.9620
9.3558 -1.4602 -2.0016 0.9620
9.4021 -1.1237 -2.0016 0.9620
9.4364 -0.7857 -2.0016 0.9620
9.4585 -0.4468 -2.0016 0.9620
9.4662 0.2324 -2.0016 0.9620
9.3356 1.5838 -2.0016 0.9620
9.2728 1.9176 -2.0016 0.9620
9.1981 2.2489 -2.0016 0.9620
9.1115 2.5774 -2.0016 0.9620
8.9033 3.2239 -2.0016 0.9620
8.1853 4.7607 -2.0016 0.9620
8.0092 5.0512 -2.0016 0.9620
7.8229 5.3352 -2.0016 0.9620
7.4203 5.8823 -2.0016 0.9620
6.7455 6.6453 -2.0016 0.9620
6.2518 7.1118 -2.0016 0.9620
5.4517 7.7422 -2.0016 0.9620
5.1705 7.9327 -2.0016 0.9620
4.8827 8.1130 -2.0016 0.9620
4.2885 8.4422 -2.0016 0.9620
3.6656 8.7121 -1.9979 0.9621
2.9405 8.6832 -1.9378 0.9632
2.5611 8.5623 -1.8891 0.9641
2.2096 8.4844 -1.8533 0.9648
1.8999 8.5402 -1.8494 0.9649
0.9715 8.6949 -1.8494 0.9649
0.6590 8.7241 -1.8494 0.9649
-0.2819 8.7444 -1.8494 0.9649
-0.5953 8.7287 -1.8494 0.9649
-1.2196 8.6636 -1.8494 0.9649
-1.8375 8.5539 -1.8494 0.9649
-2.7457 8.3070 -1.8494 0.9649
-3.0620 8.2575 -1.8616 0.9646
-3.7511 8.2476 -1.9152 0.9636
-4.1113 8.2417 -1.9469 0.9630
-4.4839 8.2352 -1.9821 0.9624
-4.8094 8.1249 -1.9958 0.9621
-5.1049 7.9584 -1.9986 0.9621
-5.6707 7.5832 -2.0016 0.9620
-5.9391 7.3750 -2.0016 0.9620
-6.1998 7.1572 -2.0016 0.9620
-7.3772 5.9363 -2.0016 0.9620
-7.5854 5.6678 -2.0016 0.9620
-8.1503 4.8203 -2.0016 0.9620
-8.4749 4.2236 -2.0016 0.9620
-8.6209 3.9169 -2.0016 0.9620
-8.9918 2.9682 -2.0016 0.9620
-9.1814 2.3160 -2.0016 0.9620
-9.2586 1.9852 -2.0016 0.9620
-9.3238 1.6518 -2.0016 0.9620
-9.3771 1.3164 -2.0016 0.9620
-5.8674 6.1728 -2.0016 0.9656
-6.0850 5.9584 -2.0016 0.9656
-6.6898 5.2703 -2.0016 0.9656
-6.8745 5.0270 -2.0016 0.9656
-7.2172 4.5212 -2.0016 0.9656
-7.6611 3.7198 -2.0016 0.9656
-8.0164 2.8754 -2.0016 0.9656
-8.2019 2.2933 -2.0016 0.9656
-8.2788 1.9976 -2.0016 0.9656
-8.4007 1.3990 -2.0016 0.9656
-8.4455 1.0968 -2.0016 0.9656
-8.4794 0.7932 -2.0016 0.9656
-8.5156 -0.1222 -2.0016 0.9656
-8.4532 -1.0362 -2.0016 0.9656
-8.4106 -1.3388 -2.0016 0.9656
-8.2930 -1.9382 -2.0016 0.9656
-8.1620 -2.2192 -1.9879 0.9658
-7.5452 -2.3452 -1.8570 0.9681
-7.4562 -2.6143 -1.8570 0.9681
-7.1323 -3.4001 -1.8570 0.9681
-6.7258 -4.1465 -1.8570 0.9681
-6.5728 -4.3851 -1.8570 0.9681
-6.4113 -4.6180 -1.8570 0.9681
-6.0637 -5.0657 -1.8570 0.9681
-5.4568 -6.5386 -2.0016 0.9656
-5.2188 -6.7301 -2.0016 0.9656
-4.4657 -7.2517 -2.0016 0.9656
-3.9343 -7.5532 -2.0016 0.9656
-3.6609 -7.6895 -2.0016 0.9656
-3.3827 -7.8158 -2.0016 0.9656
-2.2302 -8.2192 -2.0016 0.9656
-1.9340 -8.2939 -2.0016 0.9656
-0.7281 -8.4853 -2.0016 0.9656
-0.1179 -8.5156 -2.0016 0.9656
0.1876 -8.5144 -2.0016 0.9656
1.1011 -8.4450 -2.0016 0.9656
1.4033 -8.4000 -2.0016 0.9656
2.8794 -8.0149 -2.0016 0.9656
3.1651 -7.9065 -2.0016 0.9656
2.1372 -4.3961 -1.1488 0.9801
2.2155 -4.1696 -1.1097 0.9808
4.5249 -7.2149 -2.0016 0.9656
4.7807 -7.0480 -2.0016 0.9656
5.2737 -6.6872 -2.0016 0.9656
6.7700 -5.1669 -2.0016 0.9656
7.2858 -4.4098 -2.0016 0.9656
7.4393 -4.1457 -2.0016 0.9656
7.5832 -3.8762 -2.0016 0.9656
7.7174 -3.6017 -2.0016 0.9656
7.8416 -3.3226 -2.0016 0.9656
7.9557 -3.0392 -2.0016 0.9656
8.2361 -2.1671 -2.0016 0.9656
8.3703 -1.5711 -2.0016 0.9656
8.4212 -1.2698 -2.0016 0.9656
8.4981 0.5581 -2.0016 0.9656
8.4726 0.8626 -2.0016 0.9656
8.3890 1.4677 -2.0016 0.9656
8.3310 1.7677 -2.0016 0.9656
8.1828 2.3604 -2.0016 0.9656
7.9926 2.9409 -2.0016 0.9656
7.8819 3.2257 -2.0016 0.9656
7.7612 3.5063 -2.0016 0.9656
7.3396 4.3197 -2.0016 0.9656
6.8332 5.0831 -2.0016 0.9656
6.2476 5.7877 -2.0016 0.9656
6.0360 6.0080 -2.0016 0.9656
5.8167 6.2206 -2.0016 0.9656
5.5898 6.4253 -2.0016 0.9656
5.3557 6.6216 -2.0016 0.9656
5.1148 6.8094 -2.0016 0.9656
4.3538 7.3195 -2.0016 0.9656
4.0884 7.4709 -2.0016 0.9656
3.8179 7.6127 -2.0016 0.9656
3.5424 7.7448 -2.0016 0.9656
3.2623 7.8668 -2.0016 0.9656
2.9780 7.9788 -2.0016 0.9656
2.0991 8.2342 -1.9971 0.9657
1.8006 8.2956 -1.9951 0.9657
1.1831 8.2764 -1.9649 0.9662
0.5804 8.2493 -1.9436 0.9666
-0.0125 8.2435 -1.9374 0.9667
-0.3083 8.2432 -1.9387 0.9667
-0.6049 8.2426 -1.9424 0.9666
-0.9030 8.2414 -1.9485 0.9665
-1.2033 8.2398 -1.9571 0.9664
-1.5066 8.2378 -1.9682 0.9662
-1.8136 8.2352 -1.9818 0.9659
-2.4158 8.1398 -1.9955 0.9657
-3.5658 7.7340 -2.0016 0.9656
-3.8409 7.6012 -2.0016 0.9656
-5.1354 6.7939 -2.0016 0.9656
-5.6092 6.4083 -2.0016 0.9656
-5.8355 6.2030 -2.0016 0.9656
-6.0542 5.9897 -2.0016 0.9656
-6.2651 5.7687 -2.0016 0.9656
-6.4680 5.5403 -2.0016 0.9656
-6.6625 5.3048 -2.0016 0.9656
-6.8485 5.0624 -2.0016 0.9656
-7.0257 4.8135 -2.0016 0.9656
-7.1938 4.5584 -2.0016 0.9656
-7.3527 4.2974 -2.0016 0.9656
-7.5021 4.0310 -2.0016 0.9656
-7.6418 3.7593 -2.0016 0.9656
-7.7717 3.4828 -2.0016 0.9656
-7.8917 3.2018 -2.0016 0.9656
-8.0014 2.9167 -2.0016 0.9656
-8.3363 1.7425 -2.0016 0.9656
-8.3934 1.4424 -2.0016 0.9656
-8.4397 1.1404 -2.0016 0.9656
-8.4584 -0.9926 -2.0016 0.9656
-8.3655 -1.5964 -2.0016 0.9656
-8.2295 -2.1920 -2.0016 0.9656
-7.5572 -2.3062 -1.8570 0.9681
-7.1498 -3.3632 -1.8570 0.9681
-7.0245 -3.6175 -1.8570 0.9681
-6.8902 -3.8671 -1.8570 0.9681
-6.7471 -4.1117 -1.8570 0.9681
-6.5953 -4.3511 -1.8570 0.9681
-6.2664 -4.8127 -1.8570 0.9681
-6.0898 -5.0344 -1.8570 0.9681
-5.9053 -5.2495 -1.8570 0.9681
-5.5138 -5.6594 -1.8570 0.9681
-5.7204 -6.3092 -2.0016 0.9656
-5.4905 -6.5103 -2.0016 0.9656
-5.2534 -6.7031 -2.0016 0.9656
-5.0096 -6.8872 -2.0016 0.9656
-4.7594 -7.0624 -2.0016 0.9656
-4.5030 -7.2286 -2.0016 0.9656
-3.9733 -7.5328 -2.0016 0.9656
-3.4230 -7.7983 -2.0016 0.9656
-3.1411 -7.9160 -2.0016 0.9656
-1.9768 -8.2838 -2.0016 0.9656
-0.7718 -8.4814 -2.0016 0.9656
-0.4671 -8.5036 -2.0016 0.9656
-0.1618 -8.5149 -2.0016 0.9656
0.1437 -8.5152 -2.0016 0.9656
0.4490 -8.5046 -2.0016 0.9656
0.7537 -8.4830 -2.0016 0.9656
1.0575 -8.4505 -2.0016 0.9656
1.3599 -8.4072 -2.0016 0.9656
1.6606 -8.3530 -2.0016 0.9656
2.2551 -8.2125 -2.0016 0.9656
2.5482 -8.1263 -2.0016 0.9656
2.8380 -8.0297 -2.0016 0.9656
3.1242 -7.9227 -2.0016 0.9656
3.4064 -7.8056 -2.0016 0.9656
2.3782 -4.1622 -1.1266 0.9805
4.4876 -7.2382 -2.0016 0.9656
5.2391 -6.7143 -2.0016 0.9656
5.4766 -6.5221 -2.0016 0.9656
6.5523 -5.4403 -2.0016 0.9656
6.9254 -4.9566 -2.0016 0.9656
7.0988 -4.7050 -2.0016 0.9656
7.4178 -4.1840 -2.0016 0.9656
7.5631 -3.9153 -2.0016 0.9656
7.9399 -3.0802 -2.0016 0.9656
8.2988 -1.9131 -2.0016 0.9656
8.3621 -1.6143 -2.0016 0.9656
8.4871 -0.7067 -2.0016 0.9656
8.5159 -0.0965 -2.0016 0.9656
8.5009 0.5143 -2.0016 0.9656
8.4422 1.1224 -2.0016 0.9656
8.3400 1.7247 -2.0016 0.9656
8.2728 2.0227 -2.0016 0.9656
8.0076 2.8996 -2.0016 0.9656
7.7792 3.4662 -2.0016 0.9656
7.6498 3.7430 -2.0016 0.9656
7.2035 4.5430 -2.0016 0.9656
7.0360 4.7985 -2.0016 0.9656
6.4798 5.5265 -2.0016 0.9656
6.0670 5.9768 -2.0016 0.9656
5.8487 6.1905 -2.0016 0.9656
5.1499 6.7830 -2.0016 0.9656
4.6504 7.1347 -2.0016 0.9656
4.1270 7.4497 -2.0016 0.9656
3.8571 7.5929 -2.0016 0.9656
3.5823 7.7264 -2.0016 0.9656
3.0192 7.9633 -2.0016 0.9656
2.1419 8.2246 -1.9974 0.9657
1.8436 8.2872 -1.9953 0.9657
1.5408 8.3246 -1.9897 0.9658
1.2276 8.2824 -1.9678 0.9662
0.6233 8.2512 -1.9447 0.9666
0.3260 8.2432 -1.9389 0.9667
-0.5622 8.2427 -1.9417 0.9666
-1.1600 8.2401 -1.9557 0.9664
-1.4627 8.2381 -1.9664 0.9662
-1.7691 8.2356 -1.9797 0.9660
-2.3735 8.1514 -1.9953 0.9657
-2.6663 8.0668 -1.9968 0.9657
-2.9563 7.9724 -1.9984 0.9657
-3.5258 7.7523 -2.0016 0.9656
-3.8016 7.6209 -2.0016 0.9656
-4.0725 7.4796 -2.0016 0.9656
-4.3381 7.3287 -2.0016 0.9656
-4.8523 6.9989 -2.0016 0.9656
-5.5761 6.4372 -2.0016 0.9656
-6.0232 6.0209 -2.0016 0.9656
-6.2353 5.8010 -2.0016 0.9656
-6.4393 5.5736 -2.0016 0.9656
-6.8223 5.0977 -2.0016 0.9656
-7.0007 4.8497 -2.0016 0.9656
-7.4812 4.0696 -2.0016 0.9656
-7.7537 3.5229 -2.0016 0.9656
-7.8750 3.2425 -2.0016 0.9656
-7.9863 2.9579 -2.0016 0.9656
-8.1777 2.3778 -2.0016 0.9656
-8.3272 1.7855 -2.0016 0.9656
-8.3859 1.4857 -2.0016 0.9656
-5.3259 5.6031 -2.0016 0.9686
-5.7139 5.2069 -2.0016 0.9686
-6.0724 4.7839 -2.0016 0.9686
-6.3998 4.3363 -2.0016 0.9686
-6.5512 4.1040 -2.0016 0.9686
-6.6942 3.8664 -2.0016 0.9686
-6.9541 3.3765 -2.0016 0.9686
-7.0707 3.1249 -2.0016 0.9686
-7.1783 2.8693 -2.0016 0.9686
-7.4449 2.0817 -2.0016 0.9686
-7.5148 1.8133 -2.0016 0.9686
-7.6255 1.2699 -2.0016 0.9686
-7.7178 0.4435 -2.0016 0.9686
-7.7287 0.1664 -2.0016 0.9686
-7.7019 -0.6648 -2.0016 0.9686
-7.6344 -1.2152 -2.0016 0.9686
-7.4597 -2.0282 -2.0016 0.9686
-7.1666 -2.2275 -1.9431 0.9695
-6.7681 -2.3730 -1.8570 0.9708
-6.5806 -2.8521 -1.8570 0.9708
-6.3592 -3.3165 -1.8570 0.9708
-6.2362 -3.5425 -1.8570 0.9708
-6.1051 -3.7638 -1.8570 0.9708
-5.8196 -4.1918 -1.8570 0.9708
-4.9783 -5.1628 -1.8570 0.9708
-4.5150 -6.2750 -2.0016 0.9686
-4.2870 -6.4329 -2.0016 0.9686
-2.8141 -7.2001 -2.0016 0.9686
-2.2907 -7.3833 -2.0016 0.9686
-2.0244 -7.4607 -2.0016 0.9686
-1.2113 -7.6350 -2.0016 0.9686
-0.9367 -7.6735 -2.0016 0.9686
-0.1070 -7.7297 -2.0016 0.9686
0.4474 -7.7175 -2.0016 0.9686
0.9995 -7.6656 -2.0016 0.9686
1.2738 -7.6248 -2.0016 0.9686
1.5464 -7.5742 -2.0016 0.9686
1.8171 -7.5139 -2.0016 0.9686
2.3511 -7.3643 -2.0016 0.9686
2.8730 -7.1768 -2.0016 0.9686
3.1285 -7.0691 -2.0016 0.9686
2.1070 -4.3339 -1.2477 0.9803
2.1848 -4.1120 -1.2056 0.9809
4.3395 -6.3976 -2.0016 0.9686
4.7870 -6.0700 -2.0016 0.9686
5.0016 -5.8944 -2.0016 0.9686
5.7932 -5.1186 -2.0016 0.9686
6.1452 -4.6901 -2.0016 0.9686
6.3095 -4.4667 -2.0016 0.9686
6.4656 -4.2375 -2.0016 0.9686
6.8834 -3.5185 -2.0016 0.9686
7.0051 -3.2693 -2.0016 0.9686
7.2215 -2.7587 -2.0016 0.9686
7.3158 -2.4980 -2.0016 0.9686
7.4760 -1.9671 -2.0016 0.9686
7.5418 -1.6977 -2.0016 0.9686
7.6441 -1.1527 -2.0016 0.9686
7.6805 -0.8778 -2.0016 0.9686
7.7070 -0.6017 -2.0016 0.9686
7.7237 -0.3249 -2.0016 0.9686
7.7271 0.2296 -2.0016 0.9686
7.7139 0.5066 -2.0016 0.9686
7.6907 0.7830 -2.0016 0.9686
7.6148 1.3323 -2.0016 0.9686
7.5621 1.6045 -2.0016 0.9686
7.4997 1.8747 -2.0016 0.9686
7.3460 2.4076 -2.0016 0.9686
6.9262 3.4333 -2.0016 0.9686
6.6623 3.9210 -2.0016 0.9686
6.5174 4.1575 -2.0016 0.9686
6.3640 4.3885 -2.0016 0.9686
6.0331 4.8335 -2.0016 0.9686
5.4790 5.4535 -2.0016 0.9686
5.0739 5.8323 -2.0016 0.9686
4.8615 6.0105 -2.0016 0.9686
4.6428 6.1810 -2.0016 0.9686
4.4181 6.3436 -2.0016 0.9686
4.1877 6.4979 -2.0016 0.9686
3.2154 7.0300 -2.0016 0.9686
2.7032 7.2424 -2.0016 0.9686
2.1771 7.4176 -2.0016 0.9686
1.9096 7.4909 -2.0016 0.9686
1.3677 7.6085 -2.0016 0.9686
1.0939 7.6527 -2.0016 0.9686
0.8188 7.6870 -2.0016 0.9686
-0.5658 7.7098 -2.0016 0.9686
-0.8420 7.6845 -2.0016 0.9686
-1.1171 7.6494 -2.0016 0.9686
-1.6626 7.5496 -2.0016 0.9686
-1.9323 7.4851 -2.0016 0.9686
-2.1995 7.4110 -2.0016 0.9686
-2.7251 7.2342 -2.0016 0.9686
-3.4864 6.8997 -2.0016 0.9686
-4.6614 6.1670 -2.0016 0.9686
-5.4955 5.4370 -2.0016 0.9686
-6.6741 3.9008 -2.0016 0.9686
-7.0545 3.1614 -2.0016 0.9686
-7.2630 2.6475 -2.0016 0.9686
-7.3533 2.3853 -2.0016 0.9686
-7.5054 1.8521 -2.0016 0.9686
-7.6188 1.3092 -2.0016 0.9686
-7.6609 1.0351 -2.0016 0.9686
-7.7154 0.4833 -2.0016 0.9686
-7.7277 0.2062 -2.0016 0.9686
-7.6778 -0.9010 -2.0016 0.9686
-7.5366 -1.7205 -2.0016 0.9686
-6.7803 -2.3380 -1.8570 0.9708
-6.5952 -2.8181 -1.8570 0.9708
-6.4899 -3.0528 -1.8570 0.9708
-6.3763 -3.2836 -1.8570 0.9708
-6.1244 -3.7323 -1.8570 0.9708
-5.9866 -3.9495 -1.8570 0.9708
-5.6881 -4.3685 -1.8570 0.9708
-5.3603 -4.7651 -1.8570 0.9708
-5.1859 -4.9543 -1.8570 0.9708
-5.0049 -5.1371 -1.8570 0.9708
-4.4242 -5.6450 -1.8570 0.9708
-4.5473 -6.2516 -2.0016 0.9686
-4.0875 -6.5615 -2.0016 0.9686
-3.8495 -6.7039 -2.0016 0.9686
-3.6066 -6.8376 -2.0016 0.9686
-3.1071 -7.0786 -2.0016 0.9686
-2.5917 -7.2831 -2.0016 0.9686
-1.7944 -7.5194 -2.0016 0.9686
-1.5235 -7.5789 -2.0016 0.9686
-0.1469 -7.7291 -2.0016 0.9686
0.1304 -7.7294 -2.0016 0.9686
0.9599 -7.6707 -2.0016 0.9686
1.2344 -7.6313 -2.0016 0.9686
1.7783 -7.5232 -2.0016 0.9686
2.0470 -7.4545 -2.0016 0.9686
2.5761 -7.2886 -2.0016 0.9686
2.1052 -4.3877 -1.2601 0.9801
2.3483 -4.1098 -1.2256 0.9806
4.0734 -6.5702 -2.0016 0.9686
4.3065 -6.4199 -2.0016 0.9686
4.5340 -6.2613 -2.0016 0.9686
4.7556 -6.0946 -2.0016 0.9686
5.3827 -5.5485 -2.0016 0.9686
5.5783 -5.3519 -2.0016 0.9686
6.1209 -4.7217 -2.0016 0.9686
6.4436 -4.2708 -2.0016 0.9686
6.5927 -4.0369 -2.0016 0.9686
6.9882 -3.3054 -2.0016 0.9686
7.1022 -3.0527 -2.0016 0.9686
7.2071 -2.7960 -2.0016 0.9686
7.3028 -2.5357 -2.0016 0.9686
7.4658 -2.0056 -2.0016 0.9686
7.5329 -1.7366 -2.0016 0.9686
7.5903 -1.4653 -2.0016 0.9686
7.6759 -0.9174 -2.0016 0.9686
7.7038 -0.6415 -2.0016 0.9686
7.7300 -0.0876 -2.0016 0.9686
7.7282 0.1898 -2.0016 0.9686
7.6216 1.2930 -2.0016 0.9686
7.4386 2.1042 -2.0016 0.9686
7.3584 2.3696 -2.0016 0.9686
7.2686 2.6320 -2.0016 0.9686
7.1695 2.8910 -2.0016 0.9686
7.0612 3.1463 -2.0016 0.9686
6.8175 3.6444 -2.0016 0.9686
6.5387 4.1238 -2.0016 0.9686
6.3866 4.3556 -2.0016 0.9686
6.2263 4.5819 -2.0016 0.9686
6.0579 4.8023 -2.0016 0.9686
5.8818 5.0165 -2.0016 0.9686
5.3089 5.6192 -2.0016 0.9686
4.4508 6.3207 -2.0016 0.9686
4.2212 6.4762 -2.0016 0.9686
3.9862 6.6235 -2.0016 0.9686
3.5011 6.8922 -2.0016 0.9686
2.9980 7.1255 -2.0016 0.9686
1.9482 7.4810 -2.0016 0.9686
1.6787 7.5460 -2.0016 0.9686
1.1334 7.6469 -2.0016 0.9686
0.8584 7.6827 -2.0016 0.9686
0.5823 7.7085 -2.0016 0.9686
0.3055 7.7244 -2.0016 0.9686
0.0282 7.7304 -2.0016 0.9686
-0.2491 7.7265 -2.0016 0.9686
-0.8023 7.6887 -2.0016 0.9686
-2.1612 7.4222 -2.0016 0.9686
-2.4260 7.3399 -2.0016 0.9686
-3.2004 7.0369 -2.0016 0.9686
-3.9378 6.6524 -2.0016 0.9686
-4.1739 6.5069 -2.0016 0.9686
-4.4045 6.3530 -2.0016 0.9686
-4.6296 6.1909 -2.0016 0.9686
-4.8486 6.0209 -2.0016 0.9686
-5.2678 5.6578 -2.0016 0.9686
-5.4673 5.4652 -2.0016 0.9686
-5.6598 5.2656 -2.0016 0.9686
-5.8450 5.0592 -2.0016 0.9686
-6.1927 4.6272 -2.0016 0.9686
-6.3547 4.4021 -2.0016 0.9686
-6.5085 4.1714 -2.0016 0.9686
-6.7908 3.6941 -2.0016 0.9686
-6.9189 3.4481 -2.0016 0.9686
-7.1483 2.9432 -2.0016 0.9686
-7.2492 2.6850 -2.0016 0.9686
-7.3409 2.4232 -2.0016 0.9686
-7.5587 1.6207 -2.0016 0.9686
-7.6554 1.0747 -2.0016 0.9686
-4.8711 5.1246 -2.0016 0.9710
-5.3934 4.5718 -2.0016 0.9710
-5.5539 4.3754 -2.0016 0.9710
-5.7072 4.1734 -2.0016 0.9710
-5.8532 3.9660 -2.0016 0.9710
-5.9917 3.7535 -2.0016 0.9710
-6.1225 3.5362 -2.0016 0.9710
-6.5653 2.6243 -2.0016 0.9710
-6.6552 2.3871 -2.0016 0.9710
-6.7365 2.1469 -2.0016 0.9710
-6.8092 1.9039 -2.0016 0.9710
-6.8731 1.6584 -2.0016 0.9710
-7.0114 0.9106 -2.0016 0.9710
-7.0587 0.4056 -2.0016 0.9710
-7.0614 -0.3550 -2.0016 0.9710
-7.0441 -0.6080 -2.0016 0.9710
-6.9824 -1.1114 -2.0016 0.9710
-6.7517 -2.0985 -2.0016 0.9710
-6.3700 -2.2334 -1.9109 0.9723
-6.1242 -2.3972 -1.8618 0.9730
-6.0186 -2.6085 -1.8570 0.9731
-5.9212 -2.8227 -1.8570 0.9731
-4.8800 -4.3834 -1.8570 0.9731
-4.3809 -4.8822 -1.8570 0.9731
-4.2030 -5.0362 -1.8570 0.9731
-4.0196 -5.1837 -1.8570 0.9731
-3.8311 -5.3246 -1.8570 0.9731
-3.6377 -5.4585 -1.8570 0.9731
-3.4396 -5.5855 -1.8570 0.9731
-3.2662 -6.2707 -2.0016 0.9710
-3.0392 -6.3838 -2.0016 0.9710
-2.8083 -6.4887 -2.0016 0.9710
-2.5738 -6.5852 -2.0016 0.9710
-2.3359 -6.6733 -2.0016 0.9710
-1.8515 -6.8236 -2.0016 0.9710
-1.3576 -6.9388 -2.0016 0.9710
-1.1079 -6.9830 -2.0016 0.9710
-0.8567 -7.0182 -2.0016 0.9710
-0.6044 -7.0444 -2.0016 0.9710
-0.0979 -7.0696 -2.0016 0.9710
0.1557 -7.0686 -2.0016 0.9710
0.4092 -7.0585 -2.0016 0.9710
0.9141 -7.0110 -2.0016 0.9710
1.4144 -6.9274 -2.0016 0.9710
1.6619 -6.8722 -2.0016 0.9710
1.9074 -6.8082 -2.0016 0.9710
2.1503 -6.7354 -2.0016 0.9710
2.8613 -6.4655 -2.0016 0.9710
2.0930 -4.3050 -1.3551 0.9803
2.3679 -4.0950 -1.3391 0.9805
3.7565 -5.9898 -2.0016 0.9710
4.9492 -5.0492 -2.0016 0.9710
5.1271 -4.8685 -2.0016 0.9710
5.2984 -4.6815 -2.0016 0.9710
5.6204 -4.2896 -2.0016 0.9710
5.9135 -3.8756 -2.0016 0.9710
6.1761 -3.4417 -2.0016 0.9710
6.2955 -3.2180 -2.0016 0.9710
6.4069 -2.9901 -2.0016 0.9710
6.6048 -2.5232 -2.0016 0.9710
6.6910 -2.2846 -2.0016 0.9710
6.8376 -1.7991 -2.0016 0.9710
6.9913 -1.0542 -2.0016 0.9710
7.0246 -0.8028 -2.0016 0.9710
7.0641 -0.2971 -2.0016 0.9710
7.0702 -0.0436 -2.0016 0.9710
7.0038 0.9679 -2.0016 0.9710
6.6354 2.4415 -2.0016 0.9710
6.0933 3.5862 -2.0016 0.9710
5.9608 3.8024 -2.0016 0.9710
5.8206 4.0138 -2.0016 0.9710
5.5179 4.4207 -2.0016 0.9710
5.0111 4.9878 -2.0016 0.9710
4.8290 5.1644 -2.0016 0.9710
4.6406 5.3342 -2.0016 0.9710
4.4463 5.4972 -2.0016 0.9710
4.0408 5.8018 -2.0016 0.9710
3.6145 6.0766 -2.0016 0.9710
3.1696 6.3201 -2.0016 0.9710
2.4724 6.6240 -2.0016 0.9710
2.2332 6.7084 -2.0016 0.9710
1.9912 6.7842 -2.0016 0.9710
1.4997 6.9094 -2.0016 0.9710
1.0005 6.9992 -2.0016 0.9710
0.4962 7.0529 -2.0016 0.9710
0.2429 7.0662 -2.0016 0.9710
-0.0107 7.0703 -2.0016 0.9710
-1.0217 6.9961 -2.0016 0.9710
-2.0117 6.7781 -2.0016 0.9710
-2.4924 6.6165 -2.0016 0.9710
-2.9603 6.4208 -2.0016 0.9710
-3.1887 6.3105 -2.0016 0.9710
-3.4130 6.1920 -2.0016 0.9710
-3.6329 6.0656 -2.0016 0.9710
-3.8481 5.9314 -2.0016 0.9710
-4.2634 5.6403 -2.0016 0.9710
-5.0262 4.9726 -2.0016 0.9710
-5.2013 4.7892 -2.0016 0.9710
-5.3697 4.5995 -2.0016 0.9710
-5.5312 4.4040 -2.0016 0.9710
-5.6856 4.2028 -2.0016 0.9710
-5.8327 3.9961 -2.0016 0.9710
-5.9723 3.7844 -2.0016 0.9710
-6.1042 3.5677 -2.0016 0.9710
-6.3442 3.1210 -2.0016 0.9710
-6.6428 2.4214 -2.0016 0.9710
-6.7253 2.1816 -2.0016 0.9710
-6.9208 1.4466 -2.0016 0.9710
-7.0067 0.9467 -2.0016 0.9710
-7.0700 -0.0650 -2.0016 0.9710
-7.0631 -0.3185 -2.0016 0.9710
-6.9450 -1.3253 -2.0016 0.9710
-6.8930 -1.5736 -2.0016 0.9710
-6.4637 -2.2289 -1.9356 0.9720
-6.1206 -2.3594 -1.8570 0.9731
-6.0320 -2.5774 -1.8570 0.9731
-5.9357 -2.7921 -1.8570 0.9731
-5.8317 -3.0032 -1.8570 0.9731
-5.7203 -3.2105 -1.8570 0.9731
-5.6014 -3.4136 -1.8570 0.9731
-5.4754 -3.6123 -1.8570 0.9731
-5.3423 -3.8063 -1.8570 0.9731
-5.2024 -3.9955 -1.8570 0.9731
-5.0557 -4.1795 -1.8570 0.9731
-4.9026 -4.3582 -1.8570 0.9731
-4.5775 -4.6984 -1.8570 0.9731
-4.4060 -4.8595 -1.8570 0.9731
-4.2289 -5.0145 -1.8570 0.9731
-4.0463 -5.1629 -1.8570 0.9731
-3.8586 -5.3047 -1.8570 0.9731
-3.6658 -5.4397 -1.8570 0.9731
-3.4684 -5.5677 -1.8570 0.9731
-3.5208 -6.1314 -2.0016 0.9710
-3.2986 -6.2537 -2.0016 0.9710
-2.8418 -6.4741 -2.0016 0.9710
-2.6077 -6.5719 -2.0016 0.9710
-1.8867 -6.8139 -2.0016 0.9710
-1.6411 -6.8772 -2.0016 0.9710
-0.8929 -7.0137 -2.0016 0.9710
-0.6408 -7.0412 -2.0016 0.9710
0.1193 -7.0693 -2.0016 0.9710
0.3727 -7.0605 -2.0016 0.9710
0.6257 -7.0426 -2.0016 0.9710
0.8779 -7.0156 -2.0016 0.9710
1.3786 -6.9346 -2.0016 0.9710
2.8279 -6.4801 -2.0016 0.9710
3.7256 -6.0091 -2.0016 0.9710
3.9387 -5.8716 -2.0016 0.9710
4.1468 -5.7266 -2.0016 0.9710
4.3495 -5.5742 -2.0016 0.9710
4.5466 -5.4146 -2.0016 0.9710
4.7379 -5.2480 -2.0016 0.9710
4.9231 -5.0747 -2.0016 0.9710
5.2742 -4.7087 -2.0016 0.9710
5.4397 -4.5165 -2.0016 0.9710
5.5982 -4.3185 -2.0016 0.9710
5.7495 -4.1150 -2.0016 0.9710
5.8934 -3.9061 -2.0016 0.9710
6.1582 -3.4736 -2.0016 0.9710
6.2789 -3.2505 -2.0016 0.9710
6.3914 -3.0232 -2.0016 0.9710
6.5917 -2.5572 -2.0016 0.9710
6.6792 -2.3191 -2.0016 0.9710
6.8282 -1.8344 -2.0016 0.9710
7.0699 -0.0801 -2.0016 0.9710
7.0087 0.9318 -2.0016 0.9710
6.8034 1.9245 -2.0016 0.9710
6.6479 2.4072 -2.0016 0.9710
6.5573 2.6441 -2.0016 0.9710
6.3509 3.1074 -2.0016 0.9710
6.2354 3.3332 -2.0016 0.9710
6.1118 3.5547 -2.0016 0.9710
5.9803 3.7716 -2.0016 0.9710
5.8412 3.9837 -2.0016 0.9710
5.5406 4.3922 -2.0016 0.9710
5.3795 4.5881 -2.0016 0.9710
5.2115 4.7781 -2.0016 0.9710
5.0368 4.9619 -2.0016 0.9710
4.8556 5.1394 -2.0016 0.9710
4.6681 5.3102 -2.0016 0.9710
4.4746 5.4742 -2.0016 0.9710
4.2754 5.6312 -2.0016 0.9710
3.6458 6.0579 -2.0016 0.9710
3.4262 6.1847 -2.0016 0.9710
3.2021 6.3036 -2.0016 0.9710
1.5353 6.9016 -2.0016 0.9710
1.2868 6.9522 -2.0016 0.9710
0.7851 7.0266 -2.0016 0.9710
0.0258 7.0703 -2.0016 0.9710
-0.2278 7.0667 -2.0016 0.9710
-0.4811 7.0539 -2.0016 0.9710
-0.7338 7.0322 -2.0016 0.9710
-1.2360 6.9614 -2.0016 0.9710
-1.4849 6.9126 -2.0016 0.9710
-2.4582 6.6292 -2.0016 0.9710
-3.3810 6.2096 -2.0016 0.9710
-3.6015 6.0843 -2.0016 0.9710
-3.8174 5.9512 -2.0016 0.9710
-4.0284 5.8105 -2.0016 0.9710
-4.2342 5.6622 -2.0016 0.9710
-4.4346 5.5067 -2.0016 0.9710
-4.6292 5.3441 -2.0016 0.9710
-5.0004 4.9985 -2.0016 0.9710
-5.1765 4.8160 -2.0016 0.9710
-5.3459 4.6272 -2.0016 0.9710
-5.9527 3.8151 -2.0016 0.9710
-6.0857 3.5992 -2.0016 0.9710
-6.6302 2.4557 -2.0016 0.9710
-6.7892 1.9741 -2.0016 0.9710
-6.8556 1.7293 -2.0016 0.9710
-4.9640 4.2078 -2.0016 0.9731
-5.1117 4.0271 -2.0016 0.9731
-5.2529 3.8411 -2.0016 0.9731
-5.3873 3.6503 -2.0016 0.9731
-5.5147 3.4547 -2.0016 0.9731
-5.7482 3.0505 -2.0016 0.9731
-5.8539 2.8423 -2.0016 0.9731
-6.0426 2.4154 -2.0016 0.9731
-6.2671 1.7523 -2.0016 0.9731
-6.3766 1.2985 -2.0016 0.9731
-6.4191 1.0690 -2.0016 0.9731
-6.5068 -0.0934 -2.0016 0.9731
-6.4834 -0.5596 -2.0016 0.9731
-6.4591 -0.7918 -2.0016 0.9731
-6.4266 -1.0229 -2.0016 0.9731
-6.2795 -1.7073 -2.0016 0.9731
-6.2142 -1.9315 -2.0016 0.9731
-5.7166 -2.2376 -1.8882 0.9746
-5.2496 -2.9820 -1.8570 0.9751
-5.1392 -3.1684 -1.8570 0.9751
-5.0223 -3.3507 -1.8570 0.9751
-4.8989 -3.5286 -1.8570 0.9751
-4.6333 -3.8708 -1.8570 0.9751
-4.4915 -4.0344 -1.8570 0.9751
-4.3439 -4.1929 -1.8570 0.9751
-4.1907 -4.3461 -1.8570 0.9751
-4.0322 -4.4936 -1.8570 0.9751
-3.8684 -4.6353 -1.8570 0.9751
-3.5262 -4.9007 -1.8570 0.9751
-3.3481 -5.0240 -1.8570 0.9751
-3.1658 -5.1409 -1.8570 0.9751
-2.7891 -5.3546 -1.8570 0.9751
-2.5952 -5.4512 -1.8570 0.9751
-1.7042 -6.2804 -2.0016 0.9731
-1.4778 -6.3375 -2.0016 0.9731
-1.2495 -6.3864 -2.0016 0.9731
-0.5563 -6.4837 -2.0016 0.9731
-0.3234 -6.4994 -2.0016 0.9731
-0.0901 -6.5069 -2.0016 0.9731
0.1433 -6.5059 -2.0016 0.9731
0.3766 -6.4966 -2.0016 0.9731
0.6094 -6.4789 -2.0016 0.9731
1.5296 -6.3251 -2.0016 0.9731
1.7555 -6.2662 -2.0016 0.9731
1.9791 -6.1992 -2.0016 0.9731
2.2002 -6.1242 -2.0016 0.9731
2.4433 -5.5209 -1.8570 0.9751
2.0790 -4.2762 -1.4625 0.9803
2.3595 -4.0804 -1.4498 0.9805
3.4575 -5.5130 -2.0016 0.9731
3.8438 -5.2509 -2.0016 0.9731
4.3856 -4.8077 -2.0016 0.9731
4.7190 -4.4809 -2.0016 0.9731
5.1730 -3.9481 -2.0016 0.9731
5.3113 -3.7600 -2.0016 0.9731
5.5671 -3.3696 -2.0016 0.9731
5.6844 -3.1678 -2.0016 0.9731
5.9918 -2.5388 -2.0016 0.9731
6.0790 -2.3223 -2.0016 0.9731
6.1584 -2.1028 -2.0016 0.9731
6.3486 -1.4291 -2.0016 0.9731
6.3958 -1.2005 -2.0016 0.9731
6.4347 -0.9703 -2.0016 0.9731
6.4654 -0.7389 -2.0016 0.9731
6.5017 -0.2735 -2.0016 0.9731
6.5074 -0.0401 -2.0016 0.9731
6.5046 0.1933 -2.0016 0.9731
6.4740 0.6591 -2.0016 0.9731
6.4101 1.1215 -2.0016 0.9731
6.3132 1.5781 -2.0016 0.9731
6.2525 1.8036 -2.0016 0.9731
6.1072 2.2472 -2.0016 0.9731
6.0226 2.4648 -2.0016 0.9731
5.9304 2.6792 -2.0016 0.9731
5.6083 3.3007 -2.0016 0.9731
5.4863 3.4997 -2.0016 0.9731
5.2213 3.8840 -2.0016 0.9731
5.0786 4.0688 -2.0016 0.9731
4.9294 4.2483 -2.0016 0.9731
4.7739 4.4224 -2.0016 0.9731
4.6122 4.5908 -2.0016 0.9731
4.0924 5.0596 -2.0016 0.9731
3.7191 5.3400 -2.0016 0.9731
3.5252 5.4699 -2.0016 0.9731
2.9173 5.8170 -2.0016 0.9731
2.0554 6.1743 -2.0016 0.9731
1.6075 6.3058 -2.0016 0.9731
1.3803 6.3594 -2.0016 0.9731
1.1513 6.4048 -2.0016 0.9731
0.6892 6.4709 -2.0016 0.9731
0.4567 6.4914 -2.0016 0.9731
-0.4763 6.4900 -2.0016 0.9731
-0.7088 6.4688 -2.0016 0.9731
-1.6266 6.3009 -2.0016 0.9731
-1.8515 6.2385 -2.0016 0.9731
-2.2940 6.0897 -2.0016 0.9731
-2.5109 6.0035 -2.0016 0.9731
-2.7246 5.9096 -2.0016 0.9731
-2.9348 5.8081 -2.0016 0.9731
-3.1413 5.6991 -2.0016 0.9731
-3.3437 5.5828 -2.0016 0.9731
-3.5417 5.4592 -2.0016 0.9731
-3.9240 5.1913 -2.0016 0.9731
-4.1077 5.0472 -2.0016 0.9731
-4.2860 4.8966 -2.0016 0.9731
-4.4589 4.7398 -2.0016 0.9731
-4.6260 4.5768 -2.0016 0.9731
-5.3684 3.6780 -2.0016 0.9731
-5.6182 3.2837 -2.0016 0.9731
-5.7324 3.0801 -2.0016 0.9731
-5.8392 2.8725 -2.0016 0.9731
-6.0301 2.4465 -2.0016 0.9731
-6.1139 2.2287 -2.0016 0.9731
-6.4135 1.1021 -2.0016 0.9731
-6.4760 0.6395 -2.0016 0.9731
-6.4948 0.4068 -2.0016 0.9731
-6.5052 0.1736 -2.0016 0.9731
-6.5072 -0.0598 -2.0016 0.9731
-6.4862 -0.5261 -2.0016 0.9731
-6.4631 -0.7584 -2.0016 0.9731
-6.2241 -1.8994 -2.0016 0.9731
-6.1520 -2.1214 -2.0016 0.9731
-5.7942 -2.2336 -1.9100 0.9743
-5.5518 -2.3722 -1.8570 0.9751
-5.4632 -2.5698 -1.8570 0.9751
-5.3675 -2.7641 -1.8570 0.9751
-5.1555 -3.1418 -1.8570 0.9751
-4.9170 -3.5033 -1.8570 0.9751
-4.7882 -3.6774 -1.8570 0.9751
-4.6532 -3.8468 -1.8570 0.9751
-4.3655 -4.1705 -1.8570 0.9751
-4.2131 -4.3244 -1.8570 0.9751
-3.3740 -5.0066 -1.8570 0.9751
-3.1923 -5.1244 -1.8570 0.9751
-3.0064 -5.2356 -1.8570 0.9751
-2.6233 -5.4377 -1.8570 0.9751
-1.9604 -6.2052 -2.0016 0.9731
-1.7365 -6.2715 -2.0016 0.9731
-1.5105 -6.3297 -2.0016 0.9731
-1.2825 -6.3798 -2.0016 0.9731
-1.0528 -6.4217 -2.0016 0.9731
-0.8218 -6.4554 -2.0016 0.9731
-0.5898 -6.4807 -2.0016 0.9731
0.3431 -6.4984 -2.0016 0.9731
0.8080 -6.4571 -2.0016 0.9731
1.4970 -6.3330 -2.0016 0.9731
2.2148 -5.6165 -1.8570 0.9751
2.4148 -5.5335 -1.8570 0.9751
2.0769 -4.3287 -1.4767 0.9801
2.1431 -4.0842 -1.4186 0.9809
2.3317 -4.0809 -1.4456 0.9805
3.4290 -5.5308 -2.0016 0.9731
4.3607 -4.8303 -2.0016 0.9731
4.6958 -4.5052 -2.0016 0.9731
4.8543 -4.3339 -2.0016 0.9731
5.4242 -3.5952 -2.0016 0.9731
5.8826 -2.7825 -2.0016 0.9731
6.1474 -2.1345 -2.0016 0.9731
6.2200 -1.9127 -2.0016 0.9731
6.3895 -1.2335 -2.0016 0.9731
6.4296 -1.0035 -2.0016 0.9731
6.4850 -0.5400 -2.0016 0.9731
6.5071 -0.0737 -2.0016 0.9731
6.5055 0.1597 -2.0016 0.9731
6.4956 0.3930 -2.0016 0.9731
6.4158 1.0884 -2.0016 0.9731
6.3727 1.3178 -2.0016 0.9731
6.3213 1.5456 -2.0016 0.9731
6.1942 1.9947 -2.0016 0.9731
5.9441 2.6485 -2.0016 0.9731
5.8453 2.8600 -2.0016 0.9731
5.6252 3.2717 -2.0016 0.9731
5.5043 3.4714 -2.0016 0.9731
5.3762 3.6665 -2.0016 0.9731
5.2413 3.8570 -2.0016 0.9731
4.9513 4.2228 -2.0016 0.9731
4.7966 4.3977 -2.0016 0.9731
4.6358 4.5669 -2.0016 0.9731
4.4690 4.7302 -2.0016 0.9731
3.9351 5.1829 -2.0016 0.9731
3.7466 5.3207 -2.0016 0.9731
3.1534 5.6924 -2.0016 0.9731
2.9472 5.8018 -2.0016 0.9731
