ply
format ascii 1.0
element vertex 1596
property float32 x
property float32 y
property float32 z
property float32 I
end_header
-5.4815 -7.7211 -2.0016 0.9620
-5.2006 -7.9130 -2.0016 0.9620
-4.9131 -8.0947 -2.0016 0.9620
-4.3193 -8.4265 -2.0016 0.9620
-3.7032 -8.7148 -2.0016 0.9620
-3.3878 -8.8422 -2.0016 0.9620
-3.0680 -8.9582 -2.0016 0.9620
-2.0866 -9.2362 -2.0016 0.9620
-1.7536 -9.3052 -2.0016 0.9620
0.1864 -8.5144 -2.0016 0.9656
0.4921 -8.5022 -2.0016 0.9656
0.7972 -8.4791 -2.0016 0.9656
1.4038 -8.3999 -2.0016 0.9656
1.7046 -8.3441 -2.0016 0.9656
2.2992 -8.2002 -2.0016 0.9656
2.8820 -8.0140 -2.0016 0.9656
2.2175 -4.1683 -1.1097 0.9808
2.4042 -4.1522 -1.1276 0.9805
4.7855 -7.0448 -2.0016 0.9656
5.9671 -6.0765 -2.0016 0.9656
6.1815 -5.8582 -2.0016 0.9656
6.3879 -5.6324 -2.0016 0.9656
6.5861 -5.3993 -2.0016 0.9656
7.2914 -4.4005 -2.0016 0.9656
7.4448 -4.1358 -2.0016 0.9656
7.5885 -3.8657 -2.0016 0.9656
7.7225 -3.5907 -2.0016 0.9656
7.8465 -3.3110 -2.0016 0.9656
7.9603 -3.0270 -2.0016 0.9656
8.1571 -2.4478 -2.0016 0.9656
8.2398 -2.1532 -2.0016 0.9656
8.3118 -1.8559 -2.0016 0.9656
8.3731 -1.5561 -2.0016 0.9656
8.5121 0.2708 -2.0016 0.9656
8.4336 1.1848 -2.0016 0.9656
8.3268 1.7872 -2.0016 0.9656
8.2573 2.0851 -2.0016 0.9656
7.8735 3.2461 -2.0016 0.9656
7.4787 4.0742 -2.0016 0.9656
6.4342 5.5795 -2.0016 0.9656
6.2296 5.8070 -2.0016 0.9656
6.0171 6.0270 -2.0016 0.9656
5.5689 6.4434 -2.0016 0.9656
5.3338 6.6393 -2.0016 0.9656
4.8435 7.0051 -2.0016 0.9656
4.5887 7.1745 -2.0016 0.9656
4.0618 7.4854 -2.0016 0.9656
3.2331 7.8789 -2.0016 0.9656
2.9480 7.9899 -2.0016 0.9656
2.6591 8.0907 -2.0016 0.9656
2.3641 8.1714 -1.9992 0.9657
2.0666 8.2413 -1.9969 0.9657
1.7675 8.3019 -1.9949 0.9657
1.4601 8.3138 -1.9838 0.9659
1.1484 8.2737 -1.9631 0.9663
0.5457 8.2478 -1.9427 0.9666
0.2486 8.2433 -1.9383 0.9667
-0.0476 8.2435 -1.9374 0.9667
-0.6411 8.2424 -1.9430 0.9666
-0.9399 8.2413 -1.9494 0.9665
-1.8530 8.2349 -1.9838 0.9659
-2.1590 8.2067 -1.9944 0.9657
-2.4540 8.1292 -1.9957 0.9657
-2.7465 8.0418 -1.9972 0.9657
-3.0360 7.9445 -1.9988 0.9657
-3.3224 7.8374 -2.0006 0.9656
-3.6034 7.7166 -2.0016 0.9656
-4.1481 7.4380 -2.0016 0.9656
-4.6713 7.1210 -2.0016 0.9656
-5.6430 6.3786 -2.0016 0.9656
-6.0863 5.9571 -2.0016 0.9656
-6.2963 5.7346 -2.0016 0.9656
-6.6918 5.2678 -2.0016 0.9656
-6.8767 5.0241 -2.0016 0.9656
-7.0527 4.7738 -2.0016 0.9656
-7.2196 4.5174 -2.0016 0.9656
-7.3772 4.2552 -2.0016 0.9656
-7.5253 3.9875 -2.0016 0.9656
-7.6636 3.7146 -2.0016 0.9656
-7.7921 3.4370 -2.0016 0.9656
-8.0187 2.8687 -2.0016 0.9656
-8.1166 2.5789 -2.0016 0.9656
-8.2040 2.2857 -2.0016 0.9656
-8.2808 1.9896 -2.0016 0.9656
-8.3469 1.6908 -2.0016 0.9656
-8.5051 -0.4393 -2.0016 0.9656
-8.1151 -2.2211 -1.9774 0.9660
-7.5411 -2.3583 -1.8570 0.9681
-7.1257 -3.4139 -1.8570 0.9681
-6.7171 -4.1606 -1.8570 0.9681
-5.8657 -5.2937 -1.8570 0.9681
-5.8965 -6.1450 -2.0016 0.9656
-5.4401 -6.5525 -2.0016 0.9656
-3.9128 -7.5644 -2.0016 0.9656
-3.3596 -7.8258 -2.0016 0.9656
-2.7892 -8.0468 -2.0016 0.9656
-1.9074 -8.3001 -2.0016 0.9656
-1.6081 -8.3632 -2.0016 0.9656
-1.0035 -8.4571 -2.0016 0.9656
-0.0880 -8.5160 -2.0016 0.9656
0.2179 -8.5137 -2.0016 0.9656
0.5236 -8.5003 -2.0016 0.9656
0.8285 -8.4760 -2.0016 0.9656
1.4349 -8.3947 -2.0016 0.9656
1.7355 -8.3377 -2.0016 0.9656
2.0338 -8.2700 -2.0016 0.9656
2.3295 -8.1916 -2.0016 0.9656
3.1972 -7.8935 -2.0016 0.9656
3.4786 -7.7736 -2.0016 0.9656
4.2946 -7.3543 -2.0016 0.9656
4.5560 -7.1953 -2.0016 0.9656
4.8115 -7.0270 -2.0016 0.9656
5.3035 -6.6635 -2.0016 0.9656
5.9895 -6.0544 -2.0016 0.9656
6.4087 -5.6088 -2.0016 0.9656
6.9748 -4.8869 -2.0016 0.9656
7.1459 -4.6332 -2.0016 0.9656
7.3077 -4.3735 -2.0016 0.9656
7.4600 -4.1082 -2.0016 0.9656
7.6028 -3.8376 -2.0016 0.9656
7.8587 -3.2820 -2.0016 0.9656
7.9715 -2.9976 -2.0016 0.9656
8.0740 -2.7093 -2.0016 0.9656
8.1661 -2.4176 -2.0016 0.9656
8.3186 -1.8251 -2.0016 0.9656
8.5108 -0.3096 -2.0016 0.9656
8.4674 0.9125 -2.0016 0.9656
8.4292 1.2160 -2.0016 0.9656
8.3202 1.8180 -2.0016 0.9656
8.1682 2.4106 -2.0016 0.9656
8.0763 2.7024 -2.0016 0.9656
7.8615 3.2752 -2.0016 0.9656
7.6061 3.8311 -2.0016 0.9656
7.4636 4.1018 -2.0016 0.9656
7.1498 4.6270 -2.0016 0.9656
6.9790 4.8809 -2.0016 0.9656
6.7992 5.1284 -2.0016 0.9656
6.6106 5.3693 -2.0016 0.9656
6.4135 5.6033 -2.0016 0.9656
5.9947 6.0492 -2.0016 0.9656
5.7736 6.2606 -2.0016 0.9656
5.5450 6.4640 -2.0016 0.9656
5.3093 6.6589 -2.0016 0.9656
5.0667 6.8453 -2.0016 0.9656
4.5622 7.1914 -2.0016 0.9656
3.4853 7.7706 -2.0016 0.9656
3.2039 7.8908 -2.0016 0.9656
1.1171 8.2724 -1.9618 0.9663
0.5150 8.2464 -1.9419 0.9666
-0.6718 8.2423 -1.9436 0.9666
-1.5765 8.2372 -1.9711 0.9661
-3.6319 7.7032 -2.0016 0.9656
-3.9063 7.5678 -2.0016 0.9656
-4.1756 7.4226 -2.0016 0.9656
-4.4395 7.2678 -2.0016 0.9656
-4.6976 7.1037 -2.0016 0.9656
-4.9498 6.9304 -2.0016 0.9656
-5.1955 6.7481 -2.0016 0.9656
-5.4345 6.5571 -2.0016 0.9656
-5.8912 6.1501 -2.0016 0.9656
-6.1083 5.9345 -2.0016 0.9656
-7.2362 4.4907 -2.0016 0.9656
-7.5400 3.9597 -2.0016 0.9656
-7.9221 3.1256 -2.0016 0.9656
-8.2881 1.9589 -2.0016 0.9656
-8.4507 1.0560 -2.0016 0.9656
-8.5148 -0.1650 -2.0016 0.9656
-8.4034 -1.3827 -2.0016 0.9656
-8.2825 -1.9824 -2.0016 0.9656
-8.0139 -2.2253 -1.9547 0.9664
-7.5324 -2.3861 -1.8570 0.9681
-7.4418 -2.6551 -1.8570 0.9681
-7.3416 -2.9207 -1.8570 0.9681
-7.2320 -3.1825 -1.8570 0.9681
-7.1130 -3.4402 -1.8570 0.9681
-6.9849 -3.6935 -1.8570 0.9681
-6.8477 -3.9420 -1.8570 0.9681
-6.7017 -4.1854 -1.8570 0.9681
-6.3839 -4.6557 -1.8570 0.9681
-6.2126 -4.8820 -1.8570 0.9681
-5.8737 -6.1668 -2.0016 0.9656
-5.6484 -6.3738 -2.0016 0.9656
-4.4188 -7.2804 -2.0016 0.9656
-3.6101 -7.7135 -2.0016 0.9656
-3.3307 -7.8381 -2.0016 0.9656
-3.0470 -7.9527 -2.0016 0.9656
-2.4682 -8.1509 -2.0016 0.9656
-1.5772 -8.3691 -2.0016 0.9656
0.4467 -7.7176 -2.0016 0.9686
1.2743 -7.6247 -2.0016 0.9686
1.5473 -7.5740 -2.0016 0.9686
2.0870 -7.4434 -2.0016 0.9686
2.3531 -7.3637 -2.0016 0.9686
2.6160 -7.2744 -2.0016 0.9686
2.8756 -7.1757 -2.0016 0.9686
4.3438 -6.3946 -2.0016 0.9686
4.5707 -6.2345 -2.0016 0.9686
4.7917 -6.0663 -2.0016 0.9686
5.0065 -5.8903 -2.0016 0.9686
5.2148 -5.7067 -2.0016 0.9686
5.6110 -5.3176 -2.0016 0.9686
5.7984 -5.1126 -2.0016 0.9686
5.9783 -4.9010 -2.0016 0.9686
6.7577 -3.7541 -2.0016 0.9686
7.0098 -3.2593 -2.0016 0.9686
7.1223 -3.0054 -2.0016 0.9686
7.2257 -2.7477 -2.0016 0.9686
7.3197 -2.4864 -2.0016 0.9686
7.4043 -2.2219 -2.0016 0.9686
7.4793 -1.9545 -2.0016 0.9686
7.6003 -1.4125 -2.0016 0.9686
7.7082 -0.5868 -2.0016 0.9686
7.7304 -0.0319 -2.0016 0.9686
7.7266 0.2458 -2.0016 0.9686
7.7128 0.5231 -2.0016 0.9686
7.6890 0.7998 -2.0016 0.9686
7.6553 1.0755 -2.0016 0.9686
7.5584 1.6223 -2.0016 0.9686
7.4952 1.8927 -2.0016 0.9686
7.4224 2.1607 -2.0016 0.9686
7.1469 2.9465 -2.0016 0.9686
7.0365 3.2013 -2.0016 0.9686
6.7885 3.6982 -2.0016 0.9686
6.5055 4.1760 -2.0016 0.9686
6.1889 4.6322 -2.0016 0.9686
6.0185 4.8515 -2.0016 0.9686
5.8404 5.0646 -2.0016 0.9686
5.4618 5.4708 -2.0016 0.9686
5.2617 5.6634 -2.0016 0.9686
5.0549 5.8488 -2.0016 0.9686
4.6220 6.1966 -2.0016 0.9686
4.3965 6.3586 -2.0016 0.9686
4.1652 6.5124 -2.0016 0.9686
3.1897 7.0417 -2.0016 0.9686
2.9347 7.1518 -2.0016 0.9686
1.6098 7.5610 -2.0016 0.9686
1.0628 7.6571 -2.0016 0.9686
0.2330 7.7270 -2.0016 0.9686
-0.0447 7.7304 -2.0016 0.9686
-0.8759 7.6807 -2.0016 0.9686
-1.1513 7.6443 -2.0016 0.9686
-1.4251 7.5980 -2.0016 0.9686
-1.6971 7.5419 -2.0016 0.9686
-1.9668 7.4761 -2.0016 0.9686
-2.2341 7.4006 -2.0016 0.9686
-2.4985 7.3156 -2.0016 0.9686
-2.7596 7.2211 -2.0016 0.9686
-3.5203 6.8824 -2.0016 0.9686
-3.7653 6.7515 -2.0016 0.9686
-4.0053 6.6119 -2.0016 0.9686
-4.2402 6.4638 -2.0016 0.9686
-4.4697 6.3073 -2.0016 0.9686
-4.6933 6.1427 -2.0016 0.9686
-4.9109 5.9702 -2.0016 0.9686
-5.1222 5.7900 -2.0016 0.9686
-5.3268 5.6022 -2.0016 0.9686
-5.7153 5.2054 -2.0016 0.9686
-6.0742 4.7817 -2.0016 0.9686
-6.2420 4.5604 -2.0016 0.9686
-6.5533 4.1005 -2.0016 0.9686
-6.6964 3.8625 -2.0016 0.9686
-6.8308 3.6195 -2.0016 0.9686
-7.0730 3.1198 -2.0016 0.9686
-7.1805 2.8637 -2.0016 0.9686
-7.2787 2.6040 -2.0016 0.9686
-7.4469 2.0747 -2.0016 0.9686
-7.5166 1.8059 -2.0016 0.9686
-7.5766 1.5348 -2.0016 0.9686
-7.6977 0.7109 -2.0016 0.9686
-7.7289 0.1565 -2.0016 0.9686
-7.6717 -0.9520 -2.0016 0.9686
-7.6325 -1.2269 -2.0016 0.9686
-7.5247 -1.7717 -2.0016 0.9686
-7.4562 -2.0408 -2.0016 0.9686
-6.6739 -2.6265 -1.8570 0.9708
-6.2289 -3.5552 -1.8570 0.9708
-5.9576 -3.9932 -1.8570 0.9708
-5.3244 -4.8052 -1.8570 0.9708
-4.9657 -5.1750 -1.8570 0.9708
-4.3802 -5.6791 -1.8570 0.9708
-4.4984 -6.2869 -2.0016 0.9686
-4.2696 -6.4444 -2.0016 0.9686
-3.7960 -6.7343 -2.0016 0.9686
-3.3027 -6.9894 -2.0016 0.9686
-3.0496 -7.1036 -2.0016 0.9686
-2.7925 -7.2085 -2.0016 0.9686
-2.2678 -7.3904 -2.0016 0.9686
-2.0009 -7.4671 -2.0016 0.9686
-1.4597 -7.5914 -2.0016 0.9686
-1.1861 -7.6390 -2.0016 0.9686
-0.6346 -7.7044 -2.0016 0.9686
-0.0799 -7.7301 -2.0016 0.9686
0.1978 -7.7280 -2.0016 0.9686
0.4752 -7.7159 -2.0016 0.9686
0.7521 -7.6938 -2.0016 0.9686
1.0279 -7.6618 -2.0016 0.9686
1.3025 -7.6200 -2.0016 0.9686
1.5753 -7.5683 -2.0016 0.9686
1.8461 -7.5068 -2.0016 0.9686
2.3803 -7.3549 -2.0016 0.9686
2.6429 -7.2647 -2.0016 0.9686
2.9021 -7.1651 -2.0016 0.9686
2.2070 -4.1117 -1.2083 0.9809
4.1355 -6.5313 -2.0016 0.9686
4.8141 -6.0486 -2.0016 0.9686
5.4368 -5.4956 -2.0016 0.9686
6.1677 -4.6604 -2.0016 0.9686
6.3312 -4.4359 -2.0016 0.9686
6.4864 -4.2056 -2.0016 0.9686
6.6333 -3.9699 -2.0016 0.9686
6.9011 -3.4835 -2.0016 0.9686
7.0218 -3.2334 -2.0016 0.9686
7.1334 -2.9791 -2.0016 0.9686
7.4125 -2.1945 -2.0016 0.9686
7.4865 -1.9268 -2.0016 0.9686
7.6055 -1.3844 -2.0016 0.9686
7.6503 -1.1103 -2.0016 0.9686
7.6853 -0.8348 -2.0016 0.9686
7.7305 -0.0033 -2.0016 0.9686
7.6860 0.8282 -2.0016 0.9686
7.6513 1.1038 -2.0016 0.9686
7.3310 2.4530 -2.0016 0.9686
7.2381 2.7147 -2.0016 0.9686
7.1360 2.9729 -2.0016 0.9686
6.7748 3.7233 -2.0016 0.9686
6.6367 3.9642 -2.0016 0.9686
6.3350 4.4304 -2.0016 0.9686
5.8216 5.0861 -2.0016 0.9686
5.6352 5.2920 -2.0016 0.9686
5.0333 5.8674 -2.0016 0.9686
4.8193 6.0444 -2.0016 0.9686
4.1411 6.5277 -2.0016 0.9686
3.9040 6.6723 -2.0016 0.9686
3.6618 6.8082 -2.0016 0.9686
3.4149 6.9353 -2.0016 0.9686
3.1636 7.0535 -2.0016 0.9686
2.9083 7.1626 -2.0016 0.9686
2.1209 7.4338 -2.0016 0.9686
1.5818 7.5669 -2.0016 0.9686
1.3090 7.6189 -2.0016 0.9686
0.7587 7.6932 -2.0016 0.9686
0.4819 7.7155 -2.0016 0.9686
0.2044 7.7278 -2.0016 0.9686
-0.0732 7.7301 -2.0016 0.9686
-0.3508 7.7225 -2.0016 0.9686
-0.6280 7.7049 -2.0016 0.9686
-1.4532 7.5927 -2.0016 0.9686
-1.7249 7.5356 -2.0016 0.9686
-2.7863 7.2109 -2.0016 0.9686
-3.2967 6.9923 -2.0016 0.9686
-3.5458 6.8693 -2.0016 0.9686
-4.0298 6.5971 -2.0016 0.9686
-4.2641 6.4481 -2.0016 0.9686
-4.4930 6.2908 -2.0016 0.9686
-4.7160 6.1253 -2.0016 0.9686
-5.7345 5.1842 -2.0016 0.9686
-5.9170 4.9749 -2.0016 0.9686
-6.0918 4.7592 -2.0016 0.9686
-6.2589 4.5373 -2.0016 0.9686
-6.8441 3.5942 -2.0016 0.9686
-7.0845 3.0936 -2.0016 0.9686
-7.1910 2.8372 -2.0016 0.9686
-7.2883 2.5771 -2.0016 0.9686
-7.3761 2.3136 -2.0016 0.9686
-7.4545 2.0472 -2.0016 0.9686
-7.5232 1.7781 -2.0016 0.9686
-7.6314 1.2335 -2.0016 0.9686
-7.7199 0.4054 -2.0016 0.9686
-7.7294 0.1279 -2.0016 0.9686
-7.7187 -0.4273 -2.0016 0.9686
-7.6983 -0.7043 -2.0016 0.9686
-7.6681 -0.9803 -2.0016 0.9686
-7.6279 -1.2551 -2.0016 0.9686
-7.4487 -2.0683 -2.0016 0.9686
-7.0484 -2.2328 -1.9143 0.9699
-6.7550 -2.4101 -1.8570 0.9708
-6.6641 -2.6512 -1.8570 0.9708
-6.5646 -2.8888 -1.8570 0.9708
-6.3403 -3.3526 -1.8570 0.9708
-5.9428 -4.0152 -1.8570 0.9708
-5.7948 -4.2260 -1.8570 0.9708
-5.4765 -4.6311 -1.8570 0.9708
-4.6986 -6.1387 -2.0016 0.9686
-4.4751 -6.3035 -2.0016 0.9686
-3.7711 -6.7483 -2.0016 0.9686
-3.5262 -6.8794 -2.0016 0.9686
-3.2769 -7.0016 -2.0016 0.9686
-2.7658 -7.2188 -2.0016 0.9686
-2.5047 -7.3135 -2.0016 0.9686
-1.9733 -7.4744 -2.0016 0.9686
-1.1578 -7.6433 -2.0016 0.9686
0.1548 -7.0686 -2.0016 0.9710
0.4086 -7.0585 -2.0016 0.9710
0.9142 -7.0110 -2.0016 0.9710
1.1655 -6.9736 -2.0016 0.9710
1.4152 -6.9272 -2.0016 0.9710
1.9088 -6.8078 -2.0016 0.9710
2.1521 -6.7348 -2.0016 0.9710
2.3926 -6.6532 -2.0016 0.9710
2.6300 -6.5630 -2.0016 0.9710
2.8641 -6.4643 -2.0016 0.9710
2.0932 -4.3002 -1.3539 0.9803
2.3710 -4.0949 -1.3395 0.9805
3.7603 -5.9875 -2.0016 0.9710
3.9729 -5.8486 -2.0016 0.9710
4.5789 -5.3873 -2.0016 0.9710
4.7695 -5.2193 -2.0016 0.9710
4.9539 -5.0447 -2.0016 0.9710
5.3033 -4.6760 -2.0016 0.9710
5.4678 -4.4825 -2.0016 0.9710
5.7755 -4.0784 -2.0016 0.9710
6.1807 -3.4335 -2.0016 0.9710
6.3000 -3.2093 -2.0016 0.9710
6.4112 -2.9810 -2.0016 0.9710
6.5141 -2.7488 -2.0016 0.9710
6.6087 -2.5130 -2.0016 0.9710
6.7720 -2.0321 -2.0016 0.9710
6.9004 -1.5407 -2.0016 0.9710
7.0261 -0.7895 -2.0016 0.9710
7.0647 -0.2831 -2.0016 0.9710
7.0668 0.2248 -2.0016 0.9710
7.0324 0.7315 -2.0016 0.9710
6.9617 1.2345 -2.0016 0.9710
6.9129 1.4837 -2.0016 0.9710
6.8551 1.7311 -2.0016 0.9710
6.7885 1.9762 -2.0016 0.9710
6.6292 2.4584 -2.0016 0.9710
6.2088 3.3824 -2.0016 0.9710
6.0833 3.6032 -2.0016 0.9710
5.6604 4.2367 -2.0016 0.9710
5.5046 4.4372 -2.0016 0.9710
5.3417 4.6321 -2.0016 0.9710
4.9953 5.0036 -2.0016 0.9710
4.8124 5.1798 -2.0016 0.9710
4.0210 5.8156 -2.0016 0.9710
3.8096 5.9562 -2.0016 0.9710
3.5932 6.0892 -2.0016 0.9710
3.1468 6.3315 -2.0016 0.9710
2.4474 6.6332 -2.0016 0.9710
2.2076 6.7168 -2.0016 0.9710
1.9649 6.7918 -2.0016 0.9710
1.7197 6.8580 -2.0016 0.9710
1.4723 6.9153 -2.0016 0.9710
1.2230 6.9638 -2.0016 0.9710
0.7199 7.0336 -2.0016 0.9710
0.2131 7.0671 -2.0016 0.9710
-0.0409 7.0702 -2.0016 0.9710
-1.3034 6.9492 -2.0016 0.9710
-1.5521 6.8979 -2.0016 0.9710
-1.7989 6.8377 -2.0016 0.9710
-2.0433 6.7686 -2.0016 0.9710
-2.2851 6.6909 -2.0016 0.9710
-2.7595 6.5096 -2.0016 0.9710
-2.9916 6.4063 -2.0016 0.9710
-3.4437 6.1750 -2.0016 0.9710
-3.6633 6.0473 -2.0016 0.9710
-4.4915 5.4604 -2.0016 0.9710
-5.2272 4.7609 -2.0016 0.9710
-5.5555 4.3733 -2.0016 0.9710
-5.7090 4.1710 -2.0016 0.9710
-6.1245 3.5327 -2.0016 0.9710
-6.8747 1.6517 -2.0016 0.9710
-6.9296 1.4037 -2.0016 0.9710
-6.9755 1.1539 -2.0016 0.9710
-7.0125 0.9026 -2.0016 0.9710
-7.0404 0.6502 -2.0016 0.9710
-7.0433 -0.6181 -2.0016 0.9710
-7.0165 -0.8707 -2.0016 0.9710
-6.9807 -1.1221 -2.0016 0.9710
-6.9359 -1.3721 -2.0016 0.9710
-6.8821 -1.6204 -2.0016 0.9710
-6.8195 -1.8665 -2.0016 0.9710
-6.7481 -2.1103 -2.0016 0.9710
-6.3381 -2.2350 -1.9026 0.9724
-6.1039 -2.4022 -1.8570 0.9731
-5.9157 -2.8342 -1.8570 0.9731
-5.8101 -3.0449 -1.8570 0.9731
-5.6970 -3.2516 -1.8570 0.9731
-5.1726 -4.0339 -1.8570 0.9731
-4.8697 -4.3948 -1.8570 0.9731
-4.5416 -4.7331 -1.8570 0.9731
-3.8170 -5.3347 -1.8570 0.9731
-3.4242 -5.5949 -1.8570 0.9731
-3.4718 -6.1592 -2.0016 0.9710
-3.2484 -6.2799 -2.0016 0.9710
-2.3156 -6.6804 -2.0016 0.9710
-1.8300 -6.8294 -2.0016 0.9710
-1.5835 -6.8907 -2.0016 0.9710
-1.3350 -6.9431 -2.0016 0.9710
-0.0731 -7.0699 -2.0016 0.9710
0.6879 -7.0368 -2.0016 0.9710
0.9401 -7.0075 -2.0016 0.9710
1.1912 -6.9693 -2.0016 0.9710
1.4408 -6.9220 -2.0016 0.9710
1.6885 -6.8658 -2.0016 0.9710
2.4172 -6.6443 -2.0016 0.9710
2.6543 -6.5532 -2.0016 0.9710
2.8879 -6.4536 -2.0016 0.9710
2.0945 -4.2629 -1.3446 0.9804
2.1993 -4.0975 -1.3165 0.9809
3.9945 -5.8338 -2.0016 0.9710
4.4030 -5.5320 -2.0016 0.9710
4.7888 -5.2017 -2.0016 0.9710
4.9725 -5.0263 -2.0016 0.9710
5.1498 -4.8445 -2.0016 0.9710
5.3205 -4.6564 -2.0016 0.9710
5.7905 -4.0571 -2.0016 0.9710
6.1933 -3.4106 -2.0016 0.9710
6.4222 -2.9572 -2.0016 0.9710
6.7030 -2.2493 -2.0016 0.9710
6.7795 -2.0071 -2.0016 0.9710
6.8472 -1.7623 -2.0016 0.9710
6.9061 -1.5152 -2.0016 0.9710
7.0290 -0.7636 -2.0016 0.9710
7.0657 -0.2570 -2.0016 0.9710
7.0703 -0.0030 -2.0016 0.9710
6.9979 1.0095 -2.0016 0.9710
6.9571 1.2602 -2.0016 0.9710
6.9074 1.5093 -2.0016 0.9710
6.8487 1.7564 -2.0016 0.9710
6.7812 2.0012 -2.0016 0.9710
6.7049 2.2435 -2.0016 0.9710
6.6200 2.4829 -2.0016 0.9710
6.5266 2.7191 -2.0016 0.9710
6.1962 3.4053 -2.0016 0.9710
6.0699 3.6257 -2.0016 0.9710
5.9358 3.8414 -2.0016 0.9710
5.6447 4.2576 -2.0016 0.9710
5.4881 4.4576 -2.0016 0.9710
5.3245 4.6518 -2.0016 0.9710
5.1540 4.8400 -2.0016 0.9710
4.2063 5.6830 -2.0016 0.9710
3.9995 5.8304 -2.0016 0.9710
3.5706 6.1025 -2.0016 0.9710
2.4229 6.6422 -2.0016 0.9710
2.1828 6.7250 -2.0016 0.9710
1.4467 6.9207 -2.0016 0.9710
0.9462 7.0067 -2.0016 0.9710
0.6939 7.0362 -2.0016 0.9710
0.1870 7.0679 -2.0016 0.9710
-0.0670 7.0700 -2.0016 0.9710
-0.3209 7.0630 -2.0016 0.9710
-0.5744 7.0470 -2.0016 0.9710
-0.8271 7.0218 -2.0016 0.9710
-1.0788 6.9875 -2.0016 0.9710
-1.8242 6.8310 -2.0016 0.9710
-3.2430 6.2827 -2.0016 0.9710
-5.0711 4.9268 -2.0016 0.9710
-5.2448 4.7415 -2.0016 0.9710
-5.4117 4.5501 -2.0016 0.9710
-5.7244 4.1498 -2.0016 0.9710
-5.8697 3.9416 -2.0016 0.9710
-6.0075 3.7282 -2.0016 0.9710
-6.1375 3.5100 -2.0016 0.9710
-6.2597 3.2873 -2.0016 0.9710
-6.4795 2.8294 -2.0016 0.9710
-6.6659 2.3570 -2.0016 0.9710
-6.8179 1.8724 -2.0016 0.9710
-6.9347 1.3781 -2.0016 0.9710
-7.0427 0.6242 -2.0016 0.9710
-7.0606 0.3708 -2.0016 0.9710
-7.0694 0.1170 -2.0016 0.9710
-7.0595 -0.3908 -2.0016 0.9710
-7.0132 -0.8966 -2.0016 0.9710
-6.9765 -1.1479 -2.0016 0.9710
-6.9308 -1.3978 -2.0016 0.9710
-6.8761 -1.6458 -2.0016 0.9710
-6.8126 -1.8917 -2.0016 0.9710
-6.0040 -2.6421 -1.8570 0.9731
-5.7988 -3.0663 -1.8570 0.9731
-5.5637 -3.4747 -1.8570 0.9731
-5.4353 -3.6723 -1.8570 0.9731
-5.2999 -3.8651 -1.8570 0.9731
-5.1577 -4.0530 -1.8570 0.9731
-4.8534 -4.4128 -1.8570 0.9731
-4.5241 -4.7498 -1.8570 0.9731
-4.3506 -4.9093 -1.8570 0.9731
-4.1715 -5.0624 -1.8570 0.9731
-3.6027 -5.4817 -1.8570 0.9731
-3.4035 -5.6076 -1.8570 0.9731
-3.2251 -6.2919 -2.0016 0.9710
-2.9971 -6.4037 -2.0016 0.9710
-2.7651 -6.5072 -2.0016 0.9710
-2.5296 -6.6023 -2.0016 0.9710
-2.2908 -6.6889 -2.0016 0.9710
-2.0491 -6.7669 -2.0016 0.9710
-1.3093 -6.9480 -2.0016 0.9710
0.1425 -6.5059 -2.0016 0.9731
0.3760 -6.4966 -2.0016 0.9731
0.6091 -6.4789 -2.0016 0.9731
1.5307 -6.3249 -2.0016 0.9731
1.7569 -6.2658 -2.0016 0.9731
1.9808 -6.1987 -2.0016 0.9731
2.2458 -5.6042 -1.8570 0.9751
2.4456 -5.5199 -1.8570 0.9751
2.0792 -4.2715 -1.4612 0.9803
3.4609 -5.5108 -2.0016 0.9731
3.6566 -5.3830 -2.0016 0.9731
4.0336 -5.1066 -2.0016 0.9731
4.3898 -4.8038 -2.0016 0.9731
4.5595 -4.6431 -2.0016 0.9731
5.0325 -4.1257 -2.0016 0.9731
5.1774 -3.9423 -2.0016 0.9731
5.4471 -3.5604 -2.0016 0.9731
5.7985 -2.9538 -2.0016 0.9731
5.9956 -2.5299 -2.0016 0.9731
6.0826 -2.3130 -2.0016 0.9731
6.1617 -2.0930 -2.0016 0.9731
6.2961 -1.6453 -2.0016 0.9731
6.4668 -0.7267 -2.0016 0.9731
6.4887 -0.4939 -2.0016 0.9731
6.5023 -0.2606 -2.0016 0.9731
6.2481 1.8188 -2.0016 0.9731
6.1014 2.2627 -2.0016 0.9731
5.9233 2.6949 -2.0016 0.9731
5.8226 2.9059 -2.0016 0.9731
5.7145 3.1131 -2.0016 0.9731
5.5990 3.3164 -2.0016 0.9731
5.4763 3.5153 -2.0016 0.9731
5.0664 4.0840 -2.0016 0.9731
4.9164 4.2633 -2.0016 0.9731
4.4293 4.7674 -2.0016 0.9731
4.2552 4.9235 -2.0016 0.9731
4.0756 5.0731 -2.0016 0.9731
3.8908 5.2162 -2.0016 0.9731
3.5063 5.4821 -2.0016 0.9731
3.3071 5.6045 -2.0016 0.9731
3.1037 5.7197 -2.0016 0.9731
2.2526 6.1052 -2.0016 0.9731
1.8085 6.2511 -2.0016 0.9731
1.3551 6.3648 -2.0016 0.9731
1.1256 6.4094 -2.0016 0.9731
0.1961 6.5045 -2.0016 0.9731
-0.0376 6.5074 -2.0016 0.9731
-0.7374 6.4656 -2.0016 0.9731
-0.9691 6.4349 -2.0016 0.9731
-1.1996 6.3960 -2.0016 0.9731
-1.4286 6.3487 -2.0016 0.9731
-1.6557 6.2933 -2.0016 0.9731
-1.8806 6.2298 -2.0016 0.9731
-2.1032 6.1582 -2.0016 0.9731
-2.3230 6.0787 -2.0016 0.9731
-2.9634 5.7936 -2.0016 0.9731
-3.1696 5.6834 -2.0016 0.9731
-3.5694 5.4412 -2.0016 0.9731
-3.7625 5.3095 -2.0016 0.9731
-4.1340 5.0257 -2.0016 0.9731
-4.3118 4.8740 -2.0016 0.9731
-4.6506 4.5518 -2.0016 0.9731
-4.8111 4.3819 -2.0016 0.9731
-4.9654 4.2062 -2.0016 0.9731
-5.1132 4.0252 -2.0016 0.9731
-5.3890 3.6477 -2.0016 0.9731
-5.5165 3.4518 -2.0016 0.9731
-5.8558 2.8384 -2.0016 0.9731
-5.9540 2.6262 -2.0016 0.9731
-6.1272 2.1920 -2.0016 0.9731
-6.2020 1.9705 -2.0016 0.9731
-6.2687 1.7465 -2.0016 0.9731
-6.3274 1.5202 -2.0016 0.9731
-6.3779 1.2920 -2.0016 0.9731
-6.4202 1.0621 -2.0016 0.9731
-6.4542 0.8308 -2.0016 0.9731
-6.4799 0.5984 -2.0016 0.9731
-6.4972 0.3653 -2.0016 0.9731
-6.5067 -0.1021 -2.0016 0.9731
-6.4579 -0.8014 -2.0016 0.9731
-6.4250 -1.0328 -2.0016 0.9731
-6.3838 -1.2629 -2.0016 0.9731
-6.3343 -1.4914 -2.0016 0.9731
-6.2766 -1.7179 -2.0016 0.9731
-6.2109 -1.9423 -2.0016 0.9731
-6.1371 -2.1641 -2.0016 0.9731
-5.6893 -2.2391 -1.8806 0.9747
-5.5350 -2.4113 -1.8570 0.9751
-5.3476 -2.8025 -1.8570 0.9751
-5.2435 -2.9927 -1.8570 0.9751
-5.1326 -3.1791 -1.8570 0.9751
-5.0151 -3.3614 -1.8570 0.9751
-4.8911 -3.5394 -1.8570 0.9751
-4.6244 -3.8814 -1.8570 0.9751
-4.4820 -4.0450 -1.8570 0.9751
-3.8566 -4.6451 -1.8570 0.9751
-3.6872 -4.7807 -1.8570 0.9751
-2.9646 -5.2594 -1.8570 0.9751
-2.7738 -5.3625 -1.8570 0.9751
-2.5794 -5.4587 -1.8570 0.9751
-2.1312 -6.1486 -2.0016 0.9731
-1.6843 -6.2857 -2.0016 0.9731
-1.2287 -6.3904 -2.0016 0.9731
-0.0673 -6.5071 -2.0016 0.9731
0.1665 -6.5053 -2.0016 0.9731
0.8653 -6.4497 -2.0016 0.9731
1.3261 -6.3709 -2.0016 0.9731
1.7800 -6.2593 -2.0016 0.9731
2.2665 -5.5958 -1.8570 0.9751
2.1916 -4.0831 -1.4254 0.9808
3.8670 -5.2339 -2.0016 0.9731
4.0525 -5.0916 -2.0016 0.9731
4.7398 -4.4588 -2.0016 0.9731
5.0477 -4.1070 -2.0016 0.9731
5.3295 -3.7341 -2.0016 0.9731
5.4602 -3.5403 -2.0016 0.9731
5.8093 -2.9324 -2.0016 0.9731
6.1694 -2.0702 -2.0016 0.9731
6.4023 -1.1654 -2.0016 0.9731
6.5032 -0.2365 -2.0016 0.9731
6.5075 -0.0028 -2.0016 0.9731
6.5034 0.2309 -2.0016 0.9731
6.4700 0.6972 -2.0016 0.9731
6.4408 0.9291 -2.0016 0.9731
6.3035 1.6166 -2.0016 0.9731
6.2414 1.8419 -2.0016 0.9731
6.0930 2.2852 -2.0016 0.9731
6.0070 2.5026 -2.0016 0.9731
5.9133 2.7167 -2.0016 0.9731
5.7030 3.1342 -2.0016 0.9731
5.5867 3.3371 -2.0016 0.9731
5.3327 3.7295 -2.0016 0.9731
5.1953 3.9186 -2.0016 0.9731
5.0512 4.1027 -2.0016 0.9731
4.9006 4.2815 -2.0016 0.9731
4.7437 4.4547 -2.0016 0.9731
4.5806 4.6223 -2.0016 0.9731
4.4117 4.7838 -2.0016 0.9731
4.2370 4.9392 -2.0016 0.9731
4.0568 5.0882 -2.0016 0.9731
3.4860 5.4950 -2.0016 0.9731
3.0825 5.7311 -2.0016 0.9731
2.8747 5.8381 -2.0016 0.9731
2.6631 5.9376 -2.0016 0.9731
2.2300 6.1135 -2.0016 0.9731
2.0090 6.1896 -2.0016 0.9731
1.7854 6.2578 -2.0016 0.9731
1.3316 6.3698 -2.0016 0.9731
1.1019 6.4135 -2.0016 0.9731
0.8708 6.4489 -2.0016 0.9731
0.4056 6.4948 -2.0016 0.9731
0.1721 6.5052 -2.0016 0.9731
-0.2953 6.5008 -2.0016 0.9731
-1.2233 6.3915 -2.0016 0.9731
-1.6789 6.2872 -2.0016 0.9731
-1.9037 6.2228 -2.0016 0.9731
-2.1259 6.1504 -2.0016 0.9731
-2.3455 6.0701 -2.0016 0.9731
-2.5620 5.9819 -2.0016 0.9731
-3.3922 5.5534 -2.0016 0.9731
-3.5895 5.4280 -2.0016 0.9731
-3.7821 5.2955 -2.0016 0.9731
-3.9699 5.1563 -2.0016 0.9731
-4.3298 4.8580 -2.0016 0.9731
-4.5015 4.6993 -2.0016 0.9731
-4.6674 4.5346 -2.0016 0.9731
-4.9809 4.1878 -2.0016 0.9731
-5.1281 4.0062 -2.0016 0.9731
-5.2687 3.8195 -2.0016 0.9731
-5.5293 3.4314 -2.0016 0.9731
-5.9637 2.6042 -2.0016 0.9731
-6.0534 2.3883 -2.0016 0.9731
-6.1352 2.1694 -2.0016 0.9731
-6.2092 1.9476 -2.0016 0.9731
-6.3827 1.2684 -2.0016 0.9731
-6.5063 -0.1261 -2.0016 0.9731
-6.3790 -1.2865 -2.0016 0.9731
-6.2702 -1.7411 -2.0016 0.9731
-6.2036 -1.9652 -2.0016 0.9731
-6.1291 -2.1868 -2.0016 0.9731
-5.6352 -2.2419 -1.8654 0.9749
-5.3372 -2.8222 -1.8570 0.9751
-5.2324 -3.0121 -1.8570 0.9751
-5.0026 -3.3799 -1.8570 0.9751
-4.8780 -3.5574 -1.8570 0.9751
-4.4671 -4.0615 -1.8570 0.9751
-4.3183 -4.2193 -1.8570 0.9751
-4.0043 -4.5184 -1.8570 0.9751
-3.8394 -4.6594 -1.8570 0.9751
-3.4950 -4.9230 -1.8570 0.9751
-2.5592 -5.4682 -1.8570 0.9751
-1.6611 -6.2919 -2.0016 0.9731
-1.4340 -6.3475 -2.0016 0.9731
-0.9746 -6.4341 -2.0016 0.9731
0.5229 -5.5620 -1.8570 0.9767
1.5082 -5.3790 -1.8570 0.9767
1.8905 -5.2569 -1.8570 0.9767
2.0781 -5.1856 -1.8570 0.9767
2.2630 -5.1076 -1.8570 0.9767
2.1647 -4.0691 -1.5321 0.9808
2.9711 -4.7309 -1.8570 0.9767
3.1391 -4.6211 -1.8570 0.9767
3.3031 -4.5054 -1.8570 0.9767
3.8997 -4.5881 -2.0016 0.9749
4.2190 -4.2963 -2.0016 0.9749
4.3706 -4.1420 -2.0016 0.9749
4.5165 -3.9823 -2.0016 0.9749
4.7907 -3.6478 -2.0016 0.9749
4.9187 -3.4734 -2.0016 0.9749
5.0402 -3.2945 -2.0016 0.9749
5.1553 -3.1113 -2.0016 0.9749
5.3654 -2.7332 -2.0016 0.9749
5.4601 -2.5387 -2.0016 0.9749
5.7015 -1.9367 -2.0016 0.9749
5.7674 -1.7307 -2.0016 0.9749
5.8258 -1.5224 -2.0016 0.9749
5.8767 -1.3122 -2.0016 0.9749
5.9201 -1.1002 -2.0016 0.9749
5.9558 -0.8869 -2.0016 0.9749
5.9838 -0.6724 -2.0016 0.9749
6.0184 0.1914 -2.0016 0.9749
5.9891 0.6230 -2.0016 0.9749
5.7815 1.6830 -2.0016 0.9749
5.7173 1.8896 -2.0016 0.9749
5.6457 2.0937 -2.0016 0.9749
5.5669 2.2951 -2.0016 0.9749
4.9472 3.4327 -2.0016 0.9749
4.8207 3.6082 -2.0016 0.9749
4.6880 3.7790 -2.0016 0.9749
4.0985 4.4114 -2.0016 0.9749
3.9374 4.5557 -2.0016 0.9749
3.6002 4.8266 -2.0016 0.9749
3.4245 4.9528 -2.0016 0.9749
3.2444 5.0726 -2.0016 0.9749
3.0601 5.1859 -2.0016 0.9749
2.8719 5.2925 -2.0016 0.9749
1.8801 5.7204 -2.0016 0.9749
1.0415 5.9307 -2.0016 0.9749
0.8279 5.9643 -2.0016 0.9749
0.3976 6.0083 -2.0016 0.9749
0.1815 6.0187 -2.0016 0.9749
-0.2510 6.0162 -2.0016 0.9749
-0.4670 6.0033 -2.0016 0.9749
-0.6823 5.9827 -2.0016 0.9749
-1.9461 5.6983 -2.0016 0.9749
-2.1495 5.6247 -2.0016 0.9749
-2.3502 5.5439 -2.0016 0.9749
-3.4815 4.9129 -2.0016 0.9749
-3.6557 4.7847 -2.0016 0.9749
-4.3032 4.2119 -2.0016 0.9749
-4.5945 3.8921 -2.0016 0.9749
-4.7313 3.7245 -2.0016 0.9749
-5.2159 3.0086 -2.0016 0.9749
-5.5093 2.4301 -2.0016 0.9749
-5.5930 2.2306 -2.0016 0.9749
-5.6695 2.0283 -2.0016 0.9749
-5.7387 1.8234 -2.0016 0.9749
-5.8005 1.6161 -2.0016 0.9749
-5.9407 0.9827 -2.0016 0.9749
-6.0202 0.1219 -2.0016 0.9749
-6.0134 -0.3106 -2.0016 0.9749
-5.9984 -0.5264 -2.0016 0.9749
-5.9756 -0.7415 -2.0016 0.9749
-5.9451 -0.9557 -2.0016 0.9749
-5.8078 -1.5896 -2.0016 0.9749
-5.7470 -1.7972 -2.0016 0.9749
-5.6031 -2.2051 -2.0016 0.9749
-5.1458 -2.2418 -1.8658 0.9766
-4.8518 -2.7692 -1.8570 0.9767
-4.7493 -2.9417 -1.8570 0.9767
-4.6405 -3.1104 -1.8570 0.9767
-4.5258 -3.2750 -1.8570 0.9767
-4.4053 -3.4355 -1.8570 0.9767
-4.1473 -3.7429 -1.8570 0.9767
-4.0102 -3.8894 -1.8570 0.9767
-3.5685 -4.2982 -1.8570 0.9767
-3.4119 -4.4236 -1.8570 0.9767
-3.2508 -4.5433 -1.8570 0.9767
-3.0855 -4.6571 -1.8570 0.9767
-2.9162 -4.7649 -1.8570 0.9767
-2.7432 -4.8666 -1.8570 0.9767
-2.5666 -4.9620 -1.8570 0.9767
-2.2038 -5.1334 -1.8570 0.9767
-1.6388 -5.3407 -1.8570 0.9767
-1.2512 -5.4446 -1.8570 0.9767
-0.8571 -5.5203 -1.8570 0.9767
-0.2583 -5.5805 -1.8570 0.9767
0.1429 -5.5847 -1.8570 0.9767
0.7438 -5.5440 -1.8594 0.9767
0.9412 -5.5066 -1.8570 0.9767
1.3341 -5.4248 -1.8570 0.9767
1.5281 -5.3734 -1.8570 0.9767
2.0972 -5.1779 -1.8570 0.9767
2.1839 -4.0687 -1.5350 0.9807
2.3740 -4.0653 -1.5649 0.9804
2.9886 -4.7199 -1.8570 0.9767
3.1562 -4.6095 -1.8570 0.9767
3.3248 -4.5001 -1.8598 0.9767
3.4789 -4.3710 -1.8570 0.9767
3.9166 -4.5736 -2.0016 0.9749
4.0783 -4.4300 -2.0016 0.9749
4.2348 -4.2807 -2.0016 0.9749
4.5312 -3.9656 -2.0016 0.9749
4.6707 -3.8003 -2.0016 0.9749
5.0524 -3.2758 -2.0016 0.9749
5.1668 -3.0922 -2.0016 0.9749
5.2745 -2.9047 -2.0016 0.9749
5.3754 -2.7134 -2.0016 0.9749
5.4694 -2.5185 -2.0016 0.9749
5.7737 -1.7093 -2.0016 0.9749
5.8815 -1.2904 -2.0016 0.9749
6.0057 -0.4349 -2.0016 0.9749
6.0175 -0.2189 -2.0016 0.9749
6.0214 -0.0026 -2.0016 0.9749
6.0176 0.2137 -2.0016 0.9749
6.0061 0.4297 -2.0016 0.9749
5.9868 0.6451 -2.0016 0.9749
5.9250 1.0733 -2.0016 0.9749
5.7752 1.7044 -2.0016 0.9749
5.7102 1.9107 -2.0016 0.9749
5.5584 2.3157 -2.0016 0.9749
5.3778 2.7087 -2.0016 0.9749
5.2770 2.9001 -2.0016 0.9749
5.0552 3.2715 -2.0016 0.9749
4.9344 3.4509 -2.0016 0.9749
4.8073 3.6260 -2.0016 0.9749
4.3894 4.1220 -2.0016 0.9749
3.9205 4.5703 -2.0016 0.9749
3.0409 5.1972 -2.0016 0.9749
2.8523 5.3030 -2.0016 0.9749
2.6600 5.4021 -2.0016 0.9749
2.4642 5.4941 -2.0016 0.9749
2.0635 5.6568 -2.0016 0.9749
1.6521 5.7904 -2.0016 0.9749
1.0196 5.9345 -2.0016 0.9749
0.3753 6.0097 -2.0016 0.9749
0.1593 6.0193 -2.0016 0.9749
-0.0571 6.0212 -2.0016 0.9749
-0.9187 5.9509 -2.0016 0.9749
-2.3706 5.5351 -2.0016 0.9749
-2.5679 5.4464 -2.0016 0.9749
-3.4997 4.9000 -2.0016 0.9749
-3.8424 4.6361 -2.0016 0.9749
-4.1653 4.3483 -2.0016 0.9749
-4.3188 4.1959 -2.0016 0.9749
-4.4667 4.0381 -2.0016 0.9749
-4.8752 3.5342 -2.0016 0.9749
-4.9990 3.3568 -2.0016 0.9749
-5.1163 3.1751 -2.0016 0.9749
-5.4281 2.6063 -2.0016 0.9749
-5.5183 2.4097 -2.0016 0.9749
-5.6012 2.2099 -2.0016 0.9749
-5.7454 1.8021 -2.0016 0.9749
-5.8065 1.5946 -2.0016 0.9749
-5.9415 -0.9776 -2.0016 0.9749
-5.8560 -1.4017 -2.0016 0.9749
-5.7403 -1.8184 -2.0016 0.9749
-5.5752 -2.2180 -1.9945 0.9750
-5.0292 -2.4324 -1.8570 0.9767
-4.8416 -2.7871 -1.8570 0.9767
-4.6290 -3.1275 -1.8570 0.9767
-4.3925 -3.4517 -1.8570 0.9767
-4.2657 -3.6073 -1.8570 0.9767
-4.1334 -3.7582 -1.8570 0.9767
-3.8530 -4.0452 -1.8570 0.9767
-3.5526 -4.3113 -1.8570 0.9767
-2.8986 -4.7757 -1.8570 0.9767
-2.3681 -5.0598 -1.8570 0.9767
-2.1848 -5.1415 -1.8570 0.9767
-1.9987 -5.2167 -1.8570 0.9767
-1.8101 -5.2851 -1.8570 0.9767
-1.6191 -5.3467 -1.8570 0.9767
-0.8367 -5.5235 -1.8570 0.9767
0.1137 -5.1915 -1.8570 0.9782
0.4861 -5.1700 -1.8570 0.9782
0.6715 -5.1492 -1.8570 0.9782
1.2214 -5.0471 -1.8570 0.9782
1.4019 -5.0000 -1.8570 0.9782
1.5806 -4.9464 -1.8570 0.9782
1.7573 -4.8864 -1.8570 0.9782
1.9316 -4.8202 -1.8570 0.9782
2.1035 -4.7477 -1.8570 0.9782
2.0464 -4.2043 -1.6721 0.9803
2.1570 -4.0546 -1.6424 0.9807
2.3427 -4.0460 -1.6719 0.9803
2.5205 -4.0133 -1.6948 0.9801
2.9179 -4.2955 -1.8570 0.9782
3.2187 -4.0749 -1.8570 0.9782
3.3630 -3.9567 -1.8570 0.9782
4.4531 -3.3907 -2.0016 0.9765
4.5720 -3.2286 -2.0016 0.9765
4.6850 -3.0623 -2.0016 0.9765
4.7920 -2.8921 -2.0016 0.9765
4.8928 -2.7181 -2.0016 0.9765
4.9873 -2.5406 -2.0016 0.9765
5.1568 -2.1760 -2.0016 0.9765
5.2997 -1.8002 -2.0016 0.9765
5.4153 -1.4151 -2.0016 0.9765
5.5360 -0.8244 -2.0016 0.9765
5.5809 -0.4248 -2.0016 0.9765
5.5970 -0.0231 -2.0016 0.9765
5.5843 0.3788 -2.0016 0.9765
5.5671 0.5791 -2.0016 0.9765
5.5111 0.9773 -2.0016 0.9765
5.3144 1.7564 -2.0016 0.9765
5.2479 1.9461 -2.0016 0.9765
5.0946 2.3179 -2.0016 0.9765
5.0081 2.4993 -2.0016 0.9765
4.8157 2.8524 -2.0016 0.9765
4.3576 3.5127 -2.0016 0.9765
4.0942 3.8164 -2.0016 0.9765
3.8097 4.1005 -2.0016 0.9765
3.5055 4.3634 -2.0016 0.9765
3.3465 4.4865 -2.0016 0.9765
3.0158 4.7152 -2.0016 0.9765
2.6695 4.9195 -2.0016 0.9765
2.3094 5.0984 -2.0016 0.9765
1.9375 5.2511 -2.0016 0.9765
1.3614 5.4290 -2.0016 0.9765
1.1655 5.4744 -2.0016 0.9765
0.7695 5.5439 -2.0016 0.9765
0.5699 5.5680 -2.0016 0.9765
-0.2333 5.5922 -2.0016 0.9765
-0.6342 5.5610 -2.0016 0.9765
-1.0318 5.5012 -2.0016 0.9765
-1.2287 5.4606 -2.0016 0.9765
-1.4240 5.4129 -2.0016 0.9765
-1.8090 5.2967 -2.0016 0.9765
-2.3682 5.0714 -2.0016 0.9765
-3.0700 4.6800 -2.0016 0.9765
-3.2362 4.5667 -2.0016 0.9765
-4.1380 3.7688 -2.0016 0.9765
-4.3979 3.4621 -2.0016 0.9765
-4.5194 3.3019 -2.0016 0.9765
-4.7448 2.9689 -2.0016 0.9765
-4.8484 2.7966 -2.0016 0.9765
-5.0366 2.4413 -2.0016 0.9765
-5.1210 2.2588 -2.0016 0.9765
-5.2700 1.8854 -2.0016 0.9765
-5.3343 1.6949 -2.0016 0.9765
-5.5221 0.9135 -2.0016 0.9765
-5.5513 0.7146 -2.0016 0.9765
-5.5734 0.5147 -2.0016 0.9765
-5.5964 -0.0878 -2.0016 0.9765
-5.5757 -0.4893 -2.0016 0.9765
-5.5545 -0.6893 -2.0016 0.9765
-5.4481 -1.2827 -2.0016 0.9765
-5.3985 -1.4776 -2.0016 0.9765
-5.3420 -1.6705 -2.0016 0.9765
-5.2785 -1.8613 -2.0016 0.9765
-5.2083 -2.0497 -2.0016 0.9765
-4.5995 -2.4104 -1.8570 0.9782
-4.4146 -2.7344 -1.8570 0.9782
-4.0948 -3.1934 -1.8570 0.9782
-3.9775 -3.3384 -1.8570 0.9782
-3.7276 -3.6153 -1.8570 0.9782
-3.5953 -3.7469 -1.8570 0.9782
-3.4584 -3.8736 -1.8570 0.9782
-2.3858 -4.6123 -1.8570 0.9782
-2.0485 -4.7717 -1.8570 0.9782
-1.5233 -4.9643 -1.8570 0.9782
-0.6119 -5.1566 -1.8570 0.9782
-0.4263 -5.1753 -1.8570 0.9782
0.6905 -5.1467 -1.8570 0.9782
0.8749 -5.1186 -1.8570 0.9782
1.0582 -5.0838 -1.8570 0.9782
1.2401 -5.0425 -1.8570 0.9782
1.4204 -4.9948 -1.8570 0.9782
2.0527 -4.1778 -1.6646 0.9804
4.0768 -3.8350 -2.0016 0.9765
4.2119 -3.6861 -2.0016 0.9765
4.3415 -3.5325 -2.0016 0.9765
4.5839 -3.2117 -2.0016 0.9765
4.8027 -2.8743 -2.0016 0.9765
4.9028 -2.7000 -2.0016 0.9765
5.1648 -2.1569 -2.0016 0.9765
5.2389 -1.9700 -2.0016 0.9765
5.3063 -1.7806 -2.0016 0.9765
5.3668 -1.5889 -2.0016 0.9765
5.5644 -0.6045 -2.0016 0.9765
5.5825 -0.4042 -2.0016 0.9765
5.5828 0.3994 -2.0016 0.9765
5.5649 0.5997 -2.0016 0.9765
5.5397 0.7992 -2.0016 0.9765
5.5075 0.9976 -2.0016 0.9765
5.4681 1.1948 -2.0016 0.9765
5.4216 1.3904 -2.0016 0.9765
5.1666 2.1525 -2.0016 0.9765
5.0860 2.3367 -2.0016 0.9765
4.9051 2.6958 -2.0016 0.9765
4.6989 3.0409 -2.0016 0.9765
4.4685 3.3704 -2.0016 0.9765
4.2150 3.6825 -2.0016 0.9765
3.9398 3.9756 -2.0016 0.9765
3.3299 4.4988 -2.0016 0.9765
2.9983 4.7263 -2.0016 0.9765
2.8266 4.8309 -2.0016 0.9765
2.6513 4.9293 -2.0016 0.9765
2.2906 5.1069 -2.0016 0.9765
2.1057 5.1859 -2.0016 0.9765
1.9180 5.2582 -2.0016 0.9765
0.9478 5.5163 -2.0016 0.9765
0.7490 5.5467 -2.0016 0.9765
0.5493 5.5701 -2.0016 0.9765
0.1480 5.5951 -2.0016 0.9765
-0.4547 5.5786 -2.0016 0.9765
-0.6548 5.5587 -2.0016 0.9765
-1.0521 5.4973 -2.0016 0.9765
-1.4440 5.4076 -2.0016 0.9765
-1.6373 5.3522 -2.0016 0.9765
-2.2036 5.1451 -2.0016 0.9765
-2.3869 5.0626 -2.0016 0.9765
-2.5672 4.9736 -2.0016 0.9765
-2.7442 4.8782 -2.0016 0.9765
-2.9177 4.7765 -2.0016 0.9765
-3.2530 4.5547 -2.0016 0.9765
-3.4145 4.4349 -2.0016 0.9765
-3.7241 4.1784 -2.0016 0.9765
-4.0144 3.9002 -2.0016 0.9765
-4.1519 3.7535 -2.0016 0.9765
-4.2841 3.6020 -2.0016 0.9765
-4.4107 3.4458 -2.0016 0.9765
-4.8587 2.7786 -2.0016 0.9765
-4.9553 2.6023 -2.0016 0.9765
-5.0456 2.4227 -2.0016 0.9765
-5.1294 2.2399 -2.0016 0.9765
-5.2065 2.0542 -2.0016 0.9765
-5.2769 1.8659 -2.0016 0.9765
-5.4897 1.0909 -2.0016 0.9765
-5.5752 0.4941 -2.0016 0.9765
-5.5894 0.2935 -2.0016 0.9765
-5.5963 0.0926 -2.0016 0.9765
-5.5960 -0.1085 -2.0016 0.9765
-5.5738 -0.5099 -2.0016 0.9765
-5.5519 -0.7098 -2.0016 0.9765
-5.4433 -1.3029 -2.0016 0.9765
-5.3930 -1.4975 -2.0016 0.9765
-5.3358 -1.6903 -2.0016 0.9765
-5.2716 -1.8808 -2.0016 0.9765
-4.6747 -2.2609 -1.8570 0.9782
-4.3028 -2.9071 -1.8570 0.9782
-3.7142 -3.6291 -1.8570 0.9782
-3.5814 -3.7601 -1.8570 0.9782
-3.3023 -4.0075 -1.8570 0.9782
-3.1562 -4.1235 -1.8570 0.9782
-2.8520 -4.3395 -1.8570 0.9782
-2.5331 -4.5330 -1.8570 0.9782
-2.3687 -4.6211 -1.8570 0.9782
-2.0308 -4.7792 -1.8570 0.9782
-1.8579 -4.8491 -1.8570 0.9782
-1.6825 -4.9127 -1.8570 0.9782
-1.5050 -4.9699 -1.8570 0.9782
-1.1443 -5.0651 -1.8570 0.9782
-0.9616 -5.1030 -1.8570 0.9782
-0.7777 -5.1342 -1.8570 0.9782
0.1061 -4.8446 -1.8570 0.9795
0.2800 -4.8377 -1.8570 0.9795
0.9699 -4.7477 -1.8570 0.9795
1.1398 -4.7098 -1.8570 0.9795
1.6398 -4.5599 -1.8570 0.9795
1.8025 -4.4980 -1.8570 0.9795
1.9629 -4.4304 -1.8570 0.9795
2.1280 -4.0000 -1.7363 0.9808
2.3164 -4.0006 -1.7715 0.9804
2.5164 -4.0069 -1.8132 0.9799
3.2688 -3.5771 -1.8570 0.9795
3.7910 -3.5928 -2.0016 0.9779
3.9176 -3.4543 -2.0016 0.9779
4.0392 -3.3113 -2.0016 0.9779
4.1555 -3.1641 -2.0016 0.9779
4.3719 -2.8577 -2.0016 0.9779
4.4718 -2.6988 -2.0016 0.9779
4.6540 -2.3708 -2.0016 0.9779
4.8121 -2.0306 -2.0016 0.9779
5.0533 -1.3205 -2.0016 0.9779
5.0975 -1.1382 -2.0016 0.9779
5.1351 -0.9543 -2.0016 0.9779
5.1661 -0.7693 -2.0016 0.9779
5.1904 -0.5832 -2.0016 0.9779
5.2080 -0.3964 -2.0016 0.9779
5.2188 -0.2091 -2.0016 0.9779
5.2230 -0.0216 -2.0016 0.9779
5.2111 0.3535 -2.0016 0.9779
5.1950 0.5404 -2.0016 0.9779
5.1722 0.7266 -2.0016 0.9779
5.1428 0.9119 -2.0016 0.9779
5.1067 1.0961 -2.0016 0.9779
5.0641 1.2788 -2.0016 0.9779
4.7541 2.1630 -2.0016 0.9779
4.6734 2.3323 -2.0016 0.9779
4.4939 2.6618 -2.0016 0.9779
4.2912 2.9775 -2.0016 0.9779
3.9460 3.4218 -2.0016 0.9779
3.8206 3.5614 -2.0016 0.9779
3.5551 3.8264 -2.0016 0.9779
3.4153 3.9517 -2.0016 0.9779
2.6544 4.4983 -2.0016 0.9779
2.3246 4.6772 -2.0016 0.9779
1.2704 5.0662 -2.0016 0.9779
0.5318 5.1959 -2.0016 0.9779
0.1574 5.2207 -2.0016 0.9779
-0.0302 5.2229 -2.0016 0.9779
-0.2178 5.2185 -2.0016 0.9779
-0.4050 5.2073 -2.0016 0.9779
-1.8645 4.8789 -2.0016 0.9779
-2.0385 4.8088 -2.0016 0.9779
-2.3785 4.6500 -2.0016 0.9779
-2.7062 4.4673 -2.0016 0.9779
-2.8649 4.3672 -2.0016 0.9779
-3.1710 4.1503 -2.0016 0.9779
-3.3180 4.0337 -2.0016 0.9779
-3.7327 3.6534 -2.0016 0.9779
-3.8615 3.5170 -2.0016 0.9779
-4.2174 3.0812 -2.0016 0.9779
-4.3253 2.9277 -2.0016 0.9779
-4.5243 2.6097 -2.0016 0.9779
-4.7000 2.2781 -2.0016 0.9779
-4.8514 1.9349 -2.0016 0.9779
-5.0314 1.4018 -2.0016 0.9779
-5.1191 1.0370 -2.0016 0.9779
-5.1803 0.6668 -2.0016 0.9779
-5.2148 0.2932 -2.0016 0.9779
-5.2220 0.1057 -2.0016 0.9779
-5.2161 -0.2694 -2.0016 0.9779
-5.1237 -1.0136 -2.0016 0.9779
-5.0840 -1.1970 -2.0016 0.9779
-5.0377 -1.3788 -2.0016 0.9779
-4.2924 -2.2495 -1.8571 0.9795
-4.2085 -2.4020 -1.8570 0.9795
-3.9257 -2.8408 -1.8570 0.9795
-3.8212 -2.9799 -1.8570 0.9795
-3.7117 -3.1153 -1.8570 0.9795
-3.5974 -3.2466 -1.8570 0.9795
-3.3550 -3.4964 -1.8570 0.9795
-3.2273 -3.6147 -1.8570 0.9795
-3.0954 -3.7283 -1.8570 0.9795
-2.9595 -3.8370 -1.8570 0.9795
-2.8197 -3.9409 -1.8570 0.9795
-2.5296 -4.1331 -1.8570 0.9795
-2.3795 -4.2213 -1.8570 0.9795
-2.2263 -4.3040 -1.8570 0.9795
-1.9116 -4.4528 -1.8570 0.9795
-1.7504 -4.5186 -1.8570 0.9795
-0.5710 -4.8120 -1.8570 0.9795
0.2979 -4.8366 -1.8570 0.9795
0.9875 -4.7441 -1.8570 0.9795
1.1572 -4.7055 -1.8570 0.9795
1.4920 -4.6103 -1.8570 0.9795
1.8192 -4.4913 -1.8570 0.9795
1.9793 -4.4231 -1.8570 0.9795
2.1471 -4.0001 -1.7398 0.9807
2.7377 -3.9983 -1.8570 0.9795
2.8795 -3.8974 -1.8570 0.9795
3.0176 -3.7915 -1.8570 0.9795
3.4080 -3.4449 -1.8570 0.9795
3.8043 -3.5787 -2.0016 0.9779
4.2776 -2.9970 -2.0016 0.9779
4.6627 -2.3536 -2.0016 0.9779
4.7442 -2.1846 -2.0016 0.9779
4.8196 -2.0128 -2.0016 0.9779
4.8888 -1.8384 -2.0016 0.9779
4.9517 -1.6616 -2.0016 0.9779
5.0582 -1.3018 -2.0016 0.9779
5.1017 -1.1193 -2.0016 0.9779
5.1689 -0.7502 -2.0016 0.9779
5.2230 -0.0022 -2.0016 0.9779
5.2097 0.3727 -2.0016 0.9779
5.1930 0.5596 -2.0016 0.9779
5.1695 0.7457 -2.0016 0.9779
5.1027 1.1149 -2.0016 0.9779
5.0094 1.4784 -2.0016 0.9779
4.8904 1.8342 -2.0016 0.9779
4.7461 2.1805 -2.0016 0.9779
4.6647 2.3496 -2.0016 0.9779
4.4840 2.6784 -2.0016 0.9779
4.2802 2.9934 -2.0016 0.9779
4.1699 3.1452 -2.0016 0.9779
3.9333 3.4364 -2.0016 0.9779
3.8074 3.5755 -2.0016 0.9779
3.4007 3.9643 -2.0016 0.9779
2.6377 4.5081 -2.0016 0.9779
2.3073 4.6858 -2.0016 0.9779
1.9649 4.8393 -2.0016 0.9779
1.7899 4.9068 -2.0016 0.9779
1.6125 4.9679 -2.0016 0.9779
1.0687 5.1125 -2.0016 0.9779
0.8844 5.1476 -2.0016 0.9779
0.6990 5.1761 -2.0016 0.9779
0.3256 5.2129 -2.0016 0.9779
-0.2370 5.2177 -2.0016 0.9779
-0.4243 5.2058 -2.0016 0.9779
-0.6110 5.1872 -2.0016 0.9779
-0.7969 5.1619 -2.0016 0.9779
-0.9818 5.1299 -2.0016 0.9779
-1.7063 4.9365 -2.0016 0.9779
-2.2274 4.7243 -2.0016 0.9779
-2.3957 4.6412 -2.0016 0.9779
-2.5608 4.5522 -2.0016 0.9779
-3.1863 4.1385 -2.0016 0.9779
-3.4752 3.8991 -2.0016 0.9779
-3.6130 3.7718 -2.0016 0.9779
-3.8744 3.5027 -2.0016 0.9779
-4.1159 3.2155 -2.0016 0.9779
-4.3361 2.9117 -2.0016 0.9779
-4.4379 2.7541 -2.0016 0.9779
-4.5340 2.5929 -2.0016 0.9779
-4.6242 2.4284 -2.0016 0.9779
-4.8585 1.9169 -2.0016 0.9779
-4.9243 1.7412 -2.0016 0.9779
-4.9836 1.5632 -2.0016 0.9779
-5.0830 1.2014 -2.0016 0.9779
-5.1229 1.0180 -2.0016 0.9779
-5.1827 0.6477 -2.0016 0.9779
-5.2026 0.4611 -2.0016 0.9779
-5.2223 0.0864 -2.0016 0.9779
-5.1537 -0.8480 -2.0016 0.9779
-5.1199 -1.0326 -2.0016 0.9779
-4.8531 -1.9307 -2.0016 0.9779
-4.7806 -2.1038 -2.0016 0.9779
-4.2837 -2.2652 -1.8570 0.9795
-4.1996 -2.4176 -1.8570 0.9795
-4.0152 -2.7128 -1.8570 0.9795
-3.7001 -3.1290 -1.8570 0.9795
-3.4660 -3.3865 -1.8570 0.9795
-2.9453 -3.8480 -1.8570 0.9795
-2.5143 -4.1424 -1.8570 0.9795
-2.3638 -4.2301 -1.8570 0.9795
-2.2104 -4.3123 -1.8570 0.9795
-2.0541 -4.3889 -1.8570 0.9795
-1.5701 -4.5843 -1.8570 0.9795
-1.2369 -4.6852 -1.8570 0.9795
-1.0678 -4.7266 -1.8570 0.9795
0.2622 -4.5297 -1.8570 0.9806
0.4247 -4.5173 -1.8570 0.9806
0.9082 -4.4454 -1.8570 0.9806
1.2250 -4.3688 -1.8570 0.9806
1.3811 -4.3219 -1.8570 0.9806
1.5354 -4.2696 -1.8570 0.9806
2.1280 -4.0000 -1.8544 0.9806
2.6827 -3.6592 -1.8570 0.9806
2.8124 -3.5605 -1.8570 0.9806
3.0607 -3.3494 -1.8570 0.9806
3.1791 -3.2373 -1.8570 0.9806
3.2933 -3.1210 -1.8570 0.9806
3.7820 -3.1005 -2.0016 0.9791
3.8909 -2.9627 -2.0016 0.9791
3.9948 -2.8210 -2.0016 0.9791
4.0936 -2.6757 -2.0016 0.9791
4.1871 -2.5270 -2.0016 0.9791
4.4346 -2.0619 -2.0016 0.9791
4.6306 -1.5729 -2.0016 0.9791
4.8082 -0.8936 -2.0016 0.9791
4.8372 -0.7203 -2.0016 0.9791
4.8599 -0.5461 -2.0016 0.9791
4.8764 -0.3712 -2.0016 0.9791
4.8905 -0.0202 -2.0016 0.9791
4.8880 0.1555 -2.0016 0.9791
4.8154 0.8539 -2.0016 0.9791
4.7417 1.1974 -2.0016 0.9791
4.6956 1.3669 -2.0016 0.9791
4.5854 1.7005 -2.0016 0.9791
4.5213 1.8641 -2.0016 0.9791
4.2946 2.3396 -2.0016 0.9791
4.0180 2.7880 -2.0016 0.9791
3.9153 2.9305 -2.0016 0.9791
3.8075 3.0692 -2.0016 0.9791
3.6948 3.2040 -2.0016 0.9791
3.4552 3.4610 -2.0016 0.9791
3.3287 3.5828 -2.0016 0.9791
3.0629 3.8126 -2.0016 0.9791
2.7813 4.0226 -2.0016 0.9791
2.1766 4.3794 -2.0016 0.9791
2.0179 4.4548 -2.0016 0.9791
1.8566 4.5244 -2.0016 0.9791
1.6929 4.5882 -2.0016 0.9791
1.0184 4.7833 -2.0016 0.9791
0.8459 4.8168 -2.0016 0.9791
0.6724 4.8441 -2.0016 0.9791
0.4979 4.8651 -2.0016 0.9791
-0.0283 4.8904 -2.0016 0.9791
-0.7283 4.8360 -2.0016 0.9791
-0.9015 4.8067 -2.0016 0.9791
-1.2443 4.7296 -2.0016 0.9791
-1.4133 4.6818 -2.0016 0.9791
-1.5806 4.6280 -2.0016 0.9791
-2.0692 4.4312 -2.0016 0.9791
-2.2271 4.3540 -2.0016 0.9791
-3.4950 3.4208 -2.0016 0.9791
-4.1458 2.5941 -2.0016 0.9791
-4.2363 2.4435 -2.0016 0.9791
-4.4746 1.9737 -2.0016 0.9791
-2.0816 0.3444 -0.8635 0.9909
-1.9579 0.1808 -0.8047 0.9915
-1.9447 0.1093 -0.7972 0.9916
-1.9178 0.0388 -0.7851 0.9917
-1.9578 -0.1718 -0.8043 0.9915
-2.0434 -0.3285 -0.8470 0.9911
-4.7975 -0.9491 -2.0016 0.9791
-4.7170 -1.2911 -2.0016 0.9791
-4.6122 -1.6264 -2.0016 0.9791
-4.5508 -1.7910 -2.0016 0.9791
-4.4835 -1.9533 -2.0016 0.9791
-4.4105 -2.1130 -2.0016 0.9791
-3.9411 -2.2494 -1.8572 0.9806
-3.8689 -2.3964 -1.8626 0.9805
-3.7690 -2.5262 -1.8570 0.9806
-3.5779 -2.7902 -1.8570 0.9806
-3.4754 -2.9169 -1.8570 0.9806
-3.1414 -3.2738 -1.8570 0.9806
-3.0218 -3.3846 -1.8570 0.9806
-2.8983 -3.4909 -1.8570 0.9806
-2.5060 -3.7824 -1.8570 0.9806
-2.3685 -3.8700 -1.8570 0.9806
-2.2280 -3.9526 -1.8570 0.9806
-2.0846 -4.0300 -1.8570 0.9806
-1.9385 -4.1023 -1.8570 0.9806
-1.6390 -4.2309 -1.8570 0.9806
-1.1744 -4.3826 -1.8570 0.9806
-0.6961 -4.4835 -1.8570 0.9806
-0.0469 -4.5370 -1.8570 0.9806
0.1161 -4.5358 -1.8570 0.9806
0.2789 -4.5287 -1.8570 0.9806
0.6033 -4.4970 -1.8570 0.9806
0.9246 -4.4420 -1.8570 0.9806
1.2411 -4.3642 -1.8570 0.9806
1.3970 -4.3168 -1.8570 0.9806
1.7033 -4.2054 -1.8570 0.9806
2.1458 -3.9978 -1.8570 0.9806
2.5634 -3.7437 -1.8570 0.9806
2.8255 -3.5501 -1.8570 0.9806
2.9512 -3.4463 -1.8570 0.9806
3.1910 -3.2255 -1.8570 0.9806
3.7935 -3.0865 -2.0016 0.9791
3.9019 -2.9483 -2.0016 0.9791
4.0053 -2.8062 -2.0016 0.9791
4.2839 -2.3591 -2.0016 0.9791
4.3658 -2.2037 -2.0016 0.9791
4.4422 -2.0455 -2.0016 0.9791
4.5128 -1.8846 -2.0016 0.9791
4.5776 -1.7213 -2.0016 0.9791
4.6364 -1.5558 -2.0016 0.9791
4.8114 -0.8758 -2.0016 0.9791
4.8398 -0.7024 -2.0016 0.9791
4.8619 -0.5281 -2.0016 0.9791
4.8777 -0.3532 -2.0016 0.9791
4.8873 -0.1778 -2.0016 0.9791
4.8874 0.1736 -2.0016 0.9791
4.8624 0.5240 -2.0016 0.9791
4.6378 1.5518 -2.0016 0.9791
4.3677 2.2000 -2.0016 0.9791
4.1985 2.5079 -2.0016 0.9791
4.1057 2.6570 -2.0016 0.9791
4.0077 2.8028 -2.0016 0.9791
3.9044 2.9449 -2.0016 0.9791
3.6829 3.2176 -2.0016 0.9791
3.5650 3.3478 -2.0016 0.9791
3.3154 3.5951 -2.0016 0.9791
3.1842 3.7119 -2.0016 0.9791
3.0488 3.8239 -2.0016 0.9791
2.9095 3.9309 -2.0016 0.9791
2.7664 4.0328 -2.0016 0.9791
2.4698 4.2210 -2.0016 0.9791
2.1604 4.3875 -2.0016 0.9791
2.0014 4.4622 -2.0016 0.9791
1.8398 4.5312 -2.0016 0.9791
1.6759 4.5944 -2.0016 0.9791
1.3418 4.7028 -2.0016 0.9791
0.6545 4.8465 -2.0016 0.9791
0.3048 4.8810 -2.0016 0.9791
0.1293 4.8888 -2.0016 0.9791
-0.2220 4.8855 -2.0016 0.9791
-0.3973 4.8743 -2.0016 0.9791
-0.5721 4.8569 -2.0016 0.9791
-0.7462 4.8332 -2.0016 0.9791
-0.9193 4.8033 -2.0016 0.9791
-1.4306 4.6766 -2.0016 0.9791
-1.5977 4.6222 -2.0016 0.9791
-1.7627 4.5618 -2.0016 0.9791
-2.2431 4.3457 -2.0016 0.9791
-2.3978 4.2624 -2.0016 0.9791
-2.8424 3.9797 -2.0016 0.9791
-3.3830 3.5316 -2.0016 0.9791
-3.8539 3.0108 -2.0016 0.9791
-4.0601 2.7264 -2.0016 0.9791
-4.4818 1.9571 -2.0016 0.9791
-4.7159 1.2951 -2.0016 0.9791
-4.7594 1.1249 -2.0016 0.9791
-4.7967 0.9532 -2.0016 0.9791
-2.0505 0.3314 -0.8501 0.9911
-1.9528 0.2440 -0.8055 0.9915
-1.9425 0.1020 -0.7961 0.9916
-1.9171 -0.0372 -0.7848 0.9917
-1.9579 -0.1791 -0.8047 0.9915
-4.7562 -1.1384 -2.0016 0.9791
-4.6061 -1.6434 -2.0016 0.9791
-4.4762 -1.9698 -2.0016 0.9791
-3.8484 -2.4034 -1.8570 0.9806
-3.7596 -2.5401 -1.8570 0.9806
-3.5675 -2.8034 -1.8570 0.9806
-3.4646 -2.9298 -1.8570 0.9806
-3.3571 -3.0523 -1.8570 0.9806
-3.1293 -3.2854 -1.8570 0.9806
-2.6266 -3.6997 -1.8570 0.9806
-2.4920 -3.7917 -1.8570 0.9806
-2.2133 -3.9608 -1.8570 0.9806
-2.0697 -4.0377 -1.8570 0.9806
-1.7745 -4.1759 -1.8570 0.9806
-1.4701 -4.2925 -1.8570 0.9806
-0.8402 -4.4588 -1.8570 0.9806
-0.6796 -4.4861 -1.8570 0.9806
0.2462 -4.2538 -1.8570 0.9816
0.5510 -4.2251 -1.8570 0.9816
0.8529 -4.1747 -1.8570 0.9816
1.0023 -4.1414 -1.8570 0.9816
1.1503 -4.1027 -1.8570 0.9816
1.2970 -4.0587 -1.8570 0.9816
1.4419 -4.0095 -1.8570 0.9816
1.7260 -3.8957 -1.8570 0.9816
1.8648 -3.8312 -1.8570 0.9816
2.0012 -3.7617 -1.8570 0.9816
2.1350 -3.6874 -1.8570 0.9816
2.2661 -3.6083 -1.8570 0.9816
2.3943 -3.5246 -1.8570 0.9816
2.5193 -3.4364 -1.8570 0.9816
2.7595 -3.2466 -1.8570 0.9816
2.8743 -3.1454 -1.8570 0.9816
3.0927 -2.9310 -1.8570 0.9816
3.4448 -3.0374 -2.0016 0.9802
3.7516 -2.6492 -2.0016 0.9802
3.8443 -2.5128 -2.0016 0.9802
3.9321 -2.3731 -2.0016 0.9802
4.1645 -1.9363 -2.0016 0.9802
4.2314 -1.7855 -2.0016 0.9802
4.3486 -1.4771 -2.0016 0.9802
4.3989 -1.3200 -2.0016 0.9802
4.4823 -1.0008 -2.0016 0.9802
4.5154 -0.8392 -2.0016 0.9802
4.5426 -0.6765 -2.0016 0.9802
4.5794 -0.3486 -2.0016 0.9802
4.5680 0.4752 -2.0016 0.9802
4.4904 0.9638 -2.0016 0.9802
4.4096 1.2837 -2.0016 0.9802
4.2460 1.7505 -2.0016 0.9802
4.1093 2.0508 -2.0016 0.9802
4.0330 2.1971 -2.0016 0.9802
3.7733 2.6182 -2.0016 0.9802
3.1260 3.3646 -2.0016 0.9802
2.8764 3.5804 -2.0016 0.9802
2.6119 3.7776 -2.0016 0.9802
2.3340 3.9554 -2.0016 0.9802
2.1904 4.0367 -2.0016 0.9802
2.0440 4.1127 -2.0016 0.9802
1.4340 4.3630 -2.0016 0.9802
1.2764 4.4117 -2.0016 0.9802
1.1171 4.4547 -2.0016 0.9802
0.7944 4.5234 -2.0016 0.9802
0.4676 4.5688 -2.0016 0.9802
0.3032 4.5826 -2.0016 0.9802
-0.3562 4.5788 -2.0016 0.9802
-0.5204 4.5631 -2.0016 0.9802
-0.6840 4.5415 -2.0016 0.9802
-1.1685 4.4415 -2.0016 0.9802
-1.3273 4.3967 -2.0016 0.9802
-1.7925 4.2284 -2.0016 0.9802
-1.9432 4.1613 -2.0016 0.9802
-2.0914 4.0888 -2.0016 0.9802
-2.2369 4.0111 -2.0016 0.9802
-2.3796 3.9281 -2.0016 0.9802
-2.5191 3.8401 -2.0016 0.9802
-2.6554 3.7472 -2.0016 0.9802
-2.7883 3.6494 -2.0016 0.9802
-3.0431 3.4398 -2.0016 0.9802
-3.1647 3.3283 -2.0016 0.9802
-3.3954 3.0925 -2.0016 0.9802
-3.5043 2.9686 -2.0016 0.9802
-3.7084 2.7093 -2.0016 0.9802
-3.8033 2.5744 -2.0016 0.9802
-3.8933 2.4361 -2.0016 0.9802
-4.1328 2.0032 -2.0016 0.9802
-4.2021 1.8535 -2.0016 0.9802
-1.5817 0.5026 -0.7233 0.9928
-1.5626 0.4354 -0.7069 0.9929
-1.5384 0.3696 -0.6895 0.9931
-1.5092 0.3057 -0.6711 0.9933
-1.5198 0.1956 -0.6678 0.9933
-1.5255 -0.0239 -0.6649 0.9934
-1.5295 -0.0790 -0.6675 0.9933
-1.5280 -0.1341 -0.6685 0.9933
-1.5211 -0.1887 -0.6680 0.9933
-1.5598 -0.4269 -0.7048 0.9930
-1.5796 -0.4940 -0.7213 0.9928
-4.0679 -2.1318 -2.0016 0.9802
-3.3600 -2.6203 -1.8570 0.9816
-3.2637 -2.7393 -1.8570 0.9816
-3.1632 -2.8547 -1.8570 0.9816
-3.0586 -2.9665 -1.8570 0.9816
-2.8378 -3.1784 -1.8570 0.9816
-2.7218 -3.2783 -1.8570 0.9816
-2.4794 -3.4652 -1.8570 0.9816
-2.3534 -3.5521 -1.8570 0.9816
-2.2243 -3.6343 -1.8570 0.9816
-2.0923 -3.7118 -1.8570 0.9816
-0.9543 -4.1527 -1.8570 0.9816
-0.6537 -4.2105 -1.8570 0.9816
-0.5021 -4.2312 -1.8570 0.9816
-0.3498 -4.2465 -1.8570 0.9816
-0.1970 -4.2564 -1.8570 0.9816
0.1090 -4.2595 -1.8570 0.9816
0.4145 -4.2407 -1.8570 0.9816
