ply
format ascii 1.0
element vertex 1597
property float32 x
property float32 y
property float32 z
property float32 I
end_header
-5.3923 4.5731 -2.0016 0.9710
-5.5532 4.3763 -2.0016 0.9710
-5.9920 3.7530 -2.0016 0.9710
-6.1231 3.5352 -2.0016 0.9710
-6.2462 3.3128 -2.0016 0.9710
-6.5666 2.6211 -2.0016 0.9710
-6.8106 1.8989 -2.0016 0.9710
-6.8744 1.6529 -2.0016 0.9710
-6.9754 1.1547 -2.0016 0.9710
-7.0124 0.9032 -2.0016 0.9710
-7.0403 0.6505 -2.0016 0.9710
-7.0695 -0.1112 -2.0016 0.9710
-7.0609 -0.3653 -2.0016 0.9710
-6.9356 -1.3735 -2.0016 0.9710
-6.8190 -1.8683 -2.0016 0.9710
-6.7475 -2.1122 -2.0016 0.9710
-6.3325 -2.2352 -1.9011 0.9725
-5.9146 -2.8366 -1.8570 0.9731
-5.4469 -3.6551 -1.8570 0.9731
-5.1703 -4.0370 -1.8570 0.9731
-4.8668 -4.3980 -1.8570 0.9731
-2.4755 -5.5066 -1.8570 0.9751
-2.0735 -5.6702 -1.8570 0.9751
-1.7901 -6.2564 -2.0016 0.9731
-1.3359 -6.3689 -2.0016 0.9731
-1.1061 -6.4128 -2.0016 0.9731
-0.6425 -6.4757 -2.0016 0.9731
-0.4093 -6.4946 -2.0016 0.9731
0.0584 -6.5072 -2.0016 0.9731
0.7586 -6.4631 -2.0016 0.9731
1.2210 -6.3919 -2.0016 0.9731
1.4500 -6.3439 -2.0016 0.9731
2.1245 -6.1509 -2.0016 0.9731
2.1749 -5.6321 -1.8570 0.9751
2.3760 -5.5502 -1.8570 0.9751
2.1127 -4.0941 -1.4170 0.9809
3.5894 -5.4280 -2.0016 0.9731
3.7822 -5.2955 -2.0016 0.9731
3.9701 -5.1561 -2.0016 0.9731
4.6681 -4.5338 -2.0016 0.9731
4.8281 -4.3631 -2.0016 0.9731
4.9818 -4.1867 -2.0016 0.9731
5.2698 -3.8180 -2.0016 0.9731
5.5305 -3.4295 -2.0016 0.9731
5.6502 -3.2285 -2.0016 0.9731
5.8675 -2.8142 -2.0016 0.9731
5.9649 -2.6014 -2.0016 0.9731
6.0546 -2.3853 -2.0016 0.9731
6.1364 -2.1661 -2.0016 0.9731
6.2761 -1.7196 -2.0016 0.9731
6.3339 -1.4929 -2.0016 0.9731
6.3835 -1.2643 -2.0016 0.9731
6.4578 -0.8023 -2.0016 0.9731
6.4825 -0.5697 -2.0016 0.9731
6.4972 0.3653 -2.0016 0.9731
6.4799 0.5986 -2.0016 0.9731
6.4542 0.8312 -2.0016 0.9731
6.4201 1.0627 -2.0016 0.9731
6.3272 1.5212 -2.0016 0.9731
6.2015 1.9719 -2.0016 0.9731
6.1267 2.1935 -2.0016 0.9731
6.0438 2.4123 -2.0016 0.9731
5.8549 2.8403 -2.0016 0.9731
5.7490 3.0490 -2.0016 0.9731
5.6357 3.2537 -2.0016 0.9731
5.2527 3.8415 -2.0016 0.9731
5.1112 4.0278 -2.0016 0.9731
4.8086 4.3846 -2.0016 0.9731
4.1305 5.0286 -2.0016 0.9731
3.7585 5.3123 -2.0016 0.9731
3.5651 5.4440 -2.0016 0.9731
3.3671 5.5686 -2.0016 0.9731
2.9583 5.7962 -2.0016 0.9731
2.0970 6.1603 -2.0016 0.9731
1.8742 6.2317 -2.0016 0.9731
1.6490 6.2951 -2.0016 0.9731
0.7297 6.4664 -2.0016 0.9731
0.4968 6.4885 -2.0016 0.9731
0.0293 6.5074 -2.0016 0.9731
-1.1347 6.4078 -2.0016 0.9731
-1.8180 6.2484 -2.0016 0.9731
-2.0414 6.1790 -2.0016 0.9731
-2.4801 6.0163 -2.0016 0.9731
-2.6948 5.9233 -2.0016 0.9731
-2.9060 5.8226 -2.0016 0.9731
-3.1134 5.7144 -2.0016 0.9731
-3.5159 5.4759 -2.0016 0.9731
-3.9003 5.2091 -2.0016 0.9731
-4.2645 4.9155 -2.0016 0.9731
-4.6066 4.5964 -2.0016 0.9731
-4.7689 4.4278 -2.0016 0.9731
-4.9249 4.2535 -2.0016 0.9731
-5.2178 3.8887 -2.0016 0.9731
-5.3542 3.6986 -2.0016 0.9731
-5.7213 3.1007 -2.0016 0.9731
-5.8291 2.8930 -2.0016 0.9731
-6.1835 2.0277 -2.0016 0.9731
-6.2524 1.8041 -2.0016 0.9731
-6.3132 1.5781 -2.0016 0.9731
-6.3659 1.3502 -2.0016 0.9731
-6.4103 1.1205 -2.0016 0.9731
-6.4937 0.4238 -2.0016 0.9731
-6.5047 0.1901 -2.0016 0.9731
-6.5073 -0.0438 -2.0016 0.9731
-6.4339 -0.9760 -2.0016 0.9731
-6.3946 -1.2067 -2.0016 0.9731
-6.2275 -1.8881 -2.0016 0.9731
-6.1557 -2.1107 -2.0016 0.9731
-5.2688 -2.9479 -1.8570 0.9751
-4.9208 -3.4980 -1.8570 0.9751
-3.7263 -4.7503 -1.8570 0.9751
-3.5531 -4.8812 -1.8570 0.9751
-3.3754 -5.0057 -1.8570 0.9751
-3.0070 -5.2353 -1.8570 0.9751
-2.8169 -5.3400 -1.8570 0.9751
-2.6231 -5.4378 -1.8570 0.9751
-2.4259 -5.5286 -1.8570 0.9751
-2.1799 -6.1315 -2.0016 0.9731
-1.9580 -6.2059 -2.0016 0.9731
-1.5071 -6.3306 -2.0016 0.9731
-0.5842 -6.4812 -2.0016 0.9731
-0.3508 -6.4980 -2.0016 0.9731
0.5841 -6.4812 -2.0016 0.9731
0.8167 -6.4560 -2.0016 0.9731
1.2785 -6.3807 -2.0016 0.9731
1.9580 -6.2059 -2.0016 0.9731
2.2255 -5.6123 -1.8570 0.9751
2.1541 -4.0837 -1.4201 0.9809
2.3437 -4.0807 -1.4474 0.9805
3.4418 -5.5228 -2.0016 0.9731
3.6381 -5.3955 -2.0016 0.9731
4.1978 -4.9725 -2.0016 0.9731
4.3739 -4.8184 -2.0016 0.9731
4.8672 -4.3195 -2.0016 0.9731
5.0193 -4.1417 -2.0016 0.9731
5.1649 -3.9586 -2.0016 0.9731
5.3039 -3.7704 -2.0016 0.9731
5.4360 -3.5773 -2.0016 0.9731
5.5611 -3.3796 -2.0016 0.9731
5.7895 -2.9713 -2.0016 0.9731
5.8926 -2.7612 -2.0016 0.9731
6.0758 -2.3307 -2.0016 0.9731
6.1556 -2.1108 -2.0016 0.9731
6.2275 -1.8882 -2.0016 0.9731
6.2914 -1.6631 -2.0016 0.9731
6.3471 -1.4359 -2.0016 0.9731
6.3946 -1.2068 -2.0016 0.9731
6.4874 -0.5113 -2.0016 0.9731
6.5073 -0.0439 -2.0016 0.9731
6.5047 0.1901 -2.0016 0.9731
6.3659 1.3501 -2.0016 0.9731
6.3132 1.5781 -2.0016 0.9731
6.2524 1.8040 -2.0016 0.9731
6.1835 2.0276 -2.0016 0.9731
6.1067 2.2485 -2.0016 0.9731
6.0219 2.4666 -2.0016 0.9731
5.9293 2.6815 -2.0016 0.9731
5.8291 2.8929 -2.0016 0.9731
5.7213 3.1006 -2.0016 0.9731
5.4838 3.5036 -2.0016 0.9731
5.3543 3.6985 -2.0016 0.9731
5.2179 3.8886 -2.0016 0.9731
5.0747 4.0736 -2.0016 0.9731
4.7689 4.4277 -2.0016 0.9731
4.4385 4.7589 -2.0016 0.9731
4.2645 4.9154 -2.0016 0.9731
3.9003 5.2091 -2.0016 0.9731
3.3169 5.5987 -2.0016 0.9731
2.6949 5.9233 -2.0016 0.9731
2.4802 6.0163 -2.0016 0.9731
2.2623 6.1016 -2.0016 0.9731
1.8181 6.2484 -2.0016 0.9731
1.5923 6.3097 -2.0016 0.9731
1.1348 6.4078 -2.0016 0.9731
0.9037 6.4444 -2.0016 0.9731
0.6715 6.4727 -2.0016 0.9731
-0.0292 6.5074 -2.0016 0.9731
-0.2631 6.5022 -2.0016 0.9731
-0.4967 6.4885 -2.0016 0.9731
-0.7296 6.4665 -2.0016 0.9731
-0.9616 6.4360 -2.0016 0.9731
-1.4216 6.3503 -2.0016 0.9731
-1.6489 6.2951 -2.0016 0.9731
-1.8741 6.2318 -2.0016 0.9731
-2.0969 6.1604 -2.0016 0.9731
-2.5341 5.9938 -2.0016 0.9731
-2.7480 5.8988 -2.0016 0.9731
-2.9582 5.7962 -2.0016 0.9731
-3.3670 5.5687 -2.0016 0.9731
-3.5650 5.4441 -2.0016 0.9731
-3.7584 5.3124 -2.0016 0.9731
-4.6478 4.5547 -2.0016 0.9731
-4.9630 4.2090 -2.0016 0.9731
-5.6356 3.2537 -2.0016 0.9731
-6.1266 2.1936 -2.0016 0.9731
-6.2015 1.9719 -2.0016 0.9731
-6.4542 0.8313 -2.0016 0.9731
-6.5061 0.1316 -2.0016 0.9731
-6.5067 -0.1024 -2.0016 0.9731
-6.4825 -0.5696 -2.0016 0.9731
-6.4578 -0.8023 -2.0016 0.9731
-6.4248 -1.0339 -2.0016 0.9731
-6.3339 -1.4928 -2.0016 0.9731
-6.2103 -1.9441 -2.0016 0.9731
-5.6842 -2.2393 -1.8791 0.9748
-5.4437 -2.6108 -1.8570 0.9751
-5.3464 -2.8048 -1.8570 0.9751
-5.2421 -2.9952 -1.8570 0.9751
-5.1310 -3.1817 -1.8570 0.9751
-4.8892 -3.5421 -1.8570 0.9751
-4.7587 -3.7156 -1.8570 0.9751
-4.4794 -4.0479 -1.8570 0.9751
-2.2906 -5.0953 -1.8570 0.9767
-2.1060 -5.1743 -1.8570 0.9767
-1.9186 -5.2467 -1.8570 0.9767
-1.5367 -5.3710 -1.8570 0.9767
-1.3427 -5.4227 -1.8570 0.9767
-0.7521 -5.5437 -1.8597 0.9767
-0.5516 -5.5592 -1.8570 0.9767
0.0501 -5.5863 -1.8570 0.9767
0.2509 -5.5809 -1.8570 0.9767
0.4514 -5.5682 -1.8570 0.9767
0.8503 -5.5214 -1.8570 0.9767
1.0482 -5.4873 -1.8570 0.9767
1.2448 -5.4460 -1.8570 0.9767
1.4397 -5.3978 -1.8570 0.9767
1.6329 -5.3425 -1.8570 0.9767
2.0125 -5.2114 -1.8570 0.9767
2.1985 -5.1357 -1.8570 0.9767
2.1043 -4.0778 -1.5253 0.9808
2.9119 -4.7676 -1.8570 0.9767
3.2469 -4.5460 -1.8570 0.9767
4.1659 -4.3478 -2.0016 0.9749
4.3195 -4.1952 -2.0016 0.9749
5.3322 -2.7975 -2.0016 0.9749
5.4293 -2.6040 -2.0016 0.9749
5.5194 -2.4071 -2.0016 0.9749
5.6781 -2.0043 -2.0016 0.9749
5.8074 -1.5912 -2.0016 0.9749
5.8608 -1.3814 -2.0016 0.9749
5.9067 -1.1698 -2.0016 0.9749
5.9755 -0.7424 -2.0016 0.9749
5.9983 -0.5271 -2.0016 0.9749
6.0134 -0.3112 -2.0016 0.9749
6.0202 0.1217 -2.0016 0.9749
6.0119 0.3380 -2.0016 0.9749
5.9959 0.5539 -2.0016 0.9749
5.9406 0.9833 -2.0016 0.9749
5.9014 1.1962 -2.0016 0.9749
5.8546 1.4076 -2.0016 0.9749
5.8002 1.6171 -2.0016 0.9749
5.5086 2.4317 -2.0016 0.9749
5.4176 2.6282 -2.0016 0.9749
5.1032 3.1962 -2.0016 0.9749
4.8603 3.5546 -2.0016 0.9749
4.7294 3.7270 -2.0016 0.9749
4.4494 4.0572 -2.0016 0.9749
3.9868 4.5126 -2.0016 0.9749
3.8220 4.6530 -2.0016 0.9749
3.6522 4.7874 -2.0016 0.9749
2.5428 5.4582 -2.0016 0.9749
2.1441 5.6268 -2.0016 0.9749
1.9404 5.7002 -2.0016 0.9749
1.7342 5.7663 -2.0016 0.9749
1.5258 5.8249 -2.0016 0.9749
1.3155 5.8760 -2.0016 0.9749
0.8899 5.9553 -2.0016 0.9749
0.6752 5.9835 -2.0016 0.9749
0.4597 6.0039 -2.0016 0.9749
0.2436 6.0165 -2.0016 0.9749
0.0271 6.0214 -2.0016 0.9749
-0.1893 6.0185 -2.0016 0.9749
-0.6213 5.9893 -2.0016 0.9749
-1.8889 5.7175 -2.0016 0.9749
-2.0933 5.6459 -2.0016 0.9749
-2.2949 5.5670 -2.0016 0.9749
-3.4334 4.9467 -2.0016 0.9749
-3.6090 4.8201 -2.0016 0.9749
-3.9459 4.5483 -2.0016 0.9749
-4.2625 4.2531 -2.0016 0.9749
-4.4127 4.0971 -2.0016 0.9749
-4.5571 3.9358 -2.0016 0.9749
-4.6956 3.7694 -2.0016 0.9749
-4.8281 3.5982 -2.0016 0.9749
-4.9543 3.4223 -2.0016 0.9749
-5.0742 3.2420 -2.0016 0.9749
-5.1874 3.0575 -2.0016 0.9749
-5.2940 2.8691 -2.0016 0.9749
-5.4864 2.4813 -2.0016 0.9749
-5.6505 2.0807 -2.0016 0.9749
-5.7217 1.8762 -2.0016 0.9749
-5.9649 0.8229 -2.0016 0.9749
-5.9907 0.6079 -2.0016 0.9749
-6.0087 0.3922 -2.0016 0.9749
-6.0189 0.1759 -2.0016 0.9749
-6.0213 -0.0405 -2.0016 0.9749
-5.9819 -0.6885 -2.0016 0.9749
-5.9533 -0.9031 -2.0016 0.9749
-5.8215 -1.5388 -2.0016 0.9749
-5.7624 -1.7471 -2.0016 0.9749
-5.6959 -1.9531 -2.0016 0.9749
-5.6220 -2.1566 -2.0016 0.9749
-5.2552 -2.2358 -1.8984 0.9762
-4.9702 -2.5507 -1.8570 0.9767
-4.8753 -2.7277 -1.8570 0.9767
-4.7741 -2.9012 -1.8570 0.9767
-4.6667 -3.0710 -1.8570 0.9767
-4.0424 -3.8559 -1.8570 0.9767
-3.9012 -3.9987 -1.8570 0.9767
-3.7549 -4.1364 -1.8570 0.9767
-3.6038 -4.2687 -1.8570 0.9767
-3.4480 -4.3955 -1.8570 0.9767
-3.1233 -4.6319 -1.8570 0.9767
-2.6065 -4.9412 -1.8570 0.9767
-2.4272 -5.0317 -1.8570 0.9767
-1.4883 -5.3846 -1.8570 0.9767
-1.2938 -5.4346 -1.8570 0.9767
-1.0976 -5.4776 -1.8570 0.9767
-0.5015 -5.5639 -1.8570 0.9767
-0.3012 -5.5784 -1.8570 0.9767
-0.1005 -5.5856 -1.8570 0.9767
0.1004 -5.5856 -1.8570 0.9767
0.7015 -5.5454 -1.8580 0.9767
0.8999 -5.5135 -1.8570 0.9767
1.0975 -5.4776 -1.8570 0.9767
1.4883 -5.3846 -1.8570 0.9767
1.6809 -5.3276 -1.8570 0.9767
2.0593 -5.1931 -1.8570 0.9767
2.2446 -5.1157 -1.8570 0.9767
2.0637 -4.2783 -1.5789 0.9802
2.3353 -4.0660 -1.5586 0.9804
3.1232 -4.6319 -1.8570 0.9767
3.2877 -4.5166 -1.8570 0.9767
3.8843 -4.6011 -2.0016 0.9749
4.0472 -4.4585 -2.0016 0.9749
4.2048 -4.3101 -2.0016 0.9749
4.3571 -4.1562 -2.0016 0.9749
4.6444 -3.8324 -2.0016 0.9749
5.1458 -3.1272 -2.0016 0.9749
5.4525 -2.5550 -2.0016 0.9749
5.6220 -2.1567 -2.0016 0.9749
5.6959 -1.9532 -2.0016 0.9749
5.9170 -1.1166 -2.0016 0.9749
5.9819 -0.6886 -2.0016 0.9749
6.0028 -0.4731 -2.0016 0.9749
6.0213 -0.0406 -2.0016 0.9749
5.9650 0.8228 -2.0016 0.9749
5.9315 1.0367 -2.0016 0.9749
5.8904 1.2493 -2.0016 0.9749
5.8417 1.4602 -2.0016 0.9749
5.5721 2.2824 -2.0016 0.9749
5.4865 2.4812 -2.0016 0.9749
5.3937 2.6768 -2.0016 0.9749
5.1875 3.0574 -2.0016 0.9749
5.0742 3.2420 -2.0016 0.9749
4.9544 3.4223 -2.0016 0.9749
4.8282 3.5981 -2.0016 0.9749
4.5572 3.9357 -2.0016 0.9749
4.4127 4.0970 -2.0016 0.9749
3.9460 4.5483 -2.0016 0.9749
3.7800 4.6872 -2.0016 0.9749
3.6090 4.8200 -2.0016 0.9749
3.4334 4.9466 -2.0016 0.9749
3.2534 5.0669 -2.0016 0.9749
3.0691 5.1806 -2.0016 0.9749
2.8809 5.2875 -2.0016 0.9749
2.6890 5.3877 -2.0016 0.9749
2.2949 5.5670 -2.0016 0.9749
2.0933 5.6459 -2.0016 0.9749
1.6823 5.7817 -2.0016 0.9749
1.4734 5.8384 -2.0016 0.9749
1.0501 5.9292 -2.0016 0.9749
0.8363 5.9631 -2.0016 0.9749
0.6214 5.9893 -2.0016 0.9749
0.4056 6.0078 -2.0016 0.9749
-0.2435 6.0165 -2.0016 0.9749
-0.8898 5.9553 -2.0016 0.9749
-1.3154 5.8760 -2.0016 0.9749
-1.7342 5.7663 -2.0016 0.9749
-1.9403 5.7003 -2.0016 0.9749
-2.3449 5.5461 -2.0016 0.9749
-2.5427 5.4582 -2.0016 0.9749
-2.7373 5.3633 -2.0016 0.9749
-3.1156 5.1528 -2.0016 0.9749
-3.4777 4.9156 -2.0016 0.9749
-3.8219 4.6530 -2.0016 0.9749
-3.9867 4.5126 -2.0016 0.9749
-4.1464 4.3664 -2.0016 0.9749
-4.3006 4.2145 -2.0016 0.9749
-4.4494 4.0572 -2.0016 0.9749
-4.8603 3.5546 -2.0016 0.9749
-4.9849 3.3776 -2.0016 0.9749
-5.1031 3.1962 -2.0016 0.9749
-5.2147 3.0107 -2.0016 0.9749
-5.4176 2.6283 -2.0016 0.9749
-5.6690 2.0298 -2.0016 0.9749
-5.8002 1.6172 -2.0016 0.9749
-5.9406 0.9834 -2.0016 0.9749
-5.9721 0.7692 -2.0016 0.9749
-5.9959 0.5540 -2.0016 0.9749
-6.0119 0.3381 -2.0016 0.9749
-5.9983 -0.5271 -2.0016 0.9749
-5.9067 -1.1698 -2.0016 0.9749
-5.8074 -1.5911 -2.0016 0.9749
-5.0371 -2.4158 -1.8570 0.9767
-4.9470 -2.5953 -1.8570 0.9767
-4.8505 -2.7715 -1.8570 0.9767
-4.6389 -3.1128 -1.8570 0.9767
-4.5240 -3.2776 -1.8570 0.9767
-4.4032 -3.4381 -1.8570 0.9767
-4.2768 -3.5941 -1.8570 0.9767
-2.1292 -4.7362 -1.8570 0.9782
-1.9576 -4.8097 -1.8570 0.9782
-1.6070 -4.9379 -1.8570 0.9782
-1.4284 -4.9925 -1.8570 0.9782
-1.0660 -5.0822 -1.8570 0.9782
-0.6981 -5.1457 -1.8570 0.9782
-0.5127 -5.1674 -1.8570 0.9782
0.0466 -5.1926 -1.8570 0.9782
0.2332 -5.1876 -1.8570 0.9782
0.4195 -5.1758 -1.8570 0.9782
0.6053 -5.1574 -1.8570 0.9782
0.9743 -5.1006 -1.8570 0.9782
1.1571 -5.0622 -1.8570 0.9782
1.3383 -5.0174 -1.8570 0.9782
1.5178 -4.9660 -1.8570 0.9782
1.6953 -4.9083 -1.8570 0.9782
1.8707 -4.8441 -1.8570 0.9782
2.0436 -4.7738 -1.8570 0.9782
2.8642 -4.3314 -1.8570 0.9782
3.1680 -4.1144 -1.8570 0.9782
3.3139 -3.9979 -1.8570 0.9782
4.0151 -3.8996 -2.0016 0.9765
4.2849 -3.6010 -2.0016 0.9765
4.5325 -3.2838 -2.0016 0.9765
4.6476 -3.1188 -2.0016 0.9765
4.7567 -2.9497 -2.0016 0.9765
4.8597 -2.7768 -2.0016 0.9765
5.0467 -2.4205 -2.0016 0.9765
5.2075 -2.0516 -2.0016 0.9765
5.3415 -1.6722 -2.0016 0.9765
5.3981 -1.4791 -2.0016 0.9765
5.5960 0.1131 -2.0016 0.9765
5.5883 0.3142 -2.0016 0.9765
5.5512 0.7149 -2.0016 0.9765
5.4855 1.1119 -2.0016 0.9765
5.4420 1.3084 -2.0016 0.9765
5.3915 1.5032 -2.0016 0.9765
5.3340 1.6960 -2.0016 0.9765
5.1204 2.2604 -2.0016 0.9765
4.9447 2.6224 -2.0016 0.9765
4.8473 2.7985 -2.0016 0.9765
4.3961 3.4643 -2.0016 0.9765
4.1359 3.7712 -2.0016 0.9765
3.9976 3.9175 -2.0016 0.9765
3.7058 4.1946 -2.0016 0.9765
3.3949 4.4500 -2.0016 0.9765
2.8961 4.7896 -2.0016 0.9765
2.7220 4.8906 -2.0016 0.9765
2.5444 4.9853 -2.0016 0.9765
2.3636 5.0735 -2.0016 0.9765
2.1797 5.1552 -2.0016 0.9765
1.6120 5.3599 -2.0016 0.9765
1.0256 5.5023 -2.0016 0.9765
0.4273 5.5808 -2.0016 0.9765
0.2264 5.5925 -2.0016 0.9765
0.0252 5.5970 -2.0016 0.9765
-0.3770 5.5844 -2.0016 0.9765
-0.9760 5.5113 -2.0016 0.9765
-1.5637 5.3742 -2.0016 0.9765
-1.9457 5.2480 -2.0016 0.9765
-2.1331 5.1747 -2.0016 0.9765
-2.4994 5.0080 -2.0016 0.9765
-3.0240 4.7098 -2.0016 0.9765
-3.1914 4.5981 -2.0016 0.9765
-3.3546 4.4804 -2.0016 0.9765
-3.6679 4.2278 -2.0016 0.9765
-3.8175 4.0932 -2.0016 0.9765
-3.9621 3.9533 -2.0016 0.9765
-4.2359 3.6584 -2.0016 0.9765
-4.3647 3.5038 -2.0016 0.9765
-4.7166 3.0136 -2.0016 0.9765
-4.9209 2.6669 -2.0016 0.9765
-5.0136 2.4883 -2.0016 0.9765
-5.1794 2.1216 -2.0016 0.9765
-5.2523 1.9341 -2.0016 0.9765
-5.3185 1.7440 -2.0016 0.9765
-5.3777 1.5517 -2.0016 0.9765
-5.4300 1.3574 -2.0016 0.9765
-5.4753 1.1613 -2.0016 0.9765
-5.5135 0.9637 -2.0016 0.9765
-5.5446 0.7649 -2.0016 0.9765
-5.5852 0.3646 -2.0016 0.9765
-5.5920 -0.2389 -2.0016 0.9765
-5.5604 -0.6400 -2.0016 0.9765
-5.4592 -1.2349 -2.0016 0.9765
-5.3563 -1.6240 -2.0016 0.9765
-5.2258 -2.0046 -2.0016 0.9765
-5.1504 -2.1912 -2.0016 0.9765
-4.7762 -2.2380 -1.8862 0.9778
-4.6199 -2.3709 -1.8570 0.9782
-4.3378 -2.8545 -1.8570 0.9782
-4.2324 -3.0086 -1.8570 0.9782
-4.0053 -3.3049 -1.8570 0.9782
-3.7575 -3.5842 -1.8570 0.9782
-3.6262 -3.7169 -1.8570 0.9782
-3.4903 -3.8449 -1.8570 0.9782
-2.9032 -4.3054 -1.8570 0.9782
-2.4228 -4.5930 -1.8570 0.9782
-2.0865 -4.7552 -1.8570 0.9782
-1.2026 -5.0516 -1.8570 0.9782
-0.8366 -5.1250 -1.8570 0.9782
-0.4662 -5.1718 -1.8570 0.9782
0.6517 -5.1517 -1.8570 0.9782
1.0202 -5.0916 -1.8570 0.9782
1.2025 -5.0516 -1.8570 0.9782
1.3834 -5.0051 -1.8570 0.9782
1.7394 -4.8928 -1.8570 0.9782
2.0438 -4.2371 -1.6823 0.9802
2.1389 -4.0549 -1.6394 0.9807
2.3238 -4.0459 -1.6685 0.9804
2.4992 -4.0104 -1.6898 0.9801
3.3497 -3.9679 -1.8570 0.9782
4.0500 -3.8633 -2.0016 0.9765
4.3171 -3.5623 -2.0016 0.9765
4.4424 -3.4048 -2.0016 0.9765
5.0682 -2.3750 -2.0016 0.9765
5.2945 -1.8155 -2.0016 0.9765
5.3563 -1.6240 -2.0016 0.9765
5.4112 -1.4304 -2.0016 0.9765
5.4591 -1.2350 -2.0016 0.9765
5.5604 -0.6401 -2.0016 0.9765
5.5798 -0.4398 -2.0016 0.9765
5.5970 -0.0378 -2.0016 0.9765
5.5446 0.7648 -2.0016 0.9765
5.3185 1.7439 -2.0016 0.9765
5.2523 1.9340 -2.0016 0.9765
5.1794 2.1215 -2.0016 0.9765
5.0998 2.3064 -2.0016 0.9765
4.9209 2.6668 -2.0016 0.9765
4.8219 2.8420 -2.0016 0.9765
4.6052 3.1811 -2.0016 0.9765
4.3648 3.5037 -2.0016 0.9765
4.2360 3.6584 -2.0016 0.9765
4.1017 3.8083 -2.0016 0.9765
3.9622 3.9533 -2.0016 0.9765
3.8175 4.0932 -2.0016 0.9765
3.6679 4.2277 -2.0016 0.9765
3.5136 4.3569 -2.0016 0.9765
2.6779 4.9149 -2.0016 0.9765
2.4995 5.0080 -2.0016 0.9765
2.1332 5.1746 -2.0016 0.9765
1.5637 5.3742 -2.0016 0.9765
1.3695 5.4270 -2.0016 0.9765
1.1736 5.4727 -2.0016 0.9765
0.7773 5.5429 -2.0016 0.9765
0.1761 5.5943 -2.0016 0.9765
-0.2263 5.5925 -2.0016 0.9765
-0.4272 5.5808 -2.0016 0.9765
-0.6275 5.5618 -2.0016 0.9765
-1.0255 5.5023 -2.0016 0.9765
-1.2227 5.4619 -2.0016 0.9765
-1.4182 5.4144 -2.0016 0.9765
-1.6119 5.3600 -2.0016 0.9765
-1.8036 5.2985 -2.0016 0.9765
-1.9929 5.2303 -2.0016 0.9765
-2.1796 5.1553 -2.0016 0.9765
-2.3635 5.0736 -2.0016 0.9765
-2.7219 4.8906 -2.0016 0.9765
-2.8960 4.7896 -2.0016 0.9765
-3.0663 4.6824 -2.0016 0.9765
-3.5526 4.3251 -2.0016 0.9765
-3.8541 4.0587 -2.0016 0.9765
-3.9976 3.9175 -2.0016 0.9765
-4.2687 3.6202 -2.0016 0.9765
-4.5178 3.3041 -2.0016 0.9765
-4.6336 3.1396 -2.0016 0.9765
-4.8472 2.7986 -2.0016 0.9765
-5.0358 2.4430 -2.0016 0.9765
-5.1983 2.0749 -2.0016 0.9765
-5.3339 1.6961 -2.0016 0.9765
-5.3914 1.5032 -2.0016 0.9765
-5.4420 1.3085 -2.0016 0.9765
-5.5220 0.9141 -2.0016 0.9765
-5.5512 0.7150 -2.0016 0.9765
-5.5964 -0.0880 -2.0016 0.9765
-5.5896 -0.2892 -2.0016 0.9765
-5.5756 -0.4899 -2.0016 0.9765
-5.5260 -0.8892 -2.0016 0.9765
-5.4905 -1.0873 -2.0016 0.9765
-5.4478 -1.2840 -2.0016 0.9765
-5.3415 -1.6721 -2.0016 0.9765
-4.6868 -2.2478 -1.8588 0.9782
-4.3120 -2.8935 -1.8570 0.9782
-4.0929 -3.1958 -1.8570 0.9782
-3.9754 -3.3408 -1.8570 0.9782
-3.8527 -3.4816 -1.8570 0.9782
-1.9869 -4.4197 -1.8570 0.9795
-1.4996 -4.6079 -1.8570 0.9795
-1.3330 -4.6588 -1.8570 0.9795
-1.1646 -4.7037 -1.8570 0.9795
-0.9948 -4.7425 -1.8570 0.9795
-0.4784 -4.8221 -1.8570 0.9795
-0.3048 -4.8362 -1.8570 0.9795
-0.1307 -4.8440 -1.8570 0.9795
0.0435 -4.8456 -1.8570 0.9795
0.2176 -4.8409 -1.8570 0.9795
0.5649 -4.8127 -1.8570 0.9795
0.9092 -4.7597 -1.8570 0.9795
1.2488 -4.6821 -1.8570 0.9795
1.4163 -4.6341 -1.8570 0.9795
1.5820 -4.5802 -1.8570 0.9795
1.9070 -4.4547 -1.8570 0.9795
2.4436 -4.0009 -1.7966 0.9801
2.6728 -4.0419 -1.8570 0.9795
2.9563 -3.8395 -1.8570 0.9795
3.0924 -3.7307 -1.8570 0.9795
3.2246 -3.6171 -1.8570 0.9795
3.3525 -3.4989 -1.8570 0.9795
4.2296 -3.0644 -2.0016 0.9779
4.3370 -2.9104 -2.0016 0.9779
4.5349 -2.5912 -2.0016 0.9779
4.7094 -2.2587 -2.0016 0.9779
4.7875 -2.0879 -2.0016 0.9779
4.8595 -1.9145 -2.0016 0.9779
4.9845 -1.5604 -2.0016 0.9779
5.2224 -0.0822 -2.0016 0.9779
5.2220 0.1056 -2.0016 0.9779
5.1803 0.6671 -2.0016 0.9779
5.1529 0.8529 -2.0016 0.9779
5.1189 1.0376 -2.0016 0.9779
4.9775 1.5827 -2.0016 0.9779
4.7782 2.1093 -2.0016 0.9779
4.6993 2.2797 -2.0016 0.9779
4.6143 2.4472 -2.0016 0.9779
4.4265 2.7724 -2.0016 0.9779
4.3240 2.9297 -2.0016 0.9779
3.9835 3.3782 -2.0016 0.9779
3.1680 4.1526 -2.0016 0.9779
3.0167 4.2638 -2.0016 0.9779
2.8614 4.3695 -2.0016 0.9779
2.7025 4.4695 -2.0016 0.9779
2.3744 4.6521 -2.0016 0.9779
2.2056 4.7345 -2.0016 0.9779
2.0340 4.8107 -2.0016 0.9779
1.6831 4.9444 -2.0016 0.9779
1.5043 5.0017 -2.0016 0.9779
1.3235 5.0526 -2.0016 0.9779
0.7719 5.1657 -2.0016 0.9779
0.2113 5.2188 -2.0016 0.9779
-0.9108 5.1430 -2.0016 0.9779
-1.6385 4.9594 -2.0016 0.9779
-1.9906 4.8288 -2.0016 0.9779
-2.3324 4.6733 -2.0016 0.9779
-2.4989 4.5865 -2.0016 0.9779
-2.8219 4.3951 -2.0016 0.9779
-3.1304 4.1810 -2.0016 0.9779
-3.5623 3.8197 -2.0016 0.9779
-4.1879 3.1211 -2.0016 0.9779
-4.2974 2.9686 -2.0016 0.9779
-4.4013 2.8122 -2.0016 0.9779
-4.4996 2.6521 -2.0016 0.9779
-4.8333 1.9798 -2.0016 0.9779
-4.9013 1.8048 -2.0016 0.9779
-4.9630 1.6274 -2.0016 0.9779
-5.0183 1.4480 -2.0016 0.9779
-5.0671 1.2667 -2.0016 0.9779
-5.1094 1.0837 -2.0016 0.9779
-5.1450 0.8993 -2.0016 0.9779
-5.1963 0.5273 -2.0016 0.9779
-5.2119 0.3402 -2.0016 0.9779
-5.2208 0.1526 -2.0016 0.9779
-5.2229 -0.0352 -2.0016 0.9779
-5.2183 -0.2229 -2.0016 0.9779
-5.2069 -0.4103 -2.0016 0.9779
-5.1888 -0.5972 -2.0016 0.9779
-5.1639 -0.7834 -2.0016 0.9779
-5.1325 -0.9685 -2.0016 0.9779
-5.0943 -1.1524 -2.0016 0.9779
-5.0496 -1.3348 -2.0016 0.9779
-4.9984 -1.5154 -2.0016 0.9779
-4.9407 -1.6941 -2.0016 0.9779
-4.8766 -1.8706 -2.0016 0.9779
-4.8062 -2.0447 -2.0016 0.9779
-4.7296 -2.2162 -2.0016 0.9779
-4.3633 -2.2393 -1.8794 0.9792
-4.2289 -2.3660 -1.8570 0.9795
-4.1411 -2.5165 -1.8570 0.9795
-4.0479 -2.6638 -1.8570 0.9795
-3.5064 -3.3446 -1.8570 0.9795
-3.3839 -3.4685 -1.8570 0.9795
-2.9908 -3.8127 -1.8570 0.9795
-2.7091 -4.0177 -1.8570 0.9795
-2.5630 -4.1125 -1.8570 0.9795
-2.2609 -4.2860 -1.8570 0.9795
-2.1053 -4.3645 -1.8570 0.9795
-1.9471 -4.4374 -1.8570 0.9795
-1.4580 -4.6212 -1.8570 0.9795
-1.2910 -4.6706 -1.8570 0.9795
-0.6082 -4.8074 -1.8570 0.9795
-0.4350 -4.8262 -1.8570 0.9795
-0.0871 -4.8450 -1.8570 0.9795
0.0871 -4.8450 -1.8570 0.9795
0.4350 -4.8262 -1.8570 0.9795
0.6082 -4.8074 -1.8570 0.9795
0.7806 -4.7825 -1.8570 0.9795
1.2909 -4.6706 -1.8570 0.9795
1.6232 -4.5658 -1.8570 0.9795
1.7862 -4.5045 -1.8570 0.9795
1.9470 -4.4374 -1.8570 0.9795
2.0013 -4.1489 -1.7652 0.9805
2.2977 -4.0005 -1.7679 0.9804
3.9065 -3.4669 -2.0016 0.9779
4.1455 -3.1773 -2.0016 0.9779
4.5581 -2.5503 -2.0016 0.9779
4.7295 -2.2162 -2.0016 0.9779
4.8765 -1.8707 -2.0016 0.9779
4.9406 -1.6942 -2.0016 0.9779
5.0496 -1.3348 -2.0016 0.9779
5.1888 -0.5973 -2.0016 0.9779
5.2183 -0.2230 -2.0016 0.9779
5.2208 0.1525 -2.0016 0.9779
5.1740 0.7137 -2.0016 0.9779
5.1094 1.0836 -2.0016 0.9779
5.0671 1.2666 -2.0016 0.9779
5.0183 1.4479 -2.0016 0.9779
4.8333 1.9798 -2.0016 0.9779
4.4996 2.6521 -2.0016 0.9779
4.4014 2.8121 -2.0016 0.9779
4.2975 2.9685 -2.0016 0.9779
3.8276 3.5538 -2.0016 0.9779
3.1305 4.1809 -2.0016 0.9779
2.8220 4.3950 -2.0016 0.9779
2.4989 4.5864 -2.0016 0.9779
1.9906 4.8288 -2.0016 0.9779
1.6386 4.9594 -2.0016 0.9779
1.4592 5.0151 -2.0016 0.9779
1.0951 5.1069 -2.0016 0.9779
0.7254 5.1724 -2.0016 0.9779
0.5390 5.1951 -2.0016 0.9779
0.3519 5.2112 -2.0016 0.9779
0.1643 5.2205 -2.0016 0.9779
-0.0235 5.2230 -2.0016 0.9779
-0.2112 5.2188 -2.0016 0.9779
-0.5856 5.1901 -2.0016 0.9779
-0.7718 5.1657 -2.0016 0.9779
-1.1410 5.0969 -2.0016 0.9779
-1.3234 5.0526 -2.0016 0.9779
-1.6830 4.9444 -2.0016 0.9779
-1.8597 4.8807 -2.0016 0.9779
-2.0339 4.8107 -2.0016 0.9779
-2.2056 4.7345 -2.0016 0.9779
-2.8614 4.3695 -2.0016 0.9779
-3.1679 4.1526 -2.0016 0.9779
-3.4581 3.9143 -2.0016 0.9779
-4.5233 2.6115 -2.0016 0.9779
-4.6142 2.4472 -2.0016 0.9779
-4.7781 2.1094 -2.0016 0.9779
-4.8509 1.9363 -2.0016 0.9779
-4.9173 1.7606 -2.0016 0.9779
-4.9775 1.5827 -2.0016 0.9779
-5.0311 1.4028 -2.0016 0.9779
-5.1802 0.6672 -2.0016 0.9779
-5.2009 0.4806 -2.0016 0.9779
-5.2148 0.2933 -2.0016 0.9779
-5.2224 -0.0822 -2.0016 0.9779
-5.1567 -0.8298 -2.0016 0.9779
-5.0837 -1.1982 -2.0016 0.9779
-5.0374 -1.3801 -2.0016 0.9779
-4.9252 -1.7385 -2.0016 0.9779
-4.8595 -1.9144 -2.0016 0.9779
-4.6342 -2.2226 -1.9696 0.9782
-4.2074 -2.4040 -1.8570 0.9795
-4.1183 -2.5537 -1.8570 0.9795
-4.0238 -2.7001 -1.8570 0.9795
-3.9241 -2.8430 -1.8570 0.9795
-3.7097 -3.1176 -1.8570 0.9795
-3.5953 -3.2489 -1.8570 0.9795
-1.8604 -4.1383 -1.8570 0.9806
-1.4041 -4.3145 -1.8570 0.9806
-1.0905 -4.4043 -1.8570 0.9806
-0.9314 -4.4406 -1.8570 0.9806
-0.7712 -4.4712 -1.8570 0.9806
-0.6100 -4.4961 -1.8570 0.9806
-0.2854 -4.5283 -1.8570 0.9806
-0.1224 -4.5356 -1.8570 0.9806
0.0407 -4.5371 -1.8570 0.9806
0.3666 -4.5224 -1.8570 0.9806
0.8513 -4.4567 -1.8570 0.9806
1.0110 -4.4232 -1.8570 0.9806
1.1693 -4.3840 -1.8570 0.9806
1.3262 -4.3391 -1.8570 0.9806
1.4813 -4.2886 -1.8570 0.9806
2.2243 -3.9546 -1.8570 0.9806
2.8956 -3.4932 -1.8570 0.9806
3.0193 -3.3868 -1.8570 0.9806
3.7439 -3.1464 -2.0016 0.9791
3.8546 -3.0098 -2.0016 0.9791
3.9603 -2.8693 -2.0016 0.9791
4.0609 -2.7251 -2.0016 0.9791
4.1562 -2.5773 -2.0016 0.9791
4.2462 -2.4263 -2.0016 0.9791
4.3307 -2.2720 -2.0016 0.9791
4.4096 -2.1149 -2.0016 0.9791
4.4827 -1.9550 -2.0016 0.9791
4.5501 -1.7926 -2.0016 0.9791
4.7167 -1.2923 -2.0016 0.9791
4.7601 -1.1220 -2.0016 0.9791
4.7973 -0.9501 -2.0016 0.9791
4.8532 -0.6030 -2.0016 0.9791
4.8717 -0.4281 -2.0016 0.9791
4.8840 -0.2527 -2.0016 0.9791
4.8698 0.4499 -2.0016 0.9791
4.8504 0.6247 -2.0016 0.9791
4.8249 0.7986 -2.0016 0.9791
4.7550 1.1432 -2.0016 0.9791
4.7108 1.3134 -2.0016 0.9791
4.6606 1.4819 -2.0016 0.9791
4.5421 1.8129 -2.0016 0.9791
4.4740 1.9750 -2.0016 0.9791
3.9475 2.8870 -2.0016 0.9791
3.8411 3.0270 -2.0016 0.9791
3.6137 3.2951 -2.0016 0.9791
3.4929 3.4229 -2.0016 0.9791
2.8246 3.9923 -2.0016 0.9791
2.5305 4.1850 -2.0016 0.9791
2.0652 4.4330 -2.0016 0.9791
1.9045 4.5044 -2.0016 0.9791
1.2393 4.7309 -2.0016 0.9791
0.8961 4.8077 -2.0016 0.9791
0.5484 4.8597 -2.0016 0.9791
0.3734 4.8762 -2.0016 0.9791
0.1978 4.8865 -2.0016 0.9791
0.0220 4.8905 -2.0016 0.9791
-0.3294 4.8794 -2.0016 0.9791
-0.5046 4.8644 -2.0016 0.9791
-0.6791 4.8431 -2.0016 0.9791
-0.8528 4.8156 -2.0016 0.9791
-1.0253 4.7818 -2.0016 0.9791
-1.3663 4.6958 -2.0016 0.9791
-2.0252 4.4515 -2.0016 0.9791
-2.4926 4.2076 -2.0016 0.9791
-2.6423 4.1153 -2.0016 0.9791
-2.7885 4.0176 -2.0016 0.9791
-2.9311 3.9148 -2.0016 0.9791
-3.0700 3.8069 -2.0016 0.9791
-3.3355 3.5765 -2.0016 0.9791
-3.5839 3.3276 -2.0016 0.9791
-3.7012 3.1966 -2.0016 0.9791
-3.8137 3.0615 -2.0016 0.9791
-3.9213 2.9224 -2.0016 0.9791
-4.0238 2.7796 -2.0016 0.9791
-4.1211 2.6331 -2.0016 0.9791
-4.2997 2.3302 -2.0016 0.9791
-4.5893 1.6899 -2.0016 0.9791
-4.7445 1.1860 -2.0016 0.9791
-2.1477 0.3754 -0.8923 0.9906
-1.9478 0.2687 -0.8047 0.9915
-1.9576 0.1987 -0.8053 0.9915
-1.9360 -0.0827 -0.7931 0.9917
-1.9555 -0.2251 -0.8056 0.9915
-2.2038 -0.4159 -0.9179 0.9904
-4.7700 -1.0790 -2.0016 0.9791
-4.7281 -1.2498 -2.0016 0.9791
-4.4284 -2.0751 -2.0016 0.9791
-4.3238 -2.2190 -1.9890 0.9792
-3.8774 -2.3563 -1.8570 0.9806
-3.7902 -2.4942 -1.8570 0.9806
-3.3936 -3.0117 -1.8570 0.9806
-3.1684 -3.2477 -1.8570 0.9806
-3.0496 -3.3595 -1.8570 0.9806
-2.9269 -3.4670 -1.8570 0.9806
-2.6703 -3.6683 -1.8570 0.9806
-2.5367 -3.7619 -1.8570 0.9806
-2.3998 -3.8507 -1.8570 0.9806
-2.2598 -3.9344 -1.8570 0.9806
-1.9713 -4.0866 -1.8570 0.9806
-1.5199 -4.2751 -1.8570 0.9806
-1.3652 -4.3270 -1.8570 0.9806
-0.8915 -4.4488 -1.8570 0.9806
-0.7309 -4.4780 -1.8570 0.9806
-0.5695 -4.5014 -1.8570 0.9806
-0.2446 -4.5306 -1.8570 0.9806
-0.0816 -4.5365 -1.8570 0.9806
0.0815 -4.5365 -1.8570 0.9806
0.4073 -4.5189 -1.8570 0.9806
0.7309 -4.4780 -1.8570 0.9806
0.8914 -4.4488 -1.8570 0.9806
1.0507 -4.4139 -1.8570 0.9806
1.3652 -4.3270 -1.8570 0.9806
1.6725 -4.2177 -1.8570 0.9806
1.8231 -4.1549 -1.8570 0.9806
1.9712 -4.0867 -1.8570 0.9806
2.1099 -4.0000 -1.8509 0.9806
2.2598 -3.9345 -1.8570 0.9806
2.3997 -3.8507 -1.8570 0.9806
2.9269 -3.4670 -1.8570 0.9806
3.1684 -3.2477 -1.8570 0.9806
3.2831 -3.1317 -1.8570 0.9806
3.8816 -2.9750 -2.0016 0.9791
3.9860 -2.8335 -2.0016 0.9791
4.0853 -2.6884 -2.0016 0.9791
4.3510 -2.2330 -2.0016 0.9791
4.4284 -2.0751 -2.0016 0.9791
4.6801 -1.4190 -2.0016 0.9791
4.8584 -0.5593 -2.0016 0.9791
4.8754 -0.3843 -2.0016 0.9791
4.8884 0.1428 -2.0016 0.9791
4.8446 0.6683 -2.0016 0.9791
4.6988 1.3557 -2.0016 0.9791
4.6471 1.5238 -2.0016 0.9791
4.5893 1.6898 -2.0016 0.9791
4.5256 1.8537 -2.0016 0.9791
4.4560 2.0152 -2.0016 0.9791
3.9213 2.9224 -2.0016 0.9791
3.8138 3.0614 -2.0016 0.9791
3.4620 3.4542 -2.0016 0.9791
3.3356 3.5764 -2.0016 0.9791
3.0700 3.8068 -2.0016 0.9791
2.9312 3.9147 -2.0016 0.9791
2.7886 4.0176 -2.0016 0.9791
2.6423 4.1152 -2.0016 0.9791
2.3398 4.2944 -2.0016 0.9791
2.1839 4.3758 -2.0016 0.9791
2.0252 4.4515 -2.0016 0.9791
1.8639 4.5214 -2.0016 0.9791
1.5342 4.6436 -2.0016 0.9791
0.6792 4.8431 -2.0016 0.9791
0.5047 4.8644 -2.0016 0.9791
0.3295 4.8794 -2.0016 0.9791
-0.3733 4.8762 -2.0016 0.9791
-0.5483 4.8597 -2.0016 0.9791
-0.8961 4.8077 -2.0016 0.9791
-1.0683 4.7724 -2.0016 0.9791
-1.2392 4.7309 -2.0016 0.9791
-1.4085 4.6833 -2.0016 0.9791
-1.5759 4.6296 -2.0016 0.9791
-1.7413 4.5700 -2.0016 0.9791
-1.9044 4.5044 -2.0016 0.9791
-2.0651 4.4331 -2.0016 0.9791
-2.5304 4.1850 -2.0016 0.9791
-2.8245 3.9924 -2.0016 0.9791
-2.9662 3.8882 -2.0016 0.9791
-3.3676 3.5463 -2.0016 0.9791
-3.7298 3.1632 -2.0016 0.9791
-3.8411 3.0270 -2.0016 0.9791
-3.9474 2.8870 -2.0016 0.9791
-4.0487 2.7432 -2.0016 0.9791
-4.2353 2.4453 -2.0016 0.9791
-4.4000 2.1346 -2.0016 0.9791
-4.4739 1.9751 -2.0016 0.9791
-4.5420 1.8130 -2.0016 0.9791
-4.7108 1.3135 -2.0016 0.9791
-4.7550 1.1433 -2.0016 0.9791
-4.7930 0.9716 -2.0016 0.9791
-2.0825 0.3447 -0.8639 0.9909
-1.9178 0.0388 -0.7851 0.9917
-1.9137 -0.0301 -0.7833 0.9918
-2.0448 -0.3290 -0.8476 0.9911
-4.7973 -0.9501 -2.0016 0.9791
-4.7601 -1.1219 -2.0016 0.9791
-4.6672 -1.4610 -2.0016 0.9791
-4.5501 -1.7926 -2.0016 0.9791
-4.4096 -2.1148 -2.0016 0.9791
-3.9395 -2.2509 -1.8570 0.9806
-3.8660 -2.3973 -1.8618 0.9805
-3.6743 -2.6620 -1.8570 0.9806
-3.5762 -2.7923 -1.8570 0.9806
-1.6063 -3.9466 -1.8570 0.9816
-1.4634 -4.0017 -1.8570 0.9816
-1.1721 -4.0965 -1.8570 0.9816
-1.0241 -4.1360 -1.8570 0.9816
-0.7242 -4.1989 -1.8570 0.9816
-0.4207 -4.2401 -1.8570 0.9816
0.0382 -4.2607 -1.8570 0.9816
0.1914 -4.2566 -1.8570 0.9816
0.6485 -4.2113 -1.8570 0.9816
0.7995 -4.1852 -1.8570 0.9816
1.0981 -4.1170 -1.8570 0.9816
1.2454 -4.0748 -1.8570 0.9816
1.8166 -3.8543 -1.8570 0.9816
1.9540 -3.7865 -1.8570 0.9816
2.0888 -3.7138 -1.8570 0.9816
2.2210 -3.6363 -1.8570 0.9816
2.4765 -3.4673 -1.8570 0.9816
2.9479 -3.0766 -1.8570 0.9816
3.1613 -2.8568 -1.8570 0.9816
3.5159 -2.9548 -2.0016 0.9802
3.6199 -2.8265 -2.0016 0.9802
3.7191 -2.6945 -2.0016 0.9802
3.8136 -2.5591 -2.0016 0.9802
3.9031 -2.4204 -2.0016 0.9802
3.9876 -2.2785 -2.0016 0.9802
4.2097 -1.8360 -2.0016 0.9802
4.4702 -1.0536 -2.0016 0.9802
4.5343 -0.7297 -2.0016 0.9802
4.5576 -0.5663 -2.0016 0.9802
4.5854 0.2578 -2.0016 0.9802
4.5732 0.4225 -2.0016 0.9802
4.5551 0.5866 -2.0016 0.9802
4.5310 0.7500 -2.0016 0.9802
4.4654 1.0736 -2.0016 0.9802
4.4239 1.2334 -2.0016 0.9802
4.3767 1.3916 -2.0016 0.9802
4.1321 2.0046 -2.0016 0.9802
4.0574 2.1518 -2.0016 0.9802
3.9774 2.2963 -2.0016 0.9802
3.8923 2.4378 -2.0016 0.9802
3.7071 2.7111 -2.0016 0.9802
3.6072 2.8426 -2.0016 0.9802
3.1626 3.3303 -2.0016 0.9802
3.0408 3.4418 -2.0016 0.9802
2.3763 3.9301 -2.0016 0.9802
2.2335 4.0130 -2.0016 0.9802
1.9394 4.1631 -2.0016 0.9802
1.0033 4.4817 -2.0016 0.9802
0.8416 4.5149 -2.0016 0.9802
0.5150 4.5637 -2.0016 0.9802
-0.1444 4.5904 -2.0016 0.9802
-0.4739 4.5682 -2.0016 0.9802
-0.9629 4.4906 -2.0016 0.9802
-1.1237 4.4531 -2.0016 0.9802
-1.2830 4.4098 -2.0016 0.9802
-1.4407 4.3608 -2.0016 0.9802
-1.5966 4.3062 -2.0016 0.9802
-1.7503 4.2460 -2.0016 0.9802
-1.9018 4.1804 -2.0016 0.9802
-2.1973 4.0329 -2.0016 0.9802
-2.6187 3.7729 -2.0016 0.9802
-2.8830 3.5750 -2.0016 0.9802
-3.3656 3.1249 -2.0016 0.9802
-3.7788 2.6103 -2.0016 0.9802
-4.2499 1.7409 -2.0016 0.9802
-1.5975 0.5882 -0.7419 0.9926
-1.5857 0.5200 -0.7273 0.9927
-1.5680 0.4524 -0.7113 0.9929
-1.5450 0.3862 -0.6941 0.9931
-1.5171 0.3218 -0.6759 0.9933
-1.5028 0.2627 -0.6649 0.9934
-1.5290 -0.0653 -0.6670 0.9933
-1.5289 -0.1205 -0.6684 0.9933
-1.5233 -0.1753 -0.6683 0.9933
-1.5123 -0.2294 -0.6666 0.9933
-1.4973 -0.2825 -0.6641 0.9934
-1.5281 -0.3457 -0.6828 0.9932
-1.5542 -0.4108 -0.7006 0.9930
-1.5753 -0.4776 -0.7174 0.9928
-1.5909 -0.5455 -0.7329 0.9927
-4.2261 -1.7979 -2.0016 0.9802
-4.1587 -1.9487 -2.0016 0.9802
-4.0860 -2.0969 -2.0016 0.9802
-3.9684 -2.2203 -1.9818 0.9804
-3.6849 -2.2393 -1.8792 0.9814
-3.4729 -2.4687 -1.8570 0.9816
-3.3819 -2.5920 -1.8570 0.9816
-3.2865 -2.7119 -1.8570 0.9816
-3.1869 -2.8282 -1.8570 0.9816
-3.0832 -2.9410 -1.8570 0.9816
-2.8639 -3.1549 -1.8570 0.9816
-2.2536 -3.6162 -1.8570 0.9816
-2.1222 -3.6948 -1.8570 0.9816
-1.1352 -4.1069 -1.8570 0.9816
-0.8372 -4.1779 -1.8570 0.9816
-0.6864 -4.2053 -1.8570 0.9816
-0.5348 -4.2272 -1.8570 0.9816
-0.3825 -4.2437 -1.8570 0.9816
-0.0766 -4.2602 -1.8570 0.9816
0.0766 -4.2602 -1.8570 0.9816
0.2297 -4.2547 -1.8570 0.9816
0.3825 -4.2437 -1.8570 0.9816
0.5348 -4.2272 -1.8570 0.9816
0.6864 -4.2053 -1.8570 0.9816
0.8371 -4.1779 -1.8570 0.9816
0.9867 -4.1451 -1.8570 0.9816
1.2820 -4.0635 -1.8570 0.9816
1.7120 -3.9019 -1.8570 0.9816
1.8512 -3.8378 -1.8570 0.9816
1.9880 -3.7688 -1.8570 0.9816
2.1221 -3.6949 -1.8570 0.9816
2.2536 -3.6162 -1.8570 0.9816
2.5076 -3.4449 -1.8570 0.9816
2.6298 -3.3525 -1.8570 0.9816
2.7486 -3.2558 -1.8570 0.9816
2.8639 -3.1549 -1.8570 0.9816
2.9754 -3.0500 -1.8570 0.9816
3.0937 -2.9510 -1.8633 0.9815
3.4350 -3.0485 -2.0016 0.9802
3.5424 -2.9230 -2.0016 0.9802
3.6452 -2.7938 -2.0016 0.9802
4.0079 -2.2425 -2.0016 0.9802
4.0860 -2.0970 -2.0016 0.9802
4.2261 -1.7980 -2.0016 0.9802
4.2880 -1.6449 -2.0016 0.9802
4.3443 -1.4897 -2.0016 0.9802
4.3951 -1.3326 -2.0016 0.9802
4.5625 -0.5252 -2.0016 0.9802
4.5785 -0.3609 -2.0016 0.9802
4.5885 -0.1961 -2.0016 0.9802
4.5926 -0.0310 -2.0016 0.9802
4.5829 0.2991 -2.0016 0.9802
4.4127 1.2732 -2.0016 0.9802
4.3640 1.4310 -2.0016 0.9802
4.2500 1.7408 -2.0016 0.9802
4.1139 2.0417 -2.0016 0.9802
4.0378 2.1882 -2.0016 0.9802
3.9566 2.3320 -2.0016 0.9802
3.8702 2.4727 -2.0016 0.9802
3.6825 2.7444 -2.0016 0.9802
3.3657 3.1249 -2.0016 0.9802
3.1325 3.3586 -2.0016 0.9802
3.0097 3.4691 -2.0016 0.9802
2.8830 3.5750 -2.0016 0.9802
2.4814 3.8646 -2.0016 0.9802
2.3409 3.9513 -2.0016 0.9802
1.9019 4.1804 -2.0016 0.9802
1.7504 4.2460 -2.0016 0.9802
1.5966 4.3062 -2.0016 0.9802
0.9630 4.4906 -2.0016 0.9802
0.8009 4.5223 -2.0016 0.9802
0.6378 4.5482 -2.0016 0.9802
0.3094 4.5822 -2.0016 0.9802
-0.1857 4.5889 -2.0016 0.9802
-0.5149 4.5637 -2.0016 0.9802
-1.1637 4.4428 -2.0016 0.9802
-1.6352 4.2917 -2.0016 0.9802
-1.7885 4.2301 -2.0016 0.9802
-2.0878 4.0907 -2.0016 0.9802
-2.2335 4.0130 -2.0016 0.9802
-2.3763 3.9301 -2.0016 0.9802
-2.6525 3.7492 -2.0016 0.9802
-2.7856 3.6515 -2.0016 0.9802
-3.0407 3.4419 -2.0016 0.9802
-3.2802 3.2145 -2.0016 0.9802
-3.3936 3.0945 -2.0016 0.9802
-3.5027 2.9705 -2.0016 0.9802
-3.8922 2.4378 -2.0016 0.9802
-3.9774 2.2963 -2.0016 0.9802
-4.0573 2.1519 -2.0016 0.9802
-4.2015 1.8548 -2.0016 0.9802
-4.2654 1.7026 -2.0016 0.9802
-1.5951 0.5711 -0.7384 0.9926
-1.5819 0.5030 -0.7234 0.9928
-1.5385 0.3699 -0.6896 0.9931
-1.5198 0.1957 -0.6678 0.9933
-1.5263 0.0309 -0.6653 0.9934
-1.5256 -0.0240 -0.6649 0.9934
-1.5280 -0.1343 -0.6685 0.9933
-1.5087 -0.2428 -0.6660 0.9934
-1.5798 -0.4945 -0.7214 0.9928
-1.5938 -0.5626 -0.7366 0.9927
-4.2730 -1.6834 -2.0016 0.9802
-4.2098 -1.8359 -2.0016 0.9802
-3.2620 -2.7413 -1.8570 0.9816
-3.1613 -2.8568 -1.8570 0.9816
-1.5124 -3.7158 -1.8570 0.9825
-1.2415 -3.8148 -1.8570 0.9825
-0.9642 -3.8942 -1.8570 0.9825
-0.8236 -3.9263 -1.8570 0.9825
-0.3961 -3.9922 -1.8570 0.9825
-0.2523 -4.0038 -1.8570 0.9825
0.0360 -4.0116 -1.8570 0.9825
0.1802 -4.0077 -1.8570 0.9825
0.6106 -3.9650 -1.8570 0.9825
0.8939 -3.9109 -1.8570 0.9825
1.3097 -3.7919 -1.8570 0.9825
1.5788 -3.6880 -1.8570 0.9825
1.7104 -3.6289 -1.8570 0.9825
2.0911 -3.4237 -1.8570 0.9825
2.2128 -3.3463 -1.8570 0.9825
2.5602 -3.0886 -1.8570 0.9825
2.6696 -2.9946 -1.8570 0.9825
2.7755 -2.8967 -1.8570 0.9825
3.5017 -2.5370 -2.0016 0.9811
3.5906 -2.4095 -2.0016 0.9811
3.6749 -2.2788 -2.0016 0.9811
3.8291 -2.0089 -2.0016 0.9811
3.9636 -1.7286 -2.0016 0.9811
4.0231 -1.5850 -2.0016 0.9811
4.0775 -1.4393 -2.0016 0.9811
4.1266 -1.2918 -2.0016 0.9811
4.1704 -1.1427 -2.0016 0.9811
4.2692 -0.6871 -2.0016 0.9811
4.3075 -0.3785 -2.0016 0.9811
4.3232 0.0874 -2.0016 0.9811
4.3173 0.2427 -2.0016 0.9811
4.3058 0.3978 -2.0016 0.9811
4.2887 0.5523 -2.0016 0.9811
4.2661 0.7061 -2.0016 0.9811
4.2379 0.8590 -2.0016 0.9811
4.2043 1.0108 -2.0016 0.9811
4.1652 1.1613 -2.0016 0.9811
4.1208 1.3103 -2.0016 0.9811
4.0710 1.4576 -2.0016 0.9811
3.8905 1.8874 -2.0016 0.9811
3.5798 2.4255 -2.0016 0.9811
3.4903 2.5526 -2.0016 0.9811
3.3963 2.6764 -2.0016 0.9811
3.2979 2.7968 -2.0016 0.9811
3.1952 2.9135 -2.0016 0.9811
3.0884 3.0265 -2.0016 0.9811
2.9776 3.1356 -2.0016 0.9811
2.3690 3.6174 -2.0016 0.9811
1.8260 3.9196 -2.0016 0.9811
1.5397 4.0407 -2.0016 0.9811
1.3934 4.0934 -2.0016 0.9811
1.2454 4.1409 -2.0016 0.9811
1.0957 4.1830 -2.0016 0.9811
0.9447 4.2197 -2.0016 0.9811
0.7924 4.2509 -2.0016 0.9811
0.1749 4.3206 -2.0016 0.9811
0.0195 4.3241 -2.0016 0.9811
-0.9066 4.2280 -2.0016 0.9811
-1.0580 4.1927 -2.0016 0.9811
-1.2080 4.1519 -2.0016 0.9811
-1.3565 4.1058 -2.0016 0.9811
-1.5032 4.0544 -2.0016 0.9811
-1.9310 3.8690 -2.0016 0.9811
-2.0688 3.7971 -2.0016 0.9811
-2.3363 3.6386 -2.0016 0.9811
-2.8337 3.2662 -2.0016 0.9811
-2.9492 3.1623 -2.0016 0.9811
-3.3720 2.7069 -2.0016 0.9811
-3.7252 2.1957 -2.0016 0.9811
-3.8017 2.0603 -2.0016 0.9811
-1.3164 0.5954 -0.6688 0.9937
-1.3328 0.4908 -0.6574 0.9938
-1.3316 0.4367 -0.6487 0.9938
-1.3036 0.2765 -0.6168 0.9941
-1.3179 0.2304 -0.6193 0.9941
-1.3360 0.1356 -0.6216 0.9941
-1.3371 0.0391 -0.6192 0.9941
-1.3382 -0.1055 -0.6213 0.9941
-1.3251 -0.2010 -0.6204 0.9941
-1.3150 -0.3476 -0.6296 0.9940
-1.3265 -0.4022 -0.6416 0.9939
-1.3313 -0.5107 -0.6600 0.9937
-1.3111 -0.6143 -0.6702 0.9936
-3.8471 -1.9743 -2.0016 0.9811
-3.7736 -2.1113 -2.0016 0.9811
-3.6543 -2.2207 -1.9794 0.9813
-3.1841 -2.4404 -1.8570 0.9825
-3.0943 -2.5533 -1.8570 0.9825
-3.0006 -2.6629 -1.8570 0.9825
-2.8015 -2.8716 -1.8570 0.9825
-2.5879 -3.0654 -1.8570 0.9825
-2.4761 -3.1565 -1.8570 0.9825
-1.9981 -3.4788 -1.8570 0.9825
-1.8717 -3.5483 -1.8570 0.9825
-1.7430 -3.6133 -1.8570 0.9825
-1.6120 -3.6737 -1.8570 0.9825
-1.2071 -3.8258 -1.8570 0.9825
-0.9291 -3.9027 -1.8570 0.9825
-0.3602 -3.9956 -1.8570 0.9825
-0.2163 -4.0059 -1.8570 0.9825
0.5035 -3.9800 -1.8570 0.9825
0.6462 -3.9594 -1.8570 0.9825
1.7429 -3.6134 -1.8570 0.9825
2.1218 -3.4047 -1.8570 0.9825
2.4760 -3.1565 -1.8570 0.9825
2.5879 -3.0655 -1.8570 0.9825
2.6964 -2.9704 -1.8570 0.9825
3.8470 -1.9744 -2.0016 0.9811
3.9155 -1.8348 -2.0016 0.9811
3.9790 -1.6929 -2.0016 0.9811
4.0903 -1.4026 -2.0016 0.9811
4.1805 -1.1051 -2.0016 0.9811
4.2175 -0.9541 -2.0016 0.9811
4.2752 -0.6486 -2.0016 0.9811
4.3107 -0.3398 -2.0016 0.9811
4.3202 -0.1846 -2.0016 0.9811
4.3240 -0.0292 -2.0016 0.9811
4.3223 0.1263 -2.0016 0.9811
4.2835 0.5909 -2.0016 0.9811
4.2595 0.7445 -2.0016 0.9811
4.1950 1.0486 -2.0016 0.9811
4.1546 1.1987 -2.0016 0.9811
4.1089 1.3473 -2.0016 0.9811
3.8733 1.9223 -2.0016 0.9811
3.7252 2.1956 -2.0016 0.9811
3.6439 2.3281 -2.0016 0.9811
3.5578 2.4576 -2.0016 0.9811
3.4672 2.5839 -2.0016 0.9811
3.3721 2.7069 -2.0016 0.9811
3.2726 2.8263 -2.0016 0.9811
3.0610 3.0542 -2.0016 0.9811
2.9493 3.1622 -2.0016 0.9811
2.5917 3.4613 -2.0016 0.9811
2.4656 3.5523 -2.0016 0.9811
2.2040 3.7202 -2.0016 0.9811
1.5033 4.0544 -2.0016 0.9811
0.9066 4.2280 -2.0016 0.9811
0.4462 4.3010 -2.0016 0.9811
0.2913 4.3143 -2.0016 0.9811
-0.0194 4.3241 -2.0016 0.9811
-0.3301 4.3115 -2.0016 0.9811
-0.7923 4.2509 -2.0016 0.9811
-1.2453 4.1409 -2.0016 0.9811
-2.4974 3.5300 -2.0016 0.9811
-2.6227 3.4379 -2.0016 0.9811
-3.0884 3.0265 -2.0016 0.9811
-3.2978 2.7968 -2.0016 0.9811
-3.3962 2.6765 -2.0016 0.9811
-3.7448 2.1621 -2.0016 0.9811
-1.3196 0.5826 -0.6677 0.9937
-1.3291 0.5305 -0.6624 0.9937
-1.3334 0.4774 -0.6556 0.9938
-1.3298 0.4228 -0.6459 0.9939
-1.3075 0.2651 -0.6175 0.9941
-1.3210 0.2187 -0.6198 0.9941
-1.3373 0.1236 -0.6216 0.9941
-1.3385 0.0753 -0.6205 0.9941
-1.3362 0.0270 -0.6186 0.9941
-1.3356 -0.0210 -0.6183 0.9941
-1.3376 -0.1175 -0.6216 0.9941
-1.3319 -0.1655 -0.6213 0.9941
-1.3094 -0.2593 -0.6179 0.9941
-1.3182 -0.3612 -0.6327 0.9940
-1.3287 -0.4159 -0.6445 0.9939
-1.3299 -0.5239 -0.6616 0.9937
-1.3211 -0.5761 -0.6671 0.9937
-3.8989 -1.8699 -2.0016 0.9811
-3.8291 -2.0088 -2.0016 0.9811
-3.7545 -2.1452 -2.0016 0.9811
-3.5887 -2.2253 -1.9546 0.9816
-3.1620 -2.4689 -1.8570 0.9825
-2.9765 -2.6897 -1.8570 0.9825
-1.5523 -3.4528 -1.8570 0.9833
-1.1715 -3.5999 -1.8570 0.9833
-1.0414 -3.6397 -1.8570 0.9833
-0.9099 -3.6747 -1.8570 0.9833
-0.7772 -3.7051 -1.8570 0.9833
-0.3738 -3.7672 -1.8570 0.9833
-0.2381 -3.7782 -1.8570 0.9833
0.0340 -3.7856 -1.8570 0.9833
0.3059 -3.7733 -1.8570 0.9833
0.4413 -3.7599 -1.8570 0.9833
0.7103 -3.7185 -1.8570 0.9833
0.8435 -3.6905 -1.8570 0.9833
0.9756 -3.6578 -1.8570 0.9833
1.1065 -3.6204 -1.8570 0.9833
1.2359 -3.5783 -1.8570 0.9833
1.3638 -3.5315 -1.8570 0.9833
1.7360 -3.3642 -1.8570 0.9833
1.8558 -3.2996 -1.8570 0.9833
1.9733 -3.2308 -1.8570 0.9833
2.0881 -3.1577 -1.8570 0.9833
2.5192 -2.8259 -1.8570 0.9833
2.6191 -2.7335 -1.8570 0.9833
3.1238 -2.6253 -2.0016 0.9820
3.2162 -2.5113 -2.0016 0.9820
3.3044 -2.3940 -2.0016 0.9820
3.3883 -2.2737 -2.0016 0.9820
3.4678 -2.1504 -2.0016 0.9820
3.6134 -1.8957 -2.0016 0.9820
3.6792 -1.7646 -2.0016 0.9820
3.7402 -1.6312 -2.0016 0.9820
3.7965 -1.4957 -2.0016 0.9820
3.8478 -1.3582 -2.0016 0.9820
3.9716 -0.9361 -2.0016 0.9820
4.0286 -0.6483 -2.0016 0.9820
4.0632 0.3754 -2.0016 0.9820
4.0257 0.6663 -2.0016 0.9820
3.8417 1.3754 -2.0016 0.9820
3.7329 1.6479 -2.0016 0.9820
3.6049 1.9118 -2.0016 0.9820
3.2936 2.4088 -2.0016 0.9820
3.2049 2.5256 -2.0016 0.9820
3.1121 2.6392 -2.0016 0.9820
3.0152 2.7493 -2.0016 0.9820
2.9144 2.8560 -2.0016 0.9820
2.8098 2.9589 -2.0016 0.9820
2.5900 3.1531 -2.0016 0.9820
2.2355 3.4136 -2.0016 0.9820
2.1113 3.4918 -2.0016 0.9820
1.9844 3.5654 -2.0016 0.9820
1.8550 3.6344 -2.0016 0.9820
1.1752 3.9076 -2.0016 0.9820
0.8914 3.9819 -2.0016 0.9820
0.7477 4.0114 -2.0016 0.9820
0.4576 4.0547 -2.0016 0.9820
0.3115 4.0686 -2.0016 0.9820
0.1651 4.0771 -2.0016 0.9820
0.0184 4.0804 -2.0016 0.9820
-0.1283 4.0784 -2.0016 0.9820
-0.2748 4.0712 -2.0016 0.9820
-0.4210 4.0587 -2.0016 0.9820
-0.7115 4.0179 -2.0016 0.9820
-0.8555 3.9898 -2.0016 0.9820
-0.9984 3.9564 -2.0016 0.9820
-1.2801 3.8745 -2.0016 0.9820
-1.9522 3.5832 -2.0016 0.9820
-2.0798 3.5107 -2.0016 0.9820
-2.2046 3.4336 -2.0016 0.9820
-2.3266 3.3522 -2.0016 0.9820
-2.5615 3.1763 -2.0016 0.9820
-2.6740 3.0822 -2.0016 0.9820
-2.8885 2.8821 -2.0016 0.9820
-2.9903 2.7764 -2.0016 0.9820
-3.1820 2.5544 -2.0016 0.9820
-3.3573 2.3192 -2.0016 0.9820
-3.4385 2.1970 -2.0016 0.9820
-1.1303 0.5610 -0.6190 0.9944
-1.1549 0.4253 -0.6037 0.9945
-1.1590 0.3344 -0.5917 0.9946
-1.1593 0.2898 -0.5862 0.9947
-1.1710 0.2484 -0.5872 0.9947
-1.1877 0.1638 -0.5881 0.9947
-1.1928 0.1210 -0.5881 0.9947
-1.1957 0.0780 -0.5878 0.9947
-1.1964 -0.0511 -0.5874 0.9947
-1.1948 -0.0942 -0.5879 0.9947
-1.1583 -0.3062 -0.5877 0.9947
-1.1589 -0.3514 -0.5940 0.9946
-1.1572 -0.3968 -0.6001 0.9946
-1.1530 -0.4423 -0.6058 0.9945
-1.1464 -0.4877 -0.6111 0.9945
-1.1052 -0.6183 -0.6212 0.9944
-3.1464 -2.2366 -1.8936 0.9829
-3.0047 -2.3029 -1.8570 0.9833
-2.6436 -2.7098 -1.8570 0.9833
-2.5445 -2.8030 -1.8570 0.9833
-2.4421 -2.8927 -1.8570 0.9833
-1.8855 -3.2827 -1.8570 0.9833
-1.6448 -3.4097 -1.8570 0.9833
-1.5211 -3.4667 -1.8570 0.9833
-1.3955 -3.5191 -1.8570 0.9833
-1.1391 -3.6103 -1.8570 0.9833
-0.4752 -3.7558 -1.8570 0.9833
-0.2041 -3.7802 -1.8570 0.9833
0.0680 -3.7851 -1.8570 0.9833
0.2041 -3.7802 -1.8570 0.9833
0.3398 -3.7704 -1.8570 0.9833
0.4751 -3.7558 -1.8570 0.9833
1.0085 -3.6489 -1.8570 0.9833
1.1390 -3.6103 -1.8570 0.9833
1.2681 -3.5670 -1.8570 0.9833
1.3955 -3.5191 -1.8570 0.9833
1.5211 -3.4667 -1.8570 0.9833
1.7662 -3.3484 -1.8570 0.9833
2.0023 -3.2129 -1.8570 0.9833
2.2279 -3.0607 -1.8570 0.9833
2.3365 -2.9787 -1.8570 0.9833
2.4421 -2.8927 -1.8570 0.9833
2.8624 -2.5404 -1.8773 0.9831
3.1473 -2.5970 -2.0016 0.9820
3.2386 -2.4822 -2.0016 0.9820
3.4086 -2.2431 -2.0016 0.9820
3.5610 -1.9924 -2.0016 0.9820
3.6949 -1.7314 -2.0016 0.9820
3.7548 -1.5975 -2.0016 0.9820
3.8598 -1.3236 -2.0016 0.9820
3.9049 -1.1840 -2.0016 0.9820
3.9450 -1.0428 -2.0016 0.9820
4.0343 -0.6121 -2.0016 0.9820
4.0678 -0.3206 -2.0016 0.9820
4.0767 -0.1742 -2.0016 0.9820
4.0804 -0.0275 -2.0016 0.9820
4.0787 0.1192 -2.0016 0.9820
4.0596 0.4119 -2.0016 0.9820
4.0195 0.7025 -2.0016 0.9820
3.9755 0.8431 -1.9935 0.9821
3.9345 0.9835 -1.9894 0.9821
3.9085 1.1277 -1.9954 0.9820
3.7179 1.6814 -2.0016 0.9820
3.5875 1.9442 -2.0016 0.9820
3.4386 2.1969 -2.0016 0.9820
3.3574 2.3191 -2.0016 0.9820
3.2718 2.4383 -2.0016 0.9820
3.1821 2.5543 -2.0016 0.9820
3.0882 2.6671 -2.0016 0.9820
2.9903 2.7764 -2.0016 0.9820
2.8886 2.8821 -2.0016 0.9820
2.4457 3.2663 -2.0016 0.9820
2.3267 3.3521 -2.0016 0.9820
2.2047 3.4336 -2.0016 0.9820
2.0798 3.5106 -2.0016 0.9820
1.9523 3.5831 -2.0016 0.9820
1.8222 3.6510 -2.0016 0.9820
1.5552 3.7725 -2.0016 0.9820
1.2801 3.8745 -2.0016 0.9820
1.1400 3.9180 -2.0016 0.9820
0.9984 3.9564 -2.0016 0.9820
0.2749 4.0712 -2.0016 0.9820
0.1284 4.0784 -2.0016 0.9820
-0.1650 4.0771 -2.0016 0.9820
-0.3115 4.0686 -2.0016 0.9820
-0.4575 4.0547 -2.0016 0.9820
-0.6030 4.0357 -2.0016 0.9820
-0.8914 3.9819 -2.0016 0.9820
-1.1752 3.9076 -2.0016 0.9820
-1.4529 3.8130 -2.0016 0.9820
-1.7231 3.6988 -2.0016 0.9820
-2.2354 3.4136 -2.0016 0.9820
-2.3567 3.3311 -2.0016 0.9820
-2.4749 3.2442 -2.0016 0.9820
-2.7016 3.0580 -2.0016 0.9820
-2.9143 2.8560 -2.0016 0.9820
-3.0151 2.7494 -2.0016 0.9820
-3.1120 2.6392 -2.0016 0.9820
-3.2049 2.5257 -2.0016 0.9820
-1.1332 0.5498 -0.6178 0.9944
-1.1433 0.5047 -0.6130 0.9944
-1.1559 0.4139 -0.6023 0.9945
-1.1585 0.3684 -0.5963 0.9946
-1.1588 0.3231 -0.5901 0.9947
-1.1824 0.1957 -0.5879 0.9947
-1.1892 0.1532 -0.5881 0.9947
-1.1962 -0.0619 -0.5876 0.9947
-1.1941 -0.1049 -0.5880 0.9947
-1.1587 -0.3175 -0.5893 0.9947
-1.1587 -0.3627 -0.5956 0.9946
-1.1564 -0.4082 -0.6015 0.9946
-1.1516 -0.4537 -0.6072 0.9945
-1.1346 -0.5442 -0.6173 0.9944
-1.1207 -0.5880 -0.6208 0.9944
-3.5429 -2.0243 -2.0016 0.9820
-3.4679 -2.1504 -2.0016 0.9820
-3.0924 -2.2404 -1.8732 0.9831
-2.9839 -2.3298 -1.8570 0.9833
-1.3494 -3.3154 -1.8570 0.9840
-0.4812 -3.5470 -1.8570 0.9840
-0.3534 -3.5620 -1.8570 0.9840
-0.2251 -3.5724 -1.8570 0.9840
0.0321 -3.5794 -1.8570 0.9840
0.1608 -3.5759 -1.8570 0.9840
0.5448 -3.5378 -1.8570 0.9840
0.7976 -3.4895 -1.8570 0.9840
0.9225 -3.4586 -1.8570 0.9840
1.0462 -3.4232 -1.8570 0.9840
1.1686 -3.3834 -1.8570 0.9840
1.2895 -3.3392 -1.8570 0.9840
1.5261 -3.2379 -1.8570 0.9840
1.6415 -3.1810 -1.8570 0.9840
1.9744 -2.9858 -1.8570 0.9840
2.0804 -2.9128 -1.8570 0.9840
2.5678 -2.4939 -1.8570 0.9840
2.7176 -2.4559 -1.9002 0.9836
2.9537 -2.4823 -2.0016 0.9828
3.0410 -2.3745 -2.0016 0.9828
3.1244 -2.2636 -2.0016 0.9828
3.2037 -2.1499 -2.0016 0.9828
3.2790 -2.0333 -2.0016 0.9828
3.3499 -1.9141 -2.0016 0.9828
3.4788 -1.6685 -2.0016 0.9828
3.7211 -1.0196 -2.0016 0.9828
3.7553 -0.8851 -2.0016 0.9828
3.8434 -0.3378 -2.0016 0.9828
3.8531 -0.1994 -2.0016 0.9828
3.8577 -0.0607 -2.0016 0.9828
3.8521 0.2166 -2.0016 0.9828
3.8266 0.4928 -2.0016 0.9828
3.7813 0.7665 -2.0016 0.9828
3.6951 1.0302 -1.9900 0.9829
3.6324 1.3005 -2.0016 0.9828
3.4085 1.8077 -2.0016 0.9828
3.3413 1.9291 -2.0016 0.9828
3.1941 2.1641 -2.0016 0.9828
3.1142 2.2776 -2.0016 0.9828
2.9426 2.4954 -2.0016 0.9828
2.8509 2.5996 -2.0016 0.9828
2.7557 2.7004 -2.0016 0.9828
2.6568 2.7977 -2.0016 0.9828
2.5545 2.8914 -2.0016 0.9828
2.1137 3.2277 -2.0016 0.9828
1.9963 3.3016 -2.0016 0.9828
1.7540 3.4365 -2.0016 0.9828
1.5025 3.5536 -2.0016 0.9828
1.2433 3.6524 -2.0016 0.9828
1.1112 3.6947 -2.0016 0.9828
0.4326 3.8339 -2.0016 0.9828
0.2946 3.8470 -2.0016 0.9828
0.1561 3.8551 -2.0016 0.9828
0.0174 3.8582 -2.0016 0.9828
-0.1213 3.8563 -2.0016 0.9828
-0.2599 3.8495 -2.0016 0.9828
-0.3981 3.8376 -2.0016 0.9828
-0.6728 3.7991 -2.0016 0.9828
-0.8089 3.7725 -2.0016 0.9828
-1.3412 3.6176 -2.0016 0.9828
-1.4704 3.5670 -2.0016 0.9828
-1.7229 3.4522 -2.0016 0.9828
-2.0845 3.2466 -2.0016 0.9828
-2.1999 3.1696 -2.0016 0.9828
-2.3124 3.0884 -2.0016 0.9828
-2.6315 2.8216 -2.0016 0.9828
-2.7312 2.7251 -2.0016 0.9828
-2.8274 2.6252 -2.0016 0.9828
-2.9199 2.5219 -2.0016 0.9828
-3.0087 2.4153 -2.0016 0.9828
-3.0936 2.3055 -2.0016 0.9828
-3.1745 2.1928 -2.0016 0.9828
-0.9712 0.6205 -0.5979 0.9948
-0.9934 0.5855 -0.5982 0.9948
-1.0135 0.5493 -0.5980 0.9948
-1.0314 0.5119 -0.5973 0.9948
-1.0440 0.4721 -0.5944 0.9949
-1.0522 0.4310 -0.5899 0.9949
