ply
format ascii 1.0
element vertex 1566
property float32 x
property float32 y
property float32 z
property float32 I
end_header
-16.4394 3.6978 -2.0016 0.9344
-16.5616 3.1050 -2.0016 0.9344
-16.6624 2.5082 -2.0016 0.9344
-16.7418 1.9082 -2.0016 0.9344
-16.7995 1.3057 -2.0016 0.9344
-16.8499 0.0964 -2.0016 0.9344
-16.8425 -0.5088 -2.0016 0.9344
-16.4806 -3.5094 -2.0016 0.9344
-15.0892 -7.4996 -2.0016 0.9344
-14.5119 -8.5634 -2.0016 0.9344
-13.8598 -9.5830 -2.0016 0.9344
-13.5067 -10.0746 -2.0016 0.9344
-13.1362 -10.5531 -2.0016 0.9344
-12.3447 -11.4689 -2.0016 0.9344
-11.9249 -11.9048 -2.0016 0.9344
-11.0396 -12.7301 -2.0016 0.9344
-10.0973 -13.4897 -2.0016 0.9344
-9.6063 -13.8436 -2.0016 0.9344
-9.1030 -14.1797 -2.0016 0.9344
-8.5878 -14.4975 -2.0016 0.9344
-8.0616 -14.7965 -2.0016 0.9344
-7.5250 -15.0765 -2.0016 0.9344
-6.4234 -15.5778 -2.0016 0.9344
-5.8562 -15.7888 -2.0003 0.9344
-5.2775 -15.9650 -1.9974 0.9345
-4.0840 -16.1686 -1.9809 0.9350
-3.4721 -16.1716 -1.9647 0.9355
-2.8693 -16.1741 -1.9513 0.9360
-2.2738 -16.1761 -1.9404 0.9363
-1.6841 -16.1777 -1.9321 0.9366
-0.5175 -16.2251 -1.9283 0.9367
0.6561 -16.4099 -1.9508 0.9360
1.2596 -16.5672 -1.9736 0.9353
1.8740 -16.6919 -1.9952 0.9346
3.0771 -16.5668 -2.0016 0.9344
3.6701 -16.4456 -2.0016 0.9344
4.2584 -16.3032 -2.0016 0.9344
5.9872 -15.7506 -2.0016 0.9344
6.5490 -15.5254 -2.0016 0.9344
7.1023 -15.2802 -2.0016 0.9344
2.3333 -4.2015 -0.5709 0.9808
10.6808 -13.0325 -2.0016 0.9344
11.1420 -12.6405 -2.0016 0.9344
11.5888 -12.2322 -2.0016 0.9344
12.0206 -11.8081 -2.0016 0.9344
12.4369 -11.3688 -2.0016 0.9344
13.5876 -9.9652 -2.0016 0.9344
13.9367 -9.4708 -2.0016 0.9344
14.5806 -8.4459 -2.0016 0.9344
14.8745 -7.9168 -2.0016 0.9344
15.1492 -7.3775 -2.0016 0.9344
15.6397 -6.2711 -2.0016 0.9344
15.8549 -5.7053 -2.0016 0.9344
16.2235 -4.5525 -2.0016 0.9344
16.3765 -3.9670 -2.0016 0.9344
16.7082 -2.1825 -2.0016 0.9344
16.8460 -0.3728 -2.0016 0.9344
16.8485 0.2325 -2.0016 0.9344
16.7884 1.4413 -2.0016 0.9344
16.7258 2.0433 -2.0016 0.9344
16.5360 3.2386 -2.0016 0.9344
16.4090 3.8304 -2.0016 0.9344
16.2609 4.4173 -2.0016 0.9344
15.9018 5.5731 -2.0016 0.9344
15.4608 6.7002 -2.0016 0.9344
14.3420 8.8450 -2.0016 0.9344
14.0151 9.3544 -2.0016 0.9344
13.6701 9.8517 -2.0016 0.9344
11.2469 12.5473 -2.0016 0.9344
9.3343 14.0285 -2.0016 0.9344
8.8245 14.3547 -2.0016 0.9344
5.6529 14.5063 -1.8494 0.9392
5.1283 14.7000 -1.8494 0.9392
4.5971 14.8747 -1.8494 0.9392
3.0388 13.1026 -1.5977 0.9473
2.4994 12.8593 -1.5561 0.9486
1.9868 12.6281 -1.5185 0.9498
1.4977 12.4075 -1.4845 0.9509
1.0294 12.1962 -1.4539 0.9519
0.5796 11.9933 -1.4263 0.9528
0.1459 11.7977 -1.4015 0.9536
-1.0924 11.4163 -1.3623 0.9549
-2.3535 11.4245 -1.3856 0.9541
-3.6741 11.4332 -1.4265 0.9528
-4.1338 11.4362 -1.4445 0.9522
-5.0920 11.4425 -1.4877 0.9508
-7.8119 11.4603 -1.6475 0.9457
-8.4332 11.4644 -1.6906 0.9443
-9.0888 11.4687 -1.7382 0.9428
-10.5208 11.4762 -1.8494 0.9392
-11.3174 10.6914 -1.8494 0.9392
-11.6941 10.2781 -1.8494 0.9392
-12.7317 8.9607 -1.8494 0.9392
-13.0453 8.4976 -1.8494 0.9392
-13.7187 8.2501 -1.9016 0.9376
-14.6987 8.1354 -1.9956 0.9346
-15.0262 7.6250 -2.0016 0.9344
-15.2904 7.0805 -2.0016 0.9344
-15.7592 5.9646 -2.0016 0.9344
-16.1466 4.8180 -2.0016 0.9344
-16.5712 3.0534 -2.0016 0.9344
-16.8035 1.2533 -2.0016 0.9344
-16.8098 -1.1657 -2.0016 0.9344
-16.7571 -1.7687 -2.0016 0.9344
-16.5869 -2.9670 -2.0016 0.9344
-16.4696 -3.5607 -2.0016 0.9344
-16.3311 -4.1500 -2.0016 0.9344
-16.1715 -4.7338 -2.0016 0.9344
-15.7900 -5.8824 -2.0016 0.9344
-15.5686 -6.4457 -2.0016 0.9344
-15.3271 -7.0006 -2.0016 0.9344
-15.0657 -7.5466 -2.0016 0.9344
-14.7850 -8.0828 -2.0016 0.9344
-13.1032 -10.5940 -2.0016 0.9344
-12.7143 -11.0578 -2.0016 0.9344
-11.4512 -12.3611 -2.0016 0.9344
-10.9999 -12.7644 -2.0016 0.9344
-10.5344 -13.1512 -2.0016 0.9344
-9.5632 -13.8735 -2.0016 0.9344
-8.5426 -14.5242 -2.0016 0.9344
-3.4195 -16.1719 -1.9635 0.9356
-2.8173 -16.1743 -1.9502 0.9360
-0.4670 -16.2293 -1.9286 0.9367
0.7078 -16.4227 -1.9526 0.9359
2.5302 -16.6471 -2.0001 0.9344
3.1287 -16.5571 -2.0016 0.9344
4.3091 -16.2898 -2.0016 0.9344
4.8914 -16.1246 -2.0016 0.9344
5.4673 -15.9385 -2.0016 0.9344
6.0362 -15.7319 -2.0016 0.9344
7.1499 -15.2580 -2.0016 0.9344
8.7495 -14.4005 -2.0016 0.9344
9.7606 -13.7353 -2.0016 0.9344
10.2476 -13.3759 -2.0016 0.9344
10.7214 -12.9992 -2.0016 0.9344
11.1813 -12.6058 -2.0016 0.9344
11.6268 -12.1961 -2.0016 0.9344
12.0574 -11.7706 -2.0016 0.9344
12.8712 -10.8748 -2.0016 0.9344
13.2534 -10.4055 -2.0016 0.9344
13.6186 -9.9228 -2.0016 0.9344
14.8991 -7.8705 -2.0016 0.9344
15.4256 -6.7807 -2.0016 0.9344
15.6592 -6.2223 -2.0016 0.9344
15.8726 -5.6559 -2.0016 0.9344
16.3888 -3.9159 -2.0016 0.9344
16.6276 -2.7294 -2.0016 0.9344
16.8247 -0.9251 -2.0016 0.9344
16.8477 0.2850 -2.0016 0.9344
16.7838 1.4936 -2.0016 0.9344
16.6333 2.6945 -2.0016 0.9344
16.3970 3.8815 -2.0016 0.9344
16.0761 5.0485 -2.0016 0.9344
15.6722 6.1894 -2.0016 0.9344
15.1875 7.2985 -2.0016 0.9344
14.6244 8.3698 -2.0016 0.9344
14.3144 8.8896 -2.0016 0.9344
13.9859 9.3980 -2.0016 0.9344
13.6394 9.8942 -2.0016 0.9344
12.8939 10.8477 -2.0016 0.9344
12.4960 11.3038 -2.0016 0.9344
10.7486 12.9767 -2.0016 0.9344
10.2757 13.3543 -2.0016 0.9344
9.7894 13.7148 -2.0016 0.9344
8.7797 14.3821 -2.0016 0.9344
2.4540 12.8388 -1.5527 0.9487
1.9435 12.6085 -1.5154 0.9499
0.9897 12.1783 -1.4514 0.9520
0.5413 11.9761 -1.4240 0.9529
0.1090 11.7810 -1.3995 0.9537
-0.3093 11.5924 -1.3775 0.9544
-0.7154 11.4138 -1.3585 0.9550
-1.1283 11.4165 -1.3627 0.9548
-2.3907 11.4248 -1.3865 0.9541
-2.8232 11.4276 -1.3982 0.9537
-3.2637 11.4305 -1.4120 0.9532
-4.1742 11.4365 -1.4461 0.9521
-4.6474 11.4396 -1.4667 0.9515
-5.6386 11.4461 -1.5157 0.9499
-7.2708 11.4567 -1.6118 0.9468
-7.8645 11.4606 -1.6511 0.9455
-8.4887 11.4647 -1.6945 0.9442
-9.1475 11.4690 -1.7426 0.9426
-10.5565 11.4434 -1.8494 0.9392
-10.9606 11.0569 -1.8494 0.9392
-11.3506 10.6561 -1.8494 0.9392
-12.0863 9.8138 -1.8494 0.9392
-12.4309 9.3734 -1.8494 0.9392
-13.8130 8.2484 -1.9111 0.9372
-15.5550 6.4783 -2.0016 0.9344
-15.9799 5.3451 -2.0016 0.9344
-16.1616 4.7677 -2.0016 0.9344
-16.4621 3.5953 -2.0016 0.9344
-16.7533 1.8038 -2.0016 0.9344
-16.8073 1.2010 -2.0016 0.9344
-16.8396 0.5966 -2.0016 0.9344
-16.8502 -0.0086 -2.0016 0.9344
-16.5776 -3.0186 -2.0016 0.9344
-16.3181 -4.2008 -2.0016 0.9344
-16.1567 -4.7841 -2.0016 0.9344
-15.7716 -5.9316 -2.0016 0.9344
-15.3052 -7.0484 -2.0016 0.9344
-14.4583 -8.6537 -2.0016 0.9344
-14.1382 -9.1673 -2.0016 0.9344
-13.0701 -10.6348 -2.0016 0.9344
-12.6798 -11.0973 -2.0016 0.9344
-11.4126 -12.3968 -2.0016 0.9344
-10.0131 -13.5523 -2.0016 0.9344
-9.5199 -13.9032 -2.0016 0.9344
-8.4973 -14.5507 -2.0016 0.9344
-7.9693 -14.8465 -2.0016 0.9344
-6.8830 -15.3802 -2.0016 0.9344
-5.7562 -15.8207 -1.9998 0.9344
-5.1766 -15.9937 -1.9969 0.9345
-3.3670 -16.1721 -1.9622 0.9356
1.3661 -16.5998 -1.9785 0.9351
-5.5500 11.4455 -1.8023 0.9499
-6.0688 11.4489 -1.8360 0.9490
-7.3179 10.8078 -1.8494 0.9486
-8.0748 10.2546 -1.8494 0.9486
-8.7901 9.6486 -1.8494 0.9486
-9.1309 9.3267 -1.8494 0.9486
-10.0811 8.2904 -1.8494 0.9486
-10.7949 8.2458 -1.9247 0.9466
-11.4917 8.1416 -1.9955 0.9447
-12.3382 6.8793 -2.0016 0.9445
-13.0065 5.5123 -2.0016 0.9445
-13.5240 4.0814 -2.0016 0.9445
-13.6618 3.5930 -2.0016 0.9445
-13.8845 2.6031 -2.0016 0.9445
-14.0839 1.0946 -2.0016 0.9445
-14.1262 0.0808 -2.0016 0.9445
-14.1200 -0.4265 -2.0016 0.9445
-14.0529 -1.4390 -2.0016 0.9445
-13.9922 -1.9428 -2.0016 0.9445
-13.9134 -2.4440 -2.0016 0.9445
-12.8186 -2.7296 -1.8570 0.9484
-11.9382 -5.4079 -1.8570 0.9484
-12.6501 -6.2873 -2.0016 0.9445
-12.1661 -7.1792 -2.0016 0.9445
-11.9005 -7.6115 -2.0016 0.9445
-11.0128 -8.8473 -2.0016 0.9445
-10.6879 -9.2371 -2.0016 0.9445
-9.9973 -9.9805 -2.0016 0.9445
-9.6324 -10.3331 -2.0016 0.9445
-8.8658 -10.9978 -2.0016 0.9445
-7.1996 -12.1540 -2.0016 0.9445
-5.8506 -12.8579 -2.0016 0.9445
-1.4627 -14.0505 -2.0016 0.9445
1.5761 -14.0382 -2.0016 0.9445
2.0792 -13.9725 -2.0016 0.9445
2.5797 -13.8889 -2.0016 0.9445
3.5700 -13.6679 -2.0016 0.9445
4.0586 -13.5308 -2.0016 0.9445
4.5419 -13.3763 -2.0016 0.9445
5.0194 -13.2046 -2.0016 0.9445
5.4903 -13.0158 -2.0016 0.9445
2.1871 -4.2947 -0.6829 0.9807
2.3333 -4.2014 -0.6809 0.9808
8.5562 -11.2404 -2.0016 0.9445
9.3410 -10.5973 -2.0016 0.9445
10.0775 -9.8994 -2.0016 0.9445
10.4266 -9.5311 -2.0016 0.9445
10.7621 -9.1505 -2.0016 0.9445
11.9615 -7.5151 -2.0016 0.9445
12.7004 -6.1850 -2.0016 0.9445
12.9144 -5.7249 -2.0016 0.9445
13.4552 -4.3027 -2.0016 0.9445
13.6010 -3.8166 -2.0016 0.9445
14.0074 -1.8297 -2.0016 0.9445
14.1229 -0.3125 -2.0016 0.9445
14.0746 1.2083 -2.0016 0.9445
13.8630 2.7151 -2.0016 0.9445
13.7566 3.2112 -2.0016 0.9445
13.6324 3.7032 -2.0016 0.9445
13.4906 4.1904 -2.0016 0.9445
12.7515 6.0790 -2.0016 0.9445
12.5250 6.5330 -2.0016 0.9445
11.7496 7.8423 -2.0016 0.9445
10.5056 9.4439 -2.0016 0.9445
9.8006 10.1737 -2.0016 0.9445
9.0450 10.8509 -2.0016 0.9445
8.6495 11.1688 -2.0016 0.9445
7.8255 11.7608 -2.0016 0.9445
6.0197 11.5812 -1.8494 0.9486
5.1728 11.9834 -1.8494 0.9486
4.7391 12.1615 -1.8494 0.9486
2.9489 12.7147 -1.8494 0.9486
1.9868 12.6281 -1.8113 0.9497
-0.2735 11.6085 -1.6453 0.9542
-1.0924 11.4163 -1.6250 0.9547
-1.9282 11.4217 -1.6412 0.9543
-3.2251 11.4302 -1.6828 0.9532
-4.1338 11.4362 -1.7230 0.9521
-4.6058 11.4393 -1.7473 0.9514
-5.0920 11.4425 -1.7746 0.9507
-5.5942 11.4458 -1.8051 0.9498
-6.1148 11.4492 -1.8391 0.9489
-6.5584 11.2848 -1.8494 0.9486
-6.9595 11.0420 -1.8494 0.9486
-8.1067 10.2294 -1.8494 0.9486
-8.4689 9.9317 -1.8494 0.9486
-8.8201 9.6211 -1.8494 0.9486
-9.4880 8.9632 -1.8494 0.9486
-9.8038 8.6167 -1.8494 0.9486
-10.8631 8.2444 -1.9323 0.9464
-11.8366 7.7103 -2.0016 0.9445
-12.5973 6.3925 -2.0016 0.9445
-12.8187 5.9359 -2.0016 0.9445
-13.0236 5.4717 -2.0016 0.9445
-13.5366 4.0392 -2.0016 0.9445
-13.6729 3.5505 -2.0016 0.9445
-13.9755 2.0592 -2.0016 0.9445
-14.0404 1.5560 -2.0016 0.9445
-14.1159 0.5441 -2.0016 0.9445
-14.1264 0.0368 -2.0016 0.9445
-14.1186 -0.4705 -2.0016 0.9445
-14.0926 -0.9773 -2.0016 0.9445
-13.9861 -1.9863 -2.0016 0.9445
-13.9057 -2.4874 -2.0016 0.9445
-12.8100 -2.7695 -1.8570 0.9484
-12.4378 -4.1313 -1.8570 0.9484
-12.2815 -4.5753 -1.8570 0.9484
-12.1092 -5.0134 -1.8570 0.9484
-12.6304 -6.3267 -2.0016 0.9445
-12.3951 -6.7762 -2.0016 0.9445
-11.8767 -7.6485 -2.0016 0.9445
-10.9851 -8.8816 -2.0016 0.9445
-10.3193 -9.6472 -2.0016 0.9445
-9.9661 -10.0116 -2.0016 0.9445
-9.2218 -10.7011 -2.0016 0.9445
-8.8315 -11.0254 -2.0016 0.9445
-8.0173 -11.6309 -2.0016 0.9445
-7.1618 -12.1764 -2.0016 0.9445
-6.2692 -12.6591 -2.0016 0.9445
-3.9069 -13.5754 -2.0016 0.9445
-3.4169 -13.7069 -2.0016 0.9445
-2.9224 -13.8208 -2.0016 0.9445
-1.9228 -13.9949 -2.0016 0.9445
-1.4189 -14.0550 -2.0016 0.9445
-0.9132 -14.0969 -2.0016 0.9445
-0.4064 -14.1206 -2.0016 0.9445
0.1010 -14.1260 -2.0016 0.9445
0.6083 -14.1133 -2.0016 0.9445
1.1148 -14.0823 -2.0016 0.9445
1.6198 -14.0332 -2.0016 0.9445
2.1227 -13.9660 -2.0016 0.9445
2.6230 -13.8808 -2.0016 0.9445
3.1198 -13.7776 -2.0016 0.9445
4.1007 -13.5181 -2.0016 0.9445
4.5835 -13.3621 -2.0016 0.9445
5.0605 -13.1889 -2.0016 0.9445
5.9942 -12.7916 -2.0016 0.9445
2.1877 -4.2630 -0.6789 0.9808
6.8969 -12.3284 -2.0016 0.9445
7.7640 -11.8015 -2.0016 0.9445
8.9883 -10.8979 -2.0016 0.9445
9.3739 -10.5681 -2.0016 0.9445
9.7474 -10.2246 -2.0016 0.9445
10.4562 -9.4986 -2.0016 0.9445
11.1111 -8.7235 -2.0016 0.9445
11.4172 -8.3188 -2.0016 0.9445
11.7086 -7.9034 -2.0016 0.9445
11.9849 -7.4778 -2.0016 0.9445
12.2457 -7.0426 -2.0016 0.9445
13.1280 -5.2165 -2.0016 0.9445
13.3068 -4.7417 -2.0016 0.9445
13.9398 -2.2882 -2.0016 0.9445
14.0130 -1.7861 -2.0016 0.9445
14.0681 -1.2817 -2.0016 0.9445
14.1239 -0.2685 -2.0016 0.9445
14.1067 0.7460 -2.0016 0.9445
13.7465 3.2541 -2.0016 0.9445
13.6208 3.7457 -2.0016 0.9445
13.4775 4.2324 -2.0016 0.9445
13.3168 4.7137 -2.0016 0.9445
12.9440 5.6575 -2.0016 0.9445
12.7325 6.1187 -2.0016 0.9445
12.2604 7.0169 -2.0016 0.9445
12.0005 7.4527 -2.0016 0.9445
11.7251 7.8789 -2.0016 0.9445
11.4346 8.2949 -2.0016 0.9445
10.4761 9.4766 -2.0016 0.9445
10.1290 9.8467 -2.0016 0.9445
9.7688 10.2042 -2.0016 0.9445
9.3961 10.5484 -2.0016 0.9445
9.0112 10.8791 -2.0016 0.9445
8.2070 11.4978 -2.0016 0.9445
7.7888 11.7852 -2.0016 0.9445
5.5631 11.8073 -1.8494 0.9486
4.7012 12.1762 -1.8494 0.9486
4.2609 12.3371 -1.8494 0.9486
3.8151 12.4822 -1.8494 0.9486
2.4504 12.8201 -1.8494 0.9486
0.1090 11.7810 -1.6693 0.9535
-0.3093 11.5924 -1.6431 0.9542
-0.7154 11.4138 -1.6204 0.9548
-1.1283 11.4165 -1.6255 0.9547
-2.3907 11.4248 -1.6538 0.9539
-2.8232 11.4276 -1.6678 0.9536
-3.2637 11.4305 -1.6843 0.9531
-4.1742 11.4365 -1.7250 0.9520
-4.6474 11.4396 -1.7495 0.9513
-5.1349 11.4427 -1.7771 0.9506
-5.6386 11.4461 -1.8079 0.9498
-6.1608 11.4495 -1.8422 0.9488
-6.9938 11.0203 -1.8494 0.9486
-7.7668 10.4898 -1.8494 0.9486
-8.1386 10.2041 -1.8494 0.9486
-8.4998 9.9052 -1.8494 0.9486
-8.8501 9.5936 -1.8494 0.9486
-9.1889 9.2696 -1.8494 0.9486
-9.5159 8.9336 -1.8494 0.9486
-9.8306 8.5861 -1.8494 0.9486
-10.1713 8.2589 -1.8564 0.9484
-10.9318 8.2430 -1.9399 0.9462
-11.5489 8.0745 -1.9966 0.9447
-11.8606 7.6734 -2.0016 0.9445
-12.1285 7.2425 -2.0016 0.9445
-12.6171 6.3532 -2.0016 0.9445
-13.0406 5.4311 -2.0016 0.9445
-13.3968 4.4811 -2.0016 0.9445
-13.8011 3.0141 -2.0016 0.9445
-13.9004 2.5166 -2.0016 0.9445
-14.0452 1.5122 -2.0016 0.9445
-14.0905 1.0069 -2.0016 0.9445
-12.8013 -2.8095 -1.8570 0.9484
-12.6922 -3.2674 -1.8570 0.9484
-12.5667 -3.7210 -1.8570 0.9484
-12.2671 -4.6136 -1.8570 0.9484
-11.9043 -5.4822 -1.8570 0.9484
-12.3739 -6.8148 -2.0016 0.9445
-11.8528 -7.6855 -2.0016 0.9445
-11.5691 -8.1062 -2.0016 0.9445
-11.2705 -8.5165 -2.0016 0.9445
-10.6302 -9.3035 -2.0016 0.9445
-9.9349 -10.0426 -2.0016 0.9445
-9.5678 -10.3929 -2.0016 0.9445
-8.3945 -11.3617 -2.0016 0.9445
-7.5573 -11.9349 -2.0016 0.9445
-7.1238 -12.1986 -2.0016 0.9445
-6.2297 -12.6785 -2.0016 0.9445
-4.3501 -13.4399 -2.0016 0.9445
-3.8646 -13.5875 -2.0016 0.9445
-2.8793 -13.8299 -2.0016 0.9445
-1.3751 -14.0593 -2.0016 0.9445
-0.8693 -14.0996 -2.0016 0.9445
0.1451 -14.1257 -2.0016 0.9445
1.1586 -14.0788 -2.0016 0.9445
-4.8981 10.1011 -1.8494 0.9555
-5.2577 9.9186 -1.8494 0.9555
-5.6105 9.7234 -1.8494 0.9555
-6.9450 8.8198 -1.8494 0.9555
-7.2573 8.5647 -1.8494 0.9555
-7.5602 8.2986 -1.8494 0.9555
-8.0769 8.2500 -1.9020 0.9543
-8.6656 8.2375 -1.9696 0.9527
-9.0818 8.0324 -1.9973 0.9520
-9.6553 7.3753 -2.0016 0.9519
-9.9139 7.0238 -2.0016 0.9519
-10.1598 6.6632 -2.0016 0.9519
-10.8175 5.5318 -2.0016 0.9519
-11.0092 5.1397 -2.0016 0.9519
-11.1867 4.7410 -2.0016 0.9519
-11.3498 4.3362 -2.0016 0.9519
-11.4982 3.9258 -2.0016 0.9519
-11.6317 3.5103 -2.0016 0.9519
-11.7503 3.0903 -2.0016 0.9519
-11.9418 2.2389 -2.0016 0.9519
-12.0145 1.8086 -2.0016 0.9519
-12.1393 0.5058 -2.0016 0.9519
-12.1443 -0.3669 -2.0016 0.9519
-12.0344 -1.6709 -2.0016 0.9519
-11.9666 -2.1021 -2.0016 0.9519
-10.9336 -2.7421 -1.8570 0.9553
-10.4283 -4.2795 -1.8570 0.9553
-10.2679 -4.6513 -1.8570 0.9553
-10.0942 -5.0170 -1.8570 0.9553
-9.9075 -5.3763 -1.8570 0.9553
-10.4639 -6.1747 -2.0016 0.9519
-10.2354 -6.5465 -2.0016 0.9519
-9.9937 -6.9099 -2.0016 0.9519
-9.7391 -7.2643 -2.0016 0.9519
-9.1925 -7.9447 -2.0016 0.9519
-8.2847 -8.8873 -2.0016 0.9519
-7.2807 -9.7268 -2.0016 0.9519
-6.9267 -9.9820 -2.0016 0.9519
-6.5637 -10.2243 -2.0016 0.9519
-6.1923 -10.4535 -2.0016 0.9519
-5.4260 -10.8710 -2.0016 0.9519
-5.0320 -11.0588 -2.0016 0.9519
-4.2252 -11.3915 -2.0016 0.9519
-3.8134 -11.5359 -2.0016 0.9519
-2.9755 -11.7799 -2.0016 0.9519
-2.5505 -11.8792 -2.0016 0.9519
-2.1222 -11.9631 -2.0016 0.9519
-1.2580 -12.0846 -2.0016 0.9519
0.0490 -12.1498 -2.0016 0.9519
1.3555 -12.0740 -2.0016 0.9519
1.7883 -12.0175 -2.0016 0.9519
2.2187 -11.9456 -2.0016 0.9519
3.0705 -11.7555 -2.0016 0.9519
4.3171 -11.3570 -2.0016 0.9519
4.7222 -11.1947 -2.0016 0.9519
5.1212 -11.0179 -2.0016 0.9519
2.1870 -4.2946 -0.7940 0.9807
2.3332 -4.2014 -0.7917 0.9807
6.2765 -10.4031 -2.0016 0.9519
7.0071 -9.9258 -2.0016 0.9519
7.3590 -9.6677 -2.0016 0.9519
7.7015 -9.3972 -2.0016 0.9519
8.0340 -9.1145 -2.0016 0.9519
8.6675 -8.5143 -2.0016 0.9519
8.9677 -8.1975 -2.0016 0.9519
9.7974 -7.1854 -2.0016 0.9519
10.2879 -6.4636 -2.0016 0.9519
10.9234 -5.3196 -2.0016 0.9519
11.2771 -4.5218 -2.0016 0.9519
11.6980 -3.2826 -2.0016 0.9519
11.8084 -2.8604 -2.0016 0.9519
11.9035 -2.4345 -2.0016 0.9519
12.0475 -1.5737 -2.0016 0.9519
12.1294 -0.7049 -2.0016 0.9519
12.1469 -0.2688 -2.0016 0.9519
12.1487 0.1676 -2.0016 0.9519
12.1054 1.0392 -2.0016 0.9519
11.9233 2.3352 -2.0016 0.9519
11.1481 4.8312 -2.0016 0.9519
10.3414 6.3777 -2.0016 0.9519
10.1057 6.7450 -2.0016 0.9519
9.8569 7.1036 -2.0016 0.9519
9.5954 7.4530 -2.0016 0.9519
9.3216 7.7928 -2.0016 0.9519
8.7381 8.4418 -2.0016 0.9519
7.4393 9.6061 -2.0016 0.9519
7.0895 9.8671 -2.0016 0.9519
6.3629 10.3505 -2.0016 0.9519
4.8164 10.1403 -1.8494 0.9555
4.4491 10.3067 -1.8494 0.9555
4.0761 10.4599 -1.8494 0.9555
3.3147 10.7255 -1.8494 0.9555
2.9274 10.8376 -1.8494 0.9555
1.7447 11.0896 -1.8494 0.9555
1.3454 11.1451 -1.8494 0.9555
0.9442 11.1862 -1.8494 0.9555
0.5419 11.2129 -1.8494 0.9555
0.1388 11.2251 -1.8494 0.9555
-0.2644 11.2229 -1.8494 0.9555
-1.1516 8.7187 -1.4488 0.9650
-2.2651 10.9951 -1.8494 0.9555
-3.0485 10.8041 -1.8494 0.9555
-3.4345 10.6877 -1.8494 0.9555
-4.5641 10.2563 -1.8494 0.9555
-6.6520 9.0429 -1.8494 0.9555
-6.9725 8.7981 -1.8494 0.9555
-7.2840 8.5421 -1.8494 0.9555
-8.1264 8.2490 -1.9076 0.9541
-8.7186 8.2364 -1.9759 0.9525
-9.1088 8.0058 -1.9978 0.9520
-9.4082 7.6880 -2.0016 0.9519
-9.6782 7.3452 -2.0016 0.9519
-10.4121 6.2616 -2.0016 0.9519
-11.0252 5.1054 -2.0016 0.9519
-11.2014 4.7061 -2.0016 0.9519
-11.5103 3.8900 -2.0016 0.9519
-11.6426 3.4741 -2.0016 0.9519
-11.8619 2.6294 -2.0016 0.9519
-12.1409 0.4680 -2.0016 0.9519
-12.1498 0.0317 -2.0016 0.9519
-12.1431 -0.4047 -2.0016 0.9519
-12.1208 -0.8405 -2.0016 0.9519
-12.0292 -1.7084 -2.0016 0.9519
-11.9600 -2.1393 -2.0016 0.9519
-11.0177 -2.3820 -1.8570 0.9553
-10.9250 -2.7762 -1.8570 0.9553
-10.8183 -3.1668 -1.8570 0.9553
-10.6976 -3.5532 -1.8570 0.9553
-10.4149 -4.3120 -1.8570 0.9553
-10.0785 -5.0484 -1.8570 0.9553
-10.2149 -6.5783 -2.0016 0.9519
-9.1677 -7.9733 -2.0016 0.9519
-8.8754 -8.2974 -2.0016 0.9519
-8.2569 -8.9131 -2.0016 0.9519
-7.9315 -9.2038 -2.0016 0.9519
-7.5958 -9.4828 -2.0016 0.9519
-7.2504 -9.7494 -2.0016 0.9519
-6.5318 -10.2447 -2.0016 0.9519
-6.1597 -10.4727 -2.0016 0.9519
-5.3921 -10.8878 -2.0016 0.9519
-4.9976 -11.0745 -2.0016 0.9519
-4.5966 -11.2468 -2.0016 0.9519
-4.1897 -11.4046 -2.0016 0.9519
-3.3603 -11.6760 -2.0016 0.9519
-2.0849 -11.9696 -2.0016 0.9519
-1.6537 -12.0368 -2.0016 0.9519
-1.2204 -12.0884 -2.0016 0.9519
-0.7854 -12.1245 -2.0016 0.9519
-0.3495 -12.1448 -2.0016 0.9519
2.6833 -11.8499 -2.0016 0.9519
3.1071 -11.7459 -2.0016 0.9519
4.3524 -11.3435 -2.0016 0.9519
2.1877 -4.2630 -0.7894 0.9808
6.3089 -10.3835 -2.0016 0.9519
7.0379 -9.9039 -2.0016 0.9519
7.3891 -9.6447 -2.0016 0.9519
7.7307 -9.3731 -2.0016 0.9519
8.0623 -9.0894 -2.0016 0.9519
8.3836 -8.7940 -2.0016 0.9519
8.9932 -8.1696 -2.0016 0.9519
9.2808 -7.8413 -2.0016 0.9519
9.8197 -7.1549 -2.0016 0.9519
10.3080 -6.4315 -2.0016 0.9519
10.7431 -5.6750 -2.0016 0.9519
11.4450 -4.0782 -2.0016 0.9519
11.7082 -3.2462 -2.0016 0.9519
11.8172 -2.8236 -2.0016 0.9519
12.0524 -1.5362 -2.0016 0.9519
12.1329 0.6416 -2.0016 0.9519
11.9160 2.3724 -2.0016 0.9519
11.8231 2.7988 -2.0016 0.9519
11.7150 3.2216 -2.0016 0.9519
11.5917 3.6402 -2.0016 0.9519
10.9510 5.2626 -2.0016 0.9519
10.0846 6.7765 -2.0016 0.9519
9.8347 7.1343 -2.0016 0.9519
9.5721 7.4829 -2.0016 0.9519
9.2972 7.8218 -2.0016 0.9519
8.4020 8.7764 -2.0016 0.9519
8.0814 9.0725 -2.0016 0.9519
7.7504 9.3569 -2.0016 0.9519
7.4093 9.6292 -2.0016 0.9519
7.0587 9.8891 -2.0016 0.9519
6.3306 10.3703 -2.0016 0.9519
4.7847 10.1552 -1.8494 0.9555
4.0435 10.4725 -1.8494 0.9555
3.6647 10.6110 -1.8494 0.9555
2.5022 10.9436 -1.8494 0.9555
1.7102 11.0950 -1.8494 0.9555
0.9094 11.1891 -1.8494 0.9555
0.5069 11.2145 -1.8494 0.9555
-0.2994 11.2220 -1.8494 0.9555
-1.1041 11.1716 -1.8494 0.9555
-3.0821 10.7946 -1.8494 0.9555
-4.2253 10.4005 -1.8494 0.9555
-4.9609 10.0704 -1.8494 0.9555
-5.3194 9.8857 -1.8494 0.9555
-6.0153 9.4784 -1.8494 0.9555
-6.3518 9.2562 -1.8494 0.9555
-6.9998 8.7764 -1.8494 0.9555
-7.3105 8.5193 -1.8494 0.9555
-7.6229 8.2633 -1.8521 0.9554
-8.1761 8.2480 -1.9132 0.9540
-9.1358 7.9792 -1.9982 0.9520
-9.4321 7.6587 -2.0016 0.9519
-9.7010 7.3150 -2.0016 0.9519
-9.9575 6.9619 -2.0016 0.9519
-10.2011 6.5998 -2.0016 0.9519
-11.2160 4.6712 -2.0016 0.9519
-11.3765 4.2654 -2.0016 0.9519
-11.7693 3.0170 -2.0016 0.9519
-11.8701 2.5924 -2.0016 0.9519
-12.0800 1.3006 -2.0016 0.9519
-12.1499 -0.0062 -2.0016 0.9519
-12.0238 -1.7459 -2.0016 0.9519
-11.9533 -2.1766 -2.0016 0.9519
-10.8084 -3.2004 -1.8570 0.9553
-10.6864 -3.5866 -1.8570 0.9553
-10.4014 -4.3444 -1.8570 0.9553
-10.2387 -4.7151 -1.8570 0.9553
-10.4252 -6.2398 -2.0016 0.9519
-9.9504 -6.9720 -2.0016 0.9519
-9.6936 -7.3249 -2.0016 0.9519
-9.4243 -7.6683 -2.0016 0.9519
-8.8495 -8.3250 -2.0016 0.9519
-8.2291 -8.9387 -2.0016 0.9519
-7.5663 -9.5064 -2.0016 0.9519
-6.4999 -10.2650 -2.0016 0.9519
-6.1271 -10.4918 -2.0016 0.9519
-5.7463 -10.7051 -2.0016 0.9519
-5.3581 -10.9046 -2.0016 0.9519
-4.9630 -11.0900 -2.0016 0.9519
-3.7414 -11.5595 -2.0016 0.9519
-3.3239 -11.6864 -2.0016 0.9519
-2.9020 -11.7982 -2.0016 0.9519
-1.1827 -12.0922 -2.0016 0.9519
-0.7477 -12.1268 -2.0016 0.9519
0.9965 -12.1089 -2.0016 0.9519
-4.9174 8.5221 -1.8494 0.9607
-5.2203 8.3400 -1.8494 0.9607
-7.1665 7.8664 -2.0002 0.9576
-7.4496 7.6093 -2.0016 0.9576
-7.9766 7.0549 -2.0016 0.9576
-8.4624 6.4641 -2.0016 0.9576
-8.6891 6.1560 -2.0016 0.9576
-8.9046 5.8400 -2.0016 0.9576
-9.1086 5.5164 -2.0016 0.9576
-9.3008 5.1857 -2.0016 0.9576
-9.8046 4.1553 -2.0016 0.9576
-10.0776 3.4408 -2.0016 0.9576
-10.5302 1.5851 -2.0016 0.9576
-10.5803 1.2059 -2.0016 0.9576
-10.6168 0.8252 -2.0016 0.9576
-10.6486 0.0609 -2.0016 0.9576
-10.6440 -0.3215 -2.0016 0.9576
-10.6255 -0.7036 -2.0016 0.9576
-10.5934 -1.0848 -2.0016 0.9576
-10.5476 -1.4645 -2.0016 0.9576
-10.4882 -1.8424 -2.0016 0.9576
-9.5828 -2.4034 -1.8570 0.9606
-9.4903 -2.7460 -1.8570 0.9606
-9.2687 -3.4201 -1.8570 0.9606
-9.1399 -3.7508 -1.8570 0.9606
-8.9993 -4.0766 -1.8570 0.9606
-8.6835 -4.7121 -1.8570 0.9606
-8.5358 -6.3668 -2.0016 0.9576
-8.3017 -6.6693 -2.0016 0.9576
-8.0568 -6.9631 -2.0016 0.9576
-7.5362 -7.5235 -2.0016 0.9576
-7.2611 -7.7893 -2.0016 0.9576
-6.9767 -8.0451 -2.0016 0.9576
-6.0709 -8.7488 -2.0016 0.9576
-5.4273 -9.1620 -2.0016 0.9576
-4.0594 -9.8447 -2.0016 0.9576
-2.9770 -10.2242 -2.0016 0.9576
-2.2354 -10.4115 -2.0016 0.9576
-1.8600 -10.4851 -2.0016 0.9576
-0.7215 -10.6243 -2.0016 0.9576
0.0430 -10.6487 -2.0016 0.9576
0.8073 -10.6182 -2.0016 0.9576
1.1881 -10.5823 -2.0016 0.9576
1.5674 -10.5328 -2.0016 0.9576
1.9446 -10.4697 -2.0016 0.9576
2.3194 -10.3932 -2.0016 0.9576
2.6912 -10.3032 -2.0016 0.9576
3.4238 -10.0834 -2.0016 0.9576
3.7837 -9.9539 -2.0016 0.9576
4.4885 -9.6567 -2.0016 0.9576
2.1870 -4.2946 -0.9058 0.9806
5.5011 -9.1179 -2.0016 0.9576
6.1414 -8.6995 -2.0016 0.9576
7.8598 -7.1848 -2.0016 0.9576
8.3553 -6.6020 -2.0016 0.9576
8.5870 -6.2977 -2.0016 0.9576
8.8076 -5.9853 -2.0016 0.9576
9.5739 -4.6624 -2.0016 0.9576
9.7352 -4.3155 -2.0016 0.9576
9.8839 -3.9631 -2.0016 0.9576
10.1428 -3.2434 -2.0016 0.9576
10.6018 -0.9992 -2.0016 0.9576
10.6462 -0.2356 -2.0016 0.9576
10.6478 0.1469 -2.0016 0.9576
10.6357 0.5292 -2.0016 0.9576
10.6098 0.9108 -2.0016 0.9576
10.5702 1.2913 -2.0016 0.9576
10.5170 1.6701 -2.0016 0.9576
10.4503 2.0467 -2.0016 0.9576
10.1695 3.1588 -2.0016 0.9576
9.9165 3.8807 -2.0016 0.9576
9.7708 4.2343 -2.0016 0.9576
9.0638 5.5898 -2.0016 0.9576
8.6391 6.2260 -2.0016 0.9576
8.4099 6.5322 -2.0016 0.9576
7.3879 7.6692 -2.0016 0.9576
6.5202 8.4193 -2.0016 0.9576
5.8990 8.8656 -2.0016 0.9576
5.5768 9.0717 -2.0016 0.9576
4.9020 9.4309 -1.9978 0.9577
3.9399 9.1271 -1.8686 0.9603
2.5657 9.4987 -1.8494 0.9607
1.5292 9.7195 -1.8494 0.9607
0.4749 9.8276 -1.8494 0.9607
0.1217 9.8383 -1.8494 0.9607
-0.9372 9.7943 -1.8494 0.9607
-1.9852 9.6367 -1.8494 0.9607
-2.6718 9.4694 -1.8494 0.9607
-3.6748 9.1270 -1.8494 0.9607
-4.3205 8.8397 -1.8494 0.9607
-4.9439 8.5068 -1.8494 0.9607
-6.0658 8.2459 -1.9241 0.9592
-6.5273 8.2365 -1.9753 0.9581
-7.4733 7.5860 -2.0016 0.9576
-7.7409 7.3127 -2.0016 0.9576
-7.9985 7.0300 -2.0016 0.9576
-8.2458 6.7382 -2.0016 0.9576
-8.4825 6.4377 -2.0016 0.9576
-8.7083 6.1289 -2.0016 0.9576
-8.9227 5.8122 -2.0016 0.9576
-9.8175 4.1247 -2.0016 0.9576
-9.9593 3.7695 -2.0016 0.9576
-10.3070 2.6764 -2.0016 0.9576
-10.4725 1.9297 -2.0016 0.9576
-10.5351 1.5523 -2.0016 0.9576
-10.6488 0.0278 -2.0016 0.9576
-10.5430 -1.4974 -2.0016 0.9576
-9.5753 -2.4332 -1.8570 0.9606
-9.4817 -2.7755 -1.8570 0.9606
-9.1282 -3.7792 -1.8570 0.9606
-8.8334 -4.4247 -1.8570 0.9606
-8.4930 -5.0474 -1.8570 0.9606
-8.5160 -6.3934 -2.0016 0.9576
-8.2809 -6.6951 -2.0016 0.9576
-6.9516 -8.0668 -2.0016 0.9576
-6.6574 -8.3112 -2.0016 0.9576
-6.0436 -8.7676 -2.0016 0.9576
-5.3987 -9.1789 -2.0016 0.9576
-4.3801 -9.7063 -2.0016 0.9576
-4.0287 -9.8573 -2.0016 0.9576
-3.3107 -10.1211 -2.0016 0.9576
-2.9451 -10.2335 -2.0016 0.9576
-2.5757 -10.3326 -2.0016 0.9576
-0.6884 -10.6265 -2.0016 0.9576
1.2210 -10.5786 -2.0016 0.9576
1.9772 -10.4636 -2.0016 0.9576
2.3518 -10.3859 -2.0016 0.9576
2.7232 -10.2947 -2.0016 0.9576
3.4552 -10.0727 -2.0016 0.9576
3.8147 -9.9421 -2.0016 0.9576
4.1693 -9.7987 -2.0016 0.9576
4.5185 -9.6426 -2.0016 0.9576
5.5294 -9.1007 -2.0016 0.9576
5.8527 -8.8962 -2.0016 0.9576
7.8821 -7.1603 -2.0016 0.9576
8.8262 -5.9578 -2.0016 0.9576
9.0345 -5.6370 -2.0016 0.9576
9.2311 -5.3089 -2.0016 0.9576
9.5884 -4.6325 -2.0016 0.9576
9.7486 -4.2852 -2.0016 0.9576
9.8962 -3.9323 -2.0016 0.9576
10.2617 -2.8451 -2.0016 0.9576
10.4395 -2.1012 -2.0016 0.9576
10.6049 -0.9661 -2.0016 0.9576
10.6328 -0.5847 -2.0016 0.9576
10.6473 0.1801 -2.0016 0.9576
10.5118 1.7028 -2.0016 0.9576
10.4439 2.0793 -2.0016 0.9576
10.3624 2.4530 -2.0016 0.9576
9.0463 5.6180 -2.0016 0.9576
8.8387 5.9393 -2.0016 0.9576
8.6197 6.2529 -2.0016 0.9576
8.3896 6.5584 -2.0016 0.9576
8.1486 6.8555 -2.0016 0.9576
7.8971 7.1437 -2.0016 0.9576
7.6355 7.4227 -2.0016 0.9576
7.3640 7.6921 -2.0016 0.9576
6.4939 8.4396 -2.0016 0.9576
5.8714 8.8839 -2.0016 0.9576
5.5485 9.0891 -2.0016 0.9576
5.2185 9.2825 -2.0016 0.9576
4.8714 9.4439 -1.9973 0.9577
4.4280 9.3980 -1.9527 0.9586
3.2120 9.3000 -1.8494 0.9607
2.8759 9.4094 -1.8494 0.9607
2.5361 9.5066 -1.8494 0.9607
2.1931 9.5915 -1.8494 0.9607
1.8472 9.6641 -1.8494 0.9607
0.7970 9.8067 -1.8494 0.9607
0.4443 9.8290 -1.8494 0.9607
-0.2624 9.8356 -1.8494 0.9607
-0.6154 9.8198 -1.8494 0.9607
-0.9677 9.7914 -1.8494 0.9607
-1.1775 8.7059 -1.6513 0.9649
-2.0152 9.6305 -1.8494 0.9607
-2.3598 9.5519 -1.8494 0.9607
-2.7013 9.4610 -1.8494 0.9607
-3.7033 9.1155 -1.8494 0.9607
-4.3480 8.8262 -1.8494 0.9607
-4.6622 8.6644 -1.8494 0.9607
-4.9704 8.4913 -1.8494 0.9607
-6.1048 8.2452 -1.9283 0.9591
-6.5685 8.2356 -1.9800 0.9580
-7.4969 7.5627 -2.0016 0.9576
-8.0204 7.0050 -2.0016 0.9576
-8.2668 6.7125 -2.0016 0.9576
-8.7273 6.1018 -2.0016 0.9576
-8.9408 5.7844 -2.0016 0.9576
-9.1428 5.4596 -2.0016 0.9576
-9.3330 5.1277 -2.0016 0.9576
-9.9710 3.7384 -2.0016 0.9576
-10.0989 3.3779 -2.0016 0.9576
-10.4036 2.2721 -2.0016 0.9576
-10.5399 1.5195 -2.0016 0.9576
-10.6210 -0.7698 -2.0016 0.9576
-10.5865 -1.1507 -2.0016 0.9576
-9.4730 -2.8050 -1.8570 0.9606
-9.3662 -3.1435 -1.8570 0.9606
-9.1164 -3.8077 -1.8570 0.9606
-8.9738 -4.1326 -1.8570 0.9606
-8.6540 -4.7661 -1.8570 0.9606
-8.2895 -5.3750 -1.8570 0.9606
-8.4960 -6.4199 -2.0016 0.9576
-8.0133 -7.0132 -2.0016 0.9576
-7.7562 -7.2965 -2.0016 0.9576
-6.6315 -8.3319 -2.0016 0.9576
-6.0163 -8.7864 -2.0016 0.9576
-5.6969 -8.9968 -2.0016 0.9576
-5.0364 -9.3826 -2.0016 0.9576
-4.6961 -9.5574 -2.0016 0.9576
-3.9980 -9.8698 -2.0016 0.9576
-3.6409 -10.0070 -2.0016 0.9576
-3.2792 -10.1313 -2.0016 0.9576
-2.9132 -10.2426 -2.0016 0.9576
-2.5435 -10.3406 -2.0016 0.9576
-0.6553 -10.6286 -2.0016 0.9576
-0.2732 -10.6453 -2.0016 0.9576
0.4917 -10.6375 -2.0016 0.9576
0.8734 -10.6129 -2.0016 0.9576
-3.9974 8.2436 -1.9366 0.9632
-5.0143 8.0109 -1.9977 0.9621
-5.3065 7.8372 -2.0006 0.9620
-5.5871 7.6450 -2.0016 0.9620
-6.3770 6.9998 -2.0016 0.9620
-6.8630 6.5240 -2.0016 0.9620
-7.3136 6.0145 -2.0016 0.9620
-7.5249 5.7479 -2.0016 0.9620
-8.5800 4.0056 -2.0016 0.9620
-8.8454 3.3794 -2.0016 0.9620
-9.0652 2.7358 -2.0016 0.9620
-9.1576 2.4084 -2.0016 0.9620
-9.2382 2.0780 -2.0016 0.9620
-9.3635 1.4095 -2.0016 0.9620
-9.4081 1.0723 -2.0016 0.9620
-9.4608 0.3942 -2.0016 0.9620
-9.3790 -1.3023 -2.0016 0.9620
-9.3262 -1.6382 -2.0016 0.9620
-9.2614 -1.9721 -2.0016 0.9620
-8.8863 -2.2287 -1.9366 0.9632
-8.2418 -3.0412 -1.8570 0.9647
-8.1273 -3.3352 -1.8570 0.9647
-7.4008 -4.7335 -1.8570 0.9647
-7.2260 -4.9962 -1.8570 0.9647
-7.0419 -5.2525 -1.8570 0.9647
-6.8487 -5.5020 -1.8570 0.9647
-7.1642 -6.1917 -2.0016 0.9620
-6.7012 -6.6900 -2.0016 0.9620
-6.4567 -6.9263 -2.0016 0.9620
-5.6742 -7.5806 -2.0016 0.9620
-5.3983 -7.7795 -2.0016 0.9620
-5.1154 -7.9683 -2.0016 0.9620
-4.8260 -8.1469 -2.0016 0.9620
-4.2287 -8.4723 -2.0016 0.9620
-3.9217 -8.6187 -2.0016 0.9620
-3.6097 -8.7540 -2.0016 0.9620
-3.2929 -8.8780 -2.0016 0.9620
-2.3190 -9.1807 -2.0016 0.9620
-1.9877 -9.2580 -2.0016 0.9620
-1.6540 -9.3234 -2.0016 0.9620
-0.6416 -9.4473 -2.0016 0.9620
0.0382 -9.4689 -2.0016 0.9620
0.7178 -9.4418 -2.0016 0.9620
2.0624 -9.2417 -2.0016 0.9620
3.3645 -8.8511 -2.0016 0.9620
3.6802 -8.7246 -2.0016 0.9620
2.1870 -4.2945 -1.0187 0.9805
2.3332 -4.2013 -1.0158 0.9805
4.8916 -8.1077 -2.0016 0.9620
5.4610 -7.7356 -2.0016 0.9620
5.7353 -7.5345 -2.0016 0.9620
6.5124 -6.8740 -2.0016 0.9620
6.9890 -6.3888 -2.0016 0.9620
7.2139 -6.1336 -2.0016 0.9620
7.8318 -5.3222 -2.0016 0.9620
8.1936 -4.7462 -2.0016 0.9620
9.0191 -2.8841 -2.0016 0.9620
9.4272 -0.8885 -2.0016 0.9620
9.4667 -0.2095 -2.0016 0.9620
9.4681 0.1306 -2.0016 0.9620
9.4573 0.4706 -2.0016 0.9620
9.3991 1.1482 -2.0016 0.9620
9.3518 1.4851 -2.0016 0.9620
9.2925 1.8200 -2.0016 0.9620
9.2211 2.1525 -2.0016 0.9620
9.0428 2.8089 -2.0016 0.9620
8.9361 3.1318 -2.0016 0.9620
8.8179 3.4507 -2.0016 0.9620
8.6882 3.7652 -2.0016 0.9620
8.5474 4.0748 -2.0016 0.9620
8.3956 4.3791 -2.0016 0.9620
8.2329 4.6778 -2.0016 0.9620
8.0596 4.9705 -2.0016 0.9620
6.8101 6.5791 -2.0016 0.9620
6.3202 7.0510 -2.0016 0.9620
5.7978 7.4865 -2.0016 0.9620
5.2455 7.8834 -2.0016 0.9620
4.3671 8.4018 -2.0016 0.9620
4.0626 8.5532 -2.0016 0.9620
3.7479 8.6824 -1.9990 0.9621
3.4268 8.7937 -1.9950 0.9621
1.9767 8.5228 -1.8494 0.9649
1.0485 8.6859 -1.8494 0.9649
0.4223 8.7388 -1.8494 0.9649
0.1082 8.7483 -1.8494 0.9649
-0.5201 8.7335 -1.8494 0.9649
-1.1456 8.6737 -1.8494 0.9649
-1.7653 8.5690 -1.8494 0.9649
-2.0719 8.5001 -1.8494 0.9649
-2.3758 8.4202 -1.8494 0.9649
-3.3233 8.2540 -1.8808 0.9643
-4.0289 8.2431 -1.9394 0.9632
-4.3991 8.2367 -1.9738 0.9625
-4.7428 8.1607 -1.9952 0.9621
-5.6109 7.6276 -2.0016 0.9620
-5.8812 7.4212 -2.0016 0.9620
-6.1439 7.2052 -2.0016 0.9620
-6.6453 6.7456 -2.0016 0.9620
-7.3323 5.9917 -2.0016 0.9620
-7.5427 5.7245 -2.0016 0.9620
-7.7435 5.4499 -2.0016 0.9620
-7.9342 5.1683 -2.0016 0.9620
-8.1147 4.8800 -2.0016 0.9620
-8.7298 3.6677 -2.0016 0.9620
-8.9706 3.0317 -2.0016 0.9620
-9.0737 2.7075 -2.0016 0.9620
-9.1651 2.3799 -2.0016 0.9620
-9.2446 2.0492 -2.0016 0.9620
-9.3123 1.7159 -2.0016 0.9620
-9.3679 1.3803 -2.0016 0.9620
-9.4428 0.7043 -2.0016 0.9620
-9.4690 0.0247 -2.0016 0.9620
-9.4638 -0.3154 -2.0016 0.9620
-9.4167 -0.9939 -2.0016 0.9620
-8.2323 -3.0669 -1.8570 0.9647
-8.1169 -3.3605 -1.8570 0.9647
-7.9910 -3.6499 -1.8570 0.9647
-7.8547 -3.9345 -1.8570 0.9647
-7.5520 -4.4882 -1.8570 0.9647
-7.3860 -4.7565 -1.8570 0.9647
-7.2104 -5.0187 -1.8570 0.9647
-7.0255 -5.2744 -1.8570 0.9647
-7.1448 -6.2140 -2.0016 0.9620
-6.6804 -6.7108 -2.0016 0.9620
-6.4351 -6.9464 -2.0016 0.9620
-6.1814 -7.1730 -2.0016 0.9620
-5.6506 -7.5982 -2.0016 0.9620
-5.3741 -7.7963 -2.0016 0.9620
-5.0906 -7.9842 -2.0016 0.9620
-4.8006 -8.1619 -2.0016 0.9620
-4.5043 -8.3291 -2.0016 0.9620
-4.2023 -8.4855 -2.0016 0.9620
-3.8948 -8.6309 -2.0016 0.9620
-3.2653 -8.8882 -2.0016 0.9620
-1.9589 -9.2642 -2.0016 0.9620
-0.9511 -9.4211 -2.0016 0.9620
-0.6121 -9.4492 -2.0016 0.9620
-0.2724 -9.4651 -2.0016 0.9620
0.0677 -9.4688 -2.0016 0.9620
0.4077 -9.4602 -2.0016 0.9620
0.7472 -9.4395 -2.0016 0.9620
1.0858 -9.4066 -2.0016 0.9620
2.7487 -9.0613 -2.0016 0.9620
3.0724 -8.9567 -2.0016 0.9620
3.7074 -8.7131 -2.0016 0.9620
4.0179 -8.5743 -2.0016 0.9620
2.1876 -4.2629 -1.0128 0.9806
4.9168 -8.0924 -2.0016 0.9620
5.2043 -7.9106 -2.0016 0.9620
6.0249 -7.3050 -2.0016 0.9620
6.2834 -7.0839 -2.0016 0.9620
6.5338 -6.8536 -2.0016 0.9620
7.0089 -6.3670 -2.0016 0.9620
7.2330 -6.1111 -2.0016 0.9620
7.4478 -5.8474 -2.0016 0.9620
7.8483 -5.2977 -2.0016 0.9620
8.0335 -5.0124 -2.0016 0.9620
8.2084 -4.7207 -2.0016 0.9620
8.3726 -4.4228 -2.0016 0.9620
8.5261 -4.1193 -2.0016 0.9620
8.9197 -3.1784 -2.0016 0.9620
9.0281 -2.8560 -2.0016 0.9620
9.1248 -2.5299 -2.0016 0.9620
9.2098 -2.2006 -2.0016 0.9620
9.2829 -1.8684 -2.0016 0.9620
9.3440 -1.5338 -2.0016 0.9620
9.3930 -1.1972 -2.0016 0.9620
9.4300 -0.8591 -2.0016 0.9620
9.4547 -0.5199 -2.0016 0.9620
9.4558 0.5001 -2.0016 0.9620
9.3955 1.1775 -2.0016 0.9620
9.2868 1.8489 -2.0016 0.9620
9.2144 2.1812 -2.0016 0.9620
9.1301 2.5107 -2.0016 0.9620
9.0340 2.8370 -2.0016 0.9620
8.9263 3.1596 -2.0016 0.9620
8.6765 3.7922 -2.0016 0.9620
8.5347 4.1014 -2.0016 0.9620
8.0440 4.9956 -2.0016 0.9620
7.6647 5.5601 -2.0016 0.9620
7.4601 5.8318 -2.0016 0.9620
6.5481 6.8399 -2.0016 0.9620
6.0402 7.2923 -2.0016 0.9620
5.7745 7.5045 -2.0016 0.9620
4.6403 8.2541 -2.0016 0.9620
4.3409 8.4154 -2.0016 0.9620
3.7202 8.6925 -1.9986 0.9621
2.6217 8.5777 -1.8959 0.9640
1.3328 8.6469 -1.8494 0.9649
1.0214 8.6892 -1.8494 0.9649
0.7087 8.7202 -1.8494 0.9649
0.0809 8.7486 -1.8494 0.9649
-0.2333 8.7459 -1.8494 0.9649
-0.5473 8.7319 -1.8494 0.9649
-1.7920 8.5635 -1.8494 0.9649
-3.0141 8.2581 -1.8582 0.9647
-4.0605 8.2426 -1.9423 0.9631
-5.0653 7.9815 -1.9982 0.9621
-5.6346 7.6101 -2.0016 0.9620
-5.9043 7.4028 -2.0016 0.9620
-6.1664 7.1860 -2.0016 0.9620
-6.4205 6.9599 -2.0016 0.9620
-6.6663 6.7248 -2.0016 0.9620
-7.1318 6.2289 -2.0016 0.9620
-7.3509 5.9688 -2.0016 0.9620
-7.5605 5.7009 -2.0016 0.9620
-7.7604 5.4257 -2.0016 0.9620
-7.9503 5.1435 -2.0016 0.9620
-8.2989 4.5596 -2.0016 0.9620
-8.7412 3.6405 -2.0016 0.9620
-8.9800 3.0037 -2.0016 0.9620
-9.0821 2.6792 -2.0016 0.9620
-9.1724 2.3513 -2.0016 0.9620
-9.2510 2.0204 -2.0016 0.9620
-9.4449 0.6749 -2.0016 0.9620
-9.4631 0.3353 -2.0016 0.9620
-9.4690 -0.0048 -2.0016 0.9620
-9.4136 -1.0232 -2.0016 0.9620
-9.3158 -1.6963 -2.0016 0.9620
-8.6865 -2.2362 -1.8960 0.9640
-8.4235 -2.4943 -1.8570 0.9647
-8.3285 -2.7952 -1.8570 0.9647
-8.2227 -3.0925 -1.8570 0.9647
-7.9796 -3.6747 -1.8570 0.9647
-7.8424 -3.9590 -1.8570 0.9647
-7.5380 -4.5117 -1.8570 0.9647
-7.1947 -5.0411 -1.8570 0.9647
-6.8160 -5.5460 -1.8574 0.9647
-7.1255 -6.2362 -2.0016 0.9620
-6.8969 -6.4881 -2.0016 0.9620
-6.4134 -6.9664 -2.0016 0.9620
-6.1590 -7.1923 -2.0016 0.9620
-5.6269 -7.6158 -2.0016 0.9620
-5.0657 -8.0001 -2.0016 0.9620
-4.7751 -8.1768 -2.0016 0.9620
-4.1758 -8.4985 -2.0016 0.9620
-3.8679 -8.6430 -2.0016 0.9620
-3.5551 -8.7763 -2.0016 0.9620
-3.2376 -8.8984 -2.0016 0.9620
-2.9159 -9.0089 -2.0016 0.9620
-2.5905 -9.1078 -2.0016 0.9620
-2.2617 -9.1949 -2.0016 0.9620
-1.9300 -9.2702 -2.0016 0.9620
-0.9217 -9.4241 -2.0016 0.9620
-0.5827 -9.4511 -2.0016 0.9620
-0.2429 -9.4659 -2.0016 0.9620
0.4372 -9.4589 -2.0016 0.9620
0.7766 -9.4371 -2.0016 0.9620
-3.4380 7.7910 -2.0014 0.9656
-3.7159 7.6630 -2.0016 0.9656
-4.2563 7.3765 -2.0016 0.9656
-4.5185 7.2189 -2.0016 0.9656
-4.7749 7.0520 -2.0016 0.9656
-5.0250 6.8760 -2.0016 0.9656
-5.5057 6.4975 -2.0016 0.9656
-5.7355 6.2956 -2.0016 0.9656
-5.9578 6.0855 -2.0016 0.9656
-6.3793 5.6422 -2.0016 0.9656
-6.7679 5.1697 -2.0016 0.9656
-6.9492 4.9233 -2.0016 0.9656
-7.4384 4.1473 -2.0016 0.9656
-7.5825 3.8775 -2.0016 0.9656
-7.7169 3.6027 -2.0016 0.9656
-8.0596 2.7518 -2.0016 0.9656
-8.3088 1.8690 -2.0016 0.9656
-8.3706 1.5693 -2.0016 0.9656
-8.5091 0.3546 -2.0016 0.9656
-8.5126 -0.2572 -2.0016 0.9656
-8.4721 -0.8675 -2.0016 0.9656
-8.3880 -1.4734 -2.0016 0.9656
-8.3297 -1.7737 -2.0016 0.9656
-7.3097 -2.9997 -1.8570 0.9681
-7.1973 -3.2603 -1.8570 0.9681
-6.9447 -3.7685 -1.8570 0.9681
-6.6562 -4.2573 -1.8570 0.9681
-6.1597 -4.9485 -1.8570 0.9681
-5.9780 -5.1665 -1.8570 0.9681
-5.7886 -5.3779 -1.8570 0.9681
-5.5917 -5.5823 -1.8570 0.9681
-5.5796 -6.4341 -2.0016 0.9656
-5.3450 -6.6303 -2.0016 0.9656
-4.8553 -6.9969 -2.0016 0.9656
-4.6008 -7.1667 -2.0016 0.9656
-4.3405 -7.3273 -2.0016 0.9656
-3.8033 -7.6200 -2.0016 0.9656
-3.5272 -7.7517 -2.0016 0.9656
-3.2465 -7.8734 -2.0016 0.9656
-2.9617 -7.9849 -2.0016 0.9656
-2.3809 -8.1769 -2.0016 0.9656
-1.4876 -8.3855 -2.0016 0.9656
-1.1855 -8.4335 -2.0016 0.9656
-0.8818 -8.4707 -2.0016 0.9656
-0.2715 -8.5121 -2.0016 0.9656
0.0344 -8.5164 -2.0016 0.9656
0.9502 -8.4633 -2.0016 0.9656
1.2535 -8.4237 -2.0016 0.9656
1.5552 -8.3732 -2.0016 0.9656
2.1523 -8.2400 -2.0016 0.9656
2.1564 -4.2344 -1.1168 0.9807
4.6586 -7.1294 -2.0016 0.9656
4.9116 -6.9574 -2.0016 0.9656
5.1583 -6.7766 -2.0016 0.9656
5.3983 -6.5869 -2.0016 0.9656
5.6314 -6.3888 -2.0016 0.9656
6.0755 -5.9681 -2.0016 0.9656
6.2859 -5.7461 -2.0016 0.9656
6.4882 -5.5166 -2.0016 0.9656
6.6822 -5.2800 -2.0016 0.9656
6.8675 -5.0366 -2.0016 0.9656
7.0439 -4.7867 -2.0016 0.9656
7.2113 -4.5307 -2.0016 0.9656
7.6568 -3.7288 -2.0016 0.9656
7.7857 -3.4514 -2.0016 0.9656
7.9047 -3.1695 -2.0016 0.9656
8.1118 -2.5940 -2.0016 0.9656
8.1997 -2.3010 -2.0016 0.9656
8.3437 -1.7064 -2.0016 0.9656
8.4789 -0.7991 -2.0016 0.9656
8.4852 0.7285 -2.0016 0.9656
8.4536 1.0327 -2.0016 0.9656
8.3577 1.6369 -2.0016 0.9656
8.2935 1.9360 -2.0016 0.9656
8.1331 2.5263 -2.0016 0.9656
8.0371 2.8168 -2.0016 0.9656
7.8142 3.3864 -2.0016 0.9656
7.5510 3.9386 -2.0016 0.9656
7.4047 4.2072 -2.0016 0.9656
7.2488 4.4705 -2.0016 0.9656
7.0836 4.7279 -2.0016 0.9656
6.7259 5.2242 -2.0016 0.9656
6.1250 5.9173 -2.0016 0.9656
5.9085 6.1334 -2.0016 0.9656
5.6844 6.3417 -2.0016 0.9656
5.4530 6.5418 -2.0016 0.9656
4.9694 6.9163 -2.0016 0.9656
4.4601 7.2552 -2.0016 0.9656
3.9278 7.5566 -2.0016 0.9656
3.6539 7.6928 -2.0016 0.9656
3.0922 7.9352 -2.0016 0.9656
2.5133 8.1324 -2.0005 0.9656
2.2169 8.2073 -1.9980 0.9657
1.6188 8.3286 -1.9941 0.9657
0.3984 8.2432 -1.9396 0.9667
0.1019 8.2435 -1.9375 0.9667
-0.1942 8.2434 -1.9379 0.9667
-0.4908 8.2429 -1.9407 0.9666
-0.7887 8.2419 -1.9459 0.9666
-1.6967 8.2363 -1.9764 0.9660
-2.0069 8.2334 -1.9917 0.9658
-2.5989 8.0872 -1.9964 0.9657
-3.7397 7.6514 -2.0016 0.9656
-4.0121 7.5122 -2.0016 0.9656
-4.2793 7.3632 -2.0016 0.9656
-5.2896 6.6746 -2.0016 0.9656
-5.7550 6.2777 -2.0016 0.9656
-5.9768 6.0670 -2.0016 0.9656
-6.3969 5.6223 -2.0016 0.9656
-6.9645 4.9016 -2.0016 0.9656
-7.4513 4.1241 -2.0016 0.9656
-7.5946 3.8539 -2.0016 0.9656
-7.8516 3.2988 -2.0016 0.9656
-7.9650 3.0147 -2.0016 0.9656
-8.1609 2.4351 -2.0016 0.9656
-8.2431 2.1405 -2.0016 0.9656
-8.3754 1.5433 -2.0016 0.9656
-8.4255 1.2415 -2.0016 0.9656
-8.4929 0.6335 -2.0016 0.9656
-8.5101 0.3280 -2.0016 0.9656
-8.5117 -0.2837 -2.0016 0.9656
-8.4960 -0.5892 -2.0016 0.9656
-8.2541 -2.0975 -2.0016 0.9656
-7.6531 -2.2402 -1.8741 0.9678
-7.4985 -2.4906 -1.8570 0.9681
-7.4042 -2.7583 -1.8570 0.9681
-7.3003 -3.0225 -1.8570 0.9681
-7.1871 -3.2827 -1.8570 0.9681
-6.7923 -4.0367 -1.8570 0.9681
-6.6429 -4.2780 -1.8570 0.9681
-6.1443 -4.9677 -1.8570 0.9681
-5.7719 -5.3959 -1.8570 0.9681
-5.5743 -5.5997 -1.8570 0.9681
-5.7877 -6.2476 -2.0016 0.9656
-5.5596 -6.4514 -2.0016 0.9656
-5.0821 -6.8339 -2.0016 0.9656
-2.9368 -7.9941 -2.0016 0.9656
-1.4614 -8.3901 -2.0016 0.9656
-0.8554 -8.4734 -2.0016 0.9656
-0.5506 -8.4986 -2.0016 0.9656
-0.2450 -8.5129 -2.0016 0.9656
0.0609 -8.5162 -2.0016 0.9656
0.3667 -8.5085 -2.0016 0.9656
0.6721 -8.4899 -2.0016 0.9656
1.2798 -8.4197 -2.0016 0.9656
1.5813 -8.3684 -2.0016 0.9656
1.8808 -8.3062 -2.0016 0.9656
2.4722 -8.1497 -2.0016 0.9656
3.6137 -7.7117 -2.0016 0.9656
4.4222 -7.2783 -2.0016 0.9656
4.6807 -7.1148 -2.0016 0.9656
4.9332 -6.9421 -2.0016 0.9656
5.1794 -6.7605 -2.0016 0.9656
5.4188 -6.5701 -2.0016 0.9656
5.8765 -6.1642 -2.0016 0.9656
6.0941 -5.9491 -2.0016 0.9656
6.3038 -5.7264 -2.0016 0.9656
6.6986 -5.2592 -2.0016 0.9656
7.2254 -4.5082 -2.0016 0.9656
7.5303 -3.9779 -2.0016 0.9656
7.9145 -3.1449 -2.0016 0.9656
8.0223 -2.8586 -2.0016 0.9656
8.2069 -2.2754 -2.0016 0.9656
8.2833 -1.9792 -2.0016 0.9656
8.3490 -1.6804 -2.0016 0.9656
8.4813 -0.7727 -2.0016 0.9656
8.5036 -0.4676 -2.0016 0.9656
8.5149 -0.1619 -2.0016 0.9656
8.5152 0.1440 -2.0016 0.9656
8.5046 0.4498 -2.0016 0.9656
8.4503 1.0591 -2.0016 0.9656
8.4069 1.3619 -2.0016 0.9656
8.3525 1.6629 -2.0016 0.9656
8.2874 1.9618 -2.0016 0.9656
8.2116 2.2582 -2.0016 0.9656
8.0283 2.8418 -2.0016 0.9656
7.8036 3.4107 -2.0016 0.9656
7.2348 4.4930 -2.0016 0.9656
7.0688 4.7500 -2.0016 0.9656
6.8936 5.0008 -2.0016 0.9656
6.5169 5.4827 -2.0016 0.9656
6.1065 5.9363 -2.0016 0.9656
5.6647 6.3594 -2.0016 0.9656
5.4326 6.5587 -2.0016 0.9656
4.9478 6.9317 -2.0016 0.9656
4.6957 7.1050 -2.0016 0.9656
4.4375 7.2690 -2.0016 0.9656
4.1735 7.4237 -2.0016 0.9656
3.3508 7.8295 -2.0016 0.9656
2.7802 8.0499 -2.0016 0.9656
2.4877 8.1393 -2.0003 0.9656
2.1911 8.2133 -1.9978 0.9657
0.9717 8.2662 -1.9561 0.9664
0.6708 8.2533 -1.9461 0.9665
-0.2199 8.2434 -1.9381 0.9667
-2.9150 7.9865 -1.9981 0.9657
-3.2027 7.8835 -1.9999 0.9656
-3.7635 7.6397 -2.0016 0.9656
-4.5634 7.1906 -2.0016 0.9656
-5.0678 6.8445 -2.0016 0.9656
-6.2090 5.8291 -2.0016 0.9656
-6.4144 5.6023 -2.0016 0.9656
-6.6114 5.3683 -2.0016 0.9656
-6.9797 4.8799 -2.0016 0.9656
-7.3120 4.3663 -2.0016 0.9656
-7.6065 3.8302 -2.0016 0.9656
-7.7392 3.5545 -2.0016 0.9656
-7.8619 3.2743 -2.0016 0.9656
-7.9744 2.9898 -2.0016 0.9656
-8.0766 2.7015 -2.0016 0.9656
-8.1684 2.4097 -2.0016 0.9656
-8.4293 1.2152 -2.0016 0.9656
-8.5111 0.3015 -2.0016 0.9656
-8.5164 -0.0043 -2.0016 0.9656
-8.5108 -0.3102 -2.0016 0.9656
-8.4942 -0.6157 -2.0016 0.9656
-8.4666 -0.9203 -2.0016 0.9656
-8.4281 -1.2238 -2.0016 0.9656
-8.3787 -1.5257 -2.0016 0.9656
-8.3185 -1.8256 -2.0016 0.9656
-7.3955 -2.7814 -1.8570 0.9681
-7.1768 -3.3051 -1.8570 0.9681
-7.0535 -3.5607 -1.8570 0.9681
-6.9210 -3.8117 -1.8570 0.9681
-6.7797 -4.0578 -1.8570 0.9681
-6.6296 -4.2987 -1.8570 0.9681
-6.4709 -4.5340 -1.8570 0.9681
-5.9457 -5.2037 -1.8570 0.9681
-5.7550 -5.4139 -1.8570 0.9681
-5.5569 -5.6171 -1.8570 0.9681
-5.7682 -6.2656 -2.0016 0.9656
-3.7558 -7.6436 -2.0016 0.9656
-3.4788 -7.7735 -2.0016 0.9656
-3.1974 -7.8934 -2.0016 0.9656
-2.3299 -8.1916 -2.0016 0.9656
-2.0342 -8.2699 -2.0016 0.9656
-1.4353 -8.3946 -2.0016 0.9656
-1.1329 -8.4408 -2.0016 0.9656
-0.8290 -8.4760 -2.0016 0.9656
-0.5241 -8.5003 -2.0016 0.9656
-0.2185 -8.5136 -2.0016 0.9656
0.0875 -8.5160 -2.0016 0.9656
0.3932 -8.5074 -2.0016 0.9656
0.6985 -8.4878 -2.0016 0.9656
-3.1209 7.0725 -2.0016 0.9686
-3.6206 6.8302 -2.0016 0.9686
-3.8635 6.6958 -2.0016 0.9686
-4.1015 6.5527 -2.0016 0.9686
-4.7825 6.0736 -2.0016 0.9686
-4.9976 5.8979 -2.0016 0.9686
-5.4080 5.5239 -2.0016 0.9686
-5.7906 5.1215 -2.0016 0.9686
-5.9708 4.9102 -2.0016 0.9686
-6.1433 4.6926 -2.0016 0.9686
-6.3078 4.4690 -2.0016 0.9686
-6.8828 3.5197 -2.0016 0.9686
-7.0047 3.2702 -2.0016 0.9686
-7.2214 2.7590 -2.0016 0.9686
-7.4008 2.2335 -2.0016 0.9686
-7.5981 1.4245 -2.0016 0.9686
-7.7072 0.5990 -2.0016 0.9686
-7.7304 0.0442 -2.0016 0.9686
-7.7270 -0.2334 -2.0016 0.9686
-7.7136 -0.5108 -2.0016 0.9686
-7.6139 -1.3375 -2.0016 0.9686
-7.5610 -1.6100 -2.0016 0.9686
-7.4983 -1.8806 -2.0016 0.9686
-6.8302 -2.2451 -1.8615 0.9707
-6.6351 -2.7229 -1.8570 0.9708
-6.5331 -2.9594 -1.8570 0.9708
-6.4226 -3.1921 -1.8570 0.9708
-6.1768 -3.6449 -1.8570 0.9708
-6.0420 -3.8644 -1.8570 0.9708
-5.7490 -4.2881 -1.8570 0.9708
-5.5913 -4.4918 -1.8570 0.9708
-5.2544 -4.8816 -1.8570 0.9708
-5.0757 -5.0672 -1.8570 0.9708
-4.8904 -5.2462 -1.8570 0.9708
-4.1762 -6.5053 -2.0016 0.9686
-3.9399 -6.6511 -2.0016 0.9686
-3.6985 -6.7883 -2.0016 0.9686
-2.9469 -7.1468 -2.0016 0.9686
-2.4263 -7.3399 -2.0016 0.9686
-1.8932 -7.4951 -2.0016 0.9686
-1.6228 -7.5582 -2.0016 0.9686
-0.8004 -7.6889 -2.0016 0.9686
-0.5238 -7.7127 -2.0016 0.9686
-0.2464 -7.7266 -2.0016 0.9686
0.0312 -7.7304 -2.0016 0.9686
0.5860 -7.7082 -2.0016 0.9686
1.9536 -7.4796 -2.0016 0.9686
2.7468 -7.2260 -2.0016 0.9686
3.0045 -7.1227 -2.0016 0.9686
2.1152 -4.1535 -1.2068 0.9809
3.9935 -6.6191 -2.0016 0.9686
4.4583 -6.3154 -2.0016 0.9686
5.5148 -5.4173 -2.0016 0.9686
5.7058 -5.2158 -2.0016 0.9686
5.8894 -5.0075 -2.0016 0.9686
6.2337 -4.5718 -2.0016 0.9686
6.3939 -4.3450 -2.0016 0.9686
6.5458 -4.1126 -2.0016 0.9686
6.6893 -3.8748 -2.0016 0.9686
7.2739 -2.6175 -2.0016 0.9686
7.3632 -2.3546 -2.0016 0.9686
7.4430 -2.0886 -2.0016 0.9686
7.5132 -1.8200 -2.0016 0.9686
7.6245 -1.2759 -2.0016 0.9686
7.6734 0.9374 -2.0016 0.9686
7.6348 1.2124 -2.0016 0.9686
7.5864 1.4858 -2.0016 0.9686
7.5281 1.7573 -2.0016 0.9686
7.3825 2.2932 -2.0016 0.9686
7.2954 2.5568 -2.0016 0.9686
7.0931 3.0739 -2.0016 0.9686
6.7213 3.8190 -2.0016 0.9686
6.4298 4.2916 -2.0016 0.9686
6.2716 4.5197 -2.0016 0.9686
5.9309 4.9583 -2.0016 0.9686
5.7490 5.1681 -2.0016 0.9686
5.1598 5.7564 -2.0016 0.9686
4.7333 6.1120 -2.0016 0.9686
4.5108 6.2780 -2.0016 0.9686
4.0485 6.5856 -2.0016 0.9686
3.5653 6.8592 -2.0016 0.9686
3.3167 6.9828 -2.0016 0.9686
2.0159 7.4630 -2.0016 0.9686
1.7465 7.5306 -2.0016 0.9686
0.3731 7.7215 -2.0016 0.9686
0.0956 7.7299 -2.0016 0.9686
-0.4595 7.7168 -2.0016 0.9686
-1.5598 7.5715 -2.0016 0.9686
-2.6279 7.2701 -2.0016 0.9686
-3.1430 7.0627 -2.0016 0.9686
-4.1219 6.5399 -2.0016 0.9686
-4.3541 6.3876 -2.0016 0.9686
-5.0159 5.8823 -2.0016 0.9686
-5.4252 5.5071 -2.0016 0.9686
-5.6195 5.3087 -2.0016 0.9686
-6.1579 4.6734 -2.0016 0.9686
-6.3217 4.4493 -2.0016 0.9686
-6.4774 4.2194 -2.0016 0.9686
-6.6248 3.9840 -2.0016 0.9686
-6.7636 3.7435 -2.0016 0.9686
-7.4077 2.2104 -2.0016 0.9686
-7.4823 1.9429 -2.0016 0.9686
-7.5473 1.6730 -2.0016 0.9686
-7.6025 1.4008 -2.0016 0.9686
-7.6835 0.8515 -2.0016 0.9686
-7.7091 0.5750 -2.0016 0.9686
-7.7248 0.2978 -2.0016 0.9686
-7.7262 -0.2575 -2.0016 0.9686
-7.7120 -0.5348 -2.0016 0.9686
-7.6878 -0.8114 -2.0016 0.9686
-7.6537 -1.0870 -2.0016 0.9686
-7.5559 -1.6336 -2.0016 0.9686
-7.4924 -1.9039 -2.0016 0.9686
-6.8064 -2.2608 -1.8570 0.9708
-6.6266 -2.7435 -1.8570 0.9708
-6.2931 -3.4403 -1.8570 0.9708
-6.1655 -3.6641 -1.8570 0.9708
-6.0299 -3.8832 -1.8570 0.9708
-5.8865 -4.0973 -1.8570 0.9708
-5.7356 -4.3060 -1.8570 0.9708
-5.5772 -4.5092 -1.8570 0.9708
-5.4117 -4.7066 -1.8570 0.9708
-4.4838 -5.5977 -1.8570 0.9708
-4.3874 -6.3649 -2.0016 0.9686
-3.6773 -6.7998 -2.0016 0.9686
-3.4308 -6.9275 -2.0016 0.9686
-3.1798 -7.0462 -2.0016 0.9686
-2.9246 -7.1559 -2.0016 0.9686
-2.6658 -7.2563 -2.0016 0.9686
-2.4034 -7.3474 -2.0016 0.9686
-1.5992 -7.5633 -2.0016 0.9686
-1.3266 -7.6158 -2.0016 0.9686
-1.0522 -7.6585 -2.0016 0.9686
-0.4998 -7.7143 -2.0016 0.9686
0.3329 -7.7233 -2.0016 0.9686
1.1616 -7.6427 -2.0016 0.9686
1.9769 -7.4734 -2.0016 0.9686
2.5083 -7.3122 -2.0016 0.9686
3.0267 -7.1133 -2.0016 0.9686
2.1221 -4.1353 -1.2034 0.9810
2.2995 -4.1105 -1.2195 0.9807
4.0141 -6.6066 -2.0016 0.9686
4.2488 -6.4582 -2.0016 0.9686
4.7014 -6.1366 -2.0016 0.9686
5.1298 -5.7833 -2.0016 0.9686
5.3341 -5.5953 -2.0016 0.9686
5.9050 -4.9891 -2.0016 0.9686
6.0804 -4.7738 -2.0016 0.9686
6.2479 -4.5524 -2.0016 0.9686
6.9607 -3.3630 -2.0016 0.9686
7.1841 -2.8547 -2.0016 0.9686
7.3705 -2.3316 -2.0016 0.9686
7.4495 -2.0654 -2.0016 0.9686
7.5188 -1.7965 -2.0016 0.9686
7.5785 -1.5253 -2.0016 0.9686
7.6284 -1.2522 -2.0016 0.9686
7.6684 -0.9774 -2.0016 0.9686
7.6986 -0.7014 -2.0016 0.9686
7.7188 -0.4244 -2.0016 0.9686
7.7291 -0.1469 -2.0016 0.9686
7.7294 0.1307 -2.0016 0.9686
7.7197 0.4082 -2.0016 0.9686
7.6310 1.2362 -2.0016 0.9686
7.5817 1.5094 -2.0016 0.9686
7.5226 1.7807 -2.0016 0.9686
7.4538 2.0498 -2.0016 0.9686
6.9677 3.3484 -2.0016 0.9686
6.8429 3.5965 -2.0016 0.9686
