ply
format ascii 1.0
element vertex 1579
property float32 x
property float32 y
property float32 z
property float32 I
end_header
7.6229 13.5750 -1.8494 0.9392
3.5541 13.3350 -1.6393 0.9459
0.1093 11.7812 -1.3995 0.9537
-0.3085 11.5927 -1.3775 0.9544
-0.7142 11.4138 -1.3584 0.9550
-1.9624 11.4220 -1.3766 0.9544
-2.3877 11.4247 -1.3864 0.9541
-2.8197 11.4276 -1.3981 0.9537
-3.2596 11.4305 -1.4119 0.9532
-3.7089 11.4334 -1.4278 0.9527
-4.1690 11.4364 -1.4459 0.9521
-5.6313 11.4460 -1.5153 0.9499
-6.6949 11.4530 -1.5758 0.9480
-7.2607 11.4567 -1.6112 0.9468
-7.8533 11.4606 -1.6503 0.9456
-8.4762 11.4646 -1.6936 0.9442
-9.1335 11.4690 -1.7416 0.9427
-9.8301 11.4735 -1.7947 0.9410
-11.3412 10.6662 -1.8494 0.9392
-11.7165 10.2524 -1.8494 0.9392
-12.0768 9.8255 -1.8494 0.9392
-12.7503 8.9342 -1.8494 0.9392
-13.0626 8.4710 -1.8494 0.9392
-14.7180 8.1084 -1.9961 0.9346
-15.0409 7.5960 -2.0016 0.9344
-15.7700 5.9360 -2.0016 0.9344
-16.5761 3.0264 -2.0016 0.9344
-16.6741 2.4298 -2.0016 0.9344
-16.8054 1.2278 -2.0016 0.9344
-16.8386 0.6242 -2.0016 0.9344
-16.8501 0.0196 -2.0016 0.9344
-16.6797 -2.3909 -2.0016 0.9344
-16.5831 -2.9878 -2.0016 0.9344
-16.4653 -3.5808 -2.0016 0.9344
-16.3262 -4.1692 -2.0016 0.9344
-15.9852 -5.3292 -2.0016 0.9344
-15.7837 -5.8992 -2.0016 0.9344
-15.5619 -6.4617 -2.0016 0.9344
-15.3201 -7.0159 -2.0016 0.9344
-15.0585 -7.5610 -2.0016 0.9344
-14.7776 -8.0964 -2.0016 0.9344
-14.4776 -8.6213 -2.0016 0.9344
-14.1590 -9.1352 -2.0016 0.9344
-13.8221 -9.6373 -2.0016 0.9344
-13.4675 -10.1270 -2.0016 0.9344
-13.0955 -10.6036 -2.0016 0.9344
-12.7066 -11.0666 -2.0016 0.9344
-11.8803 -11.9493 -2.0016 0.9344
-11.4440 -12.3678 -2.0016 0.9344
-10.5277 -13.1566 -2.0016 0.9344
-9.5572 -13.8776 -2.0016 0.9344
-8.0108 -14.8241 -2.0016 0.9344
-7.4737 -15.1020 -2.0016 0.9344
-6.9271 -15.3604 -2.0016 0.9344
-6.3716 -15.5991 -2.0016 0.9344
-5.2250 -15.9801 -1.9971 0.9345
-4.0296 -16.1689 -1.9794 0.9351
-3.4192 -16.1719 -1.9635 0.9356
-2.8176 -16.1743 -1.9502 0.9360
-2.2233 -16.1763 -1.9396 0.9363
-1.6347 -16.1778 -1.9315 0.9366
-1.0508 -16.1889 -1.9271 0.9367
-0.4697 -16.2290 -1.9286 0.9367
0.1133 -16.3045 -1.9368 0.9364
1.9210 -16.6893 -1.9955 0.9346
3.7143 -16.4357 -2.0016 0.9344
4.3015 -16.2919 -2.0016 0.9344
6.0271 -15.7354 -2.0016 0.9344
7.1399 -15.2627 -2.0016 0.9344
2.1867 -4.2683 -0.5697 0.9809
10.2359 -13.3849 -2.0016 0.9344
10.7095 -13.0090 -2.0016 0.9344
11.1693 -12.6164 -2.0016 0.9344
11.6148 -12.2076 -2.0016 0.9344
12.0453 -11.7830 -2.0016 0.9344
12.4602 -11.3433 -2.0016 0.9344
13.2416 -10.4206 -2.0016 0.9344
13.6069 -9.9388 -2.0016 0.9344
14.2845 -8.9375 -2.0016 0.9344
14.5960 -8.4193 -2.0016 0.9344
14.8886 -7.8902 -2.0016 0.9344
15.1621 -7.3510 -2.0016 0.9344
15.6502 -6.2448 -2.0016 0.9344
16.2306 -4.5272 -2.0016 0.9344
16.3826 -3.9419 -2.0016 0.9344
16.6231 -2.7570 -2.0016 0.9344
16.7113 -2.1589 -2.0016 0.9344
16.8231 -0.9550 -2.0016 0.9344
16.8465 -0.3509 -2.0016 0.9344
16.7867 1.4613 -2.0016 0.9344
16.7234 2.0626 -2.0016 0.9344
16.6387 2.6612 -2.0016 0.9344
16.5325 3.2565 -2.0016 0.9344
16.2564 4.4336 -2.0016 0.9344
15.6860 6.1546 -2.0016 0.9344
15.2042 7.2635 -2.0016 0.9344
14.9339 7.8043 -2.0016 0.9344
14.6443 8.3351 -2.0016 0.9344
14.3358 8.8551 -2.0016 0.9344
13.3014 10.3441 -2.0016 0.9344
12.9217 10.8147 -2.0016 0.9344
12.1130 11.7134 -2.0016 0.9344
11.6849 12.1405 -2.0016 0.9344
11.2418 12.5518 -2.0016 0.9344
10.7843 12.9471 -2.0016 0.9344
10.3128 13.3257 -2.0016 0.9344
9.8281 13.6871 -2.0016 0.9344
8.8214 14.3566 -2.0016 0.9344
7.6694 13.5488 -1.8494 0.9392
6.6781 14.0638 -1.8494 0.9392
6.1693 14.2944 -1.8494 0.9392
5.6525 14.5065 -1.8494 0.9392
5.1284 14.7000 -1.8494 0.9392
4.5977 14.8745 -1.8494 0.9392
3.0406 13.1034 -1.5979 0.9473
2.5017 12.8603 -1.5563 0.9486
1.9895 12.6293 -1.5187 0.9498
0.5833 11.9950 -1.4265 0.9528
-0.2691 11.6105 -1.3795 0.9543
-1.0872 11.4162 -1.3622 0.9549
-1.1633 8.8414 -1.0593 0.9647
-1.9220 11.4217 -1.3758 0.9544
-3.2172 11.4302 -1.4105 0.9533
-3.6655 11.4331 -1.4262 0.9528
-4.1245 11.4361 -1.4441 0.9522
-4.5957 11.4392 -1.4644 0.9516
-5.0811 11.4424 -1.4872 0.9508
-5.5824 11.4457 -1.5127 0.9500
-6.6421 11.4526 -1.5726 0.9481
-7.2055 11.4563 -1.6076 0.9469
-7.7954 11.4602 -1.6464 0.9457
-8.4152 11.4642 -1.6893 0.9443
-9.0690 11.4685 -1.7368 0.9428
-9.7616 11.4731 -1.7894 0.9411
-10.4985 11.4779 -1.8477 0.9393
-10.9132 11.1037 -1.8494 0.9392
-15.0147 7.6476 -2.0016 0.9344
-15.5244 6.5513 -2.0016 0.9344
-16.3019 4.2632 -2.0016 0.9344
-16.5657 3.0833 -2.0016 0.9344
-16.7441 1.8875 -2.0016 0.9344
-16.8363 0.6819 -2.0016 0.9344
-16.8500 0.0775 -2.0016 0.9344
-16.8121 -1.1310 -2.0016 0.9344
-16.6878 -2.3336 -2.0016 0.9344
-16.4775 -3.5243 -2.0016 0.9344
-16.3404 -4.1131 -2.0016 0.9344
-16.0034 -5.2743 -2.0016 0.9344
-15.0844 -7.5093 -2.0016 0.9344
-14.8053 -8.0456 -2.0016 0.9344
-14.1902 -9.0865 -2.0016 0.9344
-13.8551 -9.5898 -2.0016 0.9344
-11.9213 -11.9084 -2.0016 0.9344
-11.4864 -12.3284 -2.0016 0.9344
-11.0367 -12.7326 -2.0016 0.9344
-10.5728 -13.1204 -2.0016 0.9344
-9.1019 -14.1804 -2.0016 0.9344
-8.5873 -14.4978 -2.0016 0.9344
1.6635 -14.0281 -2.0016 0.9445
2.1657 -13.9594 -2.0016 0.9445
2.6651 -13.8727 -2.0016 0.9445
5.0981 -13.1744 -2.0016 0.9445
5.5675 -12.9830 -2.0016 0.9445
6.0297 -12.7749 -2.0016 0.9445
6.9302 -12.3097 -2.0016 0.9445
7.3674 -12.0531 -2.0016 0.9445
8.6198 -11.1917 -2.0016 0.9445
9.0157 -10.8753 -2.0016 0.9445
9.4001 -10.5448 -2.0016 0.9445
9.7724 -10.2008 -2.0016 0.9445
10.4787 -9.4738 -2.0016 0.9445
10.8118 -9.0917 -2.0016 0.9445
12.0012 -7.4517 -2.0016 0.9445
12.9437 -5.6583 -2.0016 0.9445
13.1383 -5.1903 -2.0016 0.9445
13.3161 -4.7156 -2.0016 0.9445
13.4767 -4.2349 -2.0016 0.9445
13.6199 -3.7486 -2.0016 0.9445
13.7457 -3.2576 -2.0016 0.9445
14.0161 -1.7618 -2.0016 0.9445
14.1064 -0.7522 -2.0016 0.9445
14.1240 0.2612 -2.0016 0.9445
14.1055 0.7678 -2.0016 0.9445
13.9414 2.2789 -2.0016 0.9445
13.8506 2.7776 -2.0016 0.9445
13.6158 3.7636 -2.0016 0.9445
13.4720 4.2497 -2.0016 0.9445
12.7256 6.1331 -2.0016 0.9445
12.2530 7.0298 -2.0016 0.9445
11.4268 8.3057 -2.0016 0.9445
10.4682 9.4853 -2.0016 0.9445
9.7611 10.2116 -2.0016 0.9445
9.0037 10.8852 -2.0016 0.9445
8.6074 11.2012 -2.0016 0.9445
8.2000 11.5028 -2.0016 0.9445
7.7821 11.7896 -2.0016 0.9445
7.3442 12.0450 -1.9989 0.9446
6.3907 11.3807 -1.8494 0.9486
4.6970 12.1778 -1.8494 0.9486
4.2571 12.3385 -1.8494 0.9486
1.9418 12.6078 -1.8074 0.9498
1.4552 12.3883 -1.7674 0.9509
-0.3085 11.5927 -1.6431 0.9542
-0.7142 11.4138 -1.6204 0.9548
-2.3877 11.4247 -1.6537 0.9539
-2.8197 11.4276 -1.6677 0.9536
-3.2596 11.4305 -1.6841 0.9531
-4.1690 11.4364 -1.7247 0.9520
-4.6415 11.4395 -1.7492 0.9513
-6.9870 11.0247 -1.8494 0.9486
-7.3780 10.7669 -1.8494 0.9486
-7.7595 10.4953 -1.8494 0.9486
-8.1310 10.2101 -1.8494 0.9486
-9.1810 9.2774 -1.8494 0.9486
-9.5079 8.9420 -1.8494 0.9486
-9.8226 8.5952 -1.8494 0.9486
-10.9097 8.2435 -1.9374 0.9463
-11.5394 8.0857 -1.9964 0.9447
-12.8299 5.9117 -2.0016 0.9445
-13.0338 5.4476 -2.0016 0.9445
-13.2208 4.9765 -2.0016 0.9445
-13.5436 4.0156 -2.0016 0.9445
-13.6790 3.5272 -2.0016 0.9445
-13.9788 2.0370 -2.0016 0.9445
-14.0428 1.5342 -2.0016 0.9445
-14.1167 0.5233 -2.0016 0.9445
-14.1179 -0.4904 -2.0016 0.9445
-13.9835 -2.0044 -2.0016 0.9445
-12.8122 -2.7864 -1.8578 0.9484
-12.6985 -3.2428 -1.8570 0.9484
-12.5740 -3.6963 -1.8570 0.9484
-12.2765 -4.5884 -1.8570 0.9484
-11.9159 -5.4569 -1.8570 0.9484
-12.1373 -7.2277 -2.0016 0.9445
-11.8702 -7.6585 -2.0016 0.9445
-11.5878 -8.0795 -2.0016 0.9445
-11.2905 -8.4900 -2.0016 0.9445
-10.6526 -9.2777 -2.0016 0.9445
-10.3129 -9.6539 -2.0016 0.9445
-8.8259 -11.0299 -2.0016 0.9445
-7.5897 -11.9143 -2.0016 0.9445
-7.1574 -12.1789 -2.0016 0.9445
-6.2657 -12.6608 -2.0016 0.9445
-5.3417 -13.0775 -2.0016 0.9445
-4.8690 -13.2608 -2.0016 0.9445
-4.3902 -13.4269 -2.0016 0.9445
-3.9056 -13.5758 -2.0016 0.9445
-2.4244 -13.9168 -2.0016 0.9445
-0.9150 -14.0967 -2.0016 0.9445
0.0981 -14.1261 -2.0016 0.9445
0.6049 -14.1134 -2.0016 0.9445
2.6175 -13.8818 -2.0016 0.9445
3.6062 -13.6583 -2.0016 0.9445
4.0939 -13.5202 -2.0016 0.9445
5.0528 -13.1918 -2.0016 0.9445
5.9858 -12.7955 -2.0016 0.9445
2.1866 -4.2682 -0.6795 0.9808
8.1732 -11.5219 -2.0016 0.9445
8.9783 -10.9062 -2.0016 0.9445
9.7373 -10.2343 -2.0016 0.9445
10.7805 -9.1288 -2.0016 0.9445
11.1011 -8.7362 -2.0016 0.9445
11.9755 -7.4928 -2.0016 0.9445
12.4820 -6.6148 -2.0016 0.9445
13.2998 -4.7613 -2.0016 0.9445
13.4621 -4.2811 -2.0016 0.9445
13.6070 -3.7954 -2.0016 0.9445
13.7344 -3.3047 -2.0016 0.9445
13.8441 -2.8099 -2.0016 0.9445
13.9360 -2.3114 -2.0016 0.9445
14.1037 -0.8007 -2.0016 0.9445
14.1081 0.7194 -2.0016 0.9445
14.0732 1.2251 -2.0016 0.9445
14.0202 1.7292 -2.0016 0.9445
13.9491 2.2311 -2.0016 0.9445
13.7532 3.2255 -2.0016 0.9445
13.6286 3.7169 -2.0016 0.9445
13.4865 4.2035 -2.0016 0.9445
12.9568 5.6282 -2.0016 0.9445
12.7466 6.0894 -2.0016 0.9445
12.5199 6.5428 -2.0016 0.9445
12.0185 7.4237 -2.0016 0.9445
11.7444 7.8501 -2.0016 0.9445
11.1513 8.6720 -2.0016 0.9445
10.8330 9.0665 -2.0016 0.9445
9.7961 10.1780 -2.0016 0.9445
9.4246 10.5229 -2.0016 0.9445
9.0410 10.8543 -2.0016 0.9445
8.6458 11.1716 -2.0016 0.9445
7.3886 12.0247 -1.9997 0.9446
5.5987 11.7905 -1.8494 0.9486
5.1720 11.9838 -1.8494 0.9486
1.9895 12.6293 -1.8115 0.9497
1.5008 12.4088 -1.7710 0.9508
1.0329 12.1978 -1.7345 0.9517
-0.2691 11.6105 -1.6455 0.9542
-1.0872 11.4162 -1.6249 0.9547
-1.1493 8.7345 -1.2483 0.9650
-2.3467 11.4245 -1.6525 0.9540
-2.7780 11.4273 -1.6663 0.9536
-3.6655 11.4331 -1.7012 0.9527
-4.1245 11.4361 -1.7225 0.9521
-5.0811 11.4424 -1.7739 0.9507
-5.5824 11.4457 -1.8043 0.9499
-6.9491 11.0486 -1.8494 0.9486
-7.3410 10.7922 -1.8494 0.9486
-8.0959 10.2380 -1.8494 0.9486
-8.8092 9.6311 -1.8494 0.9486
-9.1491 9.3088 -1.8494 0.9486
-11.5079 8.1227 -1.9958 0.9447
-12.0955 7.2975 -2.0016 0.9445
-12.3495 6.8589 -2.0016 0.9445
-12.5877 6.4114 -2.0016 0.9445
-12.8096 5.9557 -2.0016 0.9445
-13.0150 5.4923 -2.0016 0.9445
-13.2036 5.0218 -2.0016 0.9445
-13.3753 4.5449 -2.0016 0.9445
-13.5298 4.0621 -2.0016 0.9445
-13.8879 2.5849 -2.0016 0.9445
-13.9717 2.0850 -2.0016 0.9445
-14.0375 1.5824 -2.0016 0.9445
-14.1148 0.5717 -2.0016 0.9445
-14.0515 -1.4532 -2.0016 0.9445
-13.9903 -1.9564 -2.0016 0.9445
-13.9111 -2.4571 -2.0016 0.9445
-12.2922 -4.5463 -1.8570 0.9484
-12.1212 -4.9843 -1.8570 0.9484
-11.9346 -5.4160 -1.8570 0.9484
-12.1621 -7.1860 -2.0016 0.9445
-11.6155 -8.0396 -2.0016 0.9445
-11.3196 -8.4512 -2.0016 0.9445
-11.0091 -8.8518 -2.0016 0.9445
-10.3460 -9.6185 -2.0016 0.9445
-9.9943 -9.9835 -2.0016 0.9445
-9.6297 -10.3356 -2.0016 0.9445
-9.2527 -10.6744 -2.0016 0.9445
-8.0522 -11.6068 -2.0016 0.9445
-7.6306 -11.8882 -2.0016 0.9445
-7.1992 -12.1543 -2.0016 0.9445
2.2922 -11.9317 -2.0016 0.9519
2.7189 -11.8418 -2.0016 0.9519
3.1419 -11.7366 -2.0016 0.9519
3.9754 -11.4811 -2.0016 0.9519
4.3848 -11.3311 -2.0016 0.9519
5.1860 -10.9875 -2.0016 0.9519
2.1920 -4.2427 -0.7867 0.9808
5.9605 -10.5873 -2.0016 0.9519
7.0636 -9.8856 -2.0016 0.9519
7.7543 -9.3536 -2.0016 0.9519
8.0849 -9.0694 -2.0016 0.9519
8.4050 -8.7735 -2.0016 0.9519
8.7144 -8.4663 -2.0016 0.9519
9.0125 -8.1482 -2.0016 0.9519
9.8358 -7.1327 -2.0016 0.9519
10.3220 -6.4091 -2.0016 0.9519
10.5453 -6.0346 -2.0016 0.9519
10.7550 -5.6524 -2.0016 0.9519
11.5911 -3.6423 -2.0016 0.9519
12.1480 -0.2113 -2.0016 0.9519
12.1478 0.2247 -2.0016 0.9519
12.0533 1.5286 -2.0016 0.9519
11.9127 2.3890 -2.0016 0.9519
11.7107 3.2371 -2.0016 0.9519
11.4485 4.0685 -2.0016 0.9519
10.7488 5.6643 -2.0016 0.9519
10.0779 6.7864 -2.0016 0.9519
9.8280 7.1436 -2.0016 0.9519
9.5654 7.4915 -2.0016 0.9519
9.0035 8.1582 -2.0016 0.9519
8.7050 8.4759 -2.0016 0.9519
8.3954 8.7828 -2.0016 0.9519
8.0749 9.0783 -2.0016 0.9519
7.7440 9.3622 -2.0016 0.9519
7.4031 9.6340 -2.0016 0.9519
7.0527 9.8934 -2.0016 0.9519
6.6932 10.1400 -2.0016 0.9519
6.3251 10.3736 -2.0016 0.9519
5.1418 9.9792 -1.8494 0.9555
4.4130 10.3222 -1.8494 0.9555
4.0398 10.4739 -1.8494 0.9555
3.6615 10.6121 -1.8494 0.9555
3.2784 10.7366 -1.8494 0.9555
2.8911 10.8473 -1.8494 0.9555
2.1058 11.0267 -1.8494 0.9555
1.3097 11.1493 -1.8494 0.9555
0.5068 11.2145 -1.8494 0.9555
0.1042 11.2255 -1.8494 0.9555
-0.2987 11.2220 -1.8494 0.9555
-2.6893 10.8991 -1.8494 0.9555
-3.0786 10.7956 -1.8494 0.9555
-3.4639 10.6782 -1.8494 0.9555
-3.8448 10.5471 -1.8494 0.9555
-4.2207 10.4023 -1.8494 0.9555
-4.5912 10.2442 -1.8494 0.9555
-5.6653 9.6916 -1.8494 0.9555
-7.3039 8.5250 -1.8494 0.9555
-7.6115 8.2644 -1.8509 0.9555
-8.1625 8.2482 -1.9117 0.9540
-8.7567 8.2355 -1.9803 0.9524
-9.4247 7.6678 -2.0016 0.9519
-9.6937 7.3247 -2.0016 0.9519
-9.9503 6.9722 -2.0016 0.9519
-10.1940 6.6107 -2.0016 0.9519
-10.4246 6.2407 -2.0016 0.9519
-10.6418 5.8627 -2.0016 0.9519
-11.3710 4.2802 -2.0016 0.9519
-11.5172 3.8695 -2.0016 0.9519
-11.6486 3.4538 -2.0016 0.9519
-11.7650 3.0336 -2.0016 0.9519
-11.8663 2.6096 -2.0016 0.9519
-11.9523 2.1822 -2.0016 0.9519
-12.0780 1.3195 -2.0016 0.9519
-12.1176 0.8853 -2.0016 0.9519
-12.1499 0.0142 -2.0016 0.9519
-12.1196 -0.8571 -2.0016 0.9519
-12.0269 -1.7240 -2.0016 0.9519
-11.0318 -2.3992 -1.8599 0.9553
-10.9217 -2.7891 -1.8570 0.9553
-10.8146 -3.1791 -1.8570 0.9553
-10.6936 -3.5651 -1.8570 0.9553
-10.5589 -3.9464 -1.8570 0.9553
-10.4105 -4.3227 -1.8570 0.9553
-10.2487 -4.6934 -1.8570 0.9553
-10.0737 -5.0581 -1.8570 0.9553
-9.8857 -5.4162 -1.8570 0.9553
-10.4391 -6.2164 -2.0016 0.9519
-9.9665 -6.9490 -2.0016 0.9519
-9.1622 -7.9796 -2.0016 0.9519
-8.8700 -8.3032 -2.0016 0.9519
-8.2517 -8.9179 -2.0016 0.9519
-7.9265 -9.2082 -2.0016 0.9519
-7.2458 -9.7528 -2.0016 0.9519
-6.5278 -10.2473 -2.0016 0.9519
-6.1560 -10.4749 -2.0016 0.9519
-5.7762 -10.6890 -2.0016 0.9519
-5.3890 -10.8894 -2.0016 0.9519
-4.9948 -11.0757 -2.0016 0.9519
-4.1878 -11.4053 -2.0016 0.9519
-3.7759 -11.5482 -2.0016 0.9519
-2.5132 -11.8871 -2.0016 0.9519
-2.0852 -11.9696 -2.0016 0.9519
-1.6544 -12.0367 -2.0016 0.9519
-0.7870 -12.1244 -2.0016 0.9519
-0.3515 -12.1448 -2.0016 0.9519
0.9554 -12.1122 -2.0016 0.9519
1.3893 -12.0702 -2.0016 0.9519
2.6782 -11.8510 -2.0016 0.9519
3.9360 -11.4947 -2.0016 0.9519
4.3459 -11.3460 -2.0016 0.9519
4.7501 -11.1828 -2.0016 0.9519
2.3684 -4.2408 -0.8002 0.9805
6.6696 -10.1556 -2.0016 0.9519
7.7221 -9.3802 -2.0016 0.9519
8.0537 -9.0971 -2.0016 0.9519
8.3749 -8.8023 -2.0016 0.9519
8.6853 -8.4962 -2.0016 0.9519
8.9845 -8.1791 -2.0016 0.9519
9.2722 -7.8515 -2.0016 0.9519
9.8113 -7.1664 -2.0016 0.9519
10.0621 -6.8098 -2.0016 0.9519
10.2999 -6.4445 -2.0016 0.9519
10.7355 -5.6893 -2.0016 0.9519
11.1158 -4.9048 -2.0016 0.9519
11.2847 -4.5029 -2.0016 0.9519
11.4389 -4.0951 -2.0016 0.9519
11.5785 -3.6821 -2.0016 0.9519
12.0497 -1.5567 -2.0016 0.9519
12.0978 -1.1234 -2.0016 0.9519
12.1303 -0.6886 -2.0016 0.9519
12.1341 0.6187 -2.0016 0.9519
12.0585 1.4872 -2.0016 0.9519
11.8289 2.7742 -2.0016 0.9519
11.7218 3.1968 -2.0016 0.9519
11.5995 3.6153 -2.0016 0.9519
11.1439 4.8407 -2.0016 0.9519
10.9631 5.2374 -2.0016 0.9519
10.7681 5.6273 -2.0016 0.9519
10.5593 6.0100 -2.0016 0.9519
10.3369 6.3850 -2.0016 0.9519
10.1012 6.7518 -2.0016 0.9519
9.3172 7.7980 -2.0016 0.9519
9.0315 8.1272 -2.0016 0.9519
8.4255 8.7539 -2.0016 0.9519
8.1060 9.0506 -2.0016 0.9519
7.7760 9.3356 -2.0016 0.9519
7.4361 9.6085 -2.0016 0.9519
5.1760 9.9615 -1.8494 0.9555
4.0758 10.4600 -1.8494 0.9555
3.6979 10.5995 -1.8494 0.9555
2.5376 10.9354 -1.8494 0.9555
1.3479 11.1448 -1.8494 0.9555
0.9472 11.1860 -1.8494 0.9555
-0.2601 11.2230 -1.8494 0.9555
-1.0642 11.1754 -1.8494 0.9555
-1.1469 8.7164 -1.4483 0.9650
-1.8628 11.0704 -1.8494 0.9555
-2.2588 10.9964 -1.8494 0.9555
-2.6519 10.9083 -1.8494 0.9555
-3.0415 10.8061 -1.8494 0.9555
-3.4272 10.6900 -1.8494 0.9555
-5.2800 9.9068 -1.8494 0.9555
-6.9632 8.8055 -1.8494 0.9555
-7.2746 8.5500 -1.8494 0.9555
-7.5767 8.2835 -1.8494 0.9555
-8.1078 8.2494 -1.9055 0.9542
-8.6981 8.2368 -1.9734 0.9526
-9.3983 7.7001 -2.0016 0.9519
-9.9263 7.0063 -2.0016 0.9519
-10.4031 6.2765 -2.0016 0.9519
-10.6216 5.8992 -2.0016 0.9519
-10.8264 5.5144 -2.0016 0.9519
-11.0173 5.1224 -2.0016 0.9519
-11.1940 4.7238 -2.0016 0.9519
-11.5039 3.9090 -2.0016 0.9519
-12.0168 1.7932 -2.0016 0.9519
-12.0734 1.3610 -2.0016 0.9519
-12.1399 0.4917 -2.0016 0.9519
-12.1439 -0.3801 -2.0016 0.9519
-12.1225 -0.8155 -2.0016 0.9519
-11.9647 -2.1133 -2.0016 0.9519
-11.0229 -2.3576 -1.8570 0.9553
-10.8255 -3.1420 -1.8570 0.9553
-10.0910 -5.0235 -1.8570 0.9553
-9.9043 -5.3823 -1.8570 0.9553
-10.2319 -6.5519 -2.0016 0.9519
-9.1895 -7.9481 -2.0016 0.9519
-8.2823 -8.8895 -2.0016 0.9519
-7.9580 -9.1809 -2.0016 0.9519
-7.6235 -9.4605 -2.0016 0.9519
-7.2792 -9.7279 -2.0016 0.9519
-6.9256 -9.9828 -2.0016 0.9519
-6.5629 -10.2248 -2.0016 0.9519
-6.1919 -10.4537 -2.0016 0.9519
-5.8128 -10.6691 -2.0016 0.9519
2.0090 -10.4576 -2.0016 0.9576
2.3829 -10.3788 -2.0016 0.9576
3.8431 -9.9312 -2.0016 0.9576
4.5453 -9.6300 -2.0016 0.9576
2.1920 -4.2427 -0.8976 0.9808
5.8761 -8.8808 -2.0016 0.9576
6.7963 -8.1980 -2.0016 0.9576
7.0860 -7.9489 -2.0016 0.9576
7.3666 -7.6896 -2.0016 0.9576
7.6378 -7.4204 -2.0016 0.9576
8.1502 -6.8536 -2.0016 0.9576
8.3908 -6.5568 -2.0016 0.9576
8.6207 -6.2515 -2.0016 0.9576
9.7572 -4.2654 -2.0016 0.9576
10.0380 -3.5547 -2.0016 0.9576
10.1590 -3.1923 -2.0016 0.9576
10.2670 -2.8258 -2.0016 0.9576
10.5112 -1.7063 -2.0016 0.9576
10.5657 -1.3281 -2.0016 0.9576
10.6337 -0.5670 -2.0016 0.9576
10.6472 -0.1852 -2.0016 0.9576
10.6470 0.1969 -2.0016 0.9576
10.6331 0.5788 -2.0016 0.9576
10.6055 0.9599 -2.0016 0.9576
10.5093 1.7179 -2.0016 0.9576
10.2639 2.8371 -2.0016 0.9576
9.8997 3.9235 -2.0016 0.9576
9.7525 4.2762 -2.0016 0.9576
9.4208 4.9645 -2.0016 0.9576
8.6138 6.2610 -2.0016 0.9576
8.1426 6.8626 -2.0016 0.9576
7.8912 7.1503 -2.0016 0.9576
6.1814 8.6711 -2.0016 0.9576
5.8663 8.8873 -2.0016 0.9576
5.5437 9.0920 -2.0016 0.9576
5.2139 9.2851 -2.0016 0.9576
4.8669 9.4458 -1.9973 0.9577
4.4214 9.3943 -1.9516 0.9586
3.8933 9.1066 -1.8615 0.9605
2.5339 9.5072 -1.8494 0.9607
2.1912 9.5920 -1.8494 0.9607
1.1479 9.7719 -1.8494 0.9607
0.4442 9.8290 -1.8494 0.9607
-0.9664 9.7915 -1.8494 0.9607
-2.0128 9.6310 -1.8494 0.9607
-2.3570 9.5526 -1.8494 0.9607
-2.6982 9.4619 -1.8494 0.9607
-3.6993 9.1172 -1.8494 0.9607
-4.0240 8.9786 -1.8494 0.9607
-4.3435 8.8284 -1.8494 0.9607
-4.6574 8.6669 -1.8494 0.9607
-5.2669 8.3106 -1.8494 0.9607
-6.0960 8.2453 -1.9274 0.9591
-6.5587 8.2358 -1.9789 0.9581
-7.7572 7.2955 -2.0016 0.9576
-8.2603 6.7204 -2.0016 0.9576
-8.4961 6.4198 -2.0016 0.9576
-8.7210 6.1108 -2.0016 0.9576
-9.1367 5.4697 -2.0016 0.9576
-9.5054 4.8005 -2.0016 0.9576
-10.0943 3.3914 -2.0016 0.9576
-10.3115 2.6589 -2.0016 0.9576
-10.4757 1.9126 -2.0016 0.9576
-10.5858 1.1565 -2.0016 0.9576
-10.6205 0.7760 -2.0016 0.9576
-10.6415 0.3944 -2.0016 0.9576
-10.6424 -0.3697 -2.0016 0.9576
-10.4801 -1.8882 -2.0016 0.9576
-10.2226 -2.2232 -1.9664 0.9583
-9.4785 -2.7864 -1.8570 0.9606
-9.3725 -3.1246 -1.8570 0.9606
-8.9825 -4.1136 -1.8570 0.9606
-8.8291 -4.4332 -1.8570 0.9606
-8.4885 -5.0549 -1.8570 0.9606
-8.3017 -5.3562 -1.8570 0.9606
-8.2760 -6.7012 -2.0016 0.9576
-6.3506 -8.5479 -2.0016 0.9576
-6.0399 -8.7703 -2.0016 0.9576
-4.7232 -9.5440 -2.0016 0.9576
-4.3777 -9.7073 -2.0016 0.9576
-3.3094 -10.1215 -2.0016 0.9576
-2.9442 -10.2337 -2.0016 0.9576
-1.4500 -10.5496 -2.0016 0.9576
-0.6898 -10.6265 -2.0016 0.9576
0.0740 -10.6486 -2.0016 0.9576
0.4560 -10.6391 -2.0016 0.9576
1.9732 -10.4644 -2.0016 0.9576
2.3473 -10.3869 -2.0016 0.9576
2.7184 -10.2960 -2.0016 0.9576
3.4497 -10.0745 -2.0016 0.9576
4.1633 -9.8012 -2.0016 0.9576
4.5122 -9.6456 -2.0016 0.9576
2.1866 -4.2682 -0.9014 0.9807
2.3682 -4.2405 -0.9129 0.9804
5.5225 -9.1049 -2.0016 0.9576
5.8456 -8.9009 -2.0016 0.9576
6.7681 -8.2213 -2.0016 0.9576
7.0587 -7.9732 -2.0016 0.9576
7.8745 -7.1686 -2.0016 0.9576
8.1266 -6.8815 -2.0016 0.9576
8.5992 -6.2811 -2.0016 0.9576
9.0274 -5.6483 -2.0016 0.9576
9.2243 -5.3208 -2.0016 0.9576
9.4092 -4.9864 -2.0016 0.9576
9.5820 -4.6456 -2.0016 0.9576
10.1480 -3.2272 -2.0016 0.9576
10.2573 -2.8610 -2.0016 0.9576
10.3533 -2.4912 -2.0016 0.9576
10.6317 -0.6035 -2.0016 0.9576
10.6476 0.1604 -2.0016 0.9576
10.6350 0.5423 -2.0016 0.9576
10.6087 0.9235 -2.0016 0.9576
10.5152 1.6818 -2.0016 0.9576
10.4481 2.0580 -2.0016 0.9576
9.7672 4.2426 -2.0016 0.9576
9.6087 4.5903 -2.0016 0.9576
9.4378 4.9321 -2.0016 0.9576
8.4061 6.5372 -2.0016 0.9576
8.1661 6.8346 -2.0016 0.9576
7.1045 7.9324 -2.0016 0.9576
6.2111 8.6498 -2.0016 0.9576
5.8968 8.8671 -2.0016 0.9576
5.2458 9.2671 -2.0016 0.9576
4.9006 9.4315 -1.9978 0.9577
4.4751 9.4244 -1.9610 0.9584
2.9056 9.4002 -1.8494 0.9607
1.8788 9.6580 -1.8494 0.9607
1.1814 9.7679 -1.8494 0.9607
0.8302 9.8040 -1.8494 0.9607
0.4779 9.8275 -1.8494 0.9607
-0.2280 9.8364 -1.8494 0.9607
-1.1447 8.7000 -1.6494 0.9649
-1.6327 9.7027 -1.8494 0.9607
-2.3242 9.5606 -1.8494 0.9607
-3.0038 9.3693 -1.8494 0.9607
-4.3132 8.8433 -1.8494 0.9607
-4.6277 8.6829 -1.8494 0.9607
-5.2384 8.3287 -1.8494 0.9607
-5.6150 8.2548 -1.8765 0.9602
-6.5134 8.2367 -1.9738 0.9582
-6.8827 8.0894 -1.9964 0.9577
-7.4644 7.5947 -2.0016 0.9576
-7.9898 7.0399 -2.0016 0.9576
-8.2372 6.7488 -2.0016 0.9576
-8.4740 6.4489 -2.0016 0.9576
-8.9146 5.8246 -2.0016 0.9576
-9.1179 5.5011 -2.0016 0.9576
-9.9532 3.7856 -2.0016 0.9576
-10.0826 3.4260 -2.0016 0.9576
-10.1991 3.0621 -2.0016 0.9576
-10.3023 2.6942 -2.0016 0.9576
-10.3924 2.3229 -2.0016 0.9576
-10.4690 1.9486 -2.0016 0.9576
-10.5322 1.5717 -2.0016 0.9576
-10.5818 1.1928 -2.0016 0.9576
-10.6487 0.0490 -2.0016 0.9576
-10.6436 -0.3331 -2.0016 0.9576
-10.6248 -0.7148 -2.0016 0.9576
-10.5923 -1.0955 -2.0016 0.9576
-10.5462 -1.4748 -2.0016 0.9576
-9.4881 -2.7538 -1.8570 0.9606
-9.2662 -3.4271 -1.8570 0.9606
-8.9966 -4.0827 -1.8570 0.9606
-8.6807 -4.7173 -1.8570 0.9606
-8.3200 -5.3276 -1.8570 0.9606
-8.5330 -6.3707 -2.0016 0.9576
-8.2989 -6.6727 -2.0016 0.9576
-7.7991 -7.2506 -2.0016 0.9576
-7.5339 -7.5258 -2.0016 0.9576
-6.9749 -8.0466 -2.0016 0.9576
-5.0947 -9.3510 -2.0016 0.9576
1.1151 -9.4031 -2.0016 0.9620
1.4517 -9.3571 -2.0016 0.9620
2.7753 -9.0532 -2.0016 0.9620
4.0417 -8.5631 -2.0016 0.9620
2.1920 -4.2427 -1.0094 0.9807
4.6454 -8.2512 -2.0016 0.9620
4.9384 -8.0793 -2.0016 0.9620
5.2251 -7.8969 -2.0016 0.9620
5.7779 -7.5019 -2.0016 0.9620
7.0239 -6.3503 -2.0016 0.9620
7.6656 -5.5589 -2.0016 0.9620
8.0444 -4.9949 -2.0016 0.9620
8.2185 -4.7031 -2.0016 0.9620
8.9259 -3.1609 -2.0016 0.9620
9.0335 -2.8387 -2.0016 0.9620
9.1295 -2.5127 -2.0016 0.9620
9.3467 -1.5173 -2.0016 0.9620
9.3951 -1.1810 -2.0016 0.9620
9.4314 -0.8431 -2.0016 0.9620
9.4676 -0.1647 -2.0016 0.9620
9.4305 0.8535 -2.0016 0.9620
9.3938 1.1913 -2.0016 0.9620
9.3450 1.5276 -2.0016 0.9620
9.2842 1.8619 -2.0016 0.9620
8.8029 3.4888 -2.0016 0.9620
8.5300 4.1111 -2.0016 0.9620
8.3771 4.4144 -2.0016 0.9620
6.5429 6.8449 -2.0016 0.9620
6.2931 7.0752 -2.0016 0.9620
6.0353 7.2964 -2.0016 0.9620
5.7696 7.5083 -2.0016 0.9620
4.3371 8.4174 -2.0016 0.9620
3.7168 8.6938 -1.9986 0.9621
3.3956 8.8038 -1.9946 0.9622
2.6189 8.5767 -1.8956 0.9640
1.9484 8.5293 -1.8494 0.9649
1.6411 8.5937 -1.8494 0.9649
1.3318 8.6470 -1.8494 0.9649
0.7083 8.7203 -1.8494 0.9649
0.0812 8.7486 -1.8494 0.9649
-0.2328 8.7459 -1.8494 0.9649
-0.8593 8.7067 -1.8494 0.9649
-1.1711 8.6703 -1.8494 0.9649
-1.4814 8.6227 -1.8494 0.9649
-2.3993 8.4136 -1.8494 0.9649
-2.6996 8.3221 -1.8494 0.9649
-3.3489 8.2536 -1.8828 0.9642
-4.0553 8.2427 -1.9418 0.9631
-4.7638 8.1494 -1.9954 0.9621
-5.0602 7.9845 -1.9982 0.9621
-5.8988 7.4072 -2.0016 0.9620
-6.1608 7.1908 -2.0016 0.9620
-6.4148 6.9651 -2.0016 0.9620
-6.6606 6.7305 -2.0016 0.9620
-7.1260 6.2355 -2.0016 0.9620
-7.5548 5.7085 -2.0016 0.9620
-7.9447 5.1521 -2.0016 0.9620
-8.6000 3.9626 -2.0016 0.9620
-8.9760 3.0157 -2.0016 0.9620
-9.3150 1.7007 -2.0016 0.9620
-9.3701 1.3654 -2.0016 0.9620
-9.4438 0.6900 -2.0016 0.9620
-9.4633 -0.3287 -2.0016 0.9620
-9.4454 -0.6680 -2.0016 0.9620
-9.4154 -1.0064 -2.0016 0.9620
-9.3732 -1.3436 -2.0016 0.9620
-9.3190 -1.6790 -2.0016 0.9620
-8.7477 -2.2339 -1.9084 0.9638
-8.4284 -2.4777 -1.8570 0.9647
-8.1134 -3.3689 -1.8570 0.9647
-7.8510 -3.9420 -1.8570 0.9647
-7.5481 -4.4948 -1.8570 0.9647
-7.2063 -5.0245 -1.8570 0.9647
-7.0214 -5.2798 -1.8570 0.9647
-6.9128 -6.4711 -2.0016 0.9620
-6.6762 -6.7149 -2.0016 0.9620
-6.4310 -6.9501 -2.0016 0.9620
-6.1775 -7.1764 -2.0016 0.9620
-5.9161 -7.3934 -2.0016 0.9620
-5.6470 -7.6009 -2.0016 0.9620
-4.7977 -8.1636 -2.0016 0.9620
-3.5806 -8.7660 -2.0016 0.9620
-3.2637 -8.8888 -2.0016 0.9620
-2.9428 -9.0001 -2.0016 0.9620
-2.6180 -9.0999 -2.0016 0.9620
-2.2898 -9.1880 -2.0016 0.9620
-1.9587 -9.2642 -2.0016 0.9620
-1.6251 -9.3285 -2.0016 0.9620
-0.6133 -9.4491 -2.0016 0.9620
0.0658 -9.4688 -2.0016 0.9620
0.7446 -9.4397 -2.0016 0.9620
1.0828 -9.4069 -2.0016 0.9620
1.4196 -9.3620 -2.0016 0.9620
1.7545 -9.3050 -2.0016 0.9620
3.3870 -8.8426 -2.0016 0.9620
2.1866 -4.2681 -1.0137 0.9806
5.4785 -7.7232 -2.0016 0.9620
6.0182 -7.3105 -2.0016 0.9620
6.2767 -7.0898 -2.0016 0.9620
6.5270 -6.8601 -2.0016 0.9620
6.7689 -6.6215 -2.0016 0.9620
7.2263 -6.1191 -2.0016 0.9620
7.4412 -5.8559 -2.0016 0.9620
7.8419 -5.3072 -2.0016 0.9620
8.0273 -5.0225 -2.0016 0.9620
8.2023 -4.7313 -2.0016 0.9620
8.3667 -4.4340 -2.0016 0.9620
8.5204 -4.1309 -2.0016 0.9620
8.7947 -3.5093 -2.0016 0.9620
9.0237 -2.8696 -2.0016 0.9620
9.1209 -2.5441 -2.0016 0.9620
9.2063 -2.2152 -2.0016 0.9620
9.3414 -1.5493 -2.0016 0.9620
9.4538 -0.5367 -2.0016 0.9620
9.4670 -0.1972 -2.0016 0.9620
9.4679 0.1426 -2.0016 0.9620
9.3978 1.1591 -2.0016 0.9620
9.3502 1.4955 -2.0016 0.9620
9.2189 2.1621 -2.0016 0.9620
9.1354 2.4915 -2.0016 0.9620
9.0401 2.8176 -2.0016 0.9620
8.6850 3.7726 -2.0016 0.9620
8.5441 4.0818 -2.0016 0.9620
8.3922 4.3857 -2.0016 0.9620
8.2294 4.6839 -2.0016 0.9620
7.4748 5.8129 -2.0016 0.9620
6.8069 6.5824 -2.0016 0.9620
6.3174 7.0536 -2.0016 0.9620
6.0603 7.2757 -2.0016 0.9620
5.7953 7.4884 -2.0016 0.9620
5.2435 7.8847 -2.0016 0.9620
4.9572 8.0677 -2.0016 0.9620
4.6646 8.2404 -2.0016 0.9620
4.0617 8.5537 -2.0016 0.9620
3.7473 8.6826 -1.9990 0.9621
3.0409 8.7163 -1.9514 0.9630
2.6548 8.5886 -1.9002 0.9639
2.2972 8.5016 -1.8615 0.9646
1.9777 8.5225 -1.8494 0.9649
1.6706 8.5880 -1.8494 0.9649
1.3615 8.6424 -1.8494 0.9649
1.0505 8.6857 -1.8494 0.9649
0.7382 8.7178 -1.8494 0.9649
0.1112 8.7483 -1.8494 0.9649
-0.5164 8.7337 -1.8494 0.9649
-1.1413 8.6742 -1.8494 0.9649
-1.7604 8.5701 -1.8494 0.9649
-2.0667 8.5014 -1.8494 0.9649
-2.6710 8.3313 -1.8494 0.9649
-3.3161 8.2541 -1.8803 0.9643
-3.6630 8.2490 -1.9078 0.9638
-4.0205 8.2432 -1.9387 0.9632
-4.3900 8.2369 -1.9730 0.9626
-4.7352 8.1647 -1.9951 0.9621
-5.0321 8.0007 -1.9979 0.9621
-6.1361 7.2119 -2.0016 0.9620
-6.3909 6.9871 -2.0016 0.9620
-6.8754 6.5108 -2.0016 0.9620
-7.1046 6.2600 -2.0016 0.9620
-7.5352 5.7344 -2.0016 0.9620
-7.7361 5.4604 -2.0016 0.9620
-7.9270 5.1793 -2.0016 0.9620
-8.9656 3.0465 -2.0016 0.9620
-9.3092 1.7327 -2.0016 0.9620
-9.3653 1.3976 -2.0016 0.9620
-9.4414 0.7224 -2.0016 0.9620
-9.4613 0.3832 -2.0016 0.9620
-9.4689 0.0435 -2.0016 0.9620
-9.4477 -0.6356 -2.0016 0.9620
-9.4188 -0.9741 -2.0016 0.9620
-9.3778 -1.3114 -2.0016 0.9620
-9.3247 -1.6470 -2.0016 0.9620
-9.2596 -1.9805 -2.0016 0.9620
-8.3436 -2.7498 -1.8570 0.9647
-8.2396 -3.0474 -1.8570 0.9647
-8.1249 -3.3410 -1.8570 0.9647
-7.9998 -3.6304 -1.8570 0.9647
-7.7189 -4.1947 -1.8570 0.9647
-7.3983 -4.7374 -1.8570 0.9647
-7.2235 -4.9997 -1.8570 0.9647
-7.0395 -5.2557 -1.8570 0.9647
-6.8464 -5.5049 -1.8570 0.9647
-7.1618 -6.1944 -2.0016 0.9620
-6.9350 -6.4473 -2.0016 0.9620
-6.6992 -6.6920 -2.0016 0.9620
-6.2021 -7.1551 -2.0016 0.9620
-5.3974 -7.7801 -2.0016 0.9620
-4.8256 -8.1471 -2.0016 0.9620
1.3057 -8.4158 -2.0016 0.9656
1.9058 -8.3005 -2.0016 0.9656
2.4961 -8.1425 -2.0016 0.9656
2.7866 -8.0477 -2.0016 0.9656
3.3565 -7.8271 -2.0016 0.9656
2.1737 -4.2074 -1.1130 0.9807
4.4416 -7.2665 -2.0016 0.9656
5.1966 -6.7472 -2.0016 0.9656
5.4354 -6.5564 -2.0016 0.9656
5.6671 -6.3572 -2.0016 0.9656
5.8915 -6.1498 -2.0016 0.9656
6.1083 -5.9345 -2.0016 0.9656
6.3173 -5.7115 -2.0016 0.9656
6.8944 -4.9997 -2.0016 0.9656
7.0694 -4.7491 -2.0016 0.9656
7.2352 -4.4924 -2.0016 0.9656
7.3917 -4.2300 -2.0016 0.9656
7.5387 -3.9621 -2.0016 0.9656
7.8034 -3.4113 -2.0016 0.9656
7.9208 -3.1291 -2.0016 0.9656
8.1248 -2.5531 -2.0016 0.9656
8.2111 -2.2600 -2.0016 0.9656
8.2869 -1.9639 -2.0016 0.9656
8.3520 -1.6653 -2.0016 0.9656
8.5152 -0.1481 -2.0016 0.9656
8.5150 0.1575 -2.0016 0.9656
8.5039 0.4629 -2.0016 0.9656
8.4049 1.3739 -2.0016 0.9656
8.3502 1.6746 -2.0016 0.9656
8.2847 1.9731 -2.0016 0.9656
8.0248 2.8518 -2.0016 0.9656
7.7996 3.4199 -2.0016 0.9656
7.6719 3.6975 -2.0016 0.9656
7.3870 4.2381 -2.0016 0.9656
7.2302 4.5004 -2.0016 0.9656
7.0641 4.7569 -2.0016 0.9656
6.8889 5.0073 -2.0016 0.9656
6.5121 5.4884 -2.0016 0.9656
6.3110 5.7185 -2.0016 0.9656
6.1018 5.9412 -2.0016 0.9656
5.8847 6.1563 -2.0016 0.9656
5.6601 6.3634 -2.0016 0.9656
5.4281 6.5624 -2.0016 0.9656
4.9436 6.9348 -2.0016 0.9656
4.6916 7.1077 -2.0016 0.9656
4.4336 7.2714 -2.0016 0.9656
4.1698 7.4258 -2.0016 0.9656
3.9008 7.5706 -2.0016 0.9656
3.3478 7.8308 -2.0016 0.9656
2.7777 8.0507 -2.0016 0.9656
2.4855 8.1399 -2.0003 0.9656
1.8910 8.2778 -1.9956 0.9657
1.5911 8.3314 -1.9935 0.9657
0.9710 8.2662 -1.9561 0.9664
0.6704 8.2533 -1.9461 0.9665
0.3725 8.2432 -1.9393 0.9667
0.0765 8.2435 -1.9375 0.9667
-0.2194 8.2434 -1.9381 0.9667
-0.5158 8.2428 -1.9410 0.9666
-0.8134 8.2418 -1.9464 0.9665
-1.1130 8.2404 -1.9543 0.9664
-1.4154 8.2384 -1.9646 0.9662
-1.7213 8.2361 -1.9775 0.9660
-2.3280 8.1636 -1.9951 0.9657
-2.9118 7.9876 -1.9981 0.9657
-3.4830 7.7716 -2.0016 0.9656
-4.2979 7.3524 -2.0016 0.9656
-5.0630 6.8481 -2.0016 0.9656
-5.3054 6.6620 -2.0016 0.9656
-5.9905 6.0534 -2.0016 0.9656
-6.2038 5.8346 -2.0016 0.9656
-6.9746 4.8872 -2.0016 0.9656
-7.1455 4.6338 -2.0016 0.9656
-7.4594 4.1095 -2.0016 0.9656
-7.6020 3.8392 -2.0016 0.9656
-8.1651 2.4209 -2.0016 0.9656
-8.3177 1.8292 -2.0016 0.9656
-8.4274 1.2281 -2.0016 0.9656
-8.4661 0.9249 -2.0016 0.9656
-8.5106 0.3155 -2.0016 0.9656
-8.4303 -1.2084 -2.0016 0.9656
-8.3815 -1.5101 -2.0016 0.9656
-8.2516 -2.1072 -2.0016 0.9656
-7.4012 -2.7662 -1.8570 0.9681
-7.1838 -3.2898 -1.8570 0.9681
-7.0612 -3.5454 -1.8570 0.9681
-6.9294 -3.7965 -1.8570 0.9681
-6.6393 -4.2836 -1.8570 0.9681
-6.3151 -4.7487 -1.8570 0.9681
-6.1406 -4.9722 -1.8570 0.9681
-5.9583 -5.1893 -1.8570 0.9681
-5.7683 -5.3997 -1.8570 0.9681
-5.5709 -5.6032 -1.8570 0.9681
-5.7840 -6.2510 -2.0016 0.9656
-5.3209 -6.6496 -2.0016 0.9656
-5.0789 -6.8362 -2.0016 0.9656
-4.5757 -7.1828 -2.0016 0.9656
-4.3150 -7.3424 -2.0016 0.9656
-4.0488 -7.4925 -2.0016 0.9656
-3.7774 -7.6329 -2.0016 0.9656
-3.2203 -7.8841 -2.0016 0.9656
-0.5517 -8.4986 -2.0016 0.9656
-0.2464 -8.5129 -2.0016 0.9656
0.9739 -8.4606 -2.0016 0.9656
1.2768 -8.4202 -2.0016 0.9656
1.5780 -8.3690 -2.0016 0.9656
2.4681 -8.1510 -2.0016 0.9656
2.7590 -8.0572 -2.0016 0.9656
3.0462 -7.9530 -2.0016 0.9656
2.1630 -4.2220 -1.1149 0.9807
2.3199 -4.1540 -1.1182 0.9806
5.1734 -6.7650 -2.0016 0.9656
5.4128 -6.5750 -2.0016 0.9656
5.6452 -6.3766 -2.0016 0.9656
5.8704 -6.1700 -2.0016 0.9656
6.0879 -5.9554 -2.0016 0.9656
6.2977 -5.7332 -2.0016 0.9656
7.0530 -4.7733 -2.0016 0.9656
7.2197 -4.5172 -2.0016 0.9656
7.3771 -4.2553 -2.0016 0.9656
7.5251 -3.9879 -2.0016 0.9656
7.6633 -3.7154 -2.0016 0.9656
7.7916 -3.4380 -2.0016 0.9656
8.1159 -2.5810 -2.0016 0.9656
8.2033 -2.2881 -2.0016 0.9656
8.4017 -1.3935 -2.0016 0.9656
8.4463 -1.0912 -2.0016 0.9656
8.4800 -0.7874 -2.0016 0.9656
8.5146 -0.1773 -2.0016 0.9656
8.5155 0.1283 -2.0016 0.9656
8.5054 0.4337 -2.0016 0.9656
8.4844 0.7386 -2.0016 0.9656
8.4524 1.0425 -2.0016 0.9656
8.4096 1.3450 -2.0016 0.9656
8.2915 1.9446 -2.0016 0.9656
8.1307 2.5342 -2.0016 0.9656
7.9280 3.1106 -2.0016 0.9656
7.8113 3.3931 -2.0016 0.9656
7.6846 3.6711 -2.0016 0.9656
7.4015 4.2127 -2.0016 0.9656
7.2456 4.4756 -2.0016 0.9656
7.0804 4.7326 -2.0016 0.9656
6.1222 5.9202 -2.0016 0.9656
5.9058 6.1361 -2.0016 0.9656
5.2123 6.7351 -2.0016 0.9656
4.7160 7.0915 -2.0016 0.9656
3.6531 7.6932 -2.0016 0.9656
3.3747 7.8193 -2.0016 0.9656
1.9195 8.2719 -1.9958 0.9657
0.9999 8.2674 -1.9572 0.9664
0.6990 8.2545 -1.9469 0.9665
0.1048 8.2435 -1.9376 0.9667
-0.1911 8.2434 -1.9379 0.9667
-1.0843 8.2405 -1.9534 0.9664
-1.3864 8.2386 -1.9635 0.9663
-2.5933 8.0889 -1.9964 0.9657
-2.8841 7.9969 -1.9979 0.9657
-3.1719 7.8951 -1.9997 0.9656
-3.7334 7.6545 -2.0016 0.9656
-4.2726 7.3671 -2.0016 0.9656
-4.7899 7.0418 -2.0016 0.9656
-5.0395 6.8654 -2.0016 0.9656
-6.1838 5.8558 -2.0016 0.9656
-6.5878 5.3973 -2.0016 0.9656
-6.9578 4.9111 -2.0016 0.9656
-7.1295 4.6583 -2.0016 0.9656
-7.2921 4.3995 -2.0016 0.9656
-7.7226 3.5905 -2.0016 0.9656
-7.8464 3.3112 -2.0016 0.9656
-8.1567 2.4489 -2.0016 0.9656
-8.2394 2.1547 -2.0016 0.9656
-8.3114 1.8577 -2.0016 0.9656
-8.3727 1.5584 -2.0016 0.9656
-8.4628 0.9540 -2.0016 0.9656
-8.5164 0.0392 -2.0016 0.9656
-8.4973 -0.5716 -2.0016 0.9656
-8.4713 -0.8761 -2.0016 0.9656
-8.4344 -1.1795 -2.0016 0.9656
-8.3281 -1.7812 -2.0016 0.9656
-8.2588 -2.0789 -2.0016 0.9656
-7.5042 -2.4732 -1.8570 0.9681
-7.4107 -2.7408 -1.8570 0.9681
-7.3076 -3.0049 -1.8570 0.9681
-7.0733 -3.5212 -1.8570 0.9681
-6.9424 -3.7727 -1.8570 0.9681
-6.8026 -4.0193 -1.8570 0.9681
-6.6540 -4.2608 -1.8570 0.9681
-6.4969 -4.4968 -1.8570 0.9681
-6.3313 -4.7270 -1.8570 0.9681
-5.9761 -5.1688 -1.8570 0.9681
-5.5901 -5.5840 -1.8570 0.9681
-5.8055 -6.2311 -2.0016 0.9656
-5.5782 -6.4353 -2.0016 0.9656
-4.8545 -6.9974 -2.0016 0.9656
-4.6003 -7.1671 -2.0016 0.9656
-4.0745 -7.4785 -2.0016 0.9656
1.7299 -7.5345 -2.0016 0.9686
2.5294 -7.3050 -2.0016 0.9686
2.7899 -7.2095 -2.0016 0.9686
3.0467 -7.1048 -2.0016 0.9686
3.2997 -6.9909 -2.0016 0.9686
4.2657 -6.4470 -2.0016 0.9686
4.7170 -6.1245 -2.0016 0.9686
5.3478 -5.5822 -2.0016 0.9686
5.7343 -5.1844 -2.0016 0.9686
6.2581 -4.5383 -2.0016 0.9686
6.5675 -4.0778 -2.0016 0.9686
6.8430 -3.5964 -2.0016 0.9686
6.9676 -3.3486 -2.0016 0.9686
7.1898 -2.8403 -2.0016 0.9686
7.5812 -1.5117 -2.0016 0.9686
7.7195 -0.4116 -2.0016 0.9686
7.7293 -0.1344 -2.0016 0.9686
7.7292 0.1430 -2.0016 0.9686
7.7191 0.4202 -2.0016 0.9686
7.6691 0.9726 -2.0016 0.9686
7.5202 1.7910 -2.0016 0.9686
7.4511 2.0596 -2.0016 0.9686
7.2842 2.5886 -2.0016 0.9686
7.1866 2.8483 -2.0016 0.9686
6.9639 3.3563 -2.0016 0.9686
6.5630 4.0851 -2.0016 0.9686
6.2531 4.5452 -2.0016 0.9686
6.0861 4.7666 -2.0016 0.9686
5.7286 5.1907 -2.0016 0.9686
5.5387 5.3929 -2.0016 0.9686
5.1377 5.7762 -2.0016 0.9686
4.9272 5.9568 -2.0016 0.9686
4.7103 6.1297 -2.0016 0.9686
4.4873 6.2948 -2.0016 0.9686
3.7850 6.7405 -2.0016 0.9686
3.5408 6.8719 -2.0016 0.9686
3.0389 7.1081 -2.0016 0.9686
2.7819 7.2126 -2.0016 0.9686
2.5214 7.3077 -2.0016 0.9686
2.2576 7.3935 -2.0016 0.9686
1.7216 7.5363 -2.0016 0.9686
1.4501 7.5933 -2.0016 0.9686
0.9019 7.6777 -2.0016 0.9686
0.3490 7.7226 -2.0016 0.9686
-1.0348 7.6609 -2.0016 0.9686
-1.3090 7.6189 -2.0016 0.9686
-1.5815 7.5670 -2.0016 0.9686
-1.8519 7.5054 -2.0016 0.9686
-2.6476 7.2630 -2.0016 0.9686
-2.9065 7.1633 -2.0016 0.9686
-3.6593 6.8095 -2.0016 0.9686
-4.1382 6.5296 -2.0016 0.9686
-4.5957 6.2161 -2.0016 0.9686
-4.8158 6.0472 -2.0016 0.9686
-5.2370 5.6863 -2.0016 0.9686
-5.8177 5.0907 -2.0016 0.9686
-6.7710 3.7302 -2.0016 0.9686
-7.1326 2.9811 -2.0016 0.9686
-7.3280 2.4620 -2.0016 0.9686
-7.4856 1.9302 -2.0016 0.9686
-7.5501 1.6604 -2.0016 0.9686
-7.6048 1.3884 -2.0016 0.9686
-7.6497 1.1147 -2.0016 0.9686
-7.6848 0.8396 -2.0016 0.9686
-7.7099 0.5633 -2.0016 0.9686
-7.7252 0.2864 -2.0016 0.9686
-7.7258 -0.2683 -2.0016 0.9686
-7.6080 -1.3707 -2.0016 0.9686
-7.4901 -1.9127 -2.0016 0.9686
-6.8039 -2.2683 -1.8570 0.9708
-6.7182 -2.5109 -1.8570 0.9708
-6.5208 -2.9862 -1.8570 0.9708
-6.4095 -3.2182 -1.8570 0.9708
-6.1622 -3.6696 -1.8570 0.9708
-5.8832 -4.1020 -1.8570 0.9708
-5.7323 -4.3104 -1.8570 0.9708
-5.5739 -4.5133 -1.8570 0.9708
-5.4084 -4.7104 -1.8570 0.9708
-4.8710 -5.2642 -1.8570 0.9708
-4.6790 -5.4356 -1.8570 0.9708
-4.4810 -5.6000 -1.8570 0.9708
-4.3846 -6.3667 -2.0016 0.9686
-4.1534 -6.5200 -2.0016 0.9686
-3.9168 -6.6648 -2.0016 0.9686
-3.6752 -6.8010 -2.0016 0.9686
-3.4288 -6.9285 -2.0016 0.9686
-2.9232 -7.1565 -2.0016 0.9686
-2.6645 -7.2568 -2.0016 0.9686
-2.4025 -7.3477 -2.0016 0.9686
-1.8694 -7.5011 -2.0016 0.9686
-1.5991 -7.5633 -2.0016 0.9686
-0.5007 -7.7143 -2.0016 0.9686
0.0537 -7.7303 -2.0016 0.9686
0.3310 -7.7234 -2.0016 0.9686
0.8840 -7.6798 -2.0016 0.9686
1.1589 -7.6431 -2.0016 0.9686
1.4324 -7.5966 -2.0016 0.9686
1.7040 -7.5403 -2.0016 0.9686
1.9735 -7.4744 -2.0016 0.9686
2.2403 -7.3987 -2.0016 0.9686
2.5043 -7.3136 -2.0016 0.9686
2.7651 -7.2190 -2.0016 0.9686
3.0223 -7.1152 -2.0016 0.9686
2.1199 -4.1379 -1.2038 0.9810
2.2956 -4.1105 -1.2190 0.9807
4.0090 -6.6097 -2.0016 0.9686
4.6960 -6.1407 -2.0016 0.9686
5.7165 -5.2041 -2.0016 0.9686
6.5534 -4.1003 -2.0016 0.9686
6.6963 -3.8626 -2.0016 0.9686
6.8306 -3.6199 -2.0016 0.9686
7.1800 -2.8650 -2.0016 0.9686
7.2782 -2.6056 -2.0016 0.9686
7.5160 -1.8085 -2.0016 0.9686
7.5760 -1.5377 -2.0016 0.9686
7.6263 -1.2649 -2.0016 0.9686
7.6668 -0.9905 -2.0016 0.9686
7.6974 -0.7148 -2.0016 0.9686
7.7181 -0.4381 -2.0016 0.9686
7.7288 -0.1610 -2.0016 0.9686
7.7205 0.3937 -2.0016 0.9686
7.7014 0.6704 -2.0016 0.9686
7.6724 0.9463 -2.0016 0.9686
7.6335 1.2209 -2.0016 0.9686
7.5263 1.7651 -2.0016 0.9686
7.3803 2.3003 -2.0016 0.9686
7.2930 2.5636 -2.0016 0.9686
7.1964 2.8236 -2.0016 0.9686
7.0905 3.0799 -2.0016 0.9686
6.7185 3.8239 -2.0016 0.9686
6.4270 4.2959 -2.0016 0.9686
6.2687 4.5237 -2.0016 0.9686
5.9282 4.9615 -2.0016 0.9686
5.7464 5.1710 -2.0016 0.9686
5.3608 5.5698 -2.0016 0.9686
5.1575 5.7585 -2.0016 0.9686
4.9476 5.9398 -2.0016 0.9686
4.7313 6.1135 -2.0016 0.9686
4.5089 6.2793 -2.0016 0.9686
4.0470 6.5865 -2.0016 0.9686
3.8081 6.7274 -2.0016 0.9686
3.5643 6.8597 -2.0016 0.9686
3.0633 7.0977 -2.0016 0.9686
2.8067 7.2030 -2.0016 0.9686
2.5464 7.2990 -2.0016 0.9686
2.2829 7.3857 -2.0016 0.9686
0.9282 7.6746 -2.0016 0.9686
0.6523 7.7029 -2.0016 0.9686
0.0983 7.7299 -2.0016 0.9686
-0.1791 7.7284 -2.0016 0.9686
-1.5555 7.5724 -2.0016 0.9686
-1.8261 7.5117 -2.0016 0.9686
-5.0095 5.8877 -2.0016 0.9686
-5.2175 5.7042 -2.0016 0.9686
-5.8002 5.1106 -2.0016 0.9686
-6.1517 4.6815 -2.0016 0.9686
-6.3157 4.4578 -2.0016 0.9686
-6.4716 4.2284 -2.0016 0.9686
-6.7581 3.7534 -2.0016 0.9686
-6.8884 3.5086 -2.0016 0.9686
-7.0099 3.2592 -2.0016 0.9686
-7.3195 2.4871 -2.0016 0.9686
-7.4040 2.2229 -2.0016 0.9686
-7.6458 1.1410 -2.0016 0.9686
-7.7080 0.5898 -2.0016 0.9686
-7.7241 0.3129 -2.0016 0.9686
-7.7304 0.0355 -2.0016 0.9686
-7.7131 -0.5189 -2.0016 0.9686
-7.6895 -0.7953 -2.0016 0.9686
-7.6560 -1.0706 -2.0016 0.9686
-7.5595 -1.6169 -2.0016 0.9686
-7.4966 -1.8870 -2.0016 0.9686
-7.4241 -2.1548 -2.0016 0.9686
-6.7268 -2.4879 -1.8570 0.9708
-6.6332 -2.7276 -1.8570 0.9708
-6.5310 -2.9638 -1.8570 0.9708
-6.1748 -3.6484 -1.8570 0.9708
-6.0399 -3.8676 -1.8570 0.9708
-5.5894 -4.4941 -1.8570 0.9708
-5.2528 -4.8834 -1.8570 0.9708
-5.0742 -5.0687 -1.8570 0.9708
-4.8891 -5.2475 -1.8570 0.9708
-4.6976 -5.4195 -1.8570 0.9708
-3.9397 -6.6513 -2.0016 0.9686
1.3339 -6.9434 -2.0016 0.9710
1.5822 -6.8910 -2.0016 0.9710
2.0722 -6.7598 -2.0016 0.9710
2.7865 -6.4981 -2.0016 0.9710
2.0942 -4.4368 -1.3889 0.9798
2.1230 -4.1093 -1.3094 0.9810
2.3060 -4.0959 -1.3307 0.9806
3.6874 -6.0326 -2.0016 0.9710
4.1105 -5.7527 -2.0016 0.9710
4.5124 -5.4431 -2.0016 0.9710
4.7048 -5.2777 -2.0016 0.9710
5.0711 -4.9268 -2.0016 0.9710
5.5711 -4.3534 -2.0016 0.9710
6.3726 -3.0626 -2.0016 0.9710
6.4784 -2.8320 -2.0016 0.9710
6.7451 -2.1196 -2.0016 0.9710
7.0151 -0.8818 -2.0016 0.9710
7.0422 -0.6295 -2.0016 0.9710
7.0599 0.3843 -2.0016 0.9710
6.9777 1.1406 -2.0016 0.9710
6.9323 1.3902 -2.0016 0.9710
6.8780 1.6380 -2.0016 0.9710
6.8148 1.8837 -2.0016 0.9710
6.6622 2.3675 -2.0016 0.9710
6.4752 2.8392 -2.0016 0.9710
6.2550 3.2962 -2.0016 0.9710
6.0025 3.7362 -2.0016 0.9710
5.8646 3.9492 -2.0016 0.9710
5.7192 4.1570 -2.0016 0.9710
5.4063 4.5564 -2.0016 0.9710
4.8855 5.1109 -2.0016 0.9710
4.6990 5.2829 -2.0016 0.9710
4.1042 5.7572 -2.0016 0.9710
3.8950 5.9008 -2.0016 0.9710
3.6808 6.0367 -2.0016 0.9710
3.2384 6.2851 -2.0016 0.9710
3.0108 6.3972 -2.0016 0.9710
2.5443 6.5967 -2.0016 0.9710
2.3060 6.6837 -2.0016 0.9710
2.0648 6.7621 -2.0016 0.9710
1.8208 6.8318 -2.0016 0.9710
1.3263 6.9448 -2.0016 0.9710
1.0763 6.9879 -2.0016 0.9710
0.8249 7.0221 -2.0016 0.9710
0.5724 7.0471 -2.0016 0.9710
0.0656 7.0700 -2.0016 0.9710
-0.1881 7.0678 -2.0016 0.9710
-0.6944 7.0361 -2.0016 0.9710
-0.9464 7.0067 -2.0016 0.9710
-1.1972 6.9682 -2.0016 0.9710
-1.6938 6.8645 -2.0016 0.9710
-1.9390 6.7993 -2.0016 0.9710
-2.1816 6.7253 -2.0016 0.9710
-2.4215 6.6427 -2.0016 0.9710
-2.6583 6.5516 -2.0016 0.9710
-2.8916 6.4520 -2.0016 0.9710
-3.3468 6.2280 -2.0016 0.9710
-3.5681 6.1040 -2.0016 0.9710
-3.9966 5.8324 -2.0016 0.9710
-4.4045 5.5308 -2.0016 0.9710
-4.7898 5.2007 -2.0016 0.9710
-5.1504 4.8439 -2.0016 0.9710
-5.4845 4.4621 -2.0016 0.9710
-5.7903 4.0573 -2.0016 0.9710
-6.0664 3.6317 -2.0016 0.9710
-6.1927 3.4117 -2.0016 0.9710
-6.5235 2.7265 -2.0016 0.9710
-6.6171 2.4908 -2.0016 0.9710
-6.7022 2.2518 -2.0016 0.9710
-6.8464 1.7654 -2.0016 0.9710
-6.9053 1.5186 -2.0016 0.9710
-6.9964 1.0195 -2.0016 0.9710
-7.0661 -0.2454 -2.0016 0.9710
-7.0303 -0.7515 -2.0016 0.9710
-6.9988 -1.0032 -2.0016 0.9710
-6.9583 -1.2537 -2.0016 0.9710
-6.8505 -1.7494 -2.0016 0.9710
-6.6573 -2.2194 -1.9866 0.9712
-6.1445 -2.2965 -1.8570 0.9731
-5.9640 -2.7312 -1.8570 0.9731
-5.8621 -2.9434 -1.8570 0.9731
-5.7528 -3.1518 -1.8570 0.9731
-5.3808 -3.7517 -1.8570 0.9731
-5.0979 -4.1279 -1.8570 0.9731
-4.4550 -4.8147 -1.8570 0.9731
-4.0983 -5.1217 -1.8570 0.9731
-3.9119 -5.2655 -1.8570 0.9731
-3.3613 -6.2202 -2.0016 0.9710
-2.4370 -6.6371 -2.0016 0.9710
-2.1973 -6.7202 -2.0016 0.9710
-1.9548 -6.7947 -2.0016 0.9710
-1.7098 -6.8605 -2.0016 0.9710
-0.9627 -7.0045 -2.0016 0.9710
-0.7108 -7.0345 -2.0016 0.9710
-0.4580 -7.0555 -2.0016 0.9710
-0.2046 -7.0674 -2.0016 0.9710
0.5560 -7.0484 -2.0016 0.9710
0.8085 -7.0240 -2.0016 0.9710
1.3101 -6.9479 -2.0016 0.9710
1.8049 -6.8361 -2.0016 0.9710
2.0490 -6.7669 -2.0016 0.9710
2.2905 -6.6890 -2.0016 0.9710
2.5290 -6.6026 -2.0016 0.9710
2.7642 -6.5076 -2.0016 0.9710
3.6667 -6.0452 -2.0016 0.9710
4.0907 -5.7668 -2.0016 0.9710
4.2950 -5.6163 -2.0016 0.9710
4.4937 -5.4586 -2.0016 0.9710
4.6866 -5.2938 -2.0016 0.9710
4.8736 -5.1223 -2.0016 0.9710
5.2283 -4.7597 -2.0016 0.9710
5.3957 -4.5690 -2.0016 0.9710
5.5562 -4.3725 -2.0016 0.9710
5.7094 -4.1703 -2.0016 0.9710
5.8554 -3.9628 -2.0016 0.9710
5.9938 -3.7502 -2.0016 0.9710
6.2473 -3.3107 -2.0016 0.9710
6.7378 -2.1427 -2.0016 0.9710
6.8104 -1.8996 -2.0016 0.9710
7.0121 -0.9059 -2.0016 0.9710
7.0400 -0.6537 -2.0016 0.9710
7.0688 -0.1472 -2.0016 0.9710
7.0695 0.1065 -2.0016 0.9710
7.0612 0.3600 -2.0016 0.9710
7.0437 0.6131 -2.0016 0.9710
7.0172 0.8655 -2.0016 0.9710
6.9370 1.3664 -2.0016 0.9710
6.8836 1.6144 -2.0016 0.9710
6.8212 1.8603 -2.0016 0.9710
6.6702 2.3447 -2.0016 0.9710
6.5818 2.5825 -2.0016 0.9710
6.4850 2.8169 -2.0016 0.9710
6.2663 3.2747 -2.0016 0.9710
5.7334 4.1374 -2.0016 0.9710
5.5813 4.3404 -2.0016 0.9710
5.2557 4.7294 -2.0016 0.9710
5.0826 4.9149 -2.0016 0.9710
4.9030 5.0941 -2.0016 0.9710
3.7015 6.0240 -2.0016 0.9710
3.4829 6.1529 -2.0016 0.9710
3.2599 6.2739 -2.0016 0.9710
2.5670 6.5879 -2.0016 0.9710
2.0880 6.7550 -2.0016 0.9710
1.8443 6.8256 -2.0016 0.9710
1.5982 6.8873 -2.0016 0.9710
1.3501 6.9402 -2.0016 0.9710
1.1002 6.9842 -2.0016 0.9710
0.8490 7.0192 -2.0016 0.9710
0.5966 7.0451 -2.0016 0.9710
-0.9224 7.0099 -2.0016 0.9710
-1.4226 6.9257 -2.0016 0.9710
-1.9156 6.8059 -2.0016 0.9710
-2.3987 6.6510 -2.0016 0.9710
-2.6358 6.5607 -2.0016 0.9710
-2.8694 6.4619 -2.0016 0.9710
-3.0994 6.3548 -2.0016 0.9710
-3.3254 6.2395 -2.0016 0.9710
-3.5471 6.1162 -2.0016 0.9710
-4.1837 5.6996 -2.0016 0.9710
-4.7719 5.2171 -2.0016 0.9710
-5.1337 4.8615 -2.0016 0.9710
-5.3049 4.6742 -2.0016 0.9710
-5.4691 4.4809 -2.0016 0.9710
-5.9189 3.8673 -2.0016 0.9710
-6.1810 3.4329 -2.0016 0.9710
-6.5141 2.7489 -2.0016 0.9710
-6.6944 2.2747 -2.0016 0.9710
-6.7717 2.0331 -2.0016 0.9710
-6.9001 1.5423 -2.0016 0.9710
-6.9929 1.0435 -2.0016 0.9710
-7.0258 0.7920 -2.0016 0.9710
-7.0497 0.5394 -2.0016 0.9710
-7.0669 -0.2212 -2.0016 0.9710
-7.0544 -0.4746 -2.0016 0.9710
-7.0022 -0.9792 -2.0016 0.9710
-6.9626 -1.2298 -2.0016 0.9710
-6.8564 -1.7259 -2.0016 0.9710
-6.7150 -2.2131 -2.0016 0.9710
-6.0667 -2.4947 -1.8570 0.9731
-5.8722 -2.9233 -1.8570 0.9731
-5.6475 -3.3368 -1.8570 0.9731
-5.5241 -3.5373 -1.8570 0.9731
-5.3937 -3.7332 -1.8570 0.9731
-5.2563 -3.9243 -1.8570 0.9731
-4.9613 -4.2911 -1.8570 0.9731
-4.8042 -4.4664 -1.8570 0.9731
-4.6409 -4.6358 -1.8570 0.9731
-4.4715 -4.7993 -1.8570 0.9731
-4.2965 -4.9567 -1.8570 0.9731
-3.9300 -5.2520 -1.8570 0.9731
-3.5433 -5.5203 -1.8570 0.9731
0.9977 -6.4305 -2.0016 0.9731
1.2277 -6.3906 -2.0016 0.9731
1.4562 -6.3425 -2.0016 0.9731
2.3794 -5.5487 -1.8570 0.9751
2.0744 -4.3950 -1.4948 0.9799
2.1144 -4.0924 -1.4168 0.9809
2.2978 -4.0814 -1.4406 0.9806
3.3939 -5.5524 -2.0016 0.9731
3.7833 -5.2947 -2.0016 0.9731
3.9708 -5.1556 -2.0016 0.9731
4.5017 -4.6991 -2.0016 0.9731
4.9806 -4.1882 -2.0016 0.9731
5.1276 -4.0068 -2.0016 0.9731
5.2681 -3.8203 -2.0016 0.9731
5.4017 -3.6288 -2.0016 0.9731
5.5285 -3.4327 -2.0016 0.9731
5.8653 -2.8188 -2.0016 0.9731
5.9626 -2.6066 -2.0016 0.9731
6.0523 -2.3910 -2.0016 0.9731
6.2742 -1.7268 -2.0016 0.9731
6.3819 -1.2725 -2.0016 0.9731
6.4234 -1.0427 -2.0016 0.9731
6.4816 -0.5794 -2.0016 0.9731
6.5065 -0.1132 -2.0016 0.9731
6.4810 0.5866 -2.0016 0.9731
6.4222 1.0498 -2.0016 0.9731
6.3304 1.5076 -2.0016 0.9731
6.2060 1.9577 -2.0016 0.9731
5.9598 2.6131 -2.0016 0.9731
5.8622 2.8253 -2.0016 0.9731
5.6445 3.2384 -2.0016 0.9731
5.3977 3.6348 -2.0016 0.9731
5.1232 4.0125 -2.0016 0.9731
4.9760 4.1937 -2.0016 0.9731
4.8223 4.3695 -2.0016 0.9731
4.4966 4.7041 -2.0016 0.9731
3.9651 5.1600 -2.0016 0.9731
3.7774 5.2989 -2.0016 0.9731
3.5849 5.4310 -2.0016 0.9731
3.3877 5.5561 -2.0016 0.9731
3.1862 5.6741 -2.0016 0.9731
2.7711 5.8880 -2.0016 0.9731
2.3418 6.0715 -2.0016 0.9731
2.1225 6.1516 -2.0016 0.9731
1.9004 6.2238 -2.0016 0.9731
1.4492 6.3441 -2.0016 0.9731
0.9906 6.4316 -2.0016 0.9731
0.7592 6.4630 -2.0016 0.9731
0.5268 6.4861 -2.0016 0.9731
0.2938 6.5008 -2.0016 0.9731
0.0604 6.5072 -2.0016 0.9731
-0.1731 6.5052 -2.0016 0.9731
-0.4064 6.4948 -2.0016 0.9731
-0.6391 6.4760 -2.0016 0.9731
-0.8711 6.4489 -2.0016 0.9731
-2.6614 5.9384 -2.0016 0.9731
-3.2841 5.6180 -2.0016 0.9731
-3.6785 5.3681 -2.0016 0.9731
-3.8687 5.2327 -2.0016 0.9731
-4.4085 4.7867 -2.0016 0.9731
-4.5774 4.6254 -2.0016 0.9731
-4.8973 4.2853 -2.0016 0.9731
-5.1920 3.9231 -2.0016 0.9731
-5.3294 3.7343 -2.0016 0.9731
-5.4599 3.5407 -2.0016 0.9731
-5.8087 2.9336 -2.0016 0.9731
-5.9103 2.7233 -2.0016 0.9731
-6.0041 2.5095 -2.0016 0.9731
-6.0903 2.2925 -2.0016 0.9731
-6.1686 2.0725 -2.0016 0.9731
-6.3556 1.3977 -2.0016 0.9731
-6.4690 0.7067 -2.0016 0.9731
-6.4902 0.4742 -2.0016 0.9731
-6.5075 0.0076 -2.0016 0.9731
-6.4416 -0.9234 -2.0016 0.9731
-6.4044 -1.1539 -2.0016 0.9731
-6.3588 -1.3829 -2.0016 0.9731
-6.2433 -1.8353 -2.0016 0.9731
-5.3955 -2.7091 -1.8570 0.9751
-5.2948 -2.9009 -1.8570 0.9751
-5.0732 -3.2731 -1.8570 0.9751
-4.9525 -3.4530 -1.8570 0.9751
-4.8254 -3.6285 -1.8570 0.9751
-4.6921 -3.7993 -1.8570 0.9751
-4.5528 -3.9652 -1.8570 0.9751
-4.4076 -4.1260 -1.8570 0.9751
-4.2567 -4.2814 -1.8570 0.9751
-3.7721 -4.7140 -1.8570 0.9751
-3.6005 -4.8463 -1.8570 0.9751
-3.4243 -4.9724 -1.8570 0.9751
-3.2437 -5.0920 -1.8570 0.9751
-3.0590 -5.2051 -1.8570 0.9751
-2.8703 -5.3115 -1.8570 0.9751
-2.6779 -5.4111 -1.8570 0.9751
-1.7992 -6.2538 -2.0016 0.9731
-1.5737 -6.3143 -2.0016 0.9731
-0.1883 -6.5048 -2.0016 0.9731
0.0452 -6.5073 -2.0016 0.9731
0.7441 -6.4648 -2.0016 0.9731
0.9756 -6.4339 -2.0016 0.9731
3.3748 -5.5640 -2.0016 0.9731
3.5722 -5.4393 -2.0016 0.9731
4.3136 -4.8724 -2.0016 0.9731
4.9662 -4.2053 -2.0016 0.9731
5.1138 -4.0244 -2.0016 0.9731
5.2549 -3.8383 -2.0016 0.9731
5.8556 -2.8389 -2.0016 0.9731
6.2682 -1.7484 -2.0016 0.9731
6.3269 -1.5224 -2.0016 0.9731
6.3774 -1.2944 -2.0016 0.9731
6.4970 -0.3688 -2.0016 0.9731
6.5061 -0.1355 -2.0016 0.9731
6.5067 0.0980 -2.0016 0.9731
6.4990 0.3314 -2.0016 0.9731
6.4258 1.0278 -2.0016 0.9731
