ply
format ascii 1.0
element vertex 1547
property float32 x
property float32 y
property float32 z
property float32 I
end_header
1.9440 12.9016 -0.6617 0.9491
-0.3609 11.9784 -0.6077 0.9531
-1.2147 11.8688 -0.6051 0.9533
-1.2226 8.8081 -0.4510 0.9650
-2.5109 11.7922 -0.6114 0.9529
-3.4266 11.8422 -0.6252 0.9518
-3.9388 11.9822 -0.6397 0.9507
-4.4504 12.0596 -0.6519 0.9498
-4.9187 11.9843 -0.6570 0.9494
-5.3551 11.8197 -0.6581 0.9494
-5.8555 11.7790 -0.6671 0.9487
-6.5089 11.9923 -0.6920 0.9468
-7.1085 12.0438 -0.7092 0.9455
-9.5034 11.8259 -0.7694 0.9410
-10.2922 11.9049 -0.7981 0.9389
-11.9588 11.9745 -0.8583 0.9345
-12.8455 11.9697 -0.8904 0.9321
-14.6878 11.8350 -0.9566 0.9272
-15.8849 11.8843 -1.0061 0.9236
-20.1315 11.9178 -1.1864 0.9106
-26.7555 12.1643 -1.4905 0.8889
-21.1190 8.7003 -1.1584 0.9126
-37.0086 13.7127 -2.0016 0.8538
-38.2692 9.6512 -2.0016 0.8538
-38.5912 8.2701 -2.0016 0.8538
-39.0854 5.4776 -2.0016 0.8538
-39.3779 2.6569 -2.0016 0.8538
-39.4670 -0.1776 -2.0016 0.8538
-39.4352 -1.5954 -2.0016 0.8538
-39.3524 -3.0112 -2.0016 0.8538
-38.7999 -7.2278 -2.0016 0.8538
-38.5152 -8.6171 -2.0016 0.8538
-37.7970 -11.3605 -2.0016 0.8538
-37.3645 -12.7111 -2.0016 0.8538
-34.4915 -19.1837 -2.0016 0.8538
-31.2113 -18.8585 -1.8494 0.8641
-30.5137 -19.9676 -1.8494 0.8641
-29.7766 -21.0510 -1.8494 0.8641
-18.9922 -22.3720 -1.4883 0.8891
-13.7316 -21.8957 -1.3107 0.9017
-12.9441 -22.3888 -1.3115 0.9016
-11.8936 -22.3917 -1.2858 0.9034
-10.8822 -22.3945 -1.2627 0.9051
-8.9588 -22.3999 -1.2235 0.9079
-6.2642 -22.4024 -1.1797 0.9110
-5.4051 -22.4048 -1.1688 0.9118
-2.9055 -22.4117 -1.1461 0.9135
-2.0903 -22.4140 -1.1416 0.9138
-1.2803 -22.4162 -1.1387 0.9140
-0.4735 -22.4185 -1.1372 0.9141
1.1389 -22.4229 -1.1386 0.9140
5.7576 -36.0089 -1.8494 0.8641
10.3885 -38.0756 -2.0016 0.8538
13.0958 -37.2314 -2.0016 0.8538
14.4249 -36.7369 -2.0016 0.8538
15.7354 -36.1949 -2.0016 0.8538
17.0256 -35.6062 -2.0016 0.8538
20.7578 -33.5677 -2.0016 0.8538
23.1146 -31.9905 -2.0016 0.8538
24.2490 -31.1394 -2.0016 0.8538
29.6433 -21.2383 -1.8494 0.8641
30.3872 -20.1596 -1.8494 0.8641
30.1501 -18.4777 -1.7933 0.8679
36.7944 -14.2775 -2.0016 0.8538
37.2836 -12.9464 -2.0016 0.8538
37.7247 -11.5985 -2.0016 0.8538
-10.1915 -22.3964 -1.8042 0.9060
-8.3089 -22.4017 -1.7519 0.9086
-6.5220 -22.4016 -1.7107 0.9107
-3.1417 -22.3632 -1.6558 0.9134
-2.3312 -22.4133 -1.6523 0.9136
-1.5199 -22.4155 -1.6473 0.9138
0.8651 -21.5620 -1.5822 0.9171
2.8183 -25.0645 -1.8494 0.9038
5.4989 -24.6157 -1.8494 0.9038
8.7831 -25.8466 -2.0016 0.8963
11.5131 -24.7515 -2.0016 0.8963
2.3360 -4.2034 -0.3526 0.9809
14.9399 -22.8471 -2.0016 0.8963
15.7510 -22.2956 -2.0016 0.8963
17.3113 -21.1070 -2.0016 0.8963
19.4819 -19.1219 -2.0016 0.8963
20.1563 -18.4097 -2.0016 0.8963
20.8047 -17.6736 -2.0016 0.8963
21.4262 -16.9148 -2.0016 0.8963
22.0200 -16.1341 -2.0016 0.8963
22.5855 -15.3326 -2.0016 0.8963
23.6281 -13.6712 -2.0016 0.8963
24.1040 -12.8135 -2.0016 0.8963
24.5488 -11.9392 -2.0016 0.8963
25.3428 -10.1456 -2.0016 0.8963
26.2873 -7.3600 -2.0016 0.8963
26.9266 -4.4889 -2.0016 0.8963
27.0705 -3.5186 -2.0016 0.8963
27.2953 0.3953 -2.0016 0.8963
26.9572 4.3011 -2.0016 0.8963
26.3379 7.1766 -2.0016 0.8963
25.7546 9.0493 -2.0016 0.8963
23.7229 13.5061 -2.0016 0.8963
22.1320 15.9802 -2.0016 0.8963
20.2841 18.2687 -2.0016 0.8963
19.6147 18.9856 -2.0016 0.8963
18.2008 20.3451 -2.0016 0.8963
17.4581 20.9858 -2.0016 0.8963
15.0988 22.7424 -2.0016 0.8963
14.2720 23.2702 -2.0016 0.8963
13.4268 23.7679 -2.0016 0.8963
11.6854 24.6707 -2.0016 0.8963
9.8837 25.4461 -2.0016 0.8963
8.2816 23.8240 -1.8494 0.9038
3.6454 13.5573 -1.0294 0.9452
3.0566 13.2488 -0.9969 0.9469
1.9934 12.7681 -0.9475 0.9495
1.0119 12.1622 -0.8948 0.9522
0.5756 12.2184 -0.8969 0.9521
0.1341 12.0377 -0.8827 0.9529
-2.5152 12.1295 -0.9083 0.9515
-4.8116 11.9034 -0.9414 0.9498
-6.4501 12.0363 -1.0013 0.9467
-7.4600 11.7987 -1.0235 0.9456
-8.7856 11.9070 -1.0850 0.9424
-9.4097 11.8378 -1.1088 0.9412
-10.1813 11.9042 -1.1485 0.9391
-10.9410 11.8989 -1.1852 0.9372
-11.7482 11.8896 -1.2256 0.9352
-13.4888 11.8189 -1.3150 0.9306
-15.2134 11.5088 -1.3987 0.9263
-17.7548 11.5255 -1.5521 0.9186
-21.0345 8.7967 -1.6717 0.9126
-26.6613 5.8621 -2.0016 0.8963
-27.2797 1.0032 -2.0016 0.8963
-27.2293 -1.9378 -2.0016 0.8963
-26.4447 -6.7726 -2.0016 0.8963
-25.8901 -8.6541 -2.0016 0.8963
-25.5625 -9.5786 -2.0016 0.8963
-25.2018 -10.4908 -2.0016 0.8963
-24.8087 -11.3894 -2.0016 0.8963
-23.4392 -13.9926 -2.0016 0.8963
-22.9214 -14.8257 -2.0016 0.8963
-22.3740 -15.6396 -2.0016 0.8963
-21.4494 -16.1707 -1.9696 0.8979
-18.3895 -17.2625 -1.8494 0.9038
-16.4254 -19.1409 -1.8494 0.9038
-15.7272 -19.7187 -1.8494 0.9038
-13.5143 -21.2963 -1.8494 0.9038
-11.9501 -22.2118 -1.8494 0.9038
-11.0298 -22.3941 -1.8303 0.9047
-10.0481 -22.3968 -1.7999 0.9062
-9.0973 -22.3995 -1.7727 0.9076
-5.5314 -22.4044 -1.6921 0.9116
-4.6149 -22.0718 -1.6533 0.9135
-3.8508 -22.4091 -1.6672 0.9128
-3.0269 -22.4114 -1.6582 0.9133
-1.4001 -22.4159 -1.6468 0.9139
-0.5930 -22.4181 -1.6443 0.9140
5.6298 -24.5861 -1.8494 0.9038
6.5093 -24.3680 -1.8494 0.9038
7.3806 -24.1184 -1.8494 0.9038
8.9206 -25.7995 -2.0016 0.8963
9.8418 -25.4623 -2.0016 0.8963
10.7502 -25.0923 -2.0016 0.8963
11.6447 -24.6899 -2.0016 0.8963
2.1915 -4.2444 -0.3502 0.9810
14.2336 -23.2936 -2.0016 0.8963
15.0613 -22.7672 -2.0016 0.8963
15.8695 -22.2114 -2.0016 0.8963
17.4235 -21.0146 -2.0016 0.8963
20.2540 -18.3021 -2.0016 0.8963
21.5159 -16.8004 -2.0016 0.8963
22.6668 -15.2121 -2.0016 0.8963
23.7006 -13.5452 -2.0016 0.8963
25.3964 -10.0105 -2.0016 0.8963
26.3261 -7.2199 -2.0016 0.8963
27.0888 -3.3745 -2.0016 0.8963
27.2612 -1.4206 -2.0016 0.8963
27.2928 0.5406 -2.0016 0.8963
27.2558 1.5208 -2.0016 0.8963
27.1835 2.4990 -2.0016 0.8963
27.0762 3.4741 -2.0016 0.8963
26.7569 5.4093 -2.0016 0.8963
26.2994 7.3167 -2.0016 0.8963
26.0195 8.2568 -2.0016 0.8963
25.3595 10.1039 -2.0016 0.8963
24.5685 11.8988 -2.0016 0.8963
24.1251 12.7738 -2.0016 0.8963
23.6506 13.6322 -2.0016 0.8963
22.0466 16.0978 -2.0016 0.8963
21.4540 16.8794 -2.0016 0.8963
20.1866 18.3764 -2.0016 0.8963
18.0922 20.4417 -2.0016 0.8963
17.3461 21.0785 -2.0016 0.8963
16.5776 21.6881 -2.0016 0.8963
15.7877 22.2697 -2.0016 0.8963
14.9775 22.8225 -2.0016 0.8963
14.1479 23.3458 -2.0016 0.8963
13.3000 23.8390 -2.0016 0.8963
12.4350 24.3015 -2.0016 0.8963
3.5542 13.5041 -1.0239 0.9455
2.9930 13.2956 -0.9993 0.9468
1.4408 12.6262 -0.9318 0.9503
0.5096 12.1998 -0.8953 0.9522
-0.7875 11.9045 -0.8748 0.9533
-1.2225 8.8071 -0.6519 0.9650
-3.4975 12.0874 -0.9226 0.9508
-4.3865 11.8864 -0.9290 0.9505
-4.8884 11.9104 -0.9440 0.9497
-5.3565 11.8229 -0.9517 0.9493
-5.8904 11.8493 -0.9702 0.9483
-7.0278 11.9070 -1.0138 0.9461
-9.4922 11.8119 -1.1111 0.9410
-10.3086 11.9238 -1.1557 0.9387
-11.0032 11.8394 -1.1851 0.9372
-12.7854 11.9137 -1.2814 0.9323
-14.2753 11.5027 -1.3442 0.9291
-19.4879 11.5368 -1.6605 0.9132
-21.2102 11.5481 -1.7707 0.9077
-22.5709 11.2572 -1.8494 0.9038
-22.9608 10.4390 -1.8494 0.9038
-24.9724 8.2454 -1.9283 0.8999
-26.2125 7.6220 -2.0016 0.8963
-26.8804 4.7574 -2.0016 0.8963
-27.2362 1.8377 -2.0016 0.8963
-27.2847 0.8580 -2.0016 0.8963
-25.1668 -2.8382 -1.8570 0.9034
-25.0486 -3.7406 -1.8570 0.9034
-23.8565 -13.2687 -2.0016 0.8963
-23.3644 -14.1172 -2.0016 0.8963
-22.8421 -14.9475 -2.0016 0.8963
-22.2834 -15.7535 -2.0009 0.8963
-21.2167 -16.1732 -1.9561 0.8985
-18.9093 -16.6916 -1.8494 0.9038
-17.6619 -18.0063 -1.8494 0.9038
-15.6220 -19.8021 -1.8494 0.9038
-13.4007 -21.3680 -1.8494 0.9038
-12.6243 -21.8357 -1.8494 0.9038
-11.8317 -22.2751 -1.8494 0.9038
-9.9053 -22.3972 -1.7956 0.9064
-8.9588 -22.3999 -1.7689 0.9078
-8.0371 -22.3974 -1.7448 0.9090
-6.2642 -22.4024 -1.7056 0.9109
-5.4051 -22.4048 -1.6899 0.9117
-3.7282 -22.4094 -1.6657 0.9129
-0.4735 -22.4185 -1.6441 0.9140
0.2553 -17.2327 -1.2637 0.9332
1.1389 -22.4229 -1.6462 0.9139
2.1836 -25.1277 -1.8494 0.9038
3.0850 -25.0330 -1.8494 0.9038
4.8748 -24.7468 -1.8494 0.9038
7.5089 -24.0787 -1.8494 0.9038
9.0579 -25.7516 -2.0016 0.8963
10.8836 -25.0347 -2.0016 0.8963
2.2075 -4.2199 -0.3492 0.9811
13.5140 -23.7184 -2.0016 0.8963
15.1823 -22.6867 -2.0016 0.8963
15.9876 -22.1266 -2.0016 0.8963
17.5351 -20.9215 -2.0016 0.8963
18.2754 -20.2780 -2.0016 0.8963
18.9922 -19.6084 -2.0016 0.8963
20.3512 -18.1940 -2.0016 0.8963
22.1906 -15.8987 -2.0016 0.8963
22.7474 -15.0912 -2.0016 0.8963
23.2749 -14.2642 -2.0016 0.8963
25.4494 -9.8752 -2.0016 0.8963
25.7877 -8.9545 -2.0016 0.8963
26.0928 -8.0223 -2.0016 0.8963
26.3641 -7.0797 -2.0016 0.8963
-5.4574 -16.5101 -1.6694 0.9325
-5.3847 -18.4953 -1.8494 0.9255
-4.7167 -18.6768 -1.8494 0.9255
-2.6799 -19.0758 -1.8494 0.9255
-1.3032 -19.2190 -1.8494 0.9255
-0.6118 -19.2534 -1.8494 0.9255
0.7723 -19.2477 -1.8494 0.9255
2.1524 -19.1425 -1.8494 0.9255
3.5214 -18.9386 -1.8494 0.9255
4.1995 -18.7998 -1.8494 0.9255
4.8793 -18.6638 -1.8520 0.9254
5.9342 -19.7674 -1.9814 0.9204
7.4128 -19.4861 -2.0016 0.9196
8.1081 -19.2072 -2.0016 0.9196
8.7929 -18.9036 -2.0016 0.9196
2.1862 -4.2898 -0.4622 0.9808
2.3360 -4.2033 -0.4617 0.9809
10.7758 -17.8477 -2.0016 0.9196
11.4101 -17.4491 -2.0016 0.9196
14.3447 -15.1291 -2.0016 0.9196
14.8789 -14.6040 -2.0016 0.9196
15.8892 -13.4979 -2.0016 0.9196
16.8174 -12.3221 -2.0016 0.9196
18.7487 -9.1184 -2.0016 0.9196
19.0642 -8.4389 -2.0016 0.9196
20.0764 -5.6211 -2.0016 0.9196
20.2654 -4.8962 -2.0016 0.9196
20.7578 -1.9428 -2.0016 0.9196
20.8142 -1.1958 -2.0016 0.9196
20.8437 -0.4472 -2.0016 0.9196
20.1151 5.4810 -2.0016 0.9196
19.9052 6.2001 -2.0016 0.9196
18.8118 8.9874 -2.0016 0.9196
18.4768 9.6575 -2.0016 0.9196
18.1179 10.3151 -2.0016 0.9196
17.7356 10.9593 -2.0016 0.9196
15.4916 13.9524 -2.0016 0.9196
14.4498 15.0288 -2.0016 0.9196
12.7489 16.4962 -2.0016 0.9196
12.1480 16.9436 -2.0016 0.9196
10.9000 17.7722 -2.0016 0.9196
10.2544 18.1523 -2.0016 0.9196
7.6151 17.6941 -1.8494 0.9255
6.9745 17.9562 -1.8494 0.9255
5.4418 17.6787 -1.7758 0.9284
2.5480 13.1909 -1.2898 0.9474
1.9831 12.7018 -1.2342 0.9497
1.5272 12.7796 -1.2356 0.9496
0.5697 12.0924 -1.1622 0.9525
-0.2974 11.9895 -1.1514 0.9529
-0.7376 12.1301 -1.1667 0.9523
-2.0328 11.9476 -1.1635 0.9525
-2.4744 11.9327 -1.1700 0.9522
-2.9010 11.8339 -1.1698 0.9522
-3.3497 11.8118 -1.1787 0.9519
-4.2991 11.8435 -1.2096 0.9506
-4.7921 11.8552 -1.2276 0.9499
-5.8347 11.8958 -1.2720 0.9482
-6.9551 11.9284 -1.3256 0.9460
-7.3198 11.5769 -1.3150 0.9464
-9.8129 11.4734 -1.4494 0.9411
-10.5542 11.4783 -1.4970 0.9393
-11.3469 11.4835 -1.5499 0.9372
-12.1988 11.4890 -1.6088 0.9349
-15.7701 11.0622 -1.8494 0.9255
-16.1574 10.4885 -1.8494 0.9255
-16.5238 9.9012 -1.8494 0.9255
-16.8688 9.3012 -1.8494 0.9255
-17.8966 8.2519 -1.8920 0.9239
-19.5108 7.3477 -2.0016 0.9196
-19.7622 6.6420 -2.0016 0.9196
-20.1881 5.2058 -2.0016 0.9196
-20.5098 3.7427 -2.0016 0.9196
-20.6311 3.0034 -2.0016 0.9196
-20.8485 0.0172 -2.0016 0.9196
-20.8357 -0.7319 -2.0016 0.9196
-20.7959 -1.4799 -2.0016 0.9196
-20.3695 -4.4435 -2.0016 0.9196
-20.1966 -5.1725 -2.0016 0.9196
-19.9978 -5.8947 -2.0016 0.9196
-19.5229 -7.3155 -2.0016 0.9196
-18.9472 -8.6985 -2.0016 0.9196
-18.6224 -9.3736 -2.0016 0.9196
-17.9013 -10.6866 -2.0016 0.9196
-17.0877 -11.9445 -2.0016 0.9196
-16.6476 -12.5507 -2.0016 0.9196
-15.7034 -13.7137 -2.0016 0.9196
-15.2005 -14.2690 -2.0016 0.9196
-14.1367 -15.3236 -2.0016 0.9196
-13.5664 -15.8092 -2.0000 0.9197
-12.8950 -16.1678 -1.9854 0.9203
-9.7303 -16.6250 -1.8494 0.9255
-9.1267 -16.9639 -1.8494 0.9255
-8.5113 -17.2808 -1.8494 0.9255
-7.2485 -17.8474 -1.8494 0.9255
-5.2861 -18.5237 -1.8494 0.9255
-3.2624 -18.9849 -1.8494 0.9255
-2.5783 -19.0898 -1.8494 0.9255
-1.8907 -19.1701 -1.8494 0.9255
-1.2008 -19.2257 -1.8494 0.9255
0.1636 -17.2315 -1.6544 0.9331
0.8747 -19.2433 -1.8494 0.9255
1.5655 -19.1994 -1.8494 0.9255
2.2543 -19.1308 -1.8494 0.9255
2.9401 -19.0375 -1.8494 0.9255
4.2996 -18.7772 -1.8494 0.9255
5.0170 -18.7814 -1.8663 0.9249
6.8130 -19.7039 -2.0016 0.9196
7.5165 -19.4464 -2.0016 0.9196
8.2103 -19.1638 -2.0016 0.9196
10.2245 -18.1692 -2.0016 0.9196
10.8707 -17.7901 -2.0016 0.9196
12.1201 -16.9636 -2.0016 0.9196
13.8749 -15.5611 -2.0016 0.9196
14.4250 -15.0526 -2.0016 0.9196
14.9565 -14.5246 -2.0016 0.9196
15.4686 -13.9779 -2.0016 0.9196
16.4324 -12.8310 -2.0016 0.9196
16.8828 -12.2324 -2.0016 0.9196
17.7176 -10.9885 -2.0016 0.9196
19.8950 -6.2329 -2.0016 0.9196
20.1061 -5.5141 -2.0016 0.9196
20.2912 -4.7882 -2.0016 0.9196
20.5826 -3.3188 -2.0016 0.9196
20.6886 -2.5772 -2.0016 0.9196
20.8458 -0.3362 -2.0016 0.9196
20.6790 2.6532 -2.0016 0.9196
20.4351 4.1313 -2.0016 0.9196
19.6326 7.0158 -2.0016 0.9196
19.3678 7.7167 -2.0016 0.9196
17.2685 11.6815 -2.0016 0.9196
15.9114 13.4717 -2.0016 0.9196
15.4171 14.0347 -2.0016 0.9196
14.9030 14.5795 -2.0016 0.9196
14.3696 15.1055 -2.0016 0.9196
13.2478 16.0983 -2.0016 0.9196
12.6609 16.5639 -2.0016 0.9196
12.0576 17.0080 -2.0016 0.9196
10.8052 17.8300 -2.0016 0.9196
10.1577 18.2067 -2.0016 0.9196
9.4970 18.5598 -2.0016 0.9196
7.5208 17.7343 -1.8494 0.9255
6.8788 17.9931 -1.8494 0.9255
6.2279 18.2286 -1.8494 0.9255
3.5037 13.3123 -1.3216 0.9462
2.9376 13.0496 -1.2842 0.9477
2.4775 13.2032 -1.2897 0.9474
1.9178 12.7279 -1.2357 0.9496
0.9510 12.2172 -1.1765 0.9520
-0.3616 12.0019 -1.1528 0.9529
-0.7867 11.8929 -1.1443 0.9532
-1.2213 11.9330 -1.1516 0.9529
-1.2223 8.8061 -0.8535 0.9649
-2.0851 11.8721 -1.1572 0.9527
-2.9896 11.9205 -1.1799 0.9518
-3.9684 12.0722 -1.2200 0.9502
-4.4682 12.1078 -1.2390 0.9495
-4.8658 11.8554 -1.2303 0.9498
-7.3813 11.5378 -1.3150 0.9464
-7.9265 11.4610 -1.3378 0.9455
-8.5542 11.4652 -1.3733 0.9441
-10.6683 11.4790 -1.5045 0.9390
-11.4692 11.4843 -1.5582 0.9369
-14.2753 11.5027 -1.7601 0.9290
-15.8288 10.9781 -1.8494 0.9255
-16.2130 10.4023 -1.8494 0.9255
-16.5763 9.8131 -1.8494 0.9255
-16.9181 9.2112 -1.8494 0.9255
-19.7973 6.5366 -2.0016 0.9196
-20.0193 5.8212 -2.0016 0.9196
-20.2156 5.0982 -2.0016 0.9196
-20.3857 4.3686 -2.0016 0.9196
-20.5295 3.6334 -2.0016 0.9196
-20.8012 1.4035 -2.0016 0.9196
-20.8315 -0.8428 -2.0016 0.9196
-20.7877 -1.5906 -2.0016 0.9196
-20.7172 -2.3364 -2.0016 0.9196
-20.6199 -3.0792 -2.0016 0.9196
-20.3455 -4.5519 -2.0016 0.9196
-20.1689 -5.2799 -2.0016 0.9196
-19.9661 -6.0011 -2.0016 0.9196
-19.7376 -6.7146 -2.0016 0.9196
-18.9006 -8.7992 -2.0016 0.9196
-17.8441 -10.7818 -2.0016 0.9196
-17.0239 -12.0353 -2.0016 0.9196
-16.5805 -12.6391 -2.0016 0.9196
-16.1157 -13.2266 -2.0016 0.9196
-14.5990 -14.8838 -2.0016 0.9196
-12.7560 -16.1693 -1.9772 0.9206
-10.9814 -16.1877 -1.8780 0.9244
-9.6416 -16.6766 -1.8494 0.9255
-8.4192 -17.3259 -1.8494 0.9255
-7.7913 -17.6172 -1.8494 0.9255
-6.5062 -18.1312 -1.8494 0.9255
-5.2617 -16.5058 -1.6632 0.9328
-5.1875 -18.5515 -1.8494 0.9255
-4.5176 -18.7260 -1.8494 0.9255
-3.8419 -18.8761 -1.8494 0.9255
-3.1613 -19.0020 -1.8494 0.9255
-2.4766 -19.1033 -1.8494 0.9255
-1.7887 -19.1800 -1.8494 0.9255
-0.4068 -19.2589 -1.8494 0.9255
0.2546 -17.1820 -1.6497 0.9333
2.3561 -19.1185 -1.8494 0.9255
3.0415 -19.0215 -1.8494 0.9255
5.1628 -18.9225 -1.8831 0.9242
6.9178 -19.6673 -2.0016 0.9196
7.6199 -19.4061 -2.0016 0.9196
8.9937 -18.8088 -2.0016 0.9196
10.3211 -18.1145 -2.0016 0.9196
10.9652 -17.7320 -2.0016 0.9196
12.2102 -16.8988 -2.0016 0.9196
14.5049 -14.9755 -2.0016 0.9196
15.5428 -13.8953 -2.0016 0.9196
17.7758 -10.8940 -2.0016 0.9196
18.5122 -9.5895 -2.0016 0.9196
19.1530 -8.2354 -2.0016 0.9196
19.4365 -7.5420 -2.0016 0.9196
19.6949 -6.8389 -2.0016 0.9196
19.9279 -6.1269 -2.0016 0.9196
20.1352 -5.4070 -2.0016 0.9196
-7.5255 -15.0763 -2.0016 0.9344
-6.9790 -15.3369 -2.0016 0.9344
-5.2773 -15.9651 -1.9973 0.9345
-4.6940 -16.1228 -1.9947 0.9346
-4.0833 -16.1686 -1.9809 0.9350
-3.4712 -16.1716 -1.9647 0.9355
-2.2725 -16.1761 -1.9404 0.9363
-1.6826 -16.1777 -1.9320 0.9366
-1.0976 -16.1876 -1.9273 0.9367
0.6584 -16.4105 -1.9509 0.9360
1.2622 -16.5680 -1.9737 0.9353
3.6735 -16.4449 -2.0016 0.9344
4.2619 -16.3023 -2.0016 0.9344
5.9912 -15.7491 -2.0016 0.9344
6.5531 -15.5237 -2.0016 0.9344
2.1861 -4.2897 -0.5719 0.9808
8.7092 -14.4249 -2.0016 0.9344
9.7225 -13.7623 -2.0016 0.9344
10.2107 -13.4041 -2.0016 0.9344
10.6857 -13.0286 -2.0016 0.9344
11.1468 -12.6363 -2.0016 0.9344
13.2256 -10.4409 -2.0016 0.9344
13.9412 -9.4642 -2.0016 0.9344
14.2722 -8.9573 -2.0016 0.9344
14.8785 -7.9093 -2.0016 0.9344
16.2262 -4.5431 -2.0016 0.9344
16.6208 -2.7708 -2.0016 0.9344
16.7096 -2.1719 -2.0016 0.9344
16.7768 -1.5702 -2.0016 0.9344
16.8463 -0.3615 -2.0016 0.9344
16.6397 2.6549 -2.0016 0.9344
16.5336 3.2510 -2.0016 0.9344
16.2574 4.4298 -2.0016 0.9344
16.0878 5.0110 -2.0016 0.9344
15.8974 5.5858 -2.0016 0.9344
15.6864 6.1533 -2.0016 0.9344
15.4552 6.7129 -2.0016 0.9344
14.9333 7.8054 -2.0016 0.9344
14.6433 8.3368 -2.0016 0.9344
14.3343 8.8575 -2.0016 0.9344
14.0068 9.3668 -2.0016 0.9344
13.6613 9.8640 -2.0016 0.9344
13.2981 10.3484 -2.0016 0.9344
12.5206 11.2766 -2.0016 0.9344
11.6786 12.1465 -2.0016 0.9344
11.2347 12.5583 -2.0016 0.9344
10.7762 12.9538 -2.0016 0.9344
9.8182 13.6942 -2.0016 0.9344
9.3199 14.0380 -2.0016 0.9344
8.8096 14.3638 -2.0016 0.9344
7.6576 13.5554 -1.8494 0.9392
7.1657 13.8218 -1.8494 0.9392
5.6369 14.5126 -1.8494 0.9392
5.1119 14.7057 -1.8494 0.9392
4.5803 14.8798 -1.8494 0.9392
3.5900 13.3512 -1.6423 0.9458
2.4824 12.8516 -1.5548 0.9486
1.4819 12.4003 -1.4835 0.9509
0.5646 11.9866 -1.4254 0.9528
-0.2878 11.6021 -1.3786 0.9543
-0.6940 11.4136 -1.3583 0.9550
-1.1768 8.8228 -1.0573 0.9648
-1.9434 11.4218 -1.3763 0.9544
-2.3691 11.4246 -1.3860 0.9541
-2.8014 11.4275 -1.3976 0.9537
-5.1110 11.4426 -1.4886 0.9508
-5.6141 11.4459 -1.5144 0.9499
-6.6778 11.4529 -1.5748 0.9480
-7.2437 11.4566 -1.6101 0.9469
-9.1164 11.4688 -1.7403 0.9427
-11.7098 10.2601 -1.8494 0.9392
-13.0587 8.4770 -1.8494 0.9392
-14.7145 8.1133 -1.9960 0.9346
-15.0385 7.6007 -2.0016 0.9344
-15.3019 7.0555 -2.0016 0.9344
-15.7690 5.9385 -2.0016 0.9344
-15.9722 5.3682 -2.0016 0.9344
-16.1547 4.7909 -2.0016 0.9344
-16.5764 3.0249 -2.0016 0.9344
-16.7508 1.8268 -2.0016 0.9344
-16.8056 1.2238 -2.0016 0.9344
-16.8388 0.6192 -2.0016 0.9344
-16.8398 -0.5915 -2.0016 0.9344
-16.8076 -1.1961 -2.0016 0.9344
-16.7538 -1.7992 -2.0016 0.9344
-16.6784 -2.3999 -2.0016 0.9344
-16.5814 -2.9976 -2.0016 0.9344
-16.1626 -4.7642 -2.0016 0.9344
-14.7691 -8.1117 -2.0016 0.9344
-14.4682 -8.6371 -2.0016 0.9344
-13.8106 -9.6537 -2.0016 0.9344
-12.6918 -11.0836 -2.0016 0.9344
-12.2854 -11.5325 -2.0016 0.9344
-11.8631 -11.9664 -2.0016 0.9344
-11.4255 -12.3849 -2.0016 0.9344
-10.5067 -13.1733 -2.0016 0.9344
-10.0267 -13.5423 -2.0016 0.9344
-9.5337 -13.8938 -2.0016 0.9344
-8.5114 -14.5425 -2.0016 0.9344
-6.8973 -15.3738 -2.0016 0.9344
-5.7707 -15.8161 -1.9999 0.9344
-5.1911 -15.9897 -1.9969 0.9345
-3.3813 -16.1720 -1.9626 0.9356
-2.7795 -16.1745 -1.9495 0.9360
-1.5956 -16.1779 -1.9310 0.9366
-0.4293 -16.2324 -1.9288 0.9367
0.1548 -16.3121 -1.9377 0.9364
1.3532 -16.5959 -1.9779 0.9351
3.1685 -16.5496 -2.0016 0.9344
4.3487 -16.2793 -2.0016 0.9344
5.5064 -15.9251 -2.0016 0.9344
6.0750 -15.7170 -2.0016 0.9344
2.1915 -4.2443 -0.5674 0.9809
8.2636 -14.6847 -2.0016 0.9344
11.6586 -12.1658 -2.0016 0.9344
12.0881 -11.7391 -2.0016 0.9344
13.6450 -9.8864 -2.0016 0.9344
13.9913 -9.3899 -2.0016 0.9344
14.3197 -8.8811 -2.0016 0.9344
14.9204 -7.8300 -2.0016 0.9344
15.1921 -7.2889 -2.0016 0.9344
15.4442 -6.7383 -2.0016 0.9344
15.6763 -6.1791 -2.0016 0.9344
15.8882 -5.6120 -2.0016 0.9344
16.5282 -3.2782 -2.0016 0.9344
16.6353 -2.6823 -2.0016 0.9344
16.7209 -2.0829 -2.0016 0.9344
16.8273 -0.8769 -2.0016 0.9344
16.8480 -0.2718 -2.0016 0.9344
16.7794 1.5426 -2.0016 0.9344
16.7131 2.1444 -2.0016 0.9344
16.5160 3.3390 -2.0016 0.9344
15.8674 5.6703 -2.0016 0.9344
15.6535 6.2367 -2.0016 0.9344
15.4193 6.7951 -2.0016 0.9344
14.8915 7.8848 -2.0016 0.9344
13.9567 9.4412 -2.0016 0.9344
13.2428 10.4190 -2.0016 0.9344
12.8599 10.8881 -2.0016 0.9344
12.4604 11.3431 -2.0016 0.9344
12.0449 11.7834 -2.0016 0.9344
11.1676 12.6179 -2.0016 0.9344
9.2451 14.0875 -2.0016 0.9344
8.7330 14.4105 -2.0016 0.9344
7.5853 13.5960 -1.8494 0.9392
7.0920 13.8598 -1.8494 0.9392
6.0784 14.3332 -1.8494 0.9392
5.0335 14.7327 -1.8494 0.9392
4.5010 14.9040 -1.8494 0.9392
3.5037 13.3123 -1.6352 0.9461
2.4049 12.8167 -1.5490 0.9488
1.8966 12.5874 -1.5121 0.9500
0.0684 11.7627 -1.3973 0.9537
-2.0061 11.4222 -1.3776 0.9544
-2.4327 11.4250 -1.3876 0.9540
-3.3075 11.4308 -1.4135 0.9532
-3.7585 11.4337 -1.4297 0.9527
-4.2205 11.4368 -1.4481 0.9521
-4.6952 11.4399 -1.4689 0.9514
-6.2145 11.4498 -1.5475 0.9489
-6.7601 11.4534 -1.5798 0.9478
-7.3297 11.4571 -1.6156 0.9467
-8.5542 11.4652 -1.6992 0.9440
-9.2170 11.4695 -1.7478 0.9425
-10.5987 11.4042 -1.8494 0.9392
-11.0016 11.0161 -1.8494 0.9392
-12.7931 8.8727 -1.8494 0.9392
-13.1178 8.4164 -1.8514 0.9391
-13.9294 8.2462 -1.9228 0.9369
-15.0788 7.5205 -2.0016 0.9344
-15.8004 5.8545 -2.0016 0.9344
-16.0005 5.2830 -2.0016 0.9344
-16.1800 4.7048 -2.0016 0.9344
-16.7603 1.7376 -2.0016 0.9344
-16.8418 0.5296 -2.0016 0.9344
-16.8500 -0.0758 -2.0016 0.9344
-16.7440 -1.8884 -2.0016 0.9344
-16.5652 -3.0858 -2.0016 0.9344
-16.3008 -4.2673 -2.0016 0.9344
-15.9523 -5.4268 -2.0016 0.9344
-15.5215 -6.5583 -2.0016 0.9344
-15.2758 -7.1117 -2.0016 0.9344
-14.7257 -8.1903 -2.0016 0.9344
-14.4220 -8.7140 -2.0016 0.9344
-14.0996 -9.2265 -2.0016 0.9344
-13.7590 -9.7271 -2.0016 0.9344
-13.4007 -10.2152 -2.0016 0.9344
-13.0250 -10.6900 -2.0016 0.9344
-8.9525 -14.2752 -2.0016 0.9344
-8.4338 -14.5876 -2.0016 0.9344
-7.3646 -15.1555 -2.0016 0.9344
-5.6851 -15.8430 -1.9994 0.9344
-3.9009 -16.1696 -1.9758 0.9352
-3.2916 -16.1724 -1.9604 0.9357
-2.6909 -16.1748 -1.9477 0.9361
-2.0972 -16.1766 -1.9376 0.9364
-0.9248 -16.1925 -1.9266 0.9368
0.2419 -16.3288 -1.9398 0.9363
1.4446 -16.6238 -1.9821 0.9350
2.0557 -16.6811 -1.9965 0.9345
2.6600 -16.6359 -2.0012 0.9344
3.8484 -16.4048 -2.0016 0.9344
4.4353 -16.2560 -2.0016 0.9344
5.0164 -16.0861 -2.0016 0.9344
6.7181 -15.4530 -2.0016 0.9344
7.2689 -15.2017 -2.0016 0.9344
2.2074 -4.2199 -0.5657 0.9810
8.8623 -14.3313 -2.0016 0.9344
9.3715 -14.0037 -2.0016 0.9344
10.3528 -13.2946 -2.0016 0.9344
11.2808 -12.5169 -2.0016 0.9344
11.7232 -12.1035 -2.0016 0.9344
12.1504 -11.6745 -2.0016 0.9344
12.9574 -10.7719 -2.0016 0.9344
14.0411 -9.3152 -2.0016 0.9344
14.3668 -8.8048 -2.0016 0.9344
14.6738 -8.2829 -2.0016 0.9344
15.2307 -7.2079 -2.0016 0.9344
15.4798 -6.6560 -2.0016 0.9344
15.7090 -6.0956 -2.0016 0.9344
15.9178 -5.5273 -2.0016 0.9344
16.1061 -4.9519 -2.0016 0.9344
-5.8509 -12.8578 -2.0016 0.9445
-5.3852 -13.0597 -2.0016 0.9445
-4.9125 -13.2447 -2.0016 0.9445
-4.4335 -13.4126 -2.0016 0.9445
-2.9647 -13.8118 -2.0016 0.9445
-2.4666 -13.9094 -2.0016 0.9445
-1.4614 -14.0506 -2.0016 0.9445
-0.9557 -14.0940 -2.0016 0.9445
-0.4487 -14.1193 -2.0016 0.9445
0.0589 -14.1263 -2.0016 0.9445
0.5663 -14.1150 -2.0016 0.9445
1.5784 -14.0379 -2.0016 0.9445
3.0797 -13.7866 -2.0016 0.9445
4.5451 -13.3752 -2.0016 0.9445
5.0227 -13.2033 -2.0016 0.9445
2.1861 -4.2897 -0.6822 0.9807
7.3014 -12.0932 -2.0016 0.9445
7.7312 -11.8230 -2.0016 0.9445
8.9584 -10.9226 -2.0016 0.9445
9.7196 -10.2511 -2.0016 0.9445
10.0816 -9.8953 -2.0016 0.9445
10.7661 -9.1458 -2.0016 0.9445
11.9652 -7.5094 -2.0016 0.9445
12.7037 -6.1784 -2.0016 0.9445
12.9174 -5.7180 -2.0016 0.9445
13.2947 -4.7757 -2.0016 0.9445
13.4577 -4.2950 -2.0016 0.9445
13.7313 -3.3175 -2.0016 0.9445
13.8417 -2.8221 -2.0016 0.9445
14.0086 -1.8208 -2.0016 0.9445
14.1249 0.2046 -2.0016 0.9445
13.9500 2.2258 -2.0016 0.9445
13.4873 4.2010 -2.0016 0.9445
13.1508 5.1587 -2.0016 0.9445
12.2762 6.9892 -2.0016 0.9445
12.0172 7.4258 -2.0016 0.9445
11.7427 7.8527 -2.0016 0.9445
11.1485 8.6756 -2.0016 0.9445
10.8296 9.0706 -2.0016 0.9445
10.4967 9.4538 -2.0016 0.9445
9.7908 10.1831 -2.0016 0.9445
9.0343 10.8599 -2.0016 0.9445
7.8134 11.7689 -2.0016 0.9445
6.0073 11.5876 -1.8494 0.9486
5.5872 11.7959 -1.8494 0.9486
4.7257 12.1667 -1.8494 0.9486
4.2856 12.3286 -1.8494 0.9486
3.8399 12.4746 -1.8494 0.9486
2.9342 12.7181 -1.8494 0.9486
2.4754 12.8153 -1.8494 0.9486
1.4819 12.4003 -1.7695 0.9508
1.0141 12.1893 -1.7331 0.9518
-0.2878 11.6021 -1.6444 0.9542
-1.9434 11.4218 -1.6416 0.9543
-2.3691 11.4246 -1.6532 0.9540
-3.2416 11.4303 -1.6834 0.9531
-4.1513 11.4363 -1.7239 0.9520
-4.6240 11.4394 -1.7483 0.9514
-5.1110 11.4426 -1.7757 0.9506
-6.9753 11.0321 -1.8494 0.9486
-7.7494 10.5027 -1.8494 0.9486
-8.1217 10.2175 -1.8494 0.9486
-8.4836 9.9191 -1.8494 0.9486
-9.1739 9.2843 -1.8494 0.9486
-9.8169 8.6016 -1.8494 0.9486
-10.1423 8.2619 -1.8535 0.9485
-10.8973 8.2437 -1.9361 0.9463
-11.5347 8.0912 -1.9963 0.9447
-11.8488 7.6916 -2.0016 0.9445
-12.1175 7.2609 -2.0016 0.9445
-12.6076 6.3721 -2.0016 0.9445
-12.8284 5.9150 -2.0016 0.9445
-13.0326 5.4503 -2.0016 0.9445
-13.5434 4.0164 -2.0016 0.9445
-13.7968 3.0336 -2.0016 0.9445
-13.8969 2.5359 -2.0016 0.9445
-14.0891 1.0260 -2.0016 0.9445
-14.1169 0.5191 -2.0016 0.9445
-14.1264 0.0116 -2.0016 0.9445
-14.1177 -0.4959 -2.0016 0.9445
-14.0908 -1.0028 -2.0016 0.9445
-12.8207 -2.7968 -1.8593 0.9484
-12.6962 -3.2516 -1.8570 0.9484
-12.5712 -3.7056 -1.8570 0.9484
-12.4300 -4.1549 -1.8570 0.9484
-12.0995 -5.0367 -1.8570 0.9484
-12.6181 -6.3513 -2.0016 0.9445
-12.1295 -7.2410 -2.0016 0.9445
-11.5782 -8.0933 -2.0016 0.9445
-11.2800 -8.5040 -2.0016 0.9445
-10.9672 -8.9038 -2.0016 0.9445
-10.6402 -9.2920 -2.0016 0.9445
-10.2995 -9.6683 -2.0016 0.9445
-9.5787 -10.3829 -2.0016 0.9445
-9.1994 -10.7203 -2.0016 0.9445
-8.8084 -11.0439 -2.0016 0.9445
-8.4059 -11.3532 -2.0016 0.9445
-7.9926 -11.6479 -2.0016 0.9445
-7.1356 -12.1918 -2.0016 0.9445
-4.3621 -13.4361 -2.0016 0.9445
-3.3860 -13.7146 -2.0016 0.9445
-2.8911 -13.8274 -2.0016 0.9445
-2.3925 -13.9223 -2.0016 0.9445
-1.8907 -13.9993 -2.0016 0.9445
-0.8806 -14.0989 -2.0016 0.9445
0.1341 -14.1258 -2.0016 0.9445
0.6415 -14.1118 -2.0016 0.9445
1.1480 -14.0797 -2.0016 0.9445
2.6563 -13.8744 -2.0016 0.9445
3.6457 -13.6479 -2.0016 0.9445
5.5631 -12.9849 -2.0016 0.9445
2.1915 -4.2442 -0.6768 0.9809
6.9279 -12.3110 -2.0016 0.9445
9.0164 -10.8747 -2.0016 0.9445
10.1341 -9.8415 -2.0016 0.9445
10.8146 -9.0884 -2.0016 0.9445
11.1342 -8.6940 -2.0016 0.9445
12.5086 -6.5643 -2.0016 0.9445
12.7364 -6.1106 -2.0016 0.9445
12.9477 -5.6491 -2.0016 0.9445
13.1423 -5.1803 -2.0016 0.9445
13.4803 -4.2232 -2.0016 0.9445
13.7488 -3.2444 -2.0016 0.9445
13.8565 -2.7483 -2.0016 0.9445
14.0717 -1.2415 -2.0016 0.9445
14.1246 -0.2278 -2.0016 0.9445
14.1045 0.7870 -2.0016 0.9445
14.0115 1.7978 -2.0016 0.9445
13.9379 2.3000 -2.0016 0.9445
13.6095 3.7863 -2.0016 0.9445
13.4647 4.2728 -2.0016 0.9445
13.3025 4.7538 -2.0016 0.9445
12.4844 6.6102 -2.0016 0.9445
12.2388 7.0545 -2.0016 0.9445
10.4462 9.5095 -2.0016 0.9445
10.0979 9.8787 -2.0016 0.9445
9.7364 10.2351 -2.0016 0.9445
9.3624 10.5783 -2.0016 0.9445
8.5787 11.2233 -2.0016 0.9445
7.3091 12.0610 -1.9982 0.9446
6.3592 11.3983 -1.8494 0.9486
4.2199 12.3512 -1.8494 0.9486
3.7734 12.4949 -1.8494 0.9486
2.8665 12.7336 -1.8494 0.9486
1.8966 12.5874 -1.8036 0.9499
1.4113 12.3685 -1.7639 0.9510
-0.3488 11.5746 -1.6407 0.9543
-1.1684 11.4168 -1.6261 0.9547
-1.2140 8.7465 -1.2512 0.9650
-2.0061 11.4222 -1.6432 0.9542
-2.8661 11.4279 -1.6694 0.9535
-3.7585 11.4337 -1.7053 0.9525
-5.6901 11.4464 -1.8112 0.9497
-6.2145 11.4498 -1.8459 0.9487
-6.6344 11.2404 -1.8494 0.9486
-7.0339 10.9948 -1.8494 0.9486
-9.2233 9.2354 -1.8494 0.9486
-10.2473 8.2570 -1.8646 0.9482
-11.0155 8.2413 -1.9492 0.9459
-11.5833 8.0336 -1.9973 0.9446
-12.1560 7.1963 -2.0016 0.9445
-12.4067 6.7549 -2.0016 0.9445
-12.6414 6.3049 -2.0016 0.9445
-13.2463 4.9081 -2.0016 0.9445
-13.5646 3.9443 -2.0016 0.9445
-13.8128 2.9601 -2.0016 0.9445
-13.9102 2.4619 -2.0016 0.9445
-14.0943 0.9510 -2.0016 0.9445
-14.1262 -0.0636 -2.0016 0.9445
-14.1149 -0.5710 -2.0016 0.9445
-12.7898 -2.8615 -1.8570 0.9484
-12.6788 -3.3191 -1.8570 0.9484
-11.8815 -5.5315 -1.8570 0.9484
-12.5841 -6.4184 -2.0016 0.9445
-12.3454 -6.8664 -2.0016 0.9445
-11.8205 -7.7351 -2.0016 0.9445
-11.2345 -8.5639 -2.0016 0.9445
-10.9196 -8.9620 -2.0016 0.9445
-10.2479 -9.7230 -2.0016 0.9445
-9.1422 -10.7692 -2.0016 0.9445
-8.7494 -11.0906 -2.0016 0.9445
-7.5054 -11.9677 -2.0016 0.9445
-7.0705 -12.2296 -2.0016 0.9445
-6.1741 -12.7057 -2.0016 0.9445
-5.7137 -12.9193 -2.0016 0.9445
-5.2458 -13.1163 -2.0016 0.9445
-4.7712 -13.2963 -2.0016 0.9445
-4.2905 -13.4591 -2.0016 0.9445
-3.8042 -13.6045 -2.0016 0.9445
-1.3117 -14.0654 -2.0016 0.9445
-0.8055 -14.1034 -2.0016 0.9445
0.2093 -14.1249 -2.0016 0.9445
0.7166 -14.1082 -2.0016 0.9445
2.2304 -13.9492 -2.0016 0.9445
3.2263 -13.7530 -2.0016 0.9445
3.7183 -13.6283 -2.0016 0.9445
5.1630 -13.1491 -2.0016 0.9445
5.6321 -12.9551 -2.0016 0.9445
6.0939 -12.7444 -2.0016 0.9445
7.8566 -11.7401 -2.0016 0.9445
8.2733 -11.4502 -2.0016 0.9445
9.0742 -10.8266 -2.0016 0.9445
9.4573 -10.4936 -2.0016 0.9445
9.8282 -10.1470 -2.0016 0.9445
10.5314 -9.4151 -2.0016 0.9445
11.7715 -7.8095 -2.0016 0.9445
12.3019 -6.9440 -2.0016 0.9445
12.5434 -6.4976 -2.0016 0.9445
12.7687 -6.0427 -2.0016 0.9445
12.9776 -5.5801 -2.0016 0.9445
13.1697 -5.1103 -2.0016 0.9445
13.3448 -4.6338 -2.0016 0.9445
13.5026 -4.1514 -2.0016 0.9445
13.6431 -3.6636 -2.0016 0.9445
-5.4263 -10.8708 -2.0016 0.9519
-5.0323 -11.0587 -2.0016 0.9519
-3.3963 -11.6655 -2.0016 0.9519
-2.1214 -11.9632 -2.0016 0.9519
-1.6903 -12.0317 -2.0016 0.9519
-0.8219 -12.1220 -2.0016 0.9519
0.0506 -12.1498 -2.0016 0.9519
0.9229 -12.1148 -2.0016 0.9519
2.6488 -11.8576 -2.0016 0.9519
3.0731 -11.7548 -2.0016 0.9519
3.4934 -11.6368 -2.0016 0.9519
4.3200 -11.3559 -2.0016 0.9519
4.7252 -11.1934 -2.0016 0.9519
6.6494 -10.1688 -2.0016 0.9519
7.0105 -9.9233 -2.0016 0.9519
7.3625 -9.6651 -2.0016 0.9519
8.3596 -8.8168 -2.0016 0.9519
8.6710 -8.5108 -2.0016 0.9519
8.9712 -8.1938 -2.0016 0.9519
9.8007 -7.1810 -2.0016 0.9519
10.2910 -6.4587 -2.0016 0.9519
11.1101 -4.9179 -2.0016 0.9519
11.4345 -4.1075 -2.0016 0.9519
11.5747 -3.6940 -2.0016 0.9519
11.6999 -3.2758 -2.0016 0.9519
11.8101 -2.8533 -2.0016 0.9519
12.0970 -1.1322 -2.0016 0.9519
12.1471 -0.2606 -2.0016 0.9519
12.1344 0.6123 -2.0016 0.9519
11.8297 2.7709 -2.0016 0.9519
11.7225 3.1941 -2.0016 0.9519
11.6002 3.6132 -2.0016 0.9519
10.9630 5.2376 -2.0016 0.9519
10.5586 6.0113 -2.0016 0.9519
10.3358 6.3868 -2.0016 0.9519
9.8505 7.1125 -2.0016 0.9519
9.5886 7.4618 -2.0016 0.9519
9.0281 8.1310 -2.0016 0.9519
8.7301 8.4501 -2.0016 0.9519
8.1008 9.0552 -2.0016 0.9519
7.7702 9.3404 -2.0016 0.9519
7.4297 9.6135 -2.0016 0.9519
6.7202 10.1222 -2.0016 0.9519
5.9569 10.5449 -1.9952 0.9521
5.1668 9.9663 -1.8494 0.9555
4.0645 10.4643 -1.8494 0.9555
3.3026 10.7292 -1.8494 0.9555
0.1250 11.2253 -1.8494 0.9555
-0.2783 11.2225 -1.8494 0.9555
-0.6813 11.2053 -1.8494 0.9555
-1.0835 11.1736 -1.8494 0.9555
-3.0628 10.8001 -1.8494 0.9555
-3.4489 10.6831 -1.8494 0.9555
-3.8304 10.5523 -1.8494 0.9555
-4.5783 10.2500 -1.8494 0.9555
-5.9993 9.4885 -1.8494 0.9555
-6.9854 8.7879 -1.8494 0.9555
-7.2966 8.5313 -1.8494 0.9555
-8.7446 8.2358 -1.9789 0.9525
-9.6896 7.3301 -2.0016 0.9519
-10.6397 5.8666 -2.0016 0.9519
-11.0335 5.0874 -2.0016 0.9519
-11.9525 2.1811 -2.0016 0.9519
-12.1178 0.8824 -2.0016 0.9519
-12.1417 0.4465 -2.0016 0.9519
-12.1499 0.0100 -2.0016 0.9519
-12.1192 -0.8625 -2.0016 0.9519
-12.0804 -1.2973 -2.0016 0.9519
-12.0260 -1.7305 -2.0016 0.9519
-11.9561 -2.1614 -2.0016 0.9519
-11.0132 -2.4025 -1.8570 0.9553
-10.9198 -2.7966 -1.8570 0.9553
-10.8123 -3.1871 -1.8570 0.9553
-10.6908 -3.5735 -1.8570 0.9553
-10.5555 -3.9553 -1.8570 0.9553
-10.4066 -4.3320 -1.8570 0.9553
-10.2443 -4.7030 -1.8570 0.9553
-10.2019 -6.5986 -2.0016 0.9519
-9.9582 -6.9609 -2.0016 0.9519
-9.7017 -7.3141 -2.0016 0.9519
-9.4327 -7.6580 -2.0016 0.9519
-8.5539 -8.6284 -2.0016 0.9519
-7.9123 -9.2204 -2.0016 0.9519
-7.5759 -9.4987 -2.0016 0.9519
-6.8743 -10.0182 -2.0016 0.9519
-6.1372 -10.4859 -2.0016 0.9519
-5.3684 -10.8995 -2.0016 0.9519
-4.5719 -11.2569 -2.0016 0.9519
-2.9122 -11.7957 -2.0016 0.9519
-2.4866 -11.8927 -2.0016 0.9519
-2.0577 -11.9744 -2.0016 0.9519
-1.6262 -12.0406 -2.0016 0.9519
-0.7574 -12.1262 -2.0016 0.9519
-0.3213 -12.1456 -2.0016 0.9519
0.9874 -12.1097 -2.0016 0.9519
1.4218 -12.0664 -2.0016 0.9519
3.9704 -11.4828 -2.0016 0.9519
4.7847 -11.1681 -2.0016 0.9519
6.7035 -10.1332 -2.0016 0.9519
7.4138 -9.6257 -2.0016 0.9519
7.7548 -9.3532 -2.0016 0.9519
8.0859 -9.0685 -2.0016 0.9519
8.4064 -8.7722 -2.0016 0.9519
8.7162 -8.4645 -2.0016 0.9519
9.3015 -7.8168 -2.0016 0.9519
10.0885 -6.7706 -2.0016 0.9519
10.7584 -5.6458 -2.0016 0.9519
10.9543 -5.2557 -2.0016 0.9519
11.3035 -4.4555 -2.0016 0.9519
11.7172 -3.2135 -2.0016 0.9519
12.1334 -0.6323 -2.0016 0.9519
12.1475 0.2406 -2.0016 0.9519
12.1310 0.6769 -2.0016 0.9519
12.0989 1.1123 -2.0016 0.9519
12.0511 1.5462 -2.0016 0.9519
11.9089 2.4076 -2.0016 0.9519
11.7053 3.2565 -2.0016 0.9519
11.5808 3.6749 -2.0016 0.9519
11.1181 4.8996 -2.0016 0.9519
10.9349 5.2959 -2.0016 0.9519
10.7376 5.6853 -2.0016 0.9519
10.5264 6.0674 -2.0016 0.9519
10.0636 6.8077 -2.0016 0.9519
9.8125 7.1648 -2.0016 0.9519
9.5488 7.5127 -2.0016 0.9519
8.9846 8.1790 -2.0016 0.9519
7.7204 9.3816 -2.0016 0.9519
7.3784 9.6529 -2.0016 0.9519
6.6662 10.1578 -2.0016 0.9519
4.3829 10.3350 -1.8494 0.9555
3.6295 10.6231 -1.8494 0.9555
3.2455 10.7466 -1.8494 0.9555
2.0703 11.0334 -1.8494 0.9555
1.6726 11.1007 -1.8494 0.9555
1.2727 11.1536 -1.8494 0.9555
0.8712 11.1921 -1.8494 0.9555
0.4685 11.2162 -1.8494 0.9555
-0.7410 11.2015 -1.8494 0.9555
-1.2112 8.7262 -1.4513 0.9649
-1.9419 11.0568 -1.8494 0.9555
-3.1203 10.7836 -1.8494 0.9555
-3.5057 10.6646 -1.8494 0.9555
-4.2624 10.3853 -1.8494 0.9555
-4.6328 10.2255 -1.8494 0.9555
-4.9971 10.0524 -1.8494 0.9555
-5.7061 9.6676 -1.8494 0.9555
-6.0497 9.4564 -1.8494 0.9555
-6.7131 8.9976 -1.8494 0.9555
-7.3419 8.4923 -1.8494 0.9555
-7.6750 8.2583 -1.8573 0.9553
-9.4608 7.6232 -2.0016 0.9519
-10.2260 6.5611 -2.0016 0.9519
-10.6708 5.8098 -2.0016 0.9519
-11.2339 4.6280 -2.0016 0.9519
-11.3929 4.2214 -2.0016 0.9519
-11.6667 3.3924 -2.0016 0.9519
-11.7810 2.9711 -2.0016 0.9519
-11.9639 2.1174 -2.0016 0.9519
-12.0851 1.2529 -2.0016 0.9519
-12.1439 0.3819 -2.0016 0.9519
-12.1497 -0.0547 -2.0016 0.9519
-12.1145 -0.9270 -2.0016 0.9519
-12.0733 -1.3616 -2.0016 0.9519
-12.0166 -1.7945 -2.0016 0.9519
-11.9444 -2.2250 -2.0016 0.9519
-11.0003 -2.4611 -1.8570 0.9553
-10.9048 -2.8547 -1.8570 0.9553
-10.7952 -3.2447 -1.8570 0.9553
-10.6716 -3.6304 -1.8570 0.9553
-10.3834 -4.3873 -1.8570 0.9553
-10.0416 -5.1216 -1.8570 0.9553
-9.8511 -5.4790 -1.8570 0.9553
-10.1666 -6.6528 -2.0016 0.9519
-9.1088 -8.0405 -2.0016 0.9519
-8.1908 -8.9739 -2.0016 0.9519
-7.8631 -9.2624 -2.0016 0.9519
-7.1777 -9.8031 -2.0016 0.9519
-6.8209 -10.0546 -2.0016 0.9519
-6.4552 -10.2932 -2.0016 0.9519
-5.3103 -10.9280 -2.0016 0.9519
-4.9142 -11.1117 -2.0016 0.9519
-3.6902 -11.5759 -2.0016 0.9519
-2.8494 -11.8110 -2.0016 0.9519
-2.4232 -11.9058 -2.0016 0.9519
-1.5621 -12.0490 -2.0016 0.9519
-1.1282 -12.0974 -2.0016 0.9519
-0.2566 -12.1472 -2.0016 0.9519
0.1800 -12.1485 -2.0016 0.9519
0.6163 -12.1342 -2.0016 0.9519
3.1981 -11.7214 -2.0016 0.9519
4.4406 -11.3093 -2.0016 0.9519
4.8441 -11.1425 -2.0016 0.9519
2.2074 -4.2198 -0.7845 0.9809
7.1157 -9.8481 -2.0016 0.9519
7.8045 -9.3118 -2.0016 0.9519
8.1340 -9.0253 -2.0016 0.9519
9.0579 -8.0978 -2.0016 0.9519
9.3430 -7.7671 -2.0016 0.9519
9.6160 -7.4265 -2.0016 0.9519
10.1244 -6.7168 -2.0016 0.9519
10.3592 -6.3487 -2.0016 0.9519
10.7883 -5.5885 -2.0016 0.9519
10.9822 -5.1973 -2.0016 0.9519
11.1618 -4.7994 -2.0016 0.9519
11.4776 -3.9855 -2.0016 0.9519
-4.4106 -9.6925 -2.0016 0.9576
-4.0595 -9.8447 -2.0016 0.9576
-3.3421 -10.1108 -2.0016 0.9576
-2.2348 -10.4117 -2.0016 0.9576
-1.8593 -10.4852 -2.0016 0.9576
-1.1016 -10.5917 -2.0016 0.9576
0.4269 -10.6403 -2.0016 0.9576
1.1899 -10.5821 -2.0016 0.9576
1.9467 -10.4694 -2.0016 0.9576
3.0618 -10.1991 -2.0016 0.9576
3.4262 -10.0826 -2.0016 0.9576
4.4912 -9.6554 -2.0016 0.9576
5.5040 -9.1161 -2.0016 0.9576
6.7530 -8.2337 -2.0016 0.9576
7.0445 -7.9858 -2.0016 0.9576
7.3268 -7.7275 -2.0016 0.9576
7.5997 -7.4593 -2.0016 0.9576
7.8628 -7.1815 -2.0016 0.9576
8.1157 -6.8943 -2.0016 0.9576
8.3582 -6.5983 -2.0016 0.9576
8.5898 -6.2938 -2.0016 0.9576
9.0196 -5.6607 -2.0016 0.9576
9.2172 -5.3330 -2.0016 0.9576
9.5763 -4.6574 -2.0016 0.9576
9.8860 -3.9577 -2.0016 0.9576
10.1447 -3.2376 -2.0016 0.9576
10.2545 -2.8711 -2.0016 0.9576
10.5039 -1.7511 -2.0016 0.9576
10.6313 -0.6108 -2.0016 0.9576
10.5693 1.2989 -2.0016 0.9576
10.5158 1.6778 -2.0016 0.9576
10.4487 2.0545 -2.0016 0.9576
10.2742 2.7995 -2.0016 0.9576
9.7673 4.2424 -2.0016 0.9576
9.6086 4.5905 -2.0016 0.9576
9.4374 4.9328 -2.0016 0.9576
9.0589 5.5977 -2.0016 0.9576
8.8519 5.9195 -2.0016 0.9576
8.6335 6.2337 -2.0016 0.9576
8.1636 6.8376 -2.0016 0.9576
7.9127 7.1265 -2.0016 0.9576
7.6516 7.4062 -2.0016 0.9576
6.8103 8.1864 -2.0016 0.9576
6.5118 8.4258 -2.0016 0.9576
6.2048 8.6543 -2.0016 0.9576
5.8899 8.8716 -2.0016 0.9576
4.8916 9.4354 -1.9976 0.9577
4.4599 9.4158 -1.9583 0.9585
3.9253 9.1207 -1.8664 0.9604
2.8946 9.4036 -1.8494 0.9607
2.5549 9.5016 -1.8494 0.9607
1.8660 9.6605 -1.8494 0.9607
0.4630 9.8282 -1.8494 0.9607
-0.9496 9.7931 -1.8494 0.9607
-2.3426 9.5561 -1.8494 0.9607
-2.6844 9.4658 -1.8494 0.9607
-3.3572 9.2486 -1.8494 0.9607
-3.6873 9.1220 -1.8494 0.9607
-4.0126 8.9837 -1.8494 0.9607
-4.6474 8.6723 -1.8494 0.9607
-4.9559 8.4998 -1.8494 0.9607
-5.2581 8.3162 -1.8494 0.9607
-6.0840 8.2456 -1.9261 0.9592
-6.5467 8.2360 -1.9775 0.9581
-7.2045 7.8353 -2.0007 0.9576
-7.4847 7.5748 -2.0016 0.9576
-8.4925 6.4245 -2.0016 0.9576
-8.7178 6.1153 -2.0016 0.9576
-8.9319 5.7981 -2.0016 0.9576
-9.1345 5.4735 -2.0016 0.9576
-9.6704 4.4589 -2.0016 0.9576
-9.8243 4.1086 -2.0016 0.9576
-9.9656 3.7530 -2.0016 0.9576
-10.4004 2.2868 -2.0016 0.9576
-10.5377 1.5341 -2.0016 0.9576
-10.6416 0.3913 -2.0016 0.9576
-10.6220 -0.7559 -2.0016 0.9576
-10.5879 -1.1370 -2.0016 0.9576
-10.5403 -1.5167 -2.0016 0.9576
-9.5707 -2.4511 -1.8570 0.9606
-9.2514 -3.4666 -1.8570 0.9606
-8.9786 -4.1220 -1.8570 0.9606
-8.6595 -4.7561 -1.8570 0.9606
-8.2956 -5.3656 -1.8570 0.9606
-8.0975 -5.6602 -1.8570 0.9606
-8.2673 -6.7119 -2.0016 0.9576
-7.7640 -7.2882 -2.0016 0.9576
-7.2206 -7.8269 -2.0016 0.9576
-6.6400 -8.3252 -2.0016 0.9576
-6.3366 -8.5583 -2.0016 0.9576
-6.0250 -8.7805 -2.0016 0.9576
-5.0453 -9.3778 -2.0016 0.9576
-4.3589 -9.7158 -2.0016 0.9576
-4.0070 -9.8662 -2.0016 0.9576
-3.2882 -10.1284 -2.0016 0.9576
-2.9222 -10.2400 -2.0016 0.9576
-2.5524 -10.3384 -2.0016 0.9576
-1.8035 -10.4950 -2.0016 0.9576
-0.6638 -10.6281 -2.0016 0.9576
-0.2816 -10.6451 -2.0016 0.9576
0.4836 -10.6378 -2.0016 0.9576
0.8654 -10.6136 -2.0016 0.9576
1.2462 -10.5756 -2.0016 0.9576
2.0024 -10.4589 -2.0016 0.9576
2.7482 -10.2881 -2.0016 0.9576
3.1161 -10.1827 -2.0016 0.9576
3.4799 -10.0642 -2.0016 0.9576
3.8392 -9.9327 -2.0016 0.9576
4.1936 -9.7883 -2.0016 0.9576
4.5425 -9.6313 -2.0016 0.9576
5.8753 -8.8813 -2.0016 0.9576
7.3679 -7.6884 -2.0016 0.9576
7.6393 -7.4187 -2.0016 0.9576
7.9009 -7.1395 -2.0016 0.9576
8.1523 -6.8510 -2.0016 0.9576
8.3932 -6.5537 -2.0016 0.9576
8.6232 -6.2480 -2.0016 0.9576
9.2454 -5.2839 -2.0016 0.9576
9.4293 -4.9483 -2.0016 0.9576
9.6010 -4.6063 -2.0016 0.9576
9.7603 -4.2584 -2.0016 0.9576
10.3642 -2.4457 -2.0016 0.9576
10.4453 -2.0717 -2.0016 0.9576
10.5671 -1.3164 -2.0016 0.9576
10.6467 0.2109 -2.0016 0.9576
10.6041 0.9749 -2.0016 0.9576
10.5067 1.7338 -2.0016 0.9576
10.2592 2.8542 -2.0016 0.9576
10.0278 3.5835 -2.0016 0.9576
9.8925 3.9414 -2.0016 0.9576
9.7445 4.2943 -2.0016 0.9576
9.5840 4.6416 -2.0016 0.9576
9.4110 4.9830 -2.0016 0.9576
8.3691 6.5845 -2.0016 0.9576
7.6120 7.4468 -2.0016 0.9576
7.3396 7.7154 -2.0016 0.9576
6.7666 8.2226 -2.0016 0.9576
6.4668 8.4604 -2.0016 0.9576
5.8426 8.9029 -2.0016 0.9576
4.3770 9.3695 -1.9438 0.9588
3.8552 9.0907 -1.8560 0.9606
3.5135 9.1904 -1.8494 0.9607
3.1811 9.3106 -1.8494 0.9607
2.5043 9.5150 -1.8494 0.9607
1.4660 9.7293 -1.8494 0.9607
0.7636 9.8094 -1.8494 0.9607
0.4107 9.8305 -1.8494 0.9607
0.0572 9.8389 -1.8494 0.9607
-0.6494 9.8176 -1.8494 0.9607
-1.0017 9.7880 -1.8494 0.9607
-1.7020 9.6908 -1.8494 0.9607
-2.0491 9.6233 -1.8494 0.9607
-2.3935 9.5435 -1.8494 0.9607
-3.0726 9.3470 -1.8494 0.9607
-4.6935 8.6475 -1.8494 0.9607
-5.3023 8.2881 -1.8494 0.9607
-5.7078 8.2530 -1.8861 0.9600
-6.1511 8.2442 -1.9334 0.9590
-6.9494 8.0383 -1.9972 0.9577
-7.7907 7.2596 -2.0016 0.9576
-8.2919 6.6814 -2.0016 0.9576
-8.7503 6.0688 -2.0016 0.9576
-8.9627 5.7505 -2.0016 0.9576
-9.5294 4.7528 -2.0016 0.9576
-9.6939 4.4073 -2.0016 0.9576
-9.9854 3.6999 -2.0016 0.9576
-10.1119 3.3387 -2.0016 0.9576
-10.5458 1.4779 -2.0016 0.9576
-10.6247 0.7169 -2.0016 0.9576
-10.6436 0.3347 -2.0016 0.9576
-10.6487 -0.0479 -2.0016 0.9576
-10.6401 -0.4305 -2.0016 0.9576
-10.6178 -0.8124 -2.0016 0.9576
-10.5817 -1.1934 -2.0016 0.9576
-10.4687 -1.9502 -2.0016 0.9576
-9.9742 -2.2315 -1.9211 0.9593
-9.5575 -2.5020 -1.8570 0.9606
-9.4615 -2.8438 -1.8570 0.9606
-9.3532 -3.1819 -1.8570 0.9606
-9.2329 -3.5159 -1.8570 0.9606
-9.1006 -3.8453 -1.8570 0.9606
-8.9566 -4.1698 -1.8570 0.9606
-8.4688 -6.4557 -2.0016 0.9576
-8.2314 -6.7558 -2.0016 0.9576
-7.9834 -7.0471 -2.0016 0.9576
-7.4568 -7.6022 -2.0016 0.9576
-6.5955 -8.3604 -2.0016 0.9576
-6.2909 -8.5920 -2.0016 0.9576
-5.9782 -8.8124 -2.0016 0.9576
-4.9953 -9.4045 -2.0016 0.9576
-4.3071 -9.7389 -2.0016 0.9576
-3.5967 -10.0230 -2.0016 0.9576
-3.2343 -10.1458 -2.0016 0.9576
-2.1238 -10.4349 -2.0016 0.9576
-1.3691 -10.5604 -2.0016 0.9576
-0.2249 -10.6464 -2.0016 0.9576
0.1577 -10.6476 -2.0016 0.9576
0.5402 -10.6351 -2.0016 0.9576
0.9219 -10.6088 -2.0016 0.9576
1.6813 -10.5152 -2.0016 0.9576
2.0580 -10.4481 -2.0016 0.9576
2.8030 -10.2733 -2.0016 0.9576
3.1702 -10.1660 -2.0016 0.9576
4.2456 -9.7659 -2.0016 0.9576
4.5937 -9.6070 -2.0016 0.9576
5.6007 -9.0570 -2.0016 0.9576
5.9225 -8.8499 -2.0016 0.9576
7.1291 -7.9103 -2.0016 0.9576
7.4087 -7.6491 -2.0016 0.9576
8.1887 -6.8075 -2.0016 0.9576
8.6564 -6.2020 -2.0016 0.9576
8.8736 -5.8870 -2.0016 0.9576
9.0794 -5.5644 -2.0016 0.9576
9.2734 -5.2346 -2.0016 0.9576
9.4555 -4.8980 -2.0016 0.9576
9.6254 -4.5552 -2.0016 0.9576
10.0596 -3.4931 -2.0016 0.9576
10.1786 -3.1294 -2.0016 0.9576
10.2845 -2.7617 -2.0016 0.9576
-4.2290 -8.4722 -2.0016 0.9620
-3.9219 -8.6186 -2.0016 0.9620
-3.2929 -8.8780 -2.0016 0.9620
-2.3186 -9.1808 -2.0016 0.9620
-0.9796 -9.4182 -2.0016 0.9620
-0.6406 -9.4473 -2.0016 0.9620
-0.3008 -9.4642 -2.0016 0.9620
0.0395 -9.4689 -2.0016 0.9620
1.0580 -9.4097 -2.0016 0.9620
1.3954 -9.3656 -2.0016 0.9620
1.7310 -9.3095 -2.0016 0.9620
2.3950 -9.1611 -2.0016 0.9620
3.0466 -8.9655 -2.0016 0.9620
3.3668 -8.8503 -2.0016 0.9620
3.6826 -8.7236 -2.0016 0.9620
3.9936 -8.5857 -2.0016 0.9620
2.3359 -4.2031 -1.0164 0.9805
4.8942 -8.1061 -2.0016 0.9620
6.2640 -7.1010 -2.0016 0.9620
7.6382 -5.5965 -2.0016 0.9620
7.8343 -5.3185 -2.0016 0.9620
8.0203 -5.0336 -2.0016 0.9620
8.5153 -4.1414 -2.0016 0.9620
9.2042 -2.2238 -2.0016 0.9620
9.3401 -1.5571 -2.0016 0.9620
9.3900 -1.2205 -2.0016 0.9620
9.4278 -0.8824 -2.0016 0.9620
9.4534 -0.5431 -2.0016 0.9620
9.4668 -0.2031 -2.0016 0.9620
9.4680 0.1371 -2.0016 0.9620
9.4570 0.4772 -2.0016 0.9620
9.3508 1.4919 -2.0016 0.9620
9.2911 1.8269 -2.0016 0.9620
9.2195 2.1595 -2.0016 0.9620
8.9336 3.1390 -2.0016 0.9620
8.6852 3.7723 -2.0016 0.9620
8.5440 4.0819 -2.0016 0.9620
8.2288 4.6849 -2.0016 0.9620
7.6770 5.5431 -2.0016 0.9620
7.4729 5.8153 -2.0016 0.9620
7.0360 6.3369 -2.0016 0.9620
6.8038 6.5856 -2.0016 0.9620
6.3134 7.0572 -2.0016 0.9620
6.0557 7.2794 -2.0016 0.9620
4.9506 8.0718 -2.0016 0.9620
3.7382 8.6860 -1.9989 0.9621
3.4169 8.7969 -1.9948 0.9622
3.0285 8.7123 -1.9497 0.9630
2.6425 8.5846 -1.8986 0.9639
1.9668 8.5250 -1.8494 0.9649
1.3496 8.6443 -1.8494 0.9649
0.4117 8.7393 -1.8494 0.9649
0.0974 8.7484 -1.8494 0.9649
-0.2169 8.7463 -1.8494 0.9649
-0.8444 8.7081 -1.8494 0.9649
-1.1567 8.6722 -1.8494 0.9649
-4.0430 8.2429 -1.9407 0.9632
-4.7546 8.1544 -1.9953 0.9621
-5.0515 7.9895 -1.9981 0.9621
-5.6220 7.6194 -2.0016 0.9620
-6.4092 6.9703 -2.0016 0.9620
-6.6554 6.7355 -2.0016 0.9620
-6.8931 6.4921 -2.0016 0.9620
-7.1219 6.2402 -2.0016 0.9620
-7.5516 5.7127 -2.0016 0.9620
-7.9423 5.1557 -2.0016 0.9620
-8.2921 4.5721 -2.0016 0.9620
-8.4510 4.2712 -2.0016 0.9620
-8.7359 3.6534 -2.0016 0.9620
-8.9756 3.0167 -2.0016 0.9620
-9.0782 2.6923 -2.0016 0.9620
-9.1691 2.3644 -2.0016 0.9620
-9.2481 2.0334 -2.0016 0.9620
-9.3152 1.6999 -2.0016 0.9620
-9.4132 1.0266 -2.0016 0.9620
-9.4626 0.3480 -2.0016 0.9620
-9.4690 0.0078 -2.0016 0.9620
-9.4451 -0.6722 -2.0016 0.9620
-9.3180 -1.6845 -2.0016 0.9620
-8.7257 -2.2347 -1.9040 0.9638
-8.2265 -3.0826 -1.8570 0.9647
-7.9839 -3.6653 -1.8570 0.9647
-7.8470 -3.9498 -1.8570 0.9647
-7.7001 -4.2292 -1.8570 0.9647
-7.5432 -4.5031 -1.8570 0.9647
-7.3765 -4.7712 -1.8570 0.9647
-7.1322 -6.2285 -2.0016 0.9620
-6.9038 -6.4807 -2.0016 0.9620
-6.6665 -6.7246 -2.0016 0.9620
-5.9043 -7.4028 -2.0016 0.9620
-5.6345 -7.6101 -2.0016 0.9620
-3.5631 -8.7731 -2.0016 0.9620
-3.2456 -8.8954 -2.0016 0.9620
-1.6037 -9.3322 -2.0016 0.9620
-1.2674 -9.3838 -2.0016 0.9620
-0.9294 -9.4233 -2.0016 0.9620
0.4300 -9.4593 -2.0016 0.9620
1.1081 -9.4040 -2.0016 0.9620
1.4452 -9.3581 -2.0016 0.9620
1.7805 -9.3001 -2.0016 0.9620
2.7708 -9.0546 -2.0016 0.9620
3.0943 -8.9492 -2.0016 0.9620
3.4138 -8.8322 -2.0016 0.9620
2.1914 -4.2441 -1.0097 0.9807
4.6438 -8.2521 -2.0016 0.9620
4.9373 -8.0800 -2.0016 0.9620
5.7780 -7.5018 -2.0016 0.9620
6.5516 -6.8366 -2.0016 0.9620
7.0256 -6.3485 -2.0016 0.9620
7.2491 -6.0920 -2.0016 0.9620
7.4633 -5.8276 -2.0016 0.9620
7.6679 -5.5557 -2.0016 0.9620
7.8625 -5.2767 -2.0016 0.9620
8.0470 -4.9908 -2.0016 0.9620
8.3846 -4.4001 -2.0016 0.9620
8.5373 -4.0960 -2.0016 0.9620
8.6789 -3.7866 -2.0016 0.9620
8.9284 -3.1537 -2.0016 0.9620
9.0360 -2.8309 -2.0016 0.9620
9.1318 -2.5044 -2.0016 0.9620
9.2881 -1.8422 -2.0016 0.9620
9.3483 -1.5073 -2.0016 0.9620
9.3964 -1.1705 -2.0016 0.9620
9.4562 -0.4928 -2.0016 0.9620
9.4543 0.5275 -2.0016 0.9620
9.4293 0.8669 -2.0016 0.9620
9.3427 1.5417 -2.0016 0.9620
9.1226 2.5380 -2.0016 0.9620
9.0255 2.8641 -2.0016 0.9620
8.9168 3.1865 -2.0016 0.9620
8.7965 3.5048 -2.0016 0.9620
8.5222 4.1274 -2.0016 0.9620
8.2038 4.7287 -2.0016 0.9620
8.0286 5.0203 -2.0016 0.9620
7.4418 5.8550 -2.0016 0.9620
7.2267 6.1186 -2.0016 0.9620
7.0022 6.3743 -2.0016 0.9620
6.7687 6.6217 -2.0016 0.9620
6.5264 6.8606 -2.0016 0.9620
4.9075 8.0981 -2.0016 0.9620
4.6134 8.2691 -2.0016 0.9620
4.3134 8.4295 -2.0016 0.9620
4.0077 8.5791 -2.0016 0.9620
2.9700 8.6929 -1.9418 0.9631
2.5876 8.5684 -1.8920 0.9641
1.6135 8.5989 -1.8494 0.9649
0.9919 8.6926 -1.8494 0.9649
0.6790 8.7226 -1.8494 0.9649
0.0509 8.7488 -1.8494 0.9649
-0.2635 8.7450 -1.8494 0.9649
-1.2029 8.6659 -1.8494 0.9649
-1.5134 8.6171 -1.8494 0.9649
-2.4351 8.4158 -1.8519 0.9648
-2.7322 8.3114 -1.8494 0.9649
-3.0474 8.2577 -1.8606 0.9647
-3.3873 8.2530 -1.8857 0.9642
-4.0971 8.2420 -1.9456 0.9631
-4.4699 8.2355 -1.9807 0.9624
-5.0951 7.9642 -1.9985 0.9621
-5.3860 7.7876 -2.0015 0.9620
-5.6625 7.5894 -2.0016 0.9620
-5.9315 7.3810 -2.0016 0.9620
-6.1928 7.1632 -2.0016 0.9620
-6.4462 6.9361 -2.0016 0.9620
-6.6912 6.7000 -2.0016 0.9620
-6.9276 6.4553 -2.0016 0.9620
-7.7808 5.3964 -2.0016 0.9620
-8.1482 4.8237 -2.0016 0.9620
-8.3163 4.5279 -2.0016 0.9620
-8.4736 4.2262 -2.0016 0.9620
-8.7552 3.6068 -2.0016 0.9620
-8.8791 3.2899 -2.0016 0.9620
-8.9916 2.9688 -2.0016 0.9620
-9.0924 2.6439 -2.0016 0.9620
-9.1815 2.3155 -2.0016 0.9620
-9.2588 1.9842 -2.0016 0.9620
-9.3774 1.3142 -2.0016 0.9620
-9.4613 -0.3828 -2.0016 0.9620
-9.4414 -0.7224 -2.0016 0.9620
-9.4094 -1.0612 -2.0016 0.9620
-9.3089 -1.7341 -2.0016 0.9620
-8.5601 -2.2409 -1.8704 0.9645
-8.3169 -2.8294 -1.8570 0.9647
-8.2099 -3.1263 -1.8570 0.9647
-8.0923 -3.4193 -1.8570 0.9647
-7.9642 -3.7078 -1.8570 0.9647
-7.8259 -3.9915 -1.8570 0.9647
-7.6774 -4.2701 -1.8570 0.9647
-7.5191 -4.5432 -1.8570 0.9647
-7.3510 -4.8104 -1.8570 0.9647
-7.1734 -5.0714 -1.8570 0.9647
-6.7908 -5.5734 -1.8570 0.9647
-7.0989 -6.2664 -2.0016 0.9620
-5.8648 -7.4341 -2.0016 0.9620
-5.5939 -7.6400 -2.0016 0.9620
-5.3158 -7.8361 -2.0016 0.9620
-4.7394 -8.1976 -2.0016 0.9620
-4.4419 -8.3625 -2.0016 0.9620
-3.8299 -8.6599 -2.0016 0.9620
-3.1982 -8.9126 -2.0016 0.9620
