ply
format ascii 1.0
element vertex 1539
property float32 x
property float32 y
property float32 z
property float32 I
end_header
-13.0521 -22.1451 3.9379 0.9012
-12.2301 -22.5664 3.9321 0.9013
-10.1305 -22.3966 3.7657 0.9053
-8.2515 -22.4018 3.6572 0.9079
-6.4832 -22.4567 3.5807 0.9097
-4.7941 -22.5820 3.5365 0.9108
-3.9218 -22.4089 3.4851 0.9121
-3.0971 -22.4112 3.4659 0.9125
-2.2859 -22.4684 3.4598 0.9127
-0.6621 -22.4179 3.4358 0.9132
0.9573 -22.5980 3.4650 0.9125
32.1344 -31.4021 6.8830 0.8338
32.5484 -25.5793 6.3418 0.8458
29.3857 -2.9838 3.8463 0.8877
31.2098 -2.0397 4.0728 0.8815
32.1005 -0.9417 4.1820 0.8785
33.4972 7.5681 4.4720 0.8706
38.4564 13.1722 5.2934 0.8488
34.9531 13.3936 4.8743 0.8599
34.9853 14.8684 4.9502 0.8578
29.2683 13.7002 4.2082 0.8778
28.2427 14.4790 4.1329 0.8798
27.8774 15.5811 4.1588 0.8791
26.6988 16.2077 4.0672 0.8816
26.0377 19.9337 4.2702 0.8761
28.6356 23.6015 4.8323 0.8610
26.9874 25.7113 4.8539 0.8604
0.2956 15.4839 2.0167 0.9394
-1.9536 15.5926 2.0464 0.9386
-2.5258 15.5942 2.0572 0.9383
-4.2898 15.5991 2.1067 0.9368
-4.8996 15.6008 2.1294 0.9362
-5.6215 15.8799 2.1936 0.9343
-6.0962 13.9460 1.9820 0.9405
-6.7037 13.9477 2.0152 0.9395
-7.4678 13.0458 1.9575 0.9412
-8.1046 13.0476 2.0002 0.9399
-8.7707 13.0494 2.0475 0.9385
-9.4700 13.0514 2.0998 0.9370
-10.2069 13.0534 2.1578 0.9353
-10.9868 13.0556 2.2220 0.9335
-14.6282 13.9994 2.6367 0.9216
-15.7254 14.0025 2.7419 0.9186
-18.2143 14.0094 2.9923 0.9115
-27.8126 -22.2102 4.6349 0.8663
-26.0160 -22.3525 4.4665 0.8708
-24.2054 -22.3575 4.2909 0.8755
-22.5297 -22.3622 4.1337 0.8798
-20.9706 -22.3665 3.9925 0.8837
-19.6653 -22.5457 3.8958 0.8863
-16.8500 -22.3779 3.6478 0.8932
-15.7474 -22.5566 3.5823 0.8950
-14.2504 -22.0605 3.4200 0.8995
-13.1730 -22.0958 3.3499 0.9014
-10.2661 -22.3962 3.2083 0.9054
-5.7240 -22.4039 3.0112 0.9109
-4.8814 -22.4383 2.9903 0.9115
-4.0694 -22.5840 2.9883 0.9116
-3.2049 -22.3631 2.9419 0.9129
-2.3941 -22.4131 2.9353 0.9131
-0.7748 -22.4176 2.9210 0.9135
0.8437 -22.5977 2.9447 0.9128
32.5197 -37.0749 6.4220 0.8196
32.9500 -34.9487 6.2548 0.8239
32.5335 -32.1129 5.9528 0.8316
32.9597 -30.2746 5.8279 0.8348
32.5477 -25.8441 5.4120 0.8457
37.7750 -25.8006 5.9570 0.8315
30.7340 -6.3573 4.0869 0.8811
42.0309 12.9596 5.7276 0.8374
37.8407 13.1739 5.2177 0.8508
35.0327 13.6262 4.8949 0.8593
30.5059 13.1459 4.3257 0.8746
27.9083 14.4850 4.0946 0.8809
27.6160 15.6174 4.1314 0.8799
27.6200 21.3658 4.5472 0.8686
27.7227 24.8233 4.8458 0.8606
25.6898 24.7222 4.6428 0.8660
25.8358 26.7158 4.8396 0.8608
2.1342 17.4252 2.2861 0.9316
1.5068 17.4907 2.2861 0.9316
0.7938 15.8621 2.0682 0.9379
0.2181 15.4970 2.0182 0.9394
-2.0332 15.5929 2.0477 0.9385
-3.1863 15.5961 2.0729 0.9378
-4.3742 15.5993 2.1097 0.9367
-4.9858 15.6010 2.1328 0.9361
-6.1799 13.9462 1.9864 0.9403
-6.7902 13.9479 2.0201 0.9393
-7.4198 13.9447 2.0569 0.9383
-7.5551 13.0461 1.9632 0.9410
-8.8663 13.0497 2.0545 0.9383
-9.5706 13.0517 2.1076 0.9368
-14.7764 13.9998 2.6507 0.9212
-15.8461 13.9679 2.7507 0.9183
-18.3595 13.9749 3.0046 0.9111
-19.8025 13.9789 3.1565 0.9069
-21.4548 14.0184 3.3374 0.9018
-33.4343 -23.2200 5.3008 0.8486
-19.4294 -22.5023 3.8714 0.8870
-16.6750 -22.3784 3.6342 0.8935
-11.1150 -22.3939 3.2556 0.9041
-10.1305 -22.3966 3.2010 0.9056
-9.2491 -22.5747 3.1769 0.9063
-8.2515 -22.4018 3.1088 0.9082
-5.6045 -22.4042 3.0074 0.9110
-1.4730 -22.4706 2.9324 0.9132
0.1445 -22.5516 2.9367 0.9130
0.9573 -22.5980 2.9454 0.9128
2.1870 -4.2680 0.6245 0.9808
32.5311 -31.7897 5.9231 0.8324
32.9606 -29.9717 5.8013 0.8355
32.4445 -25.4976 5.3735 0.8467
32.9864 -3.3494 3.5604 0.8751
35.1340 -2.2961 3.7808 0.8679
38.9035 13.3253 4.4158 0.8475
35.1995 14.9595 4.1070 0.8574
27.6496 15.4537 3.4013 0.8804
27.5459 16.7220 3.4603 0.8784
28.1765 23.2231 3.9209 0.8634
1.9337 21.2013 2.2861 0.9179
0.2785 14.5841 1.5664 0.9430
-0.7729 14.6311 1.5733 0.9428
-1.3038 14.6596 1.5804 0.9425
-1.8415 14.6977 1.5906 0.9421
-2.3844 14.7218 1.6014 0.9418
-4.0847 14.8533 1.6542 0.9399
-4.6838 14.9138 1.6786 0.9390
-6.0461 15.3075 1.7673 0.9359
-6.7037 13.9477 1.6617 0.9396
-7.3327 13.9494 1.6923 0.9386
-7.4678 13.0458 1.6142 0.9413
-8.1046 13.0476 1.6494 0.9401
-9.4700 13.0514 1.7315 0.9372
-10.2069 13.0534 1.7793 0.9355
-11.8156 13.0579 1.8910 0.9316
-12.7004 13.0603 1.9562 0.9293
-15.3808 14.7196 2.2861 0.9179
-19.6413 14.0133 2.5909 0.9075
-21.1674 13.9827 2.7241 0.9030
-22.9827 14.0226 2.8910 0.8973
-30.2219 -4.1012 3.2750 0.8845
-27.9838 -22.3470 3.8455 0.8658
-22.5297 -22.3622 3.4087 0.8801
-20.9706 -22.3665 3.2923 0.8840
-12.9772 -21.7674 2.7213 0.9031
-12.3527 -22.5219 2.7583 0.9018
-11.2553 -22.3935 2.6913 0.9041
-5.7240 -22.4039 2.4830 0.9112
-4.8814 -22.4383 2.4658 0.9118
-3.2049 -22.3631 2.4259 0.9131
-2.3941 -22.4131 2.4205 0.9133
-0.7748 -22.4176 2.4087 0.9137
1.6455 -22.4243 2.4144 0.9135
2.3136 -4.1906 0.5140 0.9809
32.5541 -32.1332 4.9118 0.8319
33.0365 -28.2255 4.6660 0.8396
37.7731 -25.7993 4.9119 0.8319
33.0379 -8.0816 3.6523 0.8721
31.5666 -6.5295 3.4614 0.8784
31.2316 -5.2981 3.4016 0.8803
35.2277 -2.1247 3.7897 0.8676
42.0345 12.9607 4.7234 0.8378
37.8407 13.1739 4.3026 0.8511
35.0368 15.0984 4.0968 0.8577
30.0768 14.2631 3.5745 0.8747
27.4195 15.5063 3.3826 0.8810
26.0091 17.2848 3.3534 0.8819
27.9810 20.0808 3.6983 0.8706
27.8595 23.1976 3.8929 0.8643
26.9953 25.9786 4.0231 0.8601
27.3879 28.3208 4.2306 0.8534
1.8273 21.2107 2.2861 0.9179
0.2054 14.5957 1.5675 0.9430
-0.8467 14.6346 1.5741 0.9427
-1.3785 14.6641 1.5816 0.9425
-3.0065 14.7159 1.6129 0.9414
-4.1673 14.8613 1.6574 0.9398
-5.3436 14.8573 1.6955 0.9385
-6.0467 15.0869 1.7453 0.9367
-6.1799 13.9462 1.6380 0.9405
-6.7902 13.9479 1.6658 0.9395
-9.5706 13.0517 1.7379 0.9370
-10.3132 13.0537 1.7864 0.9353
-11.0995 13.0559 1.8401 0.9334
-11.9356 13.0582 1.8997 0.9313
-15.4544 14.6422 2.2861 0.9179
-15.9705 14.0776 2.2861 0.9179
-18.3595 13.9749 2.4776 0.9114
-23.2455 14.0234 2.9152 0.8965
-33.4311 -23.2177 4.3707 0.8490
-27.6986 -22.3478 3.8217 0.8666
-25.7542 -22.3532 3.6619 0.8718
-24.0614 -22.4494 3.5337 0.8760
-20.7611 -22.3671 3.2770 0.8845
-17.5477 -21.8640 3.0104 0.8933
-16.6750 -22.3784 2.9968 0.8938
-12.8740 -21.8428 2.7226 0.9030
-11.1150 -22.3939 2.6846 0.9043
-8.2515 -22.4018 2.5635 0.9084
-7.3661 -22.4543 2.5376 0.9093
-6.4832 -22.4567 2.5099 0.9103
-5.6045 -22.4042 2.4799 0.9113
-3.0971 -22.4112 2.4294 0.9130
-2.2937 -22.5448 2.4334 0.9129
-1.4780 -22.5471 2.4263 0.9131
0.9573 -22.5980 2.4288 0.9130
32.6310 -36.8273 5.2836 0.8204
32.9584 -29.9697 4.7835 0.8359
33.0058 -27.9139 4.6418 0.8404
35.2272 14.9712 3.2402 0.8576
30.6551 14.3493 2.8653 0.8730
27.0305 16.4091 2.6768 0.8808
26.9175 17.6943 2.7269 0.8787
28.3494 27.0089 3.3146 0.8545
3.0771 24.1205 2.0584 0.9070
1.2575 22.8307 1.9356 0.9123
-0.7169 13.5712 1.1504 0.9469
-1.2072 13.5726 1.1535 0.9468
-1.7014 13.5798 1.1586 0.9465
-2.7245 13.6856 1.1813 0.9455
-3.2440 13.7043 1.1922 0.9450
-3.7722 13.7167 1.2043 0.9445
-4.3200 13.7555 1.2205 0.9438
-6.0461 15.3075 1.3932 0.9361
-6.7037 13.9477 1.3100 0.9398
-7.3327 13.9494 1.3341 0.9387
-9.9548 14.8112 1.5107 0.9309
-10.9926 14.0582 1.5107 0.9309
-11.9736 13.2326 1.5107 0.9309
-12.7495 13.1108 1.5481 0.9292
-16.1062 15.4139 1.8872 0.9144
-17.5134 15.5946 1.9851 0.9102
-19.0074 15.7377 2.0890 0.9057
-20.4667 15.7418 2.1858 0.9015
-21.9837 15.6846 2.2861 0.8973
-23.0532 14.0657 2.2861 0.8973
-27.9838 -22.3470 3.0316 0.8661
-22.5297 -22.3622 2.6872 0.8804
-20.9705 -22.3665 2.5954 0.8842
-19.6653 -22.5457 2.5326 0.8868
-17.7284 -21.8635 2.3828 0.8932
-14.2504 -22.0605 2.2232 0.8999
-13.1277 -22.0198 2.1702 0.9022
-12.3527 -22.5219 2.1745 0.9020
-11.2553 -22.3935 2.1216 0.9043
-10.2661 -22.3962 2.0856 0.9058
-9.3087 -22.3989 2.0534 0.9072
-8.3793 -22.4015 2.0247 0.9085
-6.5892 -22.4015 1.9767 0.9105
-5.7240 -22.4039 1.9575 0.9114
-1.5824 -22.4154 1.9022 0.9137
0.0311 -22.4199 1.8979 0.9139
33.0768 -30.3821 3.8020 0.8350
37.8233 -25.8336 3.8774 0.8320
32.6594 -4.3398 2.7890 0.8761
48.0473 12.9439 4.2123 0.8189
28.3175 14.6974 2.7008 0.8798
35.2265 19.9213 3.4258 0.8501
29.6522 24.6903 3.2664 0.8565
27.8721 24.9572 3.1671 0.8605
28.3401 27.2728 3.3295 0.8539
1.9667 22.8287 1.9397 0.9121
0.1909 13.5687 1.1487 0.9470
-0.2967 13.5700 1.1490 0.9470
-0.7852 13.5714 1.1508 0.9469
-1.7714 13.5855 1.1598 0.9465
-2.2790 13.6365 1.1704 0.9460
-2.7977 13.6940 1.1832 0.9454
-3.8469 13.7189 1.2061 0.9444
-4.3983 13.7627 1.2231 0.9436
-4.9700 13.8185 1.2431 0.9428
-6.0467 15.0869 1.3759 0.9368
-6.1799 13.9462 1.2913 0.9406
-6.7902 13.9479 1.3132 0.9396
-7.4224 13.9497 1.3376 0.9385
-9.4923 15.1118 1.5107 0.9309
-10.0290 14.7610 1.5107 0.9309
-11.0630 14.0028 1.5107 0.9309
-12.0399 13.1723 1.5107 0.9309
-22.0622 15.5741 2.2861 0.8973
-22.6074 14.7715 2.2861 0.8973
-23.1698 13.9777 2.2907 0.8971
-33.4286 -23.2160 3.4453 0.8493
-27.6986 -22.3478 3.0128 0.8669
-24.1513 -22.5333 2.7961 0.8758
-17.5477 -21.8640 2.3732 0.8936
-16.2506 -21.8090 2.3024 0.8966
-15.0644 -21.8107 2.2439 0.8991
-12.2301 -22.5664 2.1728 0.9021
-10.1305 -22.3966 2.0809 0.9060
-8.2515 -22.4018 2.0209 0.9086
-3.0971 -22.4112 1.9152 0.9132
-2.2804 -22.4134 1.9072 0.9135
-1.4694 -22.4157 1.9016 0.9138
-0.6621 -22.4179 1.8986 0.9139
0.1436 -22.4202 1.8980 0.9139
0.9499 -22.4224 1.8998 0.9138
1.7588 -22.4247 1.9041 0.9137
2.1870 -4.2680 0.4060 0.9809
32.7953 -37.0127 4.1862 0.8199
32.6117 -31.8685 3.8600 0.8327
32.6291 -25.6427 3.5131 0.8465
34.6698 13.2851 2.3023 0.8617
34.6254 14.7155 2.3330 0.8600
34.5756 16.1845 2.3673 0.8581
29.0811 14.9089 2.0265 0.8772
35.0540 21.2798 2.5429 0.8484
34.7743 24.6925 2.6447 0.8429
30.2770 26.8379 2.5089 0.8503
3.0830 24.1660 1.5107 0.9070
1.2575 22.8307 1.4179 0.9124
-0.7169 13.5712 0.8427 0.9470
-1.2072 13.5726 0.8450 0.9469
-2.1988 13.5753 0.8528 0.9464
-2.7028 13.5767 0.8584 0.9460
-3.2142 13.5781 0.8653 0.9456
-4.8083 13.5826 0.8935 0.9439
-5.3654 13.5841 0.9057 0.9431
-6.7037 13.9477 0.9596 0.9399
-10.1499 17.7313 1.2669 0.9214
-11.9207 17.7362 1.3252 0.9179
-13.2116 15.6993 1.2724 0.9211
-13.2146 14.6040 1.2213 0.9241
-16.6020 15.8884 1.4250 0.9120
-15.9278 14.1826 1.3225 0.9181
-17.3761 14.3871 1.3989 0.9136
-30.2149 -4.1002 1.8908 0.8850
-27.9838 -22.3470 2.2207 0.8663
-24.2054 -22.3575 2.0433 0.8763
-20.9706 -22.3665 1.9012 0.8844
-14.8731 -19.7525 1.5333 0.9057
-15.2202 -21.8014 1.6488 0.8989
-12.2807 -22.3906 1.5836 0.9027
-11.2553 -22.3935 1.5542 0.9044
-10.2661 -22.3962 1.5278 0.9060
-8.3793 -22.4015 1.4831 0.9086
-3.2004 -22.3317 1.3989 0.9136
-2.3941 -22.4131 1.3978 0.9136
0.0311 -22.4199 1.3903 0.9141
1.6455 -22.4243 1.3943 0.9138
2.3135 -4.1906 0.2969 0.9810
32.6003 -37.1667 3.0657 0.8203
32.6141 -32.1925 2.8417 0.8322
32.7486 -30.0807 2.7574 0.8368
32.6283 -25.9081 2.5836 0.8462
34.7802 -25.6348 2.6793 0.8410
41.9316 12.9289 2.7210 0.8387
36.4161 12.6779 2.3911 0.8568
34.6640 13.4828 2.3064 0.8615
34.6188 14.9183 2.3376 0.8598
35.0411 16.6173 2.4049 0.8561
29.0180 15.0610 2.0273 0.8772
28.3588 16.0375 2.0203 0.8776
35.0547 21.5218 2.5507 0.8480
31.7431 24.5553 2.4886 0.8514
2.7957 22.8264 1.4261 0.9120
1.9667 22.8287 1.4209 0.9123
-0.2967 13.5700 0.8417 0.9471
-1.7699 13.5741 0.8489 0.9466
-2.2688 13.5755 0.8535 0.9463
-2.7737 13.5769 0.8593 0.9460
-3.8079 13.5798 0.8746 0.9450
-4.8852 13.5828 0.8951 0.9438
-6.1799 13.9462 0.9459 0.9407
-11.1394 17.7340 1.2986 0.9195
-12.0507 17.7365 1.3297 0.9177
-13.2087 16.7187 1.3213 0.9182
-13.2120 15.5408 1.2649 0.9215
-17.6012 14.4251 1.4112 0.9128
-25.7542 -22.3532 2.1147 0.8723
-23.9637 -22.3582 2.0323 0.8769
-20.7611 -22.3671 1.8924 0.8849
-13.1378 -22.2904 1.6045 0.9015
-12.1351 -22.3910 1.5793 0.9030
-11.1150 -22.3939 1.5503 0.9047
-10.1305 -22.3966 1.5243 0.9062
-8.2515 -22.4018 1.4804 0.9088
-6.4673 -22.4018 1.4459 0.9108
-5.6045 -22.4042 1.4321 0.9116
-4.7489 -22.3692 1.4180 0.9124
-3.9153 -22.3715 1.4084 0.9130
-3.0923 -22.3767 1.4008 0.9134
-2.2804 -22.4134 1.3970 0.9137
-1.4694 -22.4157 1.3930 0.9139
-0.6621 -22.4179 1.3907 0.9140
0.1436 -22.4202 1.3903 0.9141
0.9499 -22.4224 1.3917 0.9140
1.7588 -22.4247 1.3948 0.9138
2.1869 -4.2679 0.2974 0.9810
32.7953 -37.0127 3.0665 0.8202
32.6117 -31.8685 2.8275 0.8330
32.8588 -29.8792 2.7540 0.8369
32.6291 -25.6427 2.5734 0.8468
43.4489 13.1583 1.7901 0.8338
35.0363 14.8901 1.5011 0.8586
35.0405 16.4021 1.5256 0.8565
35.1805 19.6629 1.5892 0.8510
35.0641 24.8983 1.6957 0.8419
35.0695 26.8481 1.7415 0.8379
2.0821 22.8284 0.9039 0.9123
-0.2672 15.8651 0.6257 0.9385
-2.5707 15.8715 0.6340 0.9377
-3.7578 15.8748 0.6433 0.9368
-4.3661 15.8765 0.6493 0.9362
-4.9867 15.8782 0.6562 0.9355
-6.0461 15.3075 0.6490 0.9362
-6.0962 13.9460 0.6001 0.9409
-11.9207 17.7362 0.8426 0.9180
-12.7794 17.6124 0.8580 0.9166
-13.2146 14.6040 0.7766 0.9242
-13.5768 13.9616 0.7679 0.9250
-17.6285 13.5588 0.8769 0.9148
-19.0095 13.5626 0.9208 0.9108
-27.9838 -22.3470 1.4121 0.8664
-24.3473 -22.4886 1.3069 0.8757
-20.9706 -22.3665 1.2089 0.8845
-13.9599 -19.9962 0.9616 0.9070
-12.3527 -22.5219 1.0129 0.9023
-11.2553 -22.3935 0.9883 0.9045
-9.3315 -22.4538 0.9588 0.9072
-8.3793 -22.4015 0.9431 0.9087
-6.6054 -22.4564 0.9230 0.9106
-5.7240 -22.4039 0.9118 0.9116
-4.8814 -22.4383 0.9055 0.9122
-4.0566 -22.5128 0.9020 0.9125
-3.2004 -22.3317 0.8896 0.9136
-2.3941 -22.4131 0.8888 0.9137
-0.7748 -22.4176 0.8845 0.9141
0.8437 -22.5977 0.8917 0.9135
1.6455 -22.4243 0.8866 0.9139
6.8903 -47.1475 1.8789 0.8263
2.3135 -4.1905 0.1888 0.9810
32.6003 -37.1667 1.9494 0.8204
33.9599 -36.0199 1.9520 0.8202
32.6141 -32.1925 1.8070 0.8324
32.8885 -30.2092 1.7609 0.8363
32.6283 -25.9081 1.6428 0.8464
37.6785 -25.7347 1.7992 0.8331
40.7507 -25.7362 1.9005 0.8245
32.6502 -4.3386 1.2986 0.8765
37.8407 13.1739 1.5799 0.8518
35.0328 13.6262 1.4822 0.8603
35.0369 15.0984 1.5044 0.8584
35.0411 16.6173 1.5292 0.8562
35.1766 18.2574 1.5627 0.8533
35.0648 25.1645 1.7018 0.8413
35.0703 27.1290 1.7483 0.8374
35.5049 31.7917 1.8792 0.8263
2.7957 22.8264 0.9068 0.9121
1.9667 22.8287 0.9035 0.9124
0.7938 15.8622 0.6262 0.9384
0.2232 15.8637 0.6256 0.9385
-0.9180 15.8669 0.6267 0.9384
-2.0693 15.8701 0.6311 0.9379
-3.8421 15.8750 0.6440 0.9367
-4.4520 15.8767 0.6502 0.9361
-6.0467 15.0869 0.6409 0.9370
-6.1799 13.9462 0.6015 0.9408
-7.4224 13.9497 0.6231 0.9387
-12.0507 17.7365 0.8455 0.9177
-12.9261 14.1418 0.7555 0.9262
-13.7143 13.9620 0.7717 0.9246
-16.7702 15.8888 0.9109 0.9117
-15.3749 13.5526 0.8082 0.9212
-19.2136 13.5632 0.9274 0.9101
-33.4237 -23.2126 1.6046 0.8497
-27.6986 -22.3478 1.4033 0.8672
-24.1042 -22.4893 1.2999 0.8764
-22.3600 -22.4176 1.2485 0.8810
-20.7611 -22.3671 1.2033 0.8850
-16.3358 -18.9194 0.9856 0.9048
-15.1870 -18.9226 0.9567 0.9074
-14.1022 -18.9256 0.9306 0.9098
-13.9605 -20.2125 0.9686 0.9063
-11.1150 -22.3939 0.9858 0.9048
-9.1998 -22.4542 0.9568 0.9074
-4.7790 -22.5108 0.9074 0.9120
-3.0923 -22.3767 0.8907 0.9135
-2.2982 -22.5890 0.8953 0.9131
-1.4780 -22.5471 0.8910 0.9135
-0.6621 -22.4179 0.8843 0.9141
0.1445 -22.5516 0.8893 0.9137
1.7588 -22.4247 0.8869 0.9139
32.9894 -29.9979 1.7582 0.8365
32.6291 -25.6427 1.6364 0.8469
39.1692 13.4163 0.6994 0.8474
35.1323 13.4623 0.6355 0.8603
36.0472 15.3197 0.6616 0.8550
35.8834 16.7967 0.6693 0.8534
35.1450 18.0176 0.6671 0.8538
35.3808 19.7748 0.6847 0.8503
35.1852 21.3595 0.6953 0.8482
35.1953 24.9915 0.7291 0.8414
30.1950 26.7652 0.6816 0.8509
2.0821 22.8284 0.3872 0.9124
0.7011 12.7284 0.2153 0.9503
-0.2672 15.8651 0.2680 0.9385
-0.8381 15.8667 0.2684 0.9384
-1.5335 12.2394 0.2084 0.9519
-3.7578 15.8748 0.2756 0.9368
-4.3661 15.8765 0.2781 0.9362
-3.8656 12.3084 0.2179 0.9497
-4.3530 12.2965 0.2203 0.9492
-5.9236 12.3247 0.2310 0.9468
-6.4890 12.3445 0.2356 0.9457
-8.4174 12.5238 0.2549 0.9414
-12.7794 17.6124 0.3676 0.9166
-13.2083 16.8917 0.3622 0.9178
-10.2894 12.2269 0.2699 0.9381
-13.2146 14.6040 0.3327 0.9242
-13.5768 13.9616 0.3290 0.9250
-16.6020 15.8884 0.3882 0.9122
-19.1979 15.8956 0.4210 0.9051
-20.6720 15.8997 0.4405 0.9009
-33.2605 23.7302 0.6902 0.8492
-20.9706 -22.3665 0.5179 0.8846
-15.7474 -22.5566 0.4647 0.8958
-14.2504 -22.0605 0.4436 0.9003
-11.2553 -22.3935 0.4234 0.9046
-10.2661 -22.3962 0.4162 0.9061
-9.3315 -22.4538 0.4107 0.9073
-7.4727 -22.3990 0.3989 0.9099
-3.2004 -22.3317 0.3811 0.9137
-2.3941 -22.4131 0.3808 0.9138
-1.5948 -22.5909 0.3826 0.9134
0.0311 -22.4199 0.3787 0.9142
0.8437 -22.5977 0.3820 0.9135
1.6455 -22.4243 0.3798 0.9140
32.6003 -37.1667 0.8351 0.8205
32.6141 -32.1925 0.7741 0.8325
32.8854 -30.2063 0.7543 0.8364
32.6283 -25.9081 0.7038 0.8465
40.7456 -25.7330 0.8140 0.8247
32.6498 -4.3385 0.5563 0.8765
38.5421 13.4181 0.6894 0.8494
36.0478 15.5341 0.6630 0.8547
35.7521 16.9545 0.6684 0.8536
35.2439 19.9311 0.6839 0.8505
35.1960 25.2587 0.7318 0.8409
2.7957 22.8264 0.3885 0.9121
1.0844 12.5877 0.2134 0.9507
0.1770 12.5771 0.2125 0.9509
-1.4917 15.8685 0.2692 0.9382
-1.6085 12.3362 0.2101 0.9514
-2.6525 15.8717 0.2718 0.9377
-3.2429 15.8734 0.2737 0.9372
-3.8421 15.8750 0.2759 0.9367
-4.4520 15.8767 0.2785 0.9362
-6.0467 15.0869 0.2746 0.9370
-6.5416 12.2943 0.2352 0.9458
-11.1394 17.7340 0.3538 0.9196
-9.8729 12.4964 0.2690 0.9383
-12.1400 12.3593 0.2926 0.9330
-16.7702 15.8888 0.3902 0.9117
-18.0293 15.8923 0.4060 0.9083
-27.6986 -22.3478 0.6012 0.8673
-24.1513 -22.5333 0.5579 0.8762
-22.3600 -22.4176 0.5348 0.8810
-19.4294 -22.5023 0.5022 0.8879
-15.5799 -22.5571 0.4631 0.8961
-11.1150 -22.3939 0.4223 0.9048
-10.1305 -22.3966 0.4152 0.9063
-7.3814 -22.5007 0.4000 0.9096
-1.4780 -22.5471 0.3817 0.9136
-0.6621 -22.4179 0.3788 0.9142
0.1444 -22.5516 0.3809 0.9137
1.7588 -22.4247 0.3800 0.9139
2.1869 -4.2679 0.0810 0.9810
32.6117 -31.8685 0.7702 0.8333
32.9915 -29.9999 0.7532 0.8366
32.6290 -25.6427 0.7010 0.8470
44.2668 13.4060 -0.2604 0.8311
35.1323 13.4623 -0.2118 0.8603
36.0119 15.3047 -0.2203 0.8551
35.8834 16.7967 -0.2231 0.8534
34.1302 19.0759 -0.2201 0.8552
34.4716 20.9263 -0.2270 0.8510
35.1901 23.1323 -0.2371 0.8450
35.2007 26.9486 -0.2496 0.8375
1.6484 12.9209 -0.0733 0.9492
0.6862 12.4591 -0.0703 0.9513
-1.5268 12.1859 -0.0691 0.9521
-2.3756 11.9333 -0.0685 0.9525
-2.9098 12.2923 -0.0711 0.9507
-4.2796 12.0892 -0.0722 0.9500
-5.3382 12.2120 -0.0750 0.9481
-5.8458 12.1628 -0.0760 0.9475
-8.2266 12.2399 -0.0830 0.9427
-9.4479 12.0827 -0.0864 0.9405
-10.2175 12.1414 -0.0893 0.9385
-10.8520 11.9930 -0.0911 0.9374
-14.4127 11.9334 -0.1054 0.9279
-16.6603 11.8866 -0.1152 0.9214
-19.7742 12.0650 -0.1304 0.9115
-21.5129 12.0874 -0.1389 0.9060
-23.6030 12.1675 -0.1495 0.8992
-30.1831 -4.0959 -0.1715 0.8853
-26.0160 -22.3525 -0.1931 0.8718
-24.3950 -22.5326 -0.1870 0.8756
-20.9706 -22.3665 -0.1726 0.8846
-19.6653 -22.5457 -0.1684 0.8872
-17.7290 -21.8642 -0.1585 0.8935
-16.6774 -22.1487 -0.1561 0.8950
-14.2504 -22.0605 -0.1479 0.9003
-10.2661 -22.3962 -0.1387 0.9062
-9.3816 -22.5743 -0.1376 0.9068
-8.3793 -22.4015 -0.1347 0.9088
-7.4727 -22.3990 -0.1329 0.9099
-6.6408 -22.5769 -0.1325 0.9102
-4.0566 -22.5128 -0.1288 0.9126
-3.2004 -22.3317 -0.1270 0.9137
-2.3941 -22.4131 -0.1269 0.9138
-0.7748 -22.4176 -0.1263 0.9142
0.0311 -22.4199 -0.1262 0.9142
0.8437 -22.5977 -0.1273 0.9135
6.8889 -47.1380 -0.2682 0.8265
32.6141 -32.1925 -0.2580 0.8325
32.6283 -25.9081 -0.2346 0.8465
40.7405 -25.7298 -0.2713 0.8247
43.4859 13.4082 -0.2562 0.8336
36.0125 15.5189 -0.2208 0.8548
35.7521 16.9545 -0.2228 0.8536
34.1823 17.7413 -0.2168 0.8572
34.1288 19.3005 -0.2207 0.8548
35.2015 27.2306 -0.2506 0.8369
30.0785 26.9328 -0.2273 0.8509
3.1710 13.5635 -0.0784 0.9458
1.0812 12.5507 -0.0709 0.9509
0.6082 12.1541 -0.0685 0.9525
-0.2628 12.0207 -0.0677 0.9530
-1.1496 12.2293 -0.0692 0.9521
-1.5857 12.1610 -0.0690 0.9521
-1.9780 11.8353 -0.0676 0.9531
-2.4413 11.9497 -0.0687 0.9524
-2.9552 12.2105 -0.0707 0.9510
-3.3981 12.1183 -0.0709 0.9509
-3.9192 12.2636 -0.0725 0.9498
-4.3901 12.2061 -0.0730 0.9494
-5.3423 12.0561 -0.0742 0.9486
-6.4738 12.1668 -0.0776 0.9464
-8.2770 12.1824 -0.0829 0.9428
-9.5368 12.0710 -0.0866 0.9403
-10.2897 12.1034 -0.0894 0.9384
-11.0476 12.0867 -0.0922 0.9366
-13.7921 12.1573 -0.1035 0.9291
-15.9463 12.1380 -0.1128 0.9230
-19.7751 11.9298 -0.1300 0.9118
-21.6990 12.0490 -0.1397 0.9055
-25.8639 12.0193 -0.1606 0.8922
-33.4136 -23.2056 -0.2290 0.8498
-22.3762 -22.4339 -0.1784 0.8810
-19.4294 -22.5023 -0.1674 0.8879
-15.5799 -22.5571 -0.1543 0.8961
-10.1305 -22.3966 -0.1384 0.9064
-9.2491 -22.5747 -0.1374 0.9070
-8.2515 -22.4018 -0.1344 0.9089
-7.3814 -22.5007 -0.1333 0.9096
-4.7790 -22.5108 -0.1296 0.9121
-2.2982 -22.5890 -0.1278 0.9132
-1.4780 -22.5471 -0.1272 0.9136
-0.6621 -22.4179 -0.1263 0.9142
0.1445 -22.5516 -0.1270 0.9137
1.7588 -22.4247 -0.1266 0.9140
2.1869 -4.2678 -0.0270 0.9810
32.6117 -31.8685 -0.2567 0.8333
32.9936 -30.0018 -0.2511 0.8366
32.6291 -25.6427 -0.2337 0.8470
41.1109 -2.6867 -1.1601 0.8480
43.4488 13.1583 -1.2783 0.8339
38.4452 13.1683 -1.1443 0.8499
35.0822 13.4431 -1.0579 0.8604
35.8366 16.7748 -1.1142 0.8536
35.0486 17.9682 -1.1090 0.8542
33.6579 20.4323 -1.1087 0.8542
30.2729 26.8343 -1.1391 0.8505
4.0736 14.6836 -0.4291 0.9408
2.7012 13.4110 -0.3852 0.9467
1.6378 12.8382 -0.3644 0.9495
1.1357 12.4515 -0.3521 0.9512
0.6737 12.2308 -0.3449 0.9522
-0.2029 12.0470 -0.3393 0.9529
-1.4974 11.9517 -0.3392 0.9529
-1.9277 11.9019 -0.3395 0.9529
-2.8380 11.9892 -0.3469 0.9519
-3.2481 11.8110 -0.3449 0.9522
-4.2181 11.9156 -0.3559 0.9507
-4.6688 11.8206 -0.3579 0.9504
-6.7685 11.8241 -0.3836 0.9469
-7.4253 11.9540 -0.3962 0.9452
-8.5941 11.8443 -0.4121 0.9431
-9.2680 11.8526 -0.4237 0.9416
-10.8581 11.9998 -0.4557 0.9373
-15.5696 11.9752 -0.5531 0.9244
-19.4746 11.8822 -0.6424 0.9128
-23.3030 12.0129 -0.7382 0.9004
-25.2457 11.8865 -0.7857 0.8943
-27.9594 -22.3274 -1.0075 0.8666
-25.9590 -22.3035 -0.9637 0.8720
-24.1241 -22.2824 -0.9247 0.8769
-22.4305 -22.2637 -0.8899 0.8812
-20.8587 -22.2471 -0.8587 0.8851
-19.3920 -22.2324 -0.8307 0.8886
-16.6774 -22.1487 -0.7807 0.8950
-15.7474 -22.5566 -0.7746 0.8958
-14.2504 -22.0605 -0.7395 0.9002
-12.1887 -22.2229 -0.7137 0.9035
-11.1735 -22.2308 -0.7006 0.9052
-10.2022 -22.2569 -0.6894 0.9067
-9.2595 -22.2805 -0.6794 0.9080
-8.3420 -22.3018 -0.6705 0.9091
-7.4450 -22.3161 -0.6624 0.9102
-6.5691 -22.3331 -0.6555 0.9111
-5.7098 -22.3480 -0.6495 0.9118
-4.8814 -22.4383 -0.6466 0.9122
-4.0566 -22.5128 -0.6441 0.9125
-3.2049 -22.3631 -0.6361 0.9136
-2.3915 -22.3897 -0.6340 0.9138
-1.5810 -22.3958 -0.6322 0.9141
-0.7742 -22.4003 -0.6311 0.9142
6.8779 -47.0626 -1.3393 0.8267
32.1840 -31.7680 -1.2733 0.8345
37.5784 -25.6663 -1.2814 0.8335
39.0213 -24.6440 -1.2996 0.8314
44.4109 -2.6786 -1.2528 0.8369
45.2435 8.7616 -1.2976 0.8316
35.9084 12.5012 -1.0706 0.8589
35.0828 13.6457 -1.0599 0.8602
36.0478 15.5341 -1.1053 0.8546
34.0785 17.6874 -1.0811 0.8576
33.4618 18.9233 -1.0824 0.8574
33.6585 20.6646 -1.1121 0.8538
34.3967 22.8589 -1.1629 0.8477
34.9801 27.0593 -1.2453 0.8378
3.1050 13.2809 -0.3840 0.9469
2.5730 13.1148 -0.3763 0.9479
0.6136 12.2614 -0.3457 0.9521
0.1680 11.9416 -0.3363 0.9533
-0.2625 12.0029 -0.3381 0.9531
-0.6941 11.9956 -0.3383 0.9531
-1.5544 11.9207 -0.3385 0.9530
-1.9686 11.7791 -0.3363 0.9533
-2.9116 12.0303 -0.3485 0.9517
-5.2560 11.8611 -0.3653 0.9494
-5.8141 11.9429 -0.3740 0.9482
-6.3152 11.8688 -0.3786 0.9476
-6.8184 11.7738 -0.3831 0.9470
-8.0993 11.9209 -0.4058 0.9440
-8.6631 11.8141 -0.4125 0.9431
-10.1174 11.9007 -0.4398 0.9394
-12.5357 11.8769 -0.4862 0.9332
-13.4800 11.8823 -0.5060 0.9306
-14.5863 11.9543 -0.5310 0.9273
-18.2758 11.9412 -0.6147 0.9163
-21.2862 11.8198 -0.6856 0.9072
-25.6495 11.9197 -0.7964 0.8930
-25.6934 -22.3004 -0.9580 0.8727
-23.8795 -22.2797 -0.9196 0.8775
-20.6478 -22.2450 -0.8546 0.8856
-17.5477 -21.8640 -0.7894 0.8939
-14.0942 -22.0609 -0.7371 0.9005
-6.4481 -22.3353 -0.6546 0.9112
-5.5909 -22.3500 -0.6487 0.9119
-3.9157 -22.3738 -0.6396 0.9131
-2.2780 -22.3906 -0.6337 0.9139
-0.6616 -22.4007 -0.6310 0.9142
0.1435 -22.4034 -0.6308 0.9143
0.9491 -22.4044 -0.6314 0.9142
1.7572 -22.4038 -0.6328 0.9140
32.3691 -31.6314 -1.2744 0.8343
32.6290 -25.6427 -1.1685 0.8470
34.0741 -3.4599 -1.7369 0.8718
36.6599 -2.3959 -1.8631 0.8632
39.4665 0.2607 -2.0016 0.8538
39.3460 3.0938 -2.0016 0.8538
39.2094 4.5053 -2.0016 0.8538
39.0223 5.9110 -2.0016 0.8538
38.7847 7.3091 -2.0016 0.8538
36.5185 8.2507 -1.8987 0.8608
33.1269 8.7463 -1.7376 0.8718
34.0519 13.0483 -1.8494 0.8641
33.0271 15.4596 -1.8494 0.8641
32.4504 16.6362 -1.8494 0.8641
30.4721 20.0309 -1.8494 0.8641
28.9552 22.1672 -1.8494 0.8641
28.1402 23.1931 -1.8494 0.8641
27.2680 25.9787 -1.9100 0.8600
27.2661 27.9130 -1.9789 0.8553
24.3809 31.0362 -2.0016 0.8538
23.2502 31.8920 -2.0016 0.8538
19.6840 34.2084 -2.0016 0.8538
18.4424 34.8935 -2.0016 0.8538
15.8893 36.1276 -2.0016 0.8538
13.2542 37.1753 -2.0016 0.8538
3.1867 13.3282 -0.6950 0.9466
1.1352 12.4466 -0.6338 0.9512
0.6760 12.2731 -0.6234 0.9520
0.2265 11.8616 -0.6017 0.9536
-0.6433 12.1788 -0.6185 0.9523
-1.0503 11.8089 -0.6012 0.9536
-2.8523 12.0495 -0.6280 0.9516
-3.2395 11.7797 -0.6196 0.9522
-3.7192 11.8423 -0.6295 0.9515
-4.6836 11.8580 -0.6466 0.9502
-5.1511 11.7839 -0.6522 0.9498
-6.2963 11.9778 -0.6863 0.9472
-6.7956 11.8716 -0.6937 0.9467
-8.5839 11.8302 -0.7413 0.9431
-9.2398 11.8166 -0.7607 0.9417
-10.0334 11.9227 -0.7903 0.9395
-10.8911 12.0362 -0.8232 0.9371
-16.4897 11.7648 -1.0273 0.9221
-19.5550 11.9313 -1.1617 0.9123
-24.5738 11.5701 -1.3775 0.8969
-33.5290 14.3386 -1.8494 0.8641
-36.8225 14.2050 -2.0016 0.8538
-37.3090 12.8729 -2.0016 0.8538
-37.7474 11.5243 -2.0016 0.8538
-38.4775 8.7842 -2.0016 0.8538
-39.0089 5.9987 -2.0016 0.8538
-39.1992 4.5934 -2.0016 0.8538
-39.4278 1.7670 -2.0016 0.8538
-39.4659 0.3494 -2.0016 0.8538
-39.4529 -1.0687 -2.0016 0.8538
-39.3891 -2.4853 -2.0016 0.8538
-39.2743 -3.8988 -2.0016 0.8538
-38.6269 -8.1016 -2.0016 0.8538
-38.3109 -9.4841 -2.0016 0.8538
-37.9455 -10.8543 -2.0016 0.8538
-37.0682 -13.5509 -2.0016 0.8538
-35.9995 -16.1775 -2.0016 0.8538
-34.7450 -18.7206 -2.0016 0.8538
-34.0500 -19.9568 -2.0016 0.8538
-29.2944 -21.7170 -1.8494 0.8641
-27.9838 -22.3470 -1.8162 0.8664
-26.0160 -22.3525 -1.7395 0.8716
-22.5297 -22.3622 -1.6099 0.8806
-15.7474 -22.5566 -1.3951 0.8957
-14.2070 -21.9933 -1.3278 0.9004
-13.1730 -22.0958 -1.3046 0.9021
-7.4727 -22.3990 -1.1975 0.9098
-6.5892 -22.4015 -1.1842 0.9107
-3.2049 -22.3631 -1.1457 0.9135
-1.5824 -22.4154 -1.1396 0.9139
-0.7748 -22.4176 -1.1376 0.9141
0.0311 -22.4199 -1.1370 0.9141
0.8044 -21.5441 -1.0934 0.9173
3.9736 -36.2491 -1.8494 0.8641
6.5662 -35.8702 -1.8494 0.8641
6.9923 -27.0547 -1.4171 0.8941
11.2422 -37.8324 -2.0016 0.8538
13.9296 -36.9275 -2.0016 0.8538
15.2473 -36.4033 -2.0016 0.8538
16.5452 -35.8320 -2.0016 0.8538
21.5071 -33.0926 -2.0016 0.8538
22.6820 -32.2986 -2.0016 0.8538
23.8277 -31.4630 -2.0016 0.8538
24.9426 -30.5866 -2.0016 0.8538
26.0253 -29.6708 -2.0016 0.8538
26.9935 -24.7945 -1.8588 0.8635
28.5582 -22.6763 -1.8494 0.8641
30.8322 -19.4721 -1.8494 0.8641
31.5118 -18.3519 -1.8494 0.8641
33.4185 -16.3702 -1.8872 0.8615
36.5985 -14.7724 -2.0016 0.8538
37.1056 -13.4481 -2.0016 0.8538
38.3371 -9.3778 -2.0016 0.8538
38.6492 -7.9945 -2.0016 0.8538
38.9115 -6.6009 -2.0016 0.8538
37.1087 -2.2382 -1.8854 0.8617
39.4557 -0.9593 -2.0016 0.8538
39.4228 1.8762 -2.0016 0.8538
39.1863 4.7021 -2.0016 0.8538
38.9921 6.1068 -2.0016 0.8538
38.7475 7.5037 -2.0016 0.8538
35.7159 8.2580 -1.8591 0.8634
32.7531 8.8237 -1.7203 0.8730
32.9491 15.6252 -1.8494 0.8641
29.9816 16.9552 -1.7468 0.8711
29.5868 18.1648 -1.7607 0.8702
30.3712 20.1837 -1.8494 0.8641
29.6265 21.2617 -1.8494 0.8641
28.0234 23.3341 -1.8494 0.8641
27.2697 24.4177 -1.8564 0.8636
25.3285 30.2678 -2.0016 0.8538
24.2248 31.1582 -2.0016 0.8538
21.9251 32.8172 -2.0016 0.8538
14.3969 36.7479 -2.0016 0.8538
13.0675 37.2413 -2.0016 0.8538
11.7211 37.6868 -2.0016 0.8538
3.6612 13.4591 -0.7074 0.9457
3.1415 13.4372 -0.6998 0.9462
2.5607 13.0521 -0.6745 0.9481
1.5495 12.6514 -0.6464 0.9502
-0.2617 11.9662 -0.6070 0.9532
-0.7048 12.1809 -0.6188 0.9523
-1.1190 11.9043 -0.6064 0.9532
-1.5404 11.8134 -0.6042 0.9534
-2.0096 12.0247 -0.6183 0.9523
-2.4126 11.8092 -0.6113 0.9529
-2.9109 12.0272 -0.6276 0.9516
-4.2617 11.8493 -0.6386 0.9508
-5.2741 11.9021 -0.6602 0.9492
-5.7872 11.8877 -0.6705 0.9484
-6.3233 11.8840 -0.6827 0.9475
-6.8622 11.8495 -0.6944 0.9466
-7.3890 11.7634 -0.7045 0.9459
-8.0599 11.8628 -0.7273 0.9442
-9.3682 11.8577 -0.7664 0.9413
-10.9371 11.9658 -0.8221 0.9371
-11.7984 12.0116 -0.8539 0.9348
-12.5319 11.8733 -0.8755 0.9332
-13.4771 11.8797 -0.9111 0.9306
-14.4850 11.8712 -0.9498 0.9277
-16.7903 11.8526 -1.0423 0.9210
-18.2325 11.9129 -1.1045 0.9165
-21.1610 11.7503 -1.2275 0.9076
-23.1062 11.7650 -1.3150 0.9014
-24.9019 11.5723 -1.3926 0.8959
-37.3732 12.6855 -2.0016 0.8538
-39.0385 5.8028 -2.0016 0.8538
-39.4362 1.5690 -2.0016 0.8538
-39.4671 0.1513 -2.0016 0.8538
-39.4471 -1.2667 -2.0016 0.8538
-39.3761 -2.6830 -2.0016 0.8538
-38.8589 -6.9039 -2.0016 0.8538
-38.5858 -8.2954 -2.0016 0.8538
-38.2628 -9.6763 -2.0016 0.8538
-36.9997 -13.7368 -2.0016 0.8538
-35.9179 -16.3580 -2.0016 0.8538
-34.6506 -18.8948 -2.0016 0.8538
-33.9494 -20.1274 -2.0016 0.8538
-29.9516 -20.8012 -1.8494 0.8641
-27.6986 -22.3478 -1.8049 0.8672
-25.7542 -22.3532 -1.7295 0.8723
-23.9636 -22.3582 -1.6621 0.8770
-19.3161 -22.3711 -1.4989 0.8884
-14.0513 -21.9937 -1.3236 0.9007
-9.1773 -22.3993 -1.2276 0.9076
-7.3481 -22.3993 -1.1955 0.9099
-6.4673 -22.4018 -1.1825 0.9108
-5.6045 -22.4042 -1.1712 0.9117
-3.9218 -22.4089 -1.1537 0.9129
-3.0971 -22.4112 -1.1474 0.9134
-2.2804 -22.4134 -1.1425 0.9137
0.9143 -21.5828 -1.0955 0.9171
4.1556 -36.2287 -1.8494 0.8641
6.7462 -35.8368 -1.8494 0.8641
10.0675 -38.1618 -2.0016 0.8538
11.4320 -37.7755 -2.0016 0.8538
15.4298 -36.3263 -2.0016 0.8538
19.2485 -34.4553 -2.0016 0.8538
20.4740 -33.7416 -2.0016 0.8538
21.6729 -32.9843 -2.0016 0.8538
25.0958 -30.4611 -2.0016 0.8538
26.1739 -29.5398 -2.0016 0.8538
26.9511 -28.2999 -1.9819 0.8551
26.9748 -26.3601 -1.9127 0.8598
27.0015 -24.5530 -1.8509 0.8640
27.1585 -2.7577 -2.0016 0.8963
27.2864 -0.8005 -2.0016 0.8963
27.2976 0.1803 -2.0016 0.8963
27.1197 3.1162 -2.0016 0.8963
26.9903 4.0884 -2.0016 0.8963
26.8260 5.0554 -2.0016 0.8963
26.6270 6.0159 -2.0016 0.8963
26.1264 7.9123 -2.0016 0.8963
25.4908 9.7678 -2.0016 0.8963
25.1234 10.6772 -2.0016 0.8963
24.7236 11.5729 -2.0016 0.8963
23.3350 14.1657 -2.0016 0.8963
22.2576 15.8047 -2.0016 0.8963
21.6755 16.5941 -2.0016 0.8963
20.4280 18.1076 -2.0016 0.8963
19.7643 18.8298 -2.0016 0.8963
19.0751 19.5277 -2.0016 0.8963
17.6237 20.8469 -2.0016 0.8963
16.8634 21.4666 -2.0016 0.8963
14.4560 23.1563 -2.0016 0.8963
12.7559 24.1346 -2.0016 0.8963
11.8807 24.5772 -2.0016 0.8963
10.9901 24.9882 -2.0016 0.8963
10.0853 25.3669 -2.0016 0.8963
7.6114 24.0465 -1.8494 0.9038
3.9086 14.0889 -1.0720 0.9430
2.6429 13.1219 -0.9814 0.9477
2.1176 12.8904 -0.9578 0.9490
0.6701 12.1658 -0.8934 0.9523
0.2314 12.1194 -0.8888 0.9525
-0.6429 12.1702 -0.8936 0.9523
-1.5209 12.1392 -0.8970 0.9521
-2.3895 12.0032 -0.8974 0.9521
-2.8447 12.0174 -0.9055 0.9517
-5.1583 11.8004 -0.9443 0.9497
-5.6662 11.7892 -0.9591 0.9489
-6.2039 11.8021 -0.9776 0.9479
-6.8686 11.9992 -1.0138 0.9461
-8.0030 11.9072 -1.0519 0.9441
-9.3073 11.9029 -1.1079 0.9412
-9.9231 11.7916 -1.1300 0.9401
-10.7654 11.8973 -1.1765 0.9377
-11.5579 11.8854 -1.2156 0.9357
-13.8893 11.5001 -1.3222 0.9302
-14.9610 11.5071 -1.3839 0.9271
-17.4445 11.5234 -1.5329 0.9196
-22.4168 11.5560 -1.8492 0.9038
-22.8196 10.7442 -1.8494 0.9038
-23.1908 9.9175 -1.8494 0.9038
-23.5321 9.0779 -1.8494 0.9038
-26.3780 7.0279 -2.0016 0.8963
-26.6135 6.0757 -2.0016 0.8963
-26.8145 5.1157 -2.0016 0.8963
-27.1127 3.1771 -2.0016 0.8963
-27.2971 0.2417 -2.0016 0.8963
-27.2882 -0.7392 -2.0016 0.8963
-27.2440 -1.7190 -2.0016 0.8963
-24.9577 -4.3050 -1.8570 0.9034
-25.0361 -5.2511 -1.8756 0.9025
-25.2855 -10.2877 -2.0016 0.8963
-24.8996 -11.1894 -2.0016 0.8963
-24.0319 -12.9484 -2.0016 0.8963
-23.5512 -13.8034 -2.0016 0.8963
-20.2654 -16.1833 -1.9016 0.9012
-19.1310 -16.4370 -1.8494 0.9038
-16.5793 -19.0077 -1.8494 0.9038
-15.1717 -20.1491 -1.8494 0.9038
-13.6858 -21.1865 -1.8494 0.9038
-12.1292 -22.1145 -1.8494 0.9038
-11.2553 -22.3935 -1.8377 0.9044
-10.2661 -22.3962 -1.8064 0.9059
-9.3087 -22.3989 -1.7785 0.9073
-5.7240 -22.4039 -1.6955 0.9114
-1.5824 -22.4154 -1.6476 0.9138
-0.7748 -22.4176 -1.6447 0.9140
0.0311 -22.4199 -1.6439 0.9140
2.7484 -25.0722 -1.8494 0.9038
3.6476 -24.9572 -1.8494 0.9038
4.5417 -24.8101 -1.8494 0.9038
5.4301 -24.6310 -1.8494 0.9038
12.3267 -24.3566 -2.0016 0.8963
14.8756 -22.8890 -2.0016 0.8963
17.2519 -21.1557 -2.0016 0.8963
18.0008 -20.5222 -2.0016 0.8963
18.7264 -19.8623 -2.0016 0.8963
19.4279 -19.1767 -2.0016 0.8963
20.1043 -18.4664 -2.0016 0.8963
20.7547 -17.7323 -2.0016 0.8963
21.9744 -16.1962 -2.0016 0.8963
22.5420 -15.3964 -2.0016 0.8963
23.0806 -14.5766 -2.0016 0.8963
24.0677 -12.8817 -2.0016 0.8963
24.9305 -11.1203 -2.0016 0.8963
25.9822 -8.3735 -2.0016 0.8963
26.7323 -5.5295 -2.0016 0.8963
26.9137 -4.5656 -2.0016 0.8963
27.1720 -2.6213 -2.0016 0.8963
27.2487 -1.6435 -2.0016 0.8963
27.2901 -0.6635 -2.0016 0.8963
27.2673 1.2977 -2.0016 0.8963
26.9694 4.2239 -2.0016 0.8963
25.7805 8.9752 -2.0016 0.8963
25.4414 9.8956 -2.0016 0.8963
25.0695 10.8032 -2.0016 0.8963
24.6652 11.6968 -2.0016 0.8963
23.2636 14.2827 -2.0016 0.8963
22.1780 15.9162 -2.0016 0.8963
21.5919 16.7027 -2.0016 0.8963
19.6696 18.9288 -2.0016 0.8963
17.5188 20.9352 -2.0016 0.8963
16.7554 21.5510 -2.0016 0.8963
15.9704 22.1390 -2.0016 0.8963
15.1648 22.6985 -2.0016 0.8963
11.7572 24.6365 -2.0016 0.8963
9.9578 25.4172 -2.0016 0.8963
9.0383 25.7585 -2.0016 0.8963
7.4906 24.0844 -1.8494 0.9038
1.0683 12.4012 -0.9127 0.9513
0.6105 12.1990 -0.8956 0.9522
-0.2590 11.8470 -0.8689 0.9536
-2.4468 11.9767 -0.8963 0.9522
-3.3322 11.8831 -0.9049 0.9517
-5.2592 11.8683 -0.9518 0.9493
-6.9002 11.9151 -1.0096 0.9463
-7.3823 11.7527 -1.0176 0.9459
-8.7611 11.9477 -1.0863 0.9423
-10.9063 11.9321 -1.1853 0.9372
-12.5317 11.8731 -1.2658 0.9331
-13.6521 12.0340 -1.3344 0.9296
-19.1197 11.5344 -1.6372 0.9143
-22.4766 11.4444 -1.8494 0.9038
-22.8732 10.6295 -1.8494 0.9038
-23.5774 8.9597 -1.8494 0.9038
-26.1378 7.8367 -2.0008 0.8963
-27.2980 0.1046 -2.0016 0.8963
-27.2841 -0.8761 -2.0016 0.8963
-25.0789 -3.5316 -1.8570 0.9034
-25.2965 -5.4384 -1.8972 0.9014
-26.4650 -6.6927 -2.0016 0.8963
-25.5913 -9.5012 -2.0016 0.8963
-25.2335 -10.4144 -2.0016 0.8963
-22.9663 -14.7560 -2.0016 0.8963
-22.4214 -15.5715 -2.0016 0.8963
-21.5836 -16.1693 -1.9774 0.8975
-20.0608 -16.1855 -1.8900 0.9018
-19.0482 -16.5328 -1.8494 0.9038
-18.4420 -17.2065 -1.8494 0.9038
-17.1589 -18.4862 -1.8494 0.9038
-14.3341 -20.7534 -1.8494 0.9038
-13.5793 -21.2549 -1.8494 0.9038
-12.8069 -21.7291 -1.8494 0.9038
-12.0180 -22.1751 -1.8494 0.9038
-10.1305 -22.3966 -1.8023 0.9061
-8.2515 -22.4018 -1.7504 0.9087
-5.4304 -16.5535 -1.2774 0.9325
-6.4673 -22.4018 -1.7096 0.9107
-5.6045 -22.4042 -1.6933 0.9115
-4.6857 -22.0716 -1.6544 0.9135
-3.9218 -22.4089 -1.6680 0.9128
-2.2804 -22.4134 -1.6519 0.9136
-0.6621 -22.4179 -1.6444 0.9140
0.9144 -21.5848 -1.5841 0.9170
2.8742 -25.0581 -1.8494 0.9038
7.3058 -24.1411 -1.8494 0.9038
8.8406 -25.8270 -2.0016 0.8963
15.8003 -22.2608 -2.0016 0.8963
16.5898 -21.6788 -2.0016 0.8963
17.3579 -21.0688 -2.0016 0.8963
18.8259 -19.7681 -2.0016 0.8963
19.5239 -19.0790 -2.0016 0.8963
20.8434 -17.6279 -2.0016 0.8963
21.4633 -16.8677 -2.0016 0.8963
20.8480 0.1377 -2.0016 0.9196
20.7843 1.6343 -2.0016 0.9196
20.7122 2.3799 -2.0016 0.9196
20.3359 4.5945 -2.0016 0.9196
20.1577 5.3221 -2.0016 0.9196
19.9535 6.0428 -2.0016 0.9196
19.7236 6.7558 -2.0016 0.9196
19.4681 7.4600 -2.0016 0.9196
19.1876 8.1546 -2.0016 0.9196
18.1989 10.1716 -2.0016 0.9196
17.4215 11.4521 -2.0016 0.9196
16.9989 12.0706 -2.0016 0.9196
16.5543 12.6734 -2.0016 0.9196
16.0883 13.2600 -2.0016 0.9196
15.6015 13.8294 -2.0016 0.9196
14.5683 14.9139 -2.0016 0.9196
14.0231 15.4277 -2.0016 0.9196
12.8791 16.3947 -2.0016 0.9196
12.2818 16.8468 -2.0016 0.9196
11.6687 17.2772 -2.0016 0.9196
11.0405 17.6852 -2.0016 0.9196
10.3980 18.0704 -2.0016 0.9196
6.4691 18.1444 -1.8494 0.9255
5.8131 18.3651 -1.8494 0.9255
3.7202 13.4100 -1.3360 0.9456
2.6607 13.2102 -1.2937 0.9473
1.6204 12.7018 -1.2293 0.9498
0.6661 12.0939 -1.1628 0.9525
-2.3672 11.8908 -1.1640 0.9524
-3.2831 11.9384 -1.1887 0.9515
-5.7266 11.9147 -1.2691 0.9483
-6.8548 11.9749 -1.3247 0.9461
-7.2272 11.6350 -1.3150 0.9464
-8.9671 11.4679 -1.3976 0.9432
-9.6545 11.4724 -1.4395 0.9415
-10.3852 11.4772 -1.4860 0.9397
-12.0038 11.4878 -1.5951 0.9354
-12.9080 11.4937 -1.6593 0.9329
-14.9610 11.5071 -1.8120 0.9270
-15.6812 11.1880 -1.8494 0.9255
-16.4440 10.0331 -1.8494 0.9255
-17.1220 8.8265 -1.8494 0.9255
-17.5383 8.2576 -1.8611 0.9251
-19.4513 7.5037 -2.0016 0.9196
-19.7083 6.8001 -2.0016 0.9196
-20.1458 5.3674 -2.0016 0.9196
-20.7806 1.6810 -2.0016 0.9196
-20.8276 0.9334 -2.0016 0.9196
-20.8477 0.1846 -2.0016 0.9196
-20.7465 -2.0595 -2.0016 0.9196
-20.6591 -2.8035 -2.0016 0.9196
-20.5451 -3.5439 -2.0016 0.9196
-20.0446 -5.7337 -2.0016 0.9196
-19.3113 -7.8570 -2.0016 0.9196
-19.0166 -8.5457 -2.0016 0.9196
-18.6973 -9.2233 -2.0016 0.9196
-18.3539 -9.8891 -2.0016 0.9196
-17.9868 -10.5421 -2.0016 0.9196
-17.5964 -11.1815 -2.0016 0.9196
-16.7482 -12.4161 -2.0016 0.9196
-16.2913 -13.0097 -2.0016 0.9196
-15.8134 -13.5866 -2.0016 0.9196
-15.3151 -14.1459 -2.0016 0.9196
-14.7970 -14.6870 -2.0016 0.9196
-13.0843 -16.1362 -1.9944 0.9199
-12.1797 -16.1755 -1.9439 0.9219
-11.2989 -16.1845 -1.8950 0.9237
-9.2635 -16.8896 -1.8494 0.9255
-8.6507 -17.2115 -1.8494 0.9255
-8.0268 -17.5111 -1.8494 0.9255
-7.3926 -17.7882 -1.8494 0.9255
-4.7684 -18.6637 -1.8494 0.9255
-4.0949 -18.8229 -1.8494 0.9255
-3.4160 -18.9579 -1.8494 0.9255
-1.3565 -19.2153 -1.8494 0.9255
-0.6653 -19.2517 -1.8494 0.9255
0.7187 -19.2497 -1.8494 0.9255
2.0991 -19.1485 -1.8494 0.9255
4.1471 -18.8115 -1.8494 0.9255
4.8202 -18.6504 -1.8494 0.9255
5.8402 -19.6535 -1.9684 0.9209
6.6528 -19.7586 -2.0016 0.9196
7.3583 -19.5068 -2.0016 0.9196
8.7399 -18.9281 -2.0016 0.9196
9.4143 -18.6019 -2.0016 0.9196
2.3134 -4.1904 -0.4595 0.9809
10.7257 -17.8779 -2.0016 0.9196
11.3610 -17.4810 -2.0016 0.9196
12.5869 -16.6202 -2.0016 0.9196
14.8377 -14.6459 -2.0016 0.9196
15.3543 -14.1034 -2.0016 0.9196
15.8510 -13.5427 -2.0016 0.9196
17.2161 -11.7587 -2.0016 0.9196
17.6274 -11.1326 -2.0016 0.9196
18.0159 -10.4922 -2.0016 0.9196
18.7228 -9.1715 -2.0016 0.9196
19.3330 -7.8035 -2.0016 0.9196
19.6009 -7.1039 -2.0016 0.9196
20.2514 -4.9538 -2.0016 0.9196
20.4163 -4.2231 -2.0016 0.9196
20.5548 -3.4869 -2.0016 0.9196
20.7522 -2.0020 -2.0016 0.9196
20.8107 -1.2552 -2.0016 0.9196
20.8471 0.2423 -2.0016 0.9196
20.7759 1.7386 -2.0016 0.9196
20.5974 3.2259 -2.0016 0.9196
20.4682 3.9638 -2.0016 0.9196
20.3126 4.6965 -2.0016 0.9196
20.1308 5.4232 -2.0016 0.9196
19.6894 6.8547 -2.0016 0.9196
19.4304 7.5576 -2.0016 0.9196
18.5046 9.6042 -2.0016 0.9196
18.1476 10.2628 -2.0016 0.9196
17.3638 11.5394 -2.0016 0.9196
16.9381 12.1557 -2.0016 0.9196
16.4905 12.7564 -2.0016 0.9196
16.0215 13.3406 -2.0016 0.9196
15.5319 13.9075 -2.0016 0.9196
13.9455 15.4979 -2.0016 0.9196
13.3797 15.9888 -2.0016 0.9196
12.1971 16.9083 -2.0016 0.9196
10.3072 18.1224 -2.0016 0.9196
8.9793 18.8157 -2.0016 0.9196
7.6666 17.6718 -1.8494 0.9255
7.0268 17.9358 -1.8494 0.9255
3.6377 13.3727 -1.3305 0.9458
3.0767 13.1600 -1.2975 0.9471
2.0305 12.7606 -1.2405 0.9494
1.0543 12.2386 -1.1793 0.9518
-0.6970 12.0457 -1.1584 0.9527
-1.1118 11.8272 -1.1405 0.9534
-2.4383 11.9349 -1.1695 0.9522
-3.3018 11.7748 -1.1740 0.9520
-4.2801 11.9003 -1.2141 0.9505
-5.2121 11.7622 -1.2351 0.9496
-6.8863 11.8911 -1.3192 0.9463
-7.7863 11.4601 -1.3301 0.9458
-8.4065 11.4642 -1.3648 0.9445
-9.0608 11.4685 -1.4032 0.9430
-10.4911 11.4779 -1.4929 0.9394
-11.2792 11.4830 -1.5453 0.9374
-12.1258 11.4886 -1.6037 0.9351
-14.0333 11.5011 -1.7419 0.9297
-15.7371 11.1091 -1.8494 0.9255
-16.1261 10.5366 -1.8494 0.9255
-16.4942 9.9505 -1.8494 0.9255
-17.7615 8.2541 -1.8803 0.9243
-19.1617 8.0809 -1.9965 0.9198
-19.4888 7.4060 -2.0016 0.9196
-19.7422 6.7011 -2.0016 0.9196
-19.9703 5.9875 -2.0016 0.9196
-20.1724 5.2662 -2.0016 0.9196
-20.3486 4.5382 -2.0016 0.9196
-20.4985 3.8042 -2.0016 0.9196
-20.6219 3.0653 -2.0016 0.9196
-20.8483 0.0799 -2.0016 0.9196
-20.8378 -0.6691 -2.0016 0.9196
-20.6448 -2.9072 -2.0016 0.9196
-20.2122 -5.1114 -2.0016 0.9196
-19.5449 -7.2564 -2.0016 0.9196
-19.2716 -7.9538 -2.0016 0.9196
-18.9735 -8.6410 -2.0016 0.9196
-18.6508 -9.3171 -2.0016 0.9196
-18.3040 -9.9811 -2.0016 0.9196
-17.1239 -11.8925 -2.0016 0.9196
-16.6856 -12.5000 -2.0016 0.9196
-16.2258 -13.0913 -2.0016 0.9196
-15.2439 -14.2226 -2.0016 0.9196
-14.7231 -14.7611 -2.0016 0.9196
-14.1833 -15.2805 -2.0016 0.9196
-13.6188 -15.7727 -2.0006 0.9197
-12.9753 -16.1669 -1.9902 0.9201
-12.0539 -16.1768 -1.9368 0.9221
-9.1786 -16.9359 -1.8494 0.9255
-8.5642 -17.2547 -1.8494 0.9255
-7.9388 -17.5512 -1.8494 0.9255
-7.3032 -17.8251 -1.8494 0.9255
-6.6581 -18.0759 -1.8494 0.9255
-5.3430 -18.5073 -1.8494 0.9255
-4.6747 -18.6873 -1.8494 0.9255
-4.0003 -18.8432 -1.8494 0.9255
-2.6370 -19.0818 -1.8494 0.9255
-1.2600 -19.2219 -1.8494 0.9255
2.1951 -19.1377 -1.8494 0.9255
2.8813 -19.0464 -1.8494 0.9255
3.5636 -18.9307 -1.8494 0.9255
4.2414 -18.7904 -1.8494 0.9255
6.0141 -19.8727 -1.9933 0.9200
6.7519 -19.7249 -2.0016 0.9196
7.4561 -19.4696 -2.0016 0.9196
8.1507 -19.1892 -2.0016 0.9196
8.8348 -18.8840 -2.0016 0.9196
2.1868 -4.2677 -0.4604 0.9809
10.1680 -18.2009 -2.0016 0.9196
12.0672 -17.0013 -2.0016 0.9196
13.2568 -16.0909 -2.0016 0.9196
14.3780 -15.0975 -2.0016 0.9196
15.4249 -14.0262 -2.0016 0.9196
16.3922 -12.8824 -2.0016 0.9196
16.7640 -1.7022 -2.0016 0.9344
16.8143 -1.0989 -2.0016 0.9344
16.8498 0.1113 -2.0016 0.9344
16.8349 0.7165 -2.0016 0.9344
16.7983 1.3209 -2.0016 0.9344
16.5587 3.1205 -2.0016 0.9344
16.4359 3.7134 -2.0016 0.9344
15.9410 5.4601 -2.0016 0.9344
15.2610 7.1435 -2.0016 0.9344
14.9945 7.6872 -2.0016 0.9344
14.4038 8.7440 -2.0016 0.9344
14.0804 9.2558 -2.0016 0.9344
13.3795 10.2429 -2.0016 0.9344
13.0029 10.7170 -2.0016 0.9344
12.6095 11.1772 -2.0016 0.9344
12.1998 11.6229 -2.0016 0.9344
11.7744 12.0537 -2.0016 0.9344
11.3337 12.4689 -2.0016 0.9344
10.8785 12.8681 -2.0016 0.9344
10.4092 13.2505 -2.0016 0.9344
9.9264 13.6159 -2.0016 0.9344
9.4309 13.9638 -2.0016 0.9344
8.3954 14.5902 -1.9995 0.9344
7.2750 13.7646 -1.8494 0.9392
5.7519 14.4674 -1.8494 0.9392
5.2285 14.6647 -1.8494 0.9392
4.6983 14.8430 -1.8494 0.9392
3.1440 13.1501 -1.6061 0.9470
1.1159 12.2352 -1.4594 0.9517
0.6626 12.0308 -1.4313 0.9526
-0.1962 11.6434 -1.3833 0.9542
-0.6029 11.4130 -1.3576 0.9550
-1.4306 11.4185 -1.3670 0.9547
-2.2742 11.4240 -1.3836 0.9542
-2.7049 11.4268 -1.3949 0.9538
-3.5905 11.4326 -1.4234 0.9529
-4.0482 11.4356 -1.4410 0.9523
-4.5180 11.4387 -1.4609 0.9517
-5.0016 11.4419 -1.4833 0.9509
-5.5009 11.4451 -1.5084 0.9501
-7.1158 11.4557 -1.6019 0.9471
-7.7021 11.4596 -1.6401 0.9459
-8.9671 11.4679 -1.7292 0.9430
-10.8540 11.1616 -1.8494 0.9392
-11.2479 10.7644 -1.8494 0.9392
-11.9918 9.9290 -1.8494 0.9392
-12.6738 9.0423 -1.8494 0.9392
-14.6354 8.2232 -1.9941 0.9346
-14.9772 7.7208 -2.0016 0.9344
-15.4929 6.6255 -2.0016 0.9344
-15.7209 6.0646 -2.0016 0.9344
-15.9287 5.4960 -2.0016 0.9344
-16.1158 4.9202 -2.0016 0.9344
-16.5516 3.1577 -2.0016 0.9344
-16.6544 2.5611 -2.0016 0.9344
-16.7356 1.9611 -2.0016 0.9344
-16.8333 0.7544 -2.0016 0.9344
-16.8495 0.1492 -2.0016 0.9344
-16.8167 -1.0611 -2.0016 0.9344
-16.6971 -2.2658 -2.0016 0.9344
-16.6049 -2.8642 -2.0016 0.9344
-16.3564 -4.0491 -2.0016 0.9344
-16.2004 -4.6341 -2.0016 0.9344
-16.0235 -5.2131 -2.0016 0.9344
-15.6078 -6.3502 -2.0016 0.9344
-15.1115 -7.4545 -2.0016 0.9344
-14.8340 -7.9926 -2.0016 0.9344
-14.5373 -8.5203 -2.0016 0.9344
-14.2218 -9.0371 -2.0016 0.9344
-13.1670 -10.5147 -2.0016 0.9344
-12.7807 -10.9810 -2.0016 0.9344
-10.6127 -13.0881 -2.0016 0.9344
-10.1357 -13.4609 -2.0016 0.9344
-8.1031 -14.7739 -2.0016 0.9344
-7.5671 -15.0555 -2.0016 0.9344
-7.0213 -15.3176 -2.0016 0.9344
-6.4665 -15.5599 -2.0016 0.9344
-5.9005 -15.7745 -2.0006 0.9344
-4.1309 -16.1684 -1.9823 0.9350
-2.3182 -16.1760 -1.9411 0.9363
-1.1427 -16.1863 -1.9275 0.9367
-0.5606 -16.2216 -1.9280 0.9367
0.0226 -16.2921 -1.9353 0.9365
1.8300 -16.6942 -1.9949 0.9346
2.4340 -16.6548 -1.9994 0.9344
3.0341 -16.5747 -2.0016 0.9344
3.6276 -16.4550 -2.0016 0.9344
4.2164 -16.3141 -2.0016 0.9344
8.6687 -14.4493 -2.0016 0.9344
9.1822 -14.1285 -2.0016 0.9344
10.1729 -13.4327 -2.0016 0.9344
10.6490 -13.0586 -2.0016 0.9344
11.9921 -11.8371 -2.0016 0.9344
13.1960 -10.4782 -2.0016 0.9344
13.5640 -9.9973 -2.0016 0.9344
13.9143 -9.5036 -2.0016 0.9344
14.5608 -8.4800 -2.0016 0.9344
14.8561 -7.9514 -2.0016 0.9344
15.6253 -6.3069 -2.0016 0.9344
15.8418 -5.7415 -2.0016 0.9344
16.0378 -5.1687 -2.0016 0.9344
16.2132 -4.5892 -2.0016 0.9344
16.7723 -1.6180 -2.0016 0.9344
16.8452 -0.4096 -2.0016 0.9344
16.8311 0.8010 -2.0016 0.9344
16.7915 1.4052 -2.0016 0.9344
16.7301 2.0075 -2.0016 0.9344
16.4170 3.7958 -2.0016 0.9344
16.1021 4.9648 -2.0016 0.9344
15.4745 6.6684 -2.0016 0.9344
15.2249 7.2200 -2.0016 0.9344
14.9557 7.7623 -2.0016 0.9344
14.6672 8.2946 -2.0016 0.9344
14.3598 8.8161 -2.0016 0.9344
14.0337 9.3264 -2.0016 0.9344
12.1413 11.6840 -2.0016 0.9344
11.7137 12.1127 -2.0016 0.9344
11.2710 12.5257 -2.0016 0.9344
10.3425 13.3026 -2.0016 0.9344
9.8579 13.6656 -2.0016 0.9344
9.3607 14.0109 -2.0016 0.9344
8.8513 14.3382 -2.0016 0.9344
7.6970 13.5331 -1.8494 0.9392
7.2058 13.8009 -1.8494 0.9392
6.1963 14.2827 -1.8494 0.9392
5.6792 14.4961 -1.8494 0.9392
4.6237 14.8664 -1.8494 0.9392
3.0661 13.1149 -1.5999 0.9472
2.5252 12.8709 -1.5580 0.9485
1.5209 12.4179 -1.4861 0.9509
1.0515 12.2062 -1.4553 0.9518
0.6006 12.0028 -1.4275 0.9527
0.1658 11.7853 -1.4001 0.9536
-0.2541 11.6173 -1.3803 0.9543
-0.6604 11.4134 -1.3580 0.9550
-1.9088 11.4216 -1.3755 0.9544
-2.3340 11.4244 -1.3851 0.9541
-3.2051 11.4301 -1.4101 0.9533
-4.5847 11.4391 -1.4639 0.9516
-5.5720 11.4456 -1.5121 0.9500
-6.0919 11.4490 -1.5405 0.9491
-7.1961 11.4563 -1.6070 0.9470
-8.4065 11.4642 -1.6887 0.9443
-10.9099 11.1070 -1.8494 0.9392
-11.6792 10.2949 -1.8494 0.9392
-12.3883 9.4297 -1.8494 0.9392
-12.7190 8.9786 -1.8494 0.9392
-13.0334 8.5159 -1.8494 0.9392
-14.6851 8.1544 -1.9953 0.9346
-15.0157 7.6456 -2.0016 0.9344
-15.2807 7.1012 -2.0016 0.9344
-15.9560 5.4159 -2.0016 0.9344
-16.3037 4.2563 -2.0016 0.9344
-16.6670 2.4774 -2.0016 0.9344
-16.8368 0.6699 -2.0016 0.9344
-16.8500 0.0646 -2.0016 0.9344
-16.8112 -1.1455 -2.0016 0.9344
-16.7592 -1.7487 -2.0016 0.9344
-15.7966 -5.8648 -2.0016 0.9344
-15.3347 -6.9839 -2.0016 0.9344
-14.7937 -8.0669 -2.0016 0.9344
-14.1762 -9.1083 -2.0016 0.9344
-13.4856 -10.1027 -2.0016 0.9344
-12.7254 -11.0450 -2.0016 0.9344
-12.3204 -11.4950 -2.0016 0.9344
-11.8995 -11.9302 -2.0016 0.9344
-11.4633 -12.3500 -2.0016 0.9344
-11.0122 -12.7538 -2.0016 0.9344
-10.5469 -13.1412 -2.0016 0.9344
-10.0680 -13.5116 -2.0016 0.9344
-9.0718 -14.1996 -2.0016 0.9344
-8.5558 -14.5164 -2.0016 0.9344
-8.0288 -14.8144 -2.0016 0.9344
-6.9444 -15.3526 -2.0016 0.9344
-5.8199 -15.8004 -2.0001 0.9344
-4.0447 -16.1688 -1.9798 0.9351
-3.4332 -16.1718 -1.9638 0.9356
-2.8307 -16.1743 -1.9505 0.9360
-2.2355 -16.1763 -1.9398 0.9363
-1.6459 -16.1778 -1.9316 0.9366
0.6956 -16.4197 -1.9522 0.9359
1.9144 -16.6896 -1.9955 0.9346
2.5184 -16.6480 -2.0001 0.9344
3.1172 -16.5593 -2.0016 0.9344
6.0262 -15.7357 -2.0016 0.9344
7.1405 -15.2624 -2.0016 0.9344
8.2179 -14.7103 -2.0016 0.9344
9.7529 -13.7407 -2.0016 0.9344
10.7144 -13.0050 -2.0016 0.9344
11.1747 -12.6117 -2.0016 0.9344
11.6205 -12.2021 -2.0016 0.9344
12.0514 -11.7767 -2.0016 0.9344
12.4667 -11.3362 -2.0016 0.9344
14.0541 -1.4271 -2.0016 0.9445
14.0963 -0.9212 -2.0016 0.9445
14.1203 -0.4142 -2.0016 0.9445
14.1136 0.6007 -2.0016 0.9445
14.0829 1.1074 -2.0016 0.9445
14.0341 1.6126 -2.0016 0.9445
13.8821 2.6161 -2.0016 0.9445
13.7791 3.1131 -2.0016 0.9445
13.1911 5.0547 -2.0016 0.9445
13.0010 5.5253 -2.0016 0.9445
12.5707 6.4446 -2.0016 0.9445
12.3311 6.8920 -2.0016 0.9445
12.0755 7.3306 -2.0016 0.9445
11.8044 7.7596 -2.0016 0.9445
9.8711 10.1053 -2.0016 0.9445
8.3219 11.4150 -2.0016 0.9445
