ply
format ascii 1.0
element vertex 1541
property float32 x
property float32 y
property float32 z
property float32 I
end_header
-8.2369 12.2264 -0.0830 0.9427
-9.4677 12.0801 -0.0864 0.9405
-10.8238 11.9343 -0.0907 0.9376
-11.7263 12.0308 -0.0946 0.9350
-21.5309 12.0617 -0.1389 0.9060
-23.4512 12.0513 -0.1484 0.8999
-25.4926 11.9626 -0.1585 0.8935
-27.8868 -22.3473 -0.2012 0.8668
-24.3108 -22.5328 -0.1866 0.8758
-22.4516 -22.3624 -0.1784 0.8809
-17.7292 -21.9443 -0.1588 0.8933
-13.1732 -22.1886 -0.1453 0.9019
-11.2033 -22.3936 -0.1410 0.9047
-8.3309 -22.4016 -0.1346 0.9088
-7.4252 -22.3991 -0.1329 0.9099
-6.5937 -22.5770 -0.1324 0.9102
-5.6778 -22.4040 -0.1301 0.9117
-4.8511 -22.5106 -0.1296 0.9120
-3.1554 -22.3318 -0.1270 0.9137
0.8900 -22.5978 -0.1273 0.9135
2.1884 -4.3005 -0.0272 0.9809
32.6154 -37.0122 -0.2777 0.8209
32.6145 -32.0437 -0.2574 0.8329
32.6287 -25.7829 -0.2341 0.8468
32.6081 -4.2480 -0.1851 0.8767
45.3085 8.9002 -0.2600 0.8314
43.0732 13.4093 -0.2540 0.8349
4.3083 15.1435 -0.4433 0.9389
3.3336 13.5500 -0.3929 0.9457
2.2214 12.9925 -0.3711 0.9486
-0.1258 12.1043 -0.3408 0.9527
-0.5602 12.0821 -0.3406 0.9528
-1.3975 11.7650 -0.3336 0.9537
-1.8464 11.8807 -0.3386 0.9530
-3.2298 12.0434 -0.3511 0.9513
-4.1215 11.8813 -0.3541 0.9509
-4.6070 11.8833 -0.3589 0.9503
-6.1798 11.9377 -0.3785 0.9476
-7.3149 11.9422 -0.3943 0.9455
-7.8478 11.8351 -0.3999 0.9448
-8.4455 11.7933 -0.4084 0.9436
-9.0808 11.7631 -0.4184 0.9423
-14.0958 11.8176 -0.5179 0.9290
-15.3821 11.9816 -0.5490 0.9249
-19.0344 11.7731 -0.6302 0.9143
-26.2603 -22.3071 -0.9702 0.8712
-22.6857 -22.2665 -0.8951 0.8806
-21.0954 -22.2496 -0.8633 0.8845
-19.6128 -22.2345 -0.8348 0.8881
-16.8700 -22.1482 -0.7839 0.8946
-15.9331 -22.5561 -0.7776 0.8954
-13.2056 -21.8761 -0.7195 0.9028
-12.3475 -22.2224 -0.7158 0.9033
-10.3479 -22.2531 -0.6910 0.9065
-7.5788 -22.3133 -0.6635 0.9100
-6.6998 -22.3306 -0.6565 0.9109
-5.8378 -22.3459 -0.6503 0.9117
-4.1814 -22.5125 -0.6447 0.9124
-3.3298 -22.3806 -0.6371 0.9134
-2.5125 -22.3886 -0.6344 0.9138
-1.7010 -22.3950 -0.6324 0.9140
-0.8933 -22.3997 -0.6312 0.9142
-0.0877 -22.4028 -0.6308 0.9143
1.5253 -22.4041 -0.6323 0.9141
2.2821 -4.1841 -0.1342 0.9811
32.5992 -37.5453 -1.4001 0.8196
38.9517 -24.8695 -1.3013 0.8312
41.1159 -2.6757 -1.1602 0.8480
43.3859 13.1585 -1.2766 0.8341
35.0823 13.4605 -1.0581 0.8604
35.0950 18.0129 -1.1108 0.8540
33.4612 18.7233 -1.0797 0.8578
33.6579 20.4553 -1.1090 0.8542
34.2067 24.3165 -1.1818 0.8454
34.9794 26.8090 -1.2410 0.8383
3.8662 13.9782 -0.4084 0.9436
2.6902 13.4123 -0.3852 0.9467
2.1342 13.0583 -0.3726 0.9484
1.6271 12.8389 -0.3644 0.9495
1.1257 12.4582 -0.3522 0.9512
0.6635 12.2360 -0.3450 0.9521
-0.6429 11.9673 -0.3375 0.9532
-1.9354 11.8788 -0.3389 0.9530
-3.2778 11.8738 -0.3468 0.9519
-4.2259 11.8997 -0.3556 0.9507
-4.6787 11.8105 -0.3577 0.9504
-5.2762 12.0364 -0.3701 0.9488
-6.2231 11.8084 -0.3758 0.9480
-7.4587 11.9788 -0.3973 0.9451
-8.6675 11.9177 -0.4149 0.9427
-10.0614 11.9285 -0.4394 0.9395
-11.7179 12.0220 -0.4727 0.9350
-12.4107 11.8494 -0.4832 0.9336
-13.4825 11.9767 -0.5078 0.9304
-14.3662 11.8660 -0.5247 0.9282
-15.5383 11.9212 -0.5515 0.9246
-17.9497 11.8252 -0.6052 0.9176
-19.4821 11.8534 -0.6421 0.9128
-25.2742 11.8601 -0.7861 0.8943
-33.5252 -23.1173 -1.1467 0.8496
-27.8605 -22.3262 -1.0053 0.8669
-24.0396 -22.2815 -0.9229 0.8771
-17.7292 -21.9443 -0.7944 0.8932
-16.6154 -22.1490 -0.7796 0.8951
-15.6870 -22.5568 -0.7736 0.8959
-11.1225 -22.2322 -0.7000 0.9053
-6.5226 -22.3339 -0.6551 0.9111
-4.0109 -22.5129 -0.6439 0.9126
-2.3465 -22.3900 -0.6339 0.9139
-1.5360 -22.3961 -0.6321 0.9141
0.0766 -22.4032 -0.6308 0.9143
0.8824 -22.4044 -0.6313 0.9142
2.1883 -4.3004 -0.1359 0.9809
32.8205 -30.0057 -1.2522 0.8370
37.7774 -25.6701 -1.2861 0.8330
39.1690 -24.6059 -1.3025 0.8310
46.0824 -2.6598 -1.2997 0.8313
45.2333 8.8855 -1.2980 0.8315
32.9549 8.9738 -0.9617 0.8723
22.3074 32.5585 -2.0016 0.8538
18.6736 34.7703 -2.0016 0.8538
14.8228 36.5782 -2.0016 0.8538
4.2384 14.8977 -0.7855 0.9398
3.2748 13.3109 -0.6952 0.9466
1.2141 12.4202 -0.6329 0.9512
0.7605 12.3499 -0.6275 0.9517
0.3051 11.9372 -0.6056 0.9533
-0.5634 12.1501 -0.6168 0.9525
-1.4101 11.8711 -0.6063 0.9532
-3.2052 11.9517 -0.6275 0.9516
-4.1867 12.0693 -0.6479 0.9501
-5.1194 11.9156 -0.6577 0.9494
-6.7098 11.8939 -0.6926 0.9468
-7.3408 11.9845 -0.7127 0.9453
-8.5347 11.9178 -0.7434 0.9430
-13.0901 11.8010 -0.8938 0.9318
-16.4000 11.8527 -1.0262 0.9222
-19.0603 11.7891 -1.1366 0.9141
-21.0407 11.9906 -1.2282 0.9076
-22.8287 11.9439 -1.3066 0.9020
-24.1881 11.5676 -1.3597 0.8982
-36.7364 14.4262 -2.0016 0.8538
-37.2311 13.0966 -2.0016 0.8538
-38.4244 9.0134 -2.0016 0.8538
-38.7235 7.6267 -2.0016 0.8538
-39.4585 -0.8371 -2.0016 0.8538
-39.4030 -2.2546 -2.0016 0.8538
-39.2965 -3.6692 -2.0016 0.8538
-30.0826 -3.9038 -1.5384 0.8856
-38.6733 -7.8773 -2.0016 0.8538
-38.3652 -9.2621 -2.0016 0.8538
-38.0076 -10.6349 -2.0016 0.8538
-37.1455 -13.3375 -2.0016 0.8538
-36.6422 -14.6638 -2.0016 0.8538
-34.1629 -19.7629 -2.0016 0.8538
-30.8886 -19.3827 -1.8494 0.8641
-22.7368 -16.6576 -1.4294 0.8933
-28.6230 -22.5946 -1.8494 0.8641
-26.3127 -22.3516 -1.7509 0.8709
-24.4784 -22.3567 -1.6813 0.8757
-21.2057 -22.3658 -1.5630 0.8839
-16.8700 -22.1482 -1.4119 0.8945
-15.9331 -22.5561 -1.4005 0.8953
-13.2056 -21.8761 -1.2959 0.9027
-12.4407 -22.3902 -1.2990 0.9025
-9.4519 -22.3985 -1.2329 0.9072
-8.5182 -22.4011 -1.2154 0.9085
-7.6077 -22.3986 -1.1997 0.9096
-6.7209 -22.4011 -1.1861 0.9106
-5.0008 -22.4059 -1.1643 0.9122
-3.3343 -22.4105 -1.1490 0.9133
-1.7025 -22.4150 -1.1400 0.9139
-0.8940 -22.4173 -1.1378 0.9141
0.6900 -21.5343 -1.0927 0.9173
3.7829 -36.2695 -1.8494 0.8641
6.3783 -35.9041 -1.8494 0.8641
7.6645 -35.6517 -1.8494 0.8641
6.8379 -27.0378 -1.4144 0.8943
11.0455 -37.8903 -2.0016 0.8538
12.4001 -37.4688 -2.0016 0.8538
15.0594 -36.4814 -2.0016 0.8538
17.6409 -35.3054 -2.0016 0.8538
2.2821 -4.1841 -0.2417 0.9811
20.1313 -33.9471 -2.0016 0.8538
21.3383 -33.2017 -2.0016 0.8538
22.5177 -32.4134 -2.0016 0.8538
24.7878 -30.7122 -2.0016 0.8538
25.8756 -29.8015 -2.0016 0.8538
26.8494 -28.7662 -1.9956 0.8542
26.9684 -26.8879 -1.9313 0.8585
26.9906 -25.0416 -1.8672 0.8629
28.4452 -22.8180 -1.8494 0.8641
29.2468 -21.7810 -1.8494 0.8641
30.7358 -19.6240 -1.8494 0.8641
32.0660 -17.3655 -1.8494 0.8641
35.7740 -16.1668 -1.9909 0.8545
36.5262 -14.9503 -2.0016 0.8538
37.9231 -10.9322 -2.0016 0.8538
38.2915 -9.5622 -2.0016 0.8538
34.0743 -3.4509 -1.7369 0.8718
36.5392 -2.3779 -1.8570 0.8636
39.4665 0.2725 -2.0016 0.8538
39.4312 1.6907 -2.0016 0.8538
38.7820 7.3233 -2.0016 0.8538
36.4566 8.2512 -1.8956 0.8610
34.8966 10.5837 -1.8494 0.8641
34.4937 11.8311 -1.8494 0.8641
34.0463 13.0630 -1.8494 0.8641
33.0200 15.4748 -1.8494 0.8641
32.4425 16.6515 -1.8494 0.8641
29.5914 17.9839 -1.7561 0.8705
30.4619 20.0465 -1.8494 0.8641
29.7218 21.1283 -1.8494 0.8641
28.9433 22.1828 -1.8494 0.8641
27.2755 24.2048 -1.8494 0.8641
27.2680 26.0088 -1.9111 0.8599
27.2661 27.9460 -1.9801 0.8552
26.5289 29.2215 -2.0016 0.8538
25.4616 30.1560 -2.0016 0.8538
23.2297 31.9070 -2.0016 0.8538
20.8778 33.4932 -2.0016 0.8538
19.6607 34.2219 -2.0016 0.8538
17.1517 35.5457 -2.0016 0.8538
15.8632 36.1391 -2.0016 0.8538
14.5542 36.6859 -2.0016 0.8538
3.1796 13.3452 -0.6957 0.9465
2.6039 12.9818 -0.6715 0.9484
2.1188 12.9639 -0.6662 0.9487
1.5971 12.6022 -0.6442 0.9504
0.2162 11.8641 -0.6018 0.9536
-2.3675 11.8338 -0.6120 0.9528
-3.7279 11.8291 -0.6290 0.9515
-4.6935 11.8478 -0.6463 0.9502
-5.7032 11.8346 -0.6662 0.9487
-6.3020 11.9580 -0.6855 0.9473
-6.8023 11.8540 -0.6931 0.9467
-7.3709 11.8378 -0.7072 0.9457
-7.9492 11.7993 -0.7215 0.9446
-10.0342 11.8962 -0.7893 0.9396
-10.8480 11.9609 -0.8189 0.9374
-12.3709 11.8114 -0.8674 0.9338
-13.4813 11.9756 -0.9145 0.9303
-14.3922 11.8874 -0.9467 0.9280
-16.6881 11.8755 -1.0387 0.9212
-23.0620 11.8513 -1.3150 0.9014
-36.8412 14.1564 -2.0016 0.8538
-37.7629 11.4736 -2.0016 0.8538
-38.1508 10.1090 -2.0016 0.8538
-38.4895 8.7314 -2.0016 0.8538
-38.7784 7.3426 -2.0016 0.8538
-39.4303 1.7103 -2.0016 0.8538
-39.2685 -3.9573 -2.0016 0.8538
-38.6145 -8.1607 -2.0016 0.8538
-38.2962 -9.5432 -2.0016 0.8538
-37.0467 -13.6095 -2.0016 0.8538
-36.5337 -14.9321 -2.0016 0.8538
-35.9734 -16.2354 -2.0016 0.8538
-35.3667 -17.5177 -2.0016 0.8538
-34.7143 -18.7775 -2.0016 0.8538
-30.0210 -20.7009 -1.8494 0.8641
-29.2576 -21.7665 -1.8494 0.8641
-25.9262 -22.3527 -1.7360 0.8719
-22.4516 -22.3624 -1.6071 0.8808
-20.8971 -22.3667 -1.5524 0.8846
-17.7292 -21.9443 -1.4307 0.8932
-16.6154 -22.1490 -1.4042 0.8950
-12.2270 -22.3908 -1.2938 0.9029
-9.2593 -22.3990 -1.2292 0.9075
-8.3309 -22.4016 -1.2121 0.9087
-5.6778 -22.4040 -1.1721 0.9116
-4.8511 -22.5106 -1.1678 0.9119
-3.1598 -22.3632 -1.1454 0.9135
-2.3489 -22.4132 -1.1429 0.9137
-1.5373 -22.4155 -1.1395 0.9139
-0.7295 -22.4177 -1.1375 0.9141
0.0766 -22.4200 -1.1370 0.9141
4.0487 -36.2408 -1.8494 0.8641
6.6414 -35.8564 -1.8494 0.8641
7.9258 -35.5945 -1.8494 0.8641
7.0487 -27.0358 -1.4169 0.8941
15.3265 -36.3700 -2.0016 0.8538
16.6236 -35.7957 -2.0016 0.8538
2.1883 -4.3003 -0.2447 0.9809
2.3309 -4.2000 -0.2436 0.9809
20.3797 -33.7985 -2.0016 0.8538
22.7548 -32.2474 -2.0016 0.8538
25.0124 -30.5296 -2.0016 0.8538
26.9965 -24.6811 -1.8550 0.8637
28.6117 -22.6088 -1.8494 0.8641
29.4058 -21.5660 -1.8494 0.8641
33.5640 -16.3400 -1.8932 0.8611
36.0103 -15.9566 -1.9975 0.8541
37.5949 -12.0126 -2.0016 0.8538
38.0023 -10.6538 -2.0016 0.8538
38.6694 -7.8966 -2.0016 0.8538
34.0788 -3.1991 -1.7359 0.8719
38.5443 -2.2247 -1.9580 0.8567
39.4634 0.5619 -2.0016 0.8538
39.4177 1.9798 -2.0016 0.8538
39.3211 3.3951 -2.0016 0.8538
38.7273 7.6075 -2.0016 0.8538
32.7534 8.9189 -1.7215 0.8729
14.6099 23.0595 -2.0016 0.8963
12.9158 24.0494 -2.0016 0.8963
7.7693 23.9960 -1.8494 0.9038
4.1200 14.4816 -1.1040 0.9414
2.2120 12.9374 -0.9624 0.9487
1.6988 12.6599 -0.9366 0.9501
1.2113 12.3906 -0.9128 0.9513
0.7631 12.3926 -0.9104 0.9514
0.3112 12.1743 -0.8929 0.9523
-0.1252 12.0476 -0.8834 0.9528
-1.8634 11.9905 -0.8897 0.9525
-2.3058 11.9815 -0.8946 0.9522
-2.7736 12.0592 -0.9073 0.9516
-3.1909 11.8984 -0.9032 0.9518
-3.6340 11.8334 -0.9076 0.9516
-4.6573 12.0131 -0.9447 0.9496
-5.1041 11.8798 -0.9480 0.9495
-6.6865 11.8526 -0.9978 0.9469
-7.3225 11.9547 -1.0279 0.9453
-7.8664 11.8632 -1.0437 0.9445
-8.4968 11.8649 -1.0700 0.9431
-9.2185 11.9415 -1.1061 0.9413
-10.6937 11.9660 -1.1767 0.9377
-13.1091 11.8181 -1.2941 0.9317
-13.7433 11.5220 -1.3150 0.9306
-14.7715 11.5059 -1.3729 0.9277
-15.9307 11.5135 -1.4412 0.9242
-17.2132 11.5219 -1.5188 0.9203
-18.6435 11.5313 -1.6073 0.9158
-20.2532 11.5418 -1.7092 0.9107
-22.7542 10.8819 -1.8494 0.9038
-23.1306 10.0571 -1.8494 0.9038
-23.4771 9.2193 -1.8494 0.9038
-23.7932 8.3697 -1.8494 0.9038
-25.9894 8.1051 -1.9961 0.8966
-26.3356 7.1854 -2.0016 0.8963
-26.5768 6.2343 -2.0016 0.8963
-26.7837 5.2751 -2.0016 0.8963
-26.9559 4.3092 -2.0016 0.8963
-27.1958 2.3618 -2.0016 0.8963
-27.2631 1.3829 -2.0016 0.8963
-27.2920 -0.5790 -2.0016 0.8963
-25.5504 -2.3857 -1.8816 0.9022
-25.1157 -3.2593 -1.8570 0.9034
-24.8752 -5.0668 -1.8614 0.9032
-26.5358 -6.4063 -2.0016 0.8963
-26.2885 -7.3558 -2.0016 0.8963
-26.0071 -8.2958 -2.0016 0.8963
-25.6922 -9.2251 -2.0016 0.8963
-25.3441 -10.1424 -2.0016 0.8963
-24.9632 -11.0467 -2.0016 0.8963
-24.1052 -12.8113 -2.0016 0.8963
-22.5863 -15.3312 -2.0016 0.8963
-21.9525 -16.0830 -1.9954 0.8966
-18.0005 -17.6678 -1.8494 0.9038
-17.3539 -18.3033 -1.8494 0.9038
-14.5522 -20.6011 -1.8494 0.9038
-13.8024 -21.1107 -1.8494 0.9038
-8.5182 -22.4011 -1.7572 0.9084
-7.6078 -22.3986 -1.7345 0.9095
-6.7209 -22.4011 -1.7148 0.9105
-5.0008 -22.4059 -1.6833 0.9120
-4.0998 -22.0732 -1.6461 0.9139
-0.8940 -22.4173 -1.6450 0.9139
0.6900 -21.5351 -1.5798 0.9172
5.3014 -24.6590 -1.8494 0.9038
8.5767 -25.9158 -2.0016 0.8963
10.4160 -25.2328 -2.0016 0.8963
11.3161 -24.8422 -2.0016 0.8963
2.2821 -4.1841 -0.3495 0.9811
16.3704 -21.8450 -2.0016 0.8963
17.1448 -21.2425 -2.0016 0.8963
17.8972 -20.6126 -2.0016 0.8963
18.6264 -19.9561 -2.0016 0.8963
19.3316 -19.2738 -2.0016 0.8963
20.6661 -17.8355 -2.0016 0.8963
24.0042 -12.9996 -2.0016 0.8963
24.8759 -11.2418 -2.0016 0.8963
25.6192 -9.4259 -2.0016 0.8963
25.9414 -8.4991 -2.0016 0.8963
26.2301 -7.5614 -2.0016 0.8963
26.8915 -4.6943 -2.0016 0.8963
27.0428 -3.7249 -2.0016 0.8963
27.2406 -1.7728 -2.0016 0.8963
27.2975 0.1885 -2.0016 0.8963
27.2731 1.1694 -2.0016 0.8963
27.2135 2.1488 -2.0016 0.8963
26.9888 4.0980 -2.0016 0.8963
26.8241 5.0652 -2.0016 0.8963
25.8215 8.8566 -2.0016 0.8963
24.7183 11.5842 -2.0016 0.8963
24.2860 12.4651 -2.0016 0.8963
23.8224 13.3298 -2.0016 0.8963
23.3279 14.1774 -2.0016 0.8963
22.2493 15.8164 -2.0016 0.8963
21.0558 17.3737 -2.0016 0.8963
20.4178 18.1192 -2.0016 0.8963
18.3491 20.2114 -2.0016 0.8963
17.6108 20.8578 -2.0016 0.8963
16.8499 21.4773 -2.0016 0.8963
15.2637 22.6321 -2.0016 0.8963
13.5986 23.6700 -2.0016 0.8963
12.7391 24.1434 -2.0016 0.8963
11.8632 24.5856 -2.0016 0.8963
10.9720 24.9961 -2.0016 0.8963
10.0666 25.3743 -2.0016 0.8963
3.7662 13.6165 -1.0359 0.9449
3.1286 13.1312 -0.9898 0.9473
2.6301 13.1125 -0.9806 0.9478
2.1084 12.9005 -0.9584 0.9489
1.1138 12.3265 -0.9075 0.9516
0.6599 12.1714 -0.8937 0.9523
-0.2124 11.9836 -0.8788 0.9531
-1.9428 11.9243 -0.8858 0.9527
-2.4259 12.1259 -0.9067 0.9516
-2.8553 12.0107 -0.9052 0.9517
-3.7651 11.9474 -0.9185 0.9510
-4.1853 11.7853 -0.9170 0.9511
-4.7648 12.0279 -0.9486 0.9494
-5.1594 11.7698 -0.9423 0.9498
-5.7284 11.8867 -0.9675 0.9485
-6.2156 11.7942 -0.9775 0.9479
-6.8754 11.9812 -1.0129 0.9461
-7.3788 11.8505 -1.0236 0.9455
-8.6255 11.8599 -1.0753 0.9429
-9.3103 11.8793 -1.1066 0.9413
-9.9300 11.7727 -1.1293 0.9401
-11.5569 11.8569 -1.2140 0.9357
-12.5122 11.9463 -1.2684 0.9330
-17.4921 11.5237 -1.5359 0.9194
-22.4336 11.5284 -1.8494 0.9038
-22.8334 10.7147 -1.8494 0.9038
-24.0351 8.2572 -1.8634 0.9031
-26.3875 6.9920 -2.0016 0.8963
-26.6218 6.0392 -2.0016 0.8963
-26.9868 4.1114 -2.0016 0.8963
-27.1171 3.1389 -2.0016 0.8963
-27.2124 2.1623 -2.0016 0.8963
-27.2725 1.1829 -2.0016 0.8963
-27.2974 0.2020 -2.0016 0.8963
-27.2871 -0.7791 -2.0016 0.8963
-27.2414 -1.7592 -2.0016 0.8963
-25.0912 -3.4434 -1.8570 0.9034
-26.2338 -7.5483 -2.0016 0.8963
-25.2690 -10.3280 -2.0016 0.8963
-24.4619 -12.1164 -2.0016 0.8963
-24.0106 -12.9877 -2.0016 0.8963
-22.4733 -15.4964 -2.0016 0.8963
-21.7320 -16.1677 -1.9860 0.8971
-20.1958 -16.1841 -1.8976 0.9014
-19.1028 -16.4698 -1.8494 0.9038
-17.8704 -17.7994 -1.8494 0.9038
-16.5457 -19.0370 -1.8494 0.9038
-15.8509 -19.6194 -1.8494 0.9038
-15.1356 -20.1763 -1.8494 0.9038
-14.4007 -20.7072 -1.8494 0.9038
-13.6472 -21.2114 -1.8494 0.9038
-12.8761 -21.6881 -1.8494 0.9038
-11.2032 -22.3936 -1.8360 0.9045
-8.3309 -22.4016 -1.7524 0.9086
-6.5424 -22.4016 -1.7111 0.9106
-4.7565 -22.0714 -1.6555 0.9134
-3.1598 -22.3632 -1.6560 0.9134
-2.3489 -22.4132 -1.6524 0.9136
-0.7295 -22.4177 -1.6446 0.9140
0.0766 -22.4200 -1.6439 0.9140
0.8490 -21.5566 -1.5818 0.9171
1.6920 -22.4245 -1.6489 0.9138
3.6995 -24.9496 -1.8494 0.9038
6.3632 -24.4065 -1.8494 0.9038
8.7665 -25.8523 -2.0016 0.8963
11.4980 -24.7586 -2.0016 0.8963
2.1882 -4.3003 -0.3538 0.9808
2.3309 -4.1999 -0.3522 0.9809
14.0959 -23.3772 -2.0016 0.8963
14.9270 -22.8556 -2.0016 0.8963
16.5301 -21.7243 -2.0016 0.8963
17.3001 -21.1162 -2.0016 0.8963
18.0479 -20.4808 -2.0016 0.8963
19.4724 -19.1316 -2.0016 0.8963
20.7963 -17.6835 -2.0016 0.8963
21.4184 -16.9246 -2.0016 0.8963
22.0128 -16.1440 -2.0016 0.8963
22.5787 -15.3425 -2.0016 0.8963
24.0989 -12.8232 -2.0016 0.8963
24.9577 -11.0591 -2.0016 0.8963
25.3390 -10.1550 -2.0016 0.8963
25.6876 -9.2378 -2.0016 0.8963
26.2848 -7.3688 -2.0016 0.8963
26.5326 -6.4194 -2.0016 0.8963
26.9252 -4.4970 -2.0016 0.8963
27.0694 -3.5265 -2.0016 0.8963
27.1787 -2.5514 -2.0016 0.8963
27.2528 -1.5730 -2.0016 0.8963
27.2917 -0.5925 -2.0016 0.8963
27.2954 0.3887 -2.0016 0.8963
27.2638 1.3693 -2.0016 0.8963
27.0950 3.3242 -2.0016 0.8963
26.7863 5.2618 -2.0016 0.8963
26.5799 6.2211 -2.0016 0.8963
12.3943 16.7643 -2.0016 0.9196
11.7838 17.1989 -2.0016 0.9196
10.5179 18.0009 -2.0016 0.9196
9.1978 18.7099 -2.0016 0.9196
7.2347 17.8530 -1.8494 0.9255
6.5884 18.1014 -1.8494 0.9255
5.9336 18.3265 -1.8494 0.9255
3.2694 13.2891 -1.3139 0.9465
2.7497 13.2058 -1.2950 0.9472
1.2257 12.5384 -1.2095 0.9506
0.3055 11.9526 -1.1479 0.9531
-0.1236 11.8982 -1.1423 0.9533
-1.4212 11.9649 -1.1568 0.9527
-1.8534 11.9262 -1.1587 0.9527
-2.7540 11.9741 -1.1796 0.9518
-3.1764 11.8445 -1.1773 0.9519
-3.6698 11.9497 -1.2001 0.9510
-4.1737 12.0316 -1.2226 0.9501
-6.2229 12.0209 -1.2995 0.9471
-6.8001 12.0539 -1.3287 0.9459
-7.5983 11.4589 -1.3200 0.9462
-8.2089 11.4629 -1.3536 0.9449
-8.8523 11.4671 -1.3908 0.9434
-9.5329 11.4716 -1.4320 0.9418
-10.2561 11.4763 -1.4776 0.9400
-11.8557 11.4868 -1.5848 0.9358
-12.7481 11.4926 -1.6478 0.9334
-14.7715 11.5059 -1.7976 0.9275
-16.7363 9.5376 -1.8494 0.9255
-17.0683 8.9300 -1.8494 0.9255
-19.4059 7.6206 -2.0016 0.9196
-19.9031 6.2070 -2.0016 0.9196
-20.6921 2.5491 -2.0016 0.9196
-20.7703 1.8038 -2.0016 0.9196
-20.8217 1.0562 -2.0016 0.9196
-20.8463 0.3072 -2.0016 0.9196
-20.8438 -0.4422 -2.0016 0.9196
-20.7582 -1.9383 -2.0016 0.9196
-20.5654 -3.4243 -2.0016 0.9196
-20.4290 -4.1612 -2.0016 0.9196
-20.2663 -4.8927 -2.0016 0.9196
-20.0774 -5.6178 -2.0016 0.9196
-19.0652 -8.4367 -2.0016 0.9196
-18.4099 -9.7844 -2.0016 0.9196
-18.0464 -10.4397 -2.0016 0.9196
-17.6596 -11.0815 -2.0016 0.9196
-16.3643 -12.9178 -2.0016 0.9196
-15.3942 -14.0599 -2.0016 0.9196
-13.7915 -15.6350 -2.0016 0.9196
-12.3195 -16.1740 -1.9519 0.9215
-10.5862 -16.1915 -1.8572 0.9252
-9.9551 -16.4914 -1.8494 0.9255
-9.3560 -16.8385 -1.8494 0.9255
-8.7448 -17.1638 -1.8494 0.9255
-7.4893 -17.7477 -1.8494 0.9255
-6.8467 -18.0054 -1.8494 0.9255
-6.1952 -18.2398 -1.8494 0.9255
-4.8690 -18.6377 -1.8494 0.9255
-4.1961 -18.8006 -1.8494 0.9255
-3.5177 -18.9392 -1.8494 0.9255
-2.1482 -19.1430 -1.8494 0.9255
-0.7676 -19.2479 -1.8494 0.9255
0.5499 -17.1617 -1.6485 0.9333
1.9983 -19.1592 -1.8494 0.9255
4.0488 -18.8329 -1.8494 0.9255
4.7230 -18.6752 -1.8494 0.9255
5.6763 -19.4718 -1.9472 0.9217
6.5503 -19.7928 -2.0016 0.9196
7.2574 -19.5446 -2.0016 0.9196
7.9551 -19.2711 -2.0016 0.9196
8.6425 -18.9728 -2.0016 0.9196
10.6343 -17.9324 -2.0016 0.9196
11.2719 -17.5387 -2.0016 0.9196
12.5026 -16.6837 -2.0016 0.9196
13.0941 -16.2236 -2.0016 0.9196
17.1577 -11.8437 -2.0016 0.9196
18.3328 -9.9282 -2.0016 0.9196
18.6777 -9.2630 -2.0016 0.9196
19.2948 -7.8974 -2.0016 0.9196
19.5662 -7.1989 -2.0016 0.9196
20.3958 -4.3210 -2.0016 0.9196
20.5379 -3.5852 -2.0016 0.9196
20.8045 -1.3539 -2.0016 0.9196
20.8480 0.1440 -2.0016 0.9196
20.7838 1.6411 -2.0016 0.9196
20.4865 3.8685 -2.0016 0.9196
20.1557 5.3300 -2.0016 0.9196
19.7207 6.7640 -2.0016 0.9196
19.4649 7.4684 -2.0016 0.9196
18.5480 9.5200 -2.0016 0.9196
18.1939 10.1804 -2.0016 0.9196
17.8163 10.8277 -2.0016 0.9196
16.9925 12.0795 -2.0016 0.9196
16.5474 12.6823 -2.0016 0.9196
15.5937 13.8382 -2.0016 0.9196
15.0863 14.3897 -2.0016 0.9196
14.5595 14.9225 -2.0016 0.9196
13.4500 15.9298 -2.0016 0.9196
12.8688 16.4029 -2.0016 0.9196
12.2710 16.8547 -2.0016 0.9196
11.6573 17.2849 -2.0016 0.9196
9.0603 18.7769 -2.0016 0.9196
7.4297 16.9262 -1.7746 0.9284
6.4555 18.1493 -1.8494 0.9255
5.7991 18.3695 -1.8494 0.9255
3.7074 13.4042 -1.3352 0.9456
3.1745 13.3238 -1.3150 0.9464
2.6527 13.2251 -1.2950 0.9472
2.0834 12.7472 -1.2400 0.9494
1.1078 12.2600 -1.1818 0.9517
0.6567 12.1118 -1.1645 0.9524
-1.4862 11.7738 -1.1393 0.9534
-1.9388 11.9000 -1.1575 0.9527
-2.8628 12.0421 -1.1883 0.9515
-3.7041 11.7536 -1.1831 0.9517
-4.2485 11.9632 -1.2188 0.9503
-4.6936 11.8481 -1.2235 0.9501
-6.8615 11.9570 -1.3235 0.9461
-8.3374 11.4637 -1.3609 0.9446
-9.6768 11.4725 -1.4409 0.9415
-13.9236 11.5003 -1.7337 0.9300
-14.9990 11.5074 -1.8150 0.9268
-16.0861 10.5975 -1.8494 0.9255
-16.4566 10.0126 -1.8494 0.9255
-19.1208 8.1474 -1.9954 0.9199
-19.7174 6.7738 -2.0016 0.9196
-19.9481 6.0609 -2.0016 0.9196
-20.1530 5.3401 -2.0016 0.9196
-20.4845 3.8787 -2.0016 0.9196
-20.7102 2.3973 -2.0016 0.9196
-20.7830 1.6514 -2.0016 0.9196
-20.8289 0.9035 -2.0016 0.9196
-20.8479 0.1543 -2.0016 0.9196
-20.8051 -1.3436 -2.0016 0.9196
-20.6549 -2.8346 -2.0016 0.9196
-20.5397 -3.5750 -2.0016 0.9196
-20.3979 -4.3109 -2.0016 0.9196
-20.0356 -5.7649 -2.0016 0.9196
-19.5698 -7.1892 -2.0016 0.9196
-19.2988 -7.8878 -2.0016 0.9196
-18.6823 -9.2537 -2.0016 0.9196
-17.9694 -10.5717 -2.0016 0.9196
-16.2692 -13.0374 -2.0016 0.9196
-15.7901 -13.6137 -2.0016 0.9196
-15.2906 -14.1724 -2.0016 0.9196
-13.6745 -15.7335 -2.0013 0.9196
-11.2557 -16.1850 -1.8927 0.9238
-10.4228 -16.1998 -1.8494 0.9255
-9.8339 -16.5639 -1.8494 0.9255
-9.2323 -16.9067 -1.8494 0.9255
-8.6187 -17.2275 -1.8494 0.9255
-7.9940 -17.5261 -1.8494 0.9255
-7.3590 -17.8021 -1.8494 0.9255
-6.7145 -18.0551 -1.8494 0.9255
-5.4714 -16.5052 -1.6694 0.9325
-5.4002 -18.4907 -1.8494 0.9255
-2.6950 -19.0737 -1.8494 0.9255
-2.0078 -19.1582 -1.8494 0.9255
-1.3180 -19.2180 -1.8494 0.9255
1.4493 -19.2086 -1.8494 0.9255
2.1387 -19.1441 -1.8494 0.9255
4.1868 -18.8027 -1.8494 0.9255
5.9108 -19.7365 -1.9780 0.9205
6.6952 -19.7442 -2.0016 0.9196
7.4005 -19.4908 -2.0016 0.9196
8.0962 -19.2123 -2.0016 0.9196
8.7814 -18.9089 -2.0016 0.9196
2.1882 -4.3002 -0.4632 0.9808
11.4002 -17.4555 -2.0016 0.9196
12.0202 -17.0345 -2.0016 0.9196
12.6246 -16.5916 -2.0016 0.9196
13.2127 -16.1271 -2.0016 0.9196
13.7837 -15.6419 -2.0016 0.9196
17.2441 -11.7175 -2.0016 0.9196
17.6541 -11.0903 -2.0016 0.9196
18.4051 -9.7935 -2.0016 0.9196
18.7452 -9.1257 -2.0016 0.9196
19.0610 -8.4462 -2.0016 0.9196
19.3523 -7.7557 -2.0016 0.9196
19.6185 -7.0552 -2.0016 0.9196
19.8593 -6.3456 -2.0016 0.9196
20.0745 -5.6278 -2.0016 0.9196
20.5637 -3.4345 -2.0016 0.9196
20.7572 -1.9486 -2.0016 0.9196
20.8436 -0.4525 -2.0016 0.9196
20.8223 1.0458 -2.0016 0.9196
20.7712 1.7935 -2.0016 0.9196
20.5887 3.2808 -2.0016 0.9196
20.4575 4.0186 -2.0016 0.9196
20.1161 5.4777 -2.0016 0.9196
19.9062 6.1971 -2.0016 0.9196
10.0173 13.5492 -2.0016 0.9344
9.0182 14.2338 -2.0016 0.9344
7.3662 13.7160 -1.8494 0.9392
6.3620 14.2097 -1.8494 0.9392
4.7957 14.8118 -1.8494 0.9392
3.8291 13.4590 -1.6622 0.9452
3.2465 13.1963 -1.6143 0.9467
1.1997 12.2730 -1.4648 0.9515
-0.1214 11.6771 -1.3872 0.9540
-1.7749 11.4207 -1.3729 0.9545
-2.6280 11.4263 -1.3927 0.9539
-3.5108 11.4321 -1.4206 0.9530
-5.4122 11.4446 -1.5038 0.9503
-5.9263 11.4479 -1.5313 0.9494
-6.4602 11.4514 -1.5618 0.9484
-7.0165 11.4551 -1.5957 0.9473
-8.2089 11.4629 -1.6748 0.9448
-8.8523 11.4671 -1.7208 0.9433
-9.5329 11.4716 -1.7718 0.9417
-10.2561 11.4763 -1.8283 0.9399
-10.7848 11.2284 -1.8494 0.9392
-11.1814 10.8335 -1.8494 0.9392
-11.5635 10.4247 -1.8494 0.9392
-11.9307 10.0024 -1.8494 0.9392
-12.6184 9.1196 -1.8494 0.9392
-15.2013 7.2698 -2.0016 0.9344
-15.4527 6.7188 -2.0016 0.9344
-15.6842 6.1591 -2.0016 0.9344
-15.8954 5.5915 -2.0016 0.9344
-16.0861 5.0166 -2.0016 0.9344
-16.4048 3.8482 -2.0016 0.9344
-16.6389 2.6599 -2.0016 0.9344
-16.7237 2.0602 -2.0016 0.9344
-16.8464 -0.3574 -2.0016 0.9344
-16.7100 -2.1685 -2.0016 0.9344
-16.6213 -2.7676 -2.0016 0.9344
-16.2269 -4.5404 -2.0016 0.9344
-16.0532 -5.1207 -2.0016 0.9344
-15.8588 -5.6943 -2.0016 0.9344
-15.6440 -6.2605 -2.0016 0.9344
-15.4089 -6.8187 -2.0016 0.9344
-15.1539 -7.3681 -2.0016 0.9344
-14.8793 -7.9079 -2.0016 0.9344
-14.2728 -8.9563 -2.0016 0.9344
-13.9417 -9.4634 -2.0016 0.9344
-13.5926 -9.9583 -2.0016 0.9344
-13.2260 -10.4404 -2.0016 0.9344
-12.4419 -11.3634 -2.0016 0.9344
-10.2101 -13.4045 -2.0016 0.9344
-8.7081 -14.4256 -2.0016 0.9344
-7.1049 -15.2790 -2.0016 0.9344
-5.4095 -15.9266 -1.9980 0.9345
-3.6092 -16.1710 -1.9681 0.9354
-3.0040 -16.1736 -1.9541 0.9359
-1.2292 -16.1838 -1.9279 0.9367
1.7417 -16.6986 -1.9943 0.9346
4.1313 -16.3358 -2.0016 0.9344
5.2941 -15.9969 -2.0016 0.9344
5.8655 -15.7963 -2.0016 0.9344
6.9850 -15.3342 -2.0016 0.9344
7.5316 -15.0732 -2.0016 0.9344
2.2821 -4.1840 -0.5661 0.9810
8.5948 -14.4933 -2.0016 0.9344
9.1102 -14.1751 -2.0016 0.9344
9.6137 -13.8385 -2.0016 0.9344
11.4974 -12.3182 -2.0016 0.9344
11.9327 -11.8970 -2.0016 0.9344
12.3525 -11.4605 -2.0016 0.9344
12.7564 -11.0092 -2.0016 0.9344
13.1438 -10.5436 -2.0016 0.9344
13.5142 -10.0645 -2.0016 0.9344
13.8672 -9.5723 -2.0016 0.9344
14.5189 -8.5515 -2.0016 0.9344
14.8169 -8.0242 -2.0016 0.9344
15.0957 -7.4865 -2.0016 0.9344
15.3550 -6.9391 -2.0016 0.9344
15.5945 -6.3828 -2.0016 0.9344
16.0127 -5.2462 -2.0016 0.9344
16.1908 -4.6674 -2.0016 0.9344
16.3481 -4.0825 -2.0016 0.9344
16.4843 -3.4923 -2.0016 0.9344
16.6925 -2.2992 -2.0016 0.9344
16.8498 0.1164 -2.0016 0.9344
16.7979 1.3264 -2.0016 0.9344
16.6592 2.5295 -2.0016 0.9344
16.5575 3.1266 -2.0016 0.9344
15.9387 5.4668 -2.0016 0.9344
15.7319 6.0361 -2.0016 0.9344
15.5048 6.5976 -2.0016 0.9344
15.2577 7.1505 -2.0016 0.9344
14.9909 7.6942 -2.0016 0.9344
14.7047 8.2280 -2.0016 0.9344
13.7337 9.7629 -2.0016 0.9344
11.7672 12.0607 -2.0016 0.9344
11.3262 12.4758 -2.0016 0.9344
9.9176 13.6223 -2.0016 0.9344
7.2654 13.7696 -1.8494 0.9392
5.7412 14.4716 -1.8494 0.9392
4.6869 14.8466 -1.8494 0.9392
3.7074 13.4042 -1.6520 0.9455
3.1317 13.1445 -1.6051 0.9470
2.0700 12.6656 -1.5245 0.9496
1.1051 12.2303 -1.4587 0.9517
0.6520 12.0260 -1.4306 0.9526
-0.2064 11.6388 -1.3827 0.9542
-0.6131 11.4131 -1.3577 0.9550
-1.0258 11.4158 -1.3615 0.9549
-2.2855 11.4241 -1.3839 0.9542
-3.6029 11.4327 -1.4239 0.9529
-5.0156 11.4420 -1.4840 0.9509
-7.1330 11.4558 -1.6030 0.9471
-7.7204 11.4597 -1.6414 0.9459
-8.3374 11.4637 -1.6838 0.9445
-10.4093 11.4773 -1.8405 0.9395
-10.8669 11.1490 -1.8494 0.9392
-11.2606 10.7512 -1.8494 0.9392
-12.0037 9.9146 -1.8494 0.9392
-12.3523 9.4768 -1.8494 0.9392
-13.0011 8.5651 -1.8494 0.9392
-13.5646 8.2530 -1.8861 0.9380
-14.6480 8.2059 -1.9944 0.9346
-14.9871 7.7017 -2.0016 0.9344
-15.7289 6.0439 -2.0016 0.9344
-15.9360 5.4747 -2.0016 0.9344
-16.1224 4.8985 -2.0016 0.9344
-16.4326 3.7278 -2.0016 0.9344
-16.7972 1.3347 -2.0016 0.9344
-16.8497 0.1247 -2.0016 0.9344
-16.8433 -0.4809 -2.0016 0.9344
-16.6006 -2.8894 -2.0016 0.9344
-16.3502 -4.0744 -2.0016 0.9344
-16.1932 -4.6593 -2.0016 0.9344
-15.8167 -5.8104 -2.0016 0.9344
-15.5976 -6.3751 -2.0016 0.9344
-15.3584 -6.9315 -2.0016 0.9344
-14.5232 -8.5443 -2.0016 0.9344
-14.2067 -9.0607 -2.0016 0.9344
-13.1490 -10.5371 -2.0016 0.9344
-12.7619 -11.0028 -2.0016 0.9344
-11.5035 -12.3125 -2.0016 0.9344
-10.5894 -13.1070 -2.0016 0.9344
-9.1172 -14.1705 -2.0016 0.9344
-8.6020 -14.4890 -2.0016 0.9344
-8.0758 -14.7888 -2.0016 0.9344
-7.5391 -15.0695 -2.0016 0.9344
-5.8700 -15.7843 -2.0004 0.9344
-5.2910 -15.9611 -1.9974 0.9345
-4.0976 -16.1686 -1.9813 0.9350
-3.4850 -16.1716 -1.9651 0.9355
-2.2856 -16.1761 -1.9406 0.9363
-0.5279 -16.2242 -1.9282 0.9367
0.6462 -16.4074 -1.9505 0.9360
1.2498 -16.5642 -1.9732 0.9353
2.4691 -16.6520 -1.9997 0.9344
3.6623 -16.4473 -2.0016 0.9344
5.4112 -15.9576 -2.0016 0.9344
7.0973 -15.2825 -2.0016 0.9344
2.3308 -4.1998 -0.5706 0.9808
8.7009 -14.4299 -2.0016 0.9344
9.2139 -14.1079 -2.0016 0.9344
9.7149 -13.7676 -2.0016 0.9344
10.2034 -13.4096 -2.0016 0.9344
10.6787 -13.0343 -2.0016 0.9344
11.1403 -12.6421 -2.0016 0.9344
11.5874 -12.2336 -2.0016 0.9344
12.0196 -11.8092 -2.0016 0.9344
12.4362 -11.3696 -2.0016 0.9344
12.8368 -10.9153 -2.0016 0.9344
13.9370 -9.4703 -2.0016 0.9344
14.2684 -8.9634 -2.0016 0.9344
14.5813 -8.4448 -2.0016 0.9344
14.8753 -7.9153 -2.0016 0.9344
15.1502 -7.3756 -2.0016 0.9344
15.4055 -6.8264 -2.0016 0.9344
15.6408 -6.2683 -2.0016 0.9344
15.8560 -5.7022 -2.0016 0.9344
16.2246 -4.5485 -2.0016 0.9344
16.3776 -3.9625 -2.0016 0.9344
16.5094 -3.3713 -2.0016 0.9344
16.7090 -2.1768 -2.0016 0.9344
16.7764 -1.5749 -2.0016 0.9344
16.8484 0.2399 -2.0016 0.9344
16.7877 1.4495 -2.0016 0.9344
16.0886 5.0086 -2.0016 0.9344
8.3980 11.3591 -2.0016 0.9445
7.5604 11.9329 -2.0016 0.9445
7.1012 12.1532 -1.9944 0.9447
6.1755 11.4989 -1.8494 0.9486
5.7583 11.7134 -1.8494 0.9486
5.3336 11.9127 -1.8494 0.9486
4.9020 12.0967 -1.8494 0.9486
4.4641 12.2651 -1.8494 0.9486
3.5716 12.5540 -1.8494 0.9486
3.1181 12.6743 -1.8494 0.9486
2.1735 12.7123 -1.8273 0.9492
1.6757 12.4877 -1.7852 0.9504
1.1997 12.2730 -1.7472 0.9514
0.7430 12.0670 -1.7130 0.9523
-0.5292 11.4126 -1.6188 0.9549
-0.9414 11.4153 -1.6229 0.9548
-1.3563 11.4180 -1.6292 0.9546
-2.6280 11.4263 -1.6613 0.9537
-3.5108 11.4321 -1.6945 0.9528
-4.4344 11.4382 -1.7382 0.9516
-4.9156 11.4413 -1.7644 0.9509
-5.4122 11.4446 -1.7938 0.9501
-5.9263 11.4479 -1.8265 0.9493
-6.8175 11.1302 -1.8494 0.9486
-7.2131 10.8780 -1.8494 0.9486
-7.5994 10.6118 -1.8494 0.9486
-8.3420 10.0385 -1.8494 0.9486
-8.6974 9.7322 -1.8494 0.9486
-9.0415 9.4134 -1.8494 0.9486
-10.0022 8.3855 -1.8494 0.9486
-10.5915 8.2500 -1.9022 0.9472
-11.3923 8.2334 -1.9916 0.9448
-11.7323 7.8532 -2.0004 0.9446
-12.0140 7.4309 -2.0016 0.9445
-12.2733 6.9943 -2.0016 0.9445
-13.3260 4.6876 -2.0016 0.9445
-13.4858 4.2057 -2.0016 0.9445
-13.6283 3.7183 -2.0016 0.9445
-13.7531 3.2261 -2.0016 0.9445
-13.8601 2.7298 -2.0016 0.9445
-13.9493 2.2299 -2.0016 0.9445
-14.0204 1.7272 -2.0016 0.9445
-14.1249 0.2081 -2.0016 0.9445
-14.1232 -0.2996 -2.0016 0.9445
-14.1033 -0.8070 -2.0016 0.9445
-14.0089 -1.8179 -2.0016 0.9445
-13.9346 -2.3202 -2.0016 0.9445
-12.6212 -3.5315 -1.8570 0.9484
-12.7043 -6.1770 -2.0016 0.9445
-12.2278 -7.0736 -2.0016 0.9445
-11.3954 -8.3486 -2.0016 0.9445
-11.0880 -8.7528 -2.0016 0.9445
-10.7663 -9.1456 -2.0016 0.9445
-10.4307 -9.5266 -2.0016 0.9445
-10.0816 -9.8953 -2.0016 0.9445
-9.7195 -10.2512 -2.0016 0.9445
-8.9580 -10.9229 -2.0016 0.9445
-8.5597 -11.2378 -2.0016 0.9445
-6.4129 -12.5869 -2.0016 0.9445
-5.9564 -12.8092 -2.0016 0.9445
-5.0209 -13.2040 -2.0016 0.9445
-4.5432 -13.3759 -2.0016 0.9445
-4.0595 -13.5305 -2.0016 0.9445
-3.5706 -13.6677 -2.0016 0.9445
-3.0771 -13.7872 -2.0016 0.9445
-2.5797 -13.8889 -2.0016 0.9445
-1.5754 -14.0383 -2.0016 0.9445
-1.0698 -14.0858 -2.0016 0.9445
-0.0553 -14.1263 -2.0016 0.9445
0.9595 -14.0938 -2.0016 0.9445
1.4654 -14.0502 -2.0016 0.9445
2.4708 -13.9086 -2.0016 0.9445
3.4635 -13.6952 -2.0016 0.9445
4.9174 -13.2429 -2.0016 0.9445
5.3901 -13.0576 -2.0016 0.9445
5.8559 -12.8555 -2.0016 0.9445
2.2821 -4.1840 -0.6753 0.9809
7.6375 -11.8837 -2.0016 0.9445
8.0597 -11.6016 -2.0016 0.9445
9.6389 -10.3270 -2.0016 0.9445
10.0038 -9.9739 -2.0016 0.9445
10.3558 -9.6080 -2.0016 0.9445
11.6256 -8.0250 -2.0016 0.9445
12.8729 -5.8175 -2.0016 0.9445
13.5737 -3.9129 -2.0016 0.9445
13.9160 -2.4293 -2.0016 0.9445
13.9943 -1.9276 -2.0016 0.9445
14.0545 -1.4234 -2.0016 0.9445
14.1261 0.0975 -2.0016 0.9445
14.1134 0.6051 -2.0016 0.9445
14.0826 1.1120 -2.0016 0.9445
14.0335 1.6173 -2.0016 0.9445
13.9663 2.1206 -2.0016 0.9445
13.8811 2.6212 -2.0016 0.9445
13.7779 3.1184 -2.0016 0.9445
13.5183 4.1000 -2.0016 0.9445
13.1889 5.0604 -2.0016 0.9445
12.0719 7.3366 -2.0016 0.9445
11.8004 7.7657 -2.0016 0.9445
11.5137 8.1847 -2.0016 0.9445
10.8961 8.9906 -2.0016 0.9445
9.8651 10.1111 -2.0016 0.9445
9.4954 10.4591 -2.0016 0.9445
8.7196 11.1142 -2.0016 0.9445
8.3145 11.4203 -2.0016 0.9445
7.8987 11.7118 -2.0016 0.9445
7.4715 11.9862 -2.0012 0.9445
6.5731 11.4413 -1.8696 0.9481
4.8132 12.1323 -1.8494 0.9486
4.3741 12.2975 -1.8494 0.9486
3.9293 12.4467 -1.8494 0.9486
3.4795 12.5799 -1.8494 0.9486
3.0251 12.6968 -1.8494 0.9486
2.5669 12.7973 -1.8494 0.9486
2.0700 12.6656 -1.8184 0.9495
1.5769 12.4432 -1.7772 0.9506
1.1051 12.2303 -1.7400 0.9516
-0.6131 11.4131 -1.6194 0.9549
-1.1033 8.7404 -1.2483 0.9650
-3.1552 11.4298 -1.6801 0.9532
-3.6029 11.4327 -1.6984 0.9527
-4.0612 11.4357 -1.7195 0.9522
-4.5315 11.4388 -1.7433 0.9515
-5.0156 11.4420 -1.7701 0.9508
-5.5156 11.4452 -1.8002 0.9500
-6.0335 11.4486 -1.8336 0.9491
-6.4963 11.3207 -1.8494 0.9486
-6.8990 11.0799 -1.8494 0.9486
-7.2927 10.8248 -1.8494 0.9486
-8.0514 10.2730 -1.8494 0.9486
-8.7685 9.6682 -1.8494 0.9486
-9.1103 9.3468 -1.8494 0.9486
-9.4403 9.0134 -1.8494 0.9486
-9.7582 8.6683 -1.8494 0.9486
-10.7490 8.2468 -1.9196 0.9467
-11.4725 8.1641 -1.9951 0.9447
-11.7966 7.7715 -2.0016 0.9445
-13.1864 5.0669 -2.0016 0.9445
-13.5163 4.1067 -2.0016 0.9445
-13.7764 3.1252 -2.0016 0.9445
-13.8798 2.6281 -2.0016 0.9445
-13.9653 2.1276 -2.0016 0.9445
-14.1131 0.6122 -2.0016 0.9445
-14.1260 0.1046 -2.0016 0.9445
-14.0552 -1.4164 -2.0016 0.9445
-12.8228 -2.7099 -1.8570 0.9484
-12.5950 -3.6240 -1.8570 0.9484
-12.4566 -4.0743 -1.8570 0.9484
-12.3021 -4.5193 -1.8570 0.9484
-12.1318 -4.9585 -1.8570 0.9484
-11.9457 -5.3913 -1.8570 0.9484
-12.6587 -6.2700 -2.0016 0.9445
-12.4252 -6.7209 -2.0016 0.9445
-12.1756 -7.1631 -2.0016 0.9445
-11.9103 -7.5961 -2.0016 0.9445
-11.6296 -8.0192 -2.0016 0.9445
-11.0236 -8.8338 -2.0016 0.9445
-10.3606 -9.6028 -2.0016 0.9445
-9.2668 -10.6621 -2.0016 0.9445
-8.8777 -10.9883 -2.0016 0.9445
-8.4770 -11.3002 -2.0016 0.9445
-8.0655 -11.5976 -2.0016 0.9445
-7.6434 -11.8799 -2.0016 0.9445
-6.7704 -12.3983 -2.0016 0.9445
-6.3204 -12.6336 -2.0016 0.9445
-5.8623 -12.8526 -2.0016 0.9445
-5.3966 -13.0549 -2.0016 0.9445
-4.4450 -13.4089 -2.0016 0.9445
-3.9602 -13.5599 -2.0016 0.9445
-2.9760 -13.8094 -2.0016 0.9445
-0.9665 -14.0933 -2.0016 0.9445
-0.4594 -14.1189 -2.0016 0.9445
0.5559 -14.1155 -2.0016 0.9445
1.0629 -14.0864 -2.0016 0.9445
2.0719 -13.9736 -2.0016 0.9445
2.5728 -13.8901 -2.0016 0.9445
3.0703 -13.7887 -2.0016 0.9445
3.5639 -13.6695 -2.0016 0.9445
4.0528 -13.5326 -2.0016 0.9445
4.5365 -13.3782 -2.0016 0.9445
5.4857 -13.0177 -2.0016 0.9445
5.9500 -12.8122 -2.0016 0.9445
2.3308 -4.1998 -0.6806 0.9808
7.2944 -12.0974 -2.0016 0.9445
8.9526 -10.9273 -2.0016 0.9445
10.4260 -9.5318 -2.0016 0.9445
10.7618 -9.1509 -2.0016 0.9445
11.0837 -8.7583 -2.0016 0.9445
11.3913 -8.3543 -2.0016 0.9445
12.4708 -6.6358 -2.0016 0.9445
12.7012 -6.1834 -2.0016 0.9445
12.9152 -5.7229 -2.0016 0.9445
13.1126 -5.2551 -2.0016 0.9445
13.8408 -2.8264 -2.0016 0.9445
14.0646 -1.3203 -2.0016 0.9445
14.1231 -0.3066 -2.0016 0.9445
13.9504 2.2230 -2.0016 0.9445
13.4879 4.1990 -2.0016 0.9445
7.2230 9.7697 -2.0016 0.9519
5.4857 10.2143 -1.9100 0.9541
4.9526 10.0745 -1.8494 0.9555
4.5873 10.2459 -1.8494 0.9555
3.8395 10.5490 -1.8494 0.9555
3.0719 10.7975 -1.8494 0.9555
2.6819 10.9009 -1.8494 0.9555
2.2884 10.9903 -1.8494 0.9555
1.8919 11.0654 -1.8494 0.9555
1.4930 11.1263 -1.8494 0.9555
0.6900 11.2048 -1.8494 0.9555
-0.5200 11.2139 -1.8494 0.9555
-0.9227 11.1880 -1.8494 0.9555
-1.0616 8.9375 -1.4827 0.9642
-1.3543 8.7147 -1.4529 0.9649
-2.1215 11.0237 -1.8494 0.9555
-2.9078 10.8429 -1.8494 0.9555
-3.6791 10.6060 -1.8494 0.9555
-4.7993 10.1484 -1.8494 0.9555
-5.8636 9.5729 -1.8494 0.9555
-6.8599 8.8862 -1.8494 0.9555
-7.1748 8.6339 -1.8494 0.9555
-8.5056 8.2410 -1.9510 0.9531
-9.8473 7.1169 -2.0016 0.9519
-10.5561 6.0157 -2.0016 0.9519
-10.9609 5.2419 -2.0016 0.9519
-11.3091 4.4410 -2.0016 0.9519
-11.4614 4.0317 -2.0016 0.9519
-11.7214 3.1981 -2.0016 0.9519
-11.8288 2.7748 -2.0016 0.9519
-11.9209 2.3479 -2.0016 0.9519
-11.9975 1.9179 -2.0016 0.9519
-12.1043 1.0512 -2.0016 0.9519
-12.1343 0.6155 -2.0016 0.9519
-12.1471 -0.2577 -2.0016 0.9519
-12.1300 -0.6941 -2.0016 0.9519
-11.9849 -1.9956 -2.0016 0.9519
-11.0454 -2.2498 -1.8570 0.9553
-10.9575 -2.6453 -1.8570 0.9553
-10.7391 -3.4256 -1.8570 0.9553
-10.6091 -3.8093 -1.8570 0.9553
-10.3081 -4.5615 -1.8570 0.9553
-9.9538 -5.2902 -1.8570 0.9553
-9.7572 -5.6445 -1.8570 0.9553
-10.0527 -6.8236 -2.0016 0.9519
-9.2599 -7.8660 -2.0016 0.9519
-8.3595 -8.8169 -2.0016 0.9519
-7.7046 -9.3946 -2.0016 0.9519
-7.0099 -9.9237 -2.0016 0.9519
-6.2790 -10.4016 -2.0016 0.9519
-5.9011 -10.6206 -2.0016 0.9519
-4.7238 -11.1940 -2.0016 0.9519
-4.3184 -11.3565 -2.0016 0.9519
-3.9075 -11.5044 -2.0016 0.9519
-3.4915 -11.6374 -2.0016 0.9519
-3.0710 -11.7553 -2.0016 0.9519
-2.6466 -11.8581 -2.0016 0.9519
-2.2187 -11.9456 -2.0016 0.9519
-1.7880 -12.0176 -2.0016 0.9519
0.8253 -12.1218 -2.0016 0.9519
2.1251 -11.9626 -2.0016 0.9519
2.9789 -11.7790 -2.0016 0.9519
4.2294 -11.3900 -2.0016 0.9519
5.0366 -11.0568 -2.0016 0.9519
5.4307 -10.8686 -2.0016 0.9519
2.2821 -4.1840 -0.7851 0.9809
6.1973 -10.4505 -2.0016 0.9519
6.5689 -10.2210 -2.0016 0.9519
6.9320 -9.9783 -2.0016 0.9519
7.2861 -9.7227 -2.0016 0.9519
7.6308 -9.4546 -2.0016 0.9519
7.9657 -9.1743 -2.0016 0.9519
8.2902 -8.8821 -2.0016 0.9519
8.6041 -8.5784 -2.0016 0.9519
8.9068 -8.2636 -2.0016 0.9519
9.1980 -7.9382 -2.0016 0.9519
9.4774 -7.6025 -2.0016 0.9519
9.9990 -6.9021 -2.0016 0.9519
10.6838 -5.7859 -2.0016 0.9519
10.8848 -5.3982 -2.0016 0.9519
11.0718 -5.0035 -2.0016 0.9519
11.2444 -4.6024 -2.0016 0.9519
11.4026 -4.1953 -2.0016 0.9519
11.6745 -3.3654 -2.0016 0.9519
12.0362 -1.6579 -2.0016 0.9519
12.1496 0.0839 -2.0016 0.9519
12.1387 0.5205 -2.0016 0.9519
11.9389 2.2544 -2.0016 0.9519
11.6269 3.5263 -2.0016 0.9519
11.4927 3.9419 -2.0016 0.9519
10.6029 5.9328 -2.0016 0.9519
10.3828 6.3101 -2.0016 0.9519
10.1493 6.6791 -2.0016 0.9519
9.9027 7.0395 -2.0016 0.9519
9.3715 7.7327 -2.0016 0.9519
9.0875 8.0645 -2.0016 0.9519
7.8382 9.2834 -2.0016 0.9519
6.7935 10.0731 -2.0016 0.9519
6.0374 10.5089 -1.9966 0.9521
5.3110 10.0654 -1.8748 0.9549
4.5121 10.2793 -1.8494 0.9555
4.1397 10.4348 -1.8494 0.9555
3.3795 10.7052 -1.8494 0.9555
2.9926 10.8198 -1.8494 0.9555
1.8107 11.0790 -1.8494 0.9555
1.4114 11.1369 -1.8494 0.9555
0.6078 11.2095 -1.8494 0.9555
0.2045 11.2241 -1.8494 0.9555
-0.1990 11.2242 -1.8494 0.9555
-0.6022 11.2098 -1.8494 0.9555
-2.5964 10.9216 -1.8494 0.9555
-3.3742 10.7069 -1.8494 0.9555
-3.7568 10.5787 -1.8494 0.9555
-4.1346 10.4369 -1.8494 0.9555
-4.5070 10.2815 -1.8494 0.9555
-4.8735 10.1129 -1.8494 0.9555
-5.5874 9.7367 -1.8494 0.9555
-8.0420 8.2508 -1.8981 0.9544
-9.3677 7.7373 -2.0016 0.9519
-9.6397 7.3957 -2.0016 0.9519
-9.8992 7.0445 -2.0016 0.9519
-10.1460 6.6842 -2.0016 0.9519
-10.8065 5.5533 -2.0016 0.9519
-11.4907 3.9476 -2.0016 0.9519
-11.6251 3.5321 -2.0016 0.9519
-11.8488 2.6879 -2.0016 0.9519
-11.9378 2.2604 -2.0016 0.9519
-12.1117 0.9624 -2.0016 0.9519
-12.1495 0.0899 -2.0016 0.9519
-12.1246 -0.7830 -2.0016 0.9519
-12.0886 -1.2182 -2.0016 0.9519
-11.9699 -2.0834 -2.0016 0.9519
-10.9378 -2.7256 -1.8570 0.9553
-10.8327 -3.1169 -1.8570 0.9553
-10.7137 -3.5042 -1.8570 0.9553
-10.5809 -3.8870 -1.8570 0.9553
-10.4343 -4.2647 -1.8570 0.9553
-10.1011 -5.0032 -1.8570 0.9553
-9.9147 -5.3630 -1.8570 0.9553
-10.4720 -6.1609 -2.0016 0.9519
-9.7481 -7.2522 -2.0016 0.9519
-9.4812 -7.5978 -2.0016 0.9519
-9.2020 -7.9336 -2.0016 0.9519
-8.9109 -8.2592 -2.0016 0.9519
-8.6084 -8.5741 -2.0016 0.9519
-7.2910 -9.7191 -2.0016 0.9519
-6.5740 -10.2177 -2.0016 0.9519
-6.2025 -10.4474 -2.0016 0.9519
-5.8231 -10.6636 -2.0016 0.9519
-5.4361 -10.8659 -2.0016 0.9519
-4.2350 -11.3879 -2.0016 0.9519
-3.8230 -11.5327 -2.0016 0.9519
-3.4061 -11.6627 -2.0016 0.9519
-2.5596 -11.8772 -2.0016 0.9519
-1.6998 -12.0304 -2.0016 0.9519
-0.8313 -12.1214 -2.0016 0.9519
1.3490 -12.0748 -2.0016 0.9519
2.2128 -11.9467 -2.0016 0.9519
3.4857 -11.6391 -2.0016 0.9519
3.9018 -11.5063 -2.0016 0.9519
7.6999 -9.3984 -2.0016 0.9519
8.3551 -8.8211 -2.0016 0.9519
9.5329 -7.5328 -2.0016 0.9519
10.0493 -6.8286 -2.0016 0.9519
10.2883 -6.4631 -2.0016 0.9519
10.5139 -6.0891 -2.0016 0.9519
10.7259 -5.7074 -2.0016 0.9519
10.9241 -5.3182 -2.0016 0.9519
11.4330 -4.1116 -2.0016 0.9519
11.5734 -3.6980 -2.0016 0.9519
11.9042 -2.4309 -2.0016 0.9519
12.0481 -1.5696 -2.0016 0.9519
12.1470 -0.2637 -2.0016 0.9519
12.1346 0.6095 -2.0016 0.9519
12.1048 1.0452 -2.0016 0.9519
11.9985 1.9120 -2.0016 0.9519
11.9220 2.3419 -2.0016 0.9519
11.8302 2.7689 -2.0016 0.9519
11.7230 3.1922 -2.0016 0.9519
6.0188 8.7847 -2.0016 0.9576
5.6992 8.9953 -2.0016 0.9576
5.3723 9.1943 -2.0016 0.9576
4.6810 9.5220 -1.9943 0.9577
4.1340 9.2334 -1.9015 0.9597
3.0307 9.3607 -1.8494 0.9607
-0.4558 9.8285 -1.8494 0.9607
-1.0364 8.7252 -1.6515 0.9649
-1.3499 8.6860 -1.6522 0.9649
-2.5486 9.5033 -1.8494 0.9607
-2.8884 9.4055 -1.8494 0.9607
-3.2246 9.2957 -1.8494 0.9607
-5.4754 8.2574 -1.8623 0.9605
-5.9074 8.2491 -1.9071 0.9595
-6.3610 8.2399 -1.9566 0.9585
-6.7840 8.1637 -1.9951 0.9577
-7.6479 7.4099 -2.0016 0.9576
-7.9092 7.1303 -2.0016 0.9576
-8.1604 6.8415 -2.0016 0.9576
-8.6307 6.2376 -2.0016 0.9576
-9.0565 5.6016 -2.0016 0.9576
-9.2519 5.2725 -2.0016 0.9576
-9.4354 4.9366 -2.0016 0.9576
-9.6068 4.5943 -2.0016 0.9576
-9.7657 4.2461 -2.0016 0.9576
-10.2733 2.8030 -2.0016 0.9576
-10.3674 2.4319 -2.0016 0.9576
-10.4481 2.0578 -2.0016 0.9576
-10.5153 1.6810 -2.0016 0.9576
-10.6089 0.9213 -2.0016 0.9576
-10.6351 0.5395 -2.0016 0.9576
-10.6477 0.1569 -2.0016 0.9576
-10.6314 -0.6083 -2.0016 0.9576
-10.6027 -0.9900 -2.0016 0.9576
-10.5042 -1.7490 -2.0016 0.9576
-9.6037 -2.3185 -1.8570 0.9606
-9.5142 -2.6622 -1.8570 0.9606
-9.2984 -3.3387 -1.8570 0.9606
-9.0346 -3.9980 -1.8570 0.9606
-8.7240 -4.6366 -1.8570 0.9606
-8.5518 -4.9471 -1.8570 0.9606
-8.3685 -5.2512 -1.8570 0.9606
-8.5902 -6.2934 -2.0016 0.9576
-7.5997 -7.4593 -2.0016 0.9576
-7.3268 -7.7276 -2.0016 0.9576
-7.0443 -7.9859 -2.0016 0.9576
-6.7528 -8.2339 -2.0016 0.9576
-6.4525 -8.4713 -2.0016 0.9576
-5.1721 -9.3084 -2.0016 0.9576
-4.8342 -9.4883 -2.0016 0.9576
-4.1402 -9.8110 -2.0016 0.9576
-3.7849 -9.9535 -2.0016 0.9576
-2.6916 -10.3030 -2.0016 0.9576
-1.5671 -10.5329 -2.0016 0.9576
-1.1876 -10.5824 -2.0016 0.9576
-0.8065 -10.6182 -2.0016 0.9576
-0.4244 -10.6404 -2.0016 0.9576
0.7233 -10.6242 -2.0016 0.9576
1.1047 -10.5914 -2.0016 0.9576
4.4143 -9.6908 -2.0016 0.9576
4.7597 -9.5259 -2.0016 0.9576
2.2820 -4.1839 -0.8958 0.9808
5.7574 -8.9582 -2.0016 0.9576
6.6881 -8.2865 -2.0016 0.9576
7.2660 -7.7847 -2.0016 0.9576
7.8064 -7.2427 -2.0016 0.9576
8.0617 -6.9575 -2.0016 0.9576
8.3065 -6.6633 -2.0016 0.9576
8.5406 -6.3605 -2.0016 0.9576
8.7637 -6.0494 -2.0016 0.9576
9.3639 -5.0710 -2.0016 0.9576
9.5401 -4.7313 -2.0016 0.9576
9.7039 -4.3853 -2.0016 0.9576
9.8553 -4.0338 -2.0016 0.9576
10.1195 -3.3154 -2.0016 0.9576
10.2322 -2.9496 -2.0016 0.9576
10.4176 -2.2070 -2.0016 0.9576
10.4902 -1.8312 -2.0016 0.9576
10.6443 -0.3092 -2.0016 0.9576
10.6158 0.8382 -2.0016 0.9576
10.5788 1.2192 -2.0016 0.9576
10.5281 1.5986 -2.0016 0.9576
10.4639 1.9759 -2.0016 0.9576
10.2949 2.7224 -2.0016 0.9576
10.1904 3.0906 -2.0016 0.9576
10.0728 3.4549 -2.0016 0.9576
9.9421 3.8146 -2.0016 0.9576
9.4738 4.8625 -2.0016 0.9576
8.8954 5.8540 -2.0016 0.9576
8.2137 6.7773 -2.0016 0.9576
7.9648 7.0682 -2.0016 0.9576
7.4366 7.6220 -2.0016 0.9576
7.1578 7.8843 -2.0016 0.9576
6.8699 8.1365 -2.0016 0.9576
6.2677 8.6089 -2.0016 0.9576
5.9542 8.8286 -2.0016 0.9576
5.6331 9.0369 -2.0016 0.9576
4.9625 9.4051 -1.9988 0.9576
4.5743 9.4799 -1.9784 0.9581
4.0266 9.1732 -1.8830 0.9600
3.2973 9.2701 -1.8494 0.9607
2.9620 9.3826 -1.8494 0.9607
2.2804 9.5712 -1.8494 0.9607
1.5870 9.7102 -1.8494 0.9607
1.2370 9.7610 -1.8494 0.9607
0.8854 9.7992 -1.8494 0.9607
0.1793 9.8374 -1.8494 0.9607
-0.1744 9.8375 -1.8494 0.9607
-0.5278 9.8249 -1.8494 0.9607
-1.0964 8.6857 -1.6455 0.9650
-1.9302 9.6479 -1.8494 0.9607
-2.2756 9.5723 -1.8494 0.9607
-2.6182 9.4843 -1.8494 0.9607
-3.2927 9.2718 -1.8494 0.9607
-3.6237 9.1474 -1.8494 0.9607
-3.9502 9.0113 -1.8494 0.9607
-4.2714 8.8635 -1.8494 0.9607
-4.5872 8.7043 -1.8494 0.9607
-5.5619 8.2558 -1.8711 0.9603
-5.9981 8.2473 -1.9168 0.9593
-7.9613 7.0721 -2.0016 0.9576
-8.2103 6.7814 -2.0016 0.9576
-8.6762 6.1742 -2.0016 0.9576
-8.8925 5.8584 -2.0016 0.9576
-9.0973 5.5350 -2.0016 0.9576
-9.2903 5.2045 -2.0016 0.9576
-10.1889 3.0957 -2.0016 0.9576
-10.2936 2.7275 -2.0016 0.9576
-10.3850 2.3559 -2.0016 0.9576
-10.4629 1.9811 -2.0016 0.9576
-10.5274 1.6038 -2.0016 0.9576
-10.5782 1.2245 -2.0016 0.9576
-10.6445 -0.3039 -2.0016 0.9576
-10.6267 -0.6863 -2.0016 0.9576
-10.5499 -1.4478 -2.0016 0.9576
-10.4911 -1.8260 -2.0016 0.9576
-9.6161 -2.3963 -1.8627 0.9605
-9.4944 -2.7319 -1.8570 0.9606
-9.3901 -3.0713 -1.8570 0.9606
-9.2737 -3.4068 -1.8570 0.9606
-9.1452 -3.7379 -1.8570 0.9606
-8.1334 -5.6084 -1.8570 0.9606
-8.5438 -6.3562 -2.0016 0.9576
-8.3098 -6.6591 -2.0016 0.9576
-8.0651 -6.9535 -2.0016 0.9576
-6.3902 -8.5184 -2.0016 0.9576
-6.0799 -8.7425 -2.0016 0.9576
-5.7618 -8.9554 -2.0016 0.9576
-5.1037 -9.3461 -2.0016 0.9576
-4.7645 -9.5235 -2.0016 0.9576
-4.0681 -9.8411 -2.0016 0.9576
-3.3507 -10.1079 -2.0016 0.9576
-2.6160 -10.3225 -2.0016 0.9576
-2.2434 -10.4098 -2.0016 0.9576
-1.8678 -10.4837 -2.0016 0.9576
-1.4898 -10.5441 -2.0016 0.9576
0.4191 -10.6406 -2.0016 0.9576
3.0551 -10.2012 -2.0016 0.9576
3.4197 -10.0848 -2.0016 0.9576
2.1880 -4.2998 -0.9068 0.9806
5.8229 -8.9158 -2.0016 0.9576
7.3229 -7.7313 -2.0016 0.9576
7.5960 -7.4631 -2.0016 0.9576
8.1125 -6.8982 -2.0016 0.9576
8.3551 -6.6022 -2.0016 0.9576
8.8078 -5.9850 -2.0016 0.9576
9.0172 -5.6646 -2.0016 0.9576
9.4008 -5.0022 -2.0016 0.9576
9.7358 -4.3141 -2.0016 0.9576
9.8846 -3.9614 -2.0016 0.9576
10.3502 -2.5042 -2.0016 0.9576
10.4335 -2.1306 -2.0016 0.9576
10.5596 -1.3757 -2.0016 0.9576
10.6463 -0.2311 -2.0016 0.9576
10.5696 1.2967 -2.0016 0.9576
10.5161 1.6757 -2.0016 0.9576
10.3686 2.4268 -2.0016 0.9576
10.2747 2.7978 -2.0016 0.9576
10.1675 3.1653 -2.0016 0.9576
5.6293 7.6141 -2.0016 0.9620
5.3520 7.8114 -2.0016 0.9620
5.0678 7.9987 -2.0016 0.9620
4.1775 8.4977 -2.0016 0.9620
3.8674 8.6379 -2.0005 0.9620
3.5472 8.7534 -1.9964 0.9621
3.1905 8.7657 -1.9718 0.9626
2.7959 8.6354 -1.9186 0.9636
2.4272 8.5315 -1.8750 0.9644
0.8512 8.7075 -1.8494 0.9649
0.5377 8.7325 -1.8494 0.9649
0.2235 8.7461 -1.8494 0.9649
-0.0909 8.7485 -1.8494 0.9649
-1.0315 8.6836 -1.8484 0.9649
-1.6534 8.5913 -1.8494 0.9649
-2.2662 8.4504 -1.8494 0.9649
-2.8673 8.2658 -1.8494 0.9649
-3.8992 8.2452 -1.9279 0.9634
-5.2284 7.8849 -1.9998 0.9621
-5.5132 7.6985 -2.0016 0.9620
-5.7863 7.4954 -2.0016 0.9620
-6.0519 7.2826 -2.0016 0.9620
-6.5594 6.8291 -2.0016 0.9620
-6.8006 6.5890 -2.0016 0.9620
-7.2563 6.0835 -2.0016 0.9620
-7.6745 5.5466 -2.0016 0.9620
-7.8689 5.2672 -2.0016 0.9620
-8.0531 4.9810 -2.0016 0.9620
-8.5424 4.0853 -2.0016 0.9620
-8.9325 3.1421 -2.0016 0.9620
-9.0396 2.8191 -2.0016 0.9620
-9.1351 2.4924 -2.0016 0.9620
-9.3980 1.1577 -2.0016 0.9620
-9.4335 0.8192 -2.0016 0.9620
-9.4569 0.4797 -2.0016 0.9620
-9.4669 -0.2008 -2.0016 0.9620
-9.4536 -0.5409 -2.0016 0.9620
-9.4280 -0.8803 -2.0016 0.9620
-9.3903 -1.2186 -2.0016 0.9620
-9.3404 -1.5553 -2.0016 0.9620
-9.1850 -2.2174 -1.9973 0.9621
-8.3696 -2.6697 -1.8570 0.9647
-8.1562 -3.2640 -1.8570 0.9647
-8.0336 -3.5550 -1.8570 0.9647
-7.9006 -3.8414 -1.8570 0.9647
-7.7575 -4.1229 -1.8570 0.9647
-7.2687 -4.9339 -1.8570 0.9647
-7.0867 -5.1919 -1.8570 0.9647
-7.2167 -6.1303 -2.0016 0.9620
-6.2639 -7.1012 -2.0016 0.9620
-6.0046 -7.3217 -2.0016 0.9620
-5.7376 -7.5327 -2.0016 0.9620
-5.1817 -7.9254 -2.0016 0.9620
-4.8935 -8.1065 -2.0016 0.9620
-4.5990 -8.2771 -2.0016 0.9620
-4.2986 -8.4371 -2.0016 0.9620
-3.9926 -8.5861 -2.0016 0.9620
-3.6815 -8.7241 -2.0016 0.9620
-2.7211 -9.0696 -2.0016 0.9620
-2.3934 -9.1615 -2.0016 0.9620
-1.7292 -9.3098 -2.0016 0.9620
-1.3935 -9.3659 -2.0016 0.9620
-0.3774 -9.4615 -2.0016 0.9620
-0.0371 -9.4689 -2.0016 0.9620
0.3032 -9.4642 -2.0016 0.9620
0.6432 -9.4471 -2.0016 0.9620
1.3201 -9.3765 -2.0016 0.9620
1.6562 -9.3230 -2.0016 0.9620
1.9902 -9.2575 -2.0016 0.9620
2.3216 -9.1800 -2.0016 0.9620
2.9750 -8.9895 -2.0016 0.9620
5.6784 -7.5774 -2.0016 0.9620
5.9471 -7.3685 -2.0016 0.9620
6.7056 -6.6856 -2.0016 0.9620
7.5944 -5.6558 -2.0016 0.9620
7.9810 -5.0957 -2.0016 0.9620
8.1590 -4.8055 -2.0016 0.9620
8.4831 -4.2071 -2.0016 0.9620
8.9984 -2.9481 -2.0016 0.9620
9.1869 -2.2942 -2.0016 0.9620
9.3280 -1.6283 -2.0016 0.9620
9.4208 -0.9541 -2.0016 0.9620
9.4490 -0.6149 -2.0016 0.9620
9.4603 0.4056 -2.0016 0.9620
9.4396 0.7454 -2.0016 0.9620
9.3617 1.4215 -2.0016 0.9620
9.3046 1.7570 -2.0016 0.9620
9.2354 2.0903 -2.0016 0.9620
9.1543 2.4208 -2.0016 0.9620
9.0614 2.7482 -2.0016 0.9620
8.8406 3.3920 -2.0016 0.9620
8.7130 3.7075 -2.0016 0.9620
7.7177 5.4863 -2.0016 0.9620
7.5156 5.7601 -2.0016 0.9620
6.6126 6.7776 -2.0016 0.9620
6.3648 7.0108 -2.0016 0.9620
6.1087 7.2350 -2.0016 0.9620
5.8448 7.4499 -2.0016 0.9620
5.2946 7.8505 -2.0016 0.9620
4.4189 8.3747 -2.0016 0.9620
4.1150 8.5281 -2.0016 0.9620
3.8023 8.6624 -1.9997 0.9621
3.1082 8.7386 -1.9605 0.9628
2.3551 8.5150 -1.8675 0.9645
2.0277 8.5108 -1.8494 0.9649
1.4112 8.6344 -1.8494 0.9649
0.4737 8.7362 -1.8494 0.9649
0.1594 8.7475 -1.8494 0.9649
