ply
format ascii 1.0
element vertex 1581
property float32 x
property float32 y
property float32 z
property float32 I
end_header
13.4351 -10.1698 -2.0016 0.9344
14.1301 -9.1797 -2.0016 0.9344
14.7523 -8.1424 -2.0016 0.9344
15.0350 -7.6076 -2.0016 0.9344
15.2984 -7.0630 -2.0016 0.9344
15.5421 -6.5094 -2.0016 0.9344
15.7657 -5.9473 -2.0016 0.9344
15.9690 -5.3776 -2.0016 0.9344
16.3137 -4.2181 -2.0016 0.9344
16.6726 -2.4400 -2.0016 0.9344
16.7494 -1.8399 -2.0016 0.9344
16.8501 -0.0288 -2.0016 0.9344
16.7556 1.7827 -2.0016 0.9344
16.5845 2.9802 -2.0016 0.9344
16.3280 4.1623 -2.0016 0.9344
16.1680 4.7457 -2.0016 0.9344
15.7859 5.8934 -2.0016 0.9344
15.0609 7.5562 -2.0016 0.9344
14.4800 8.6172 -2.0016 0.9344
13.8245 9.6339 -2.0016 0.9344
13.4698 10.1239 -2.0016 0.9344
11.8823 11.9474 -2.0016 0.9344
11.4458 12.3662 -2.0016 0.9344
10.9945 12.7690 -2.0016 0.9344
10.0501 13.5249 -2.0016 0.9344
8.5380 14.5269 -2.0016 0.9344
6.4002 14.1925 -1.8494 0.9392
4.0055 13.9272 -1.7214 0.9433
3.2925 13.2170 -1.6180 0.9466
1.7169 12.5063 -1.4995 0.9504
-0.9034 11.4150 -1.3602 0.9549
-1.3174 11.4177 -1.3653 0.9548
-1.7351 11.4205 -1.3722 0.9545
-3.0218 11.4289 -1.4042 0.9535
-3.9204 11.4348 -1.4359 0.9525
-4.3862 11.4378 -1.4551 0.9519
-5.3597 11.4442 -1.5011 0.9504
-5.8712 11.4476 -1.5282 0.9495
-6.9553 11.4547 -1.5918 0.9475
-8.1400 11.4624 -1.6700 0.9449
-8.7787 11.4666 -1.7154 0.9435
-10.7382 11.2730 -1.8494 0.9392
-12.2410 9.6202 -1.8494 0.9392
-14.8832 7.8731 -2.0000 0.9344
-15.4214 6.7903 -2.0016 0.9344
-15.6552 6.2324 -2.0016 0.9344
-15.8688 5.6664 -2.0016 0.9344
-16.0620 5.0932 -2.0016 0.9344
-16.5164 3.3371 -2.0016 0.9344
-16.6255 2.7421 -2.0016 0.9344
-16.7794 1.5423 -2.0016 0.9344
-16.8468 0.3345 -2.0016 0.9344
-16.7852 -1.4784 -2.0016 0.9344
-15.8902 -5.6061 -2.0016 0.9344
-15.6788 -6.1728 -2.0016 0.9344
-14.9244 -7.8225 -2.0016 0.9344
-14.3247 -8.8730 -2.0016 0.9344
-12.9074 -10.8317 -2.0016 0.9344
-12.5103 -11.2880 -2.0016 0.9344
-12.0971 -11.7298 -2.0016 0.9344
-11.6683 -12.1565 -2.0016 0.9344
-11.2244 -12.5674 -2.0016 0.9344
-10.7661 -12.9622 -2.0016 0.9344
-10.2938 -13.3403 -2.0016 0.9344
-8.2787 -14.6762 -2.0016 0.9344
-5.5170 -15.8945 -1.9985 0.9345
-4.9360 -16.0598 -1.9957 0.9346
-0.7602 -16.2051 -1.9271 0.9367
-0.1785 -16.2646 -1.9321 0.9366
0.4079 -16.3607 -1.9440 0.9362
1.0047 -16.4964 -1.9632 0.9356
1.6182 -16.6769 -1.9903 0.9347
2.2241 -16.6699 -1.9977 0.9345
2.8264 -16.6114 -2.0016 0.9344
3.4208 -16.4993 -2.0016 0.9344
4.0109 -16.3658 -2.0016 0.9344
6.3118 -15.6234 -2.0016 0.9344
6.8685 -15.3867 -2.0016 0.9344
7.4163 -15.1303 -2.0016 0.9344
2.2443 -4.1910 -0.5647 0.9810
8.9998 -14.2454 -2.0016 0.9344
10.9459 -12.8107 -2.0016 0.9344
11.3987 -12.4096 -2.0016 0.9344
11.8368 -11.9925 -2.0016 0.9344
13.4312 -10.1750 -2.0016 0.9344
14.1266 -9.1852 -2.0016 0.9344
14.4471 -8.6722 -2.0016 0.9344
14.7491 -8.1481 -2.0016 0.9344
15.0321 -7.6134 -2.0016 0.9344
15.2957 -7.0689 -2.0016 0.9344
15.5395 -6.5154 -2.0016 0.9344
16.1499 -4.8072 -2.0016 0.9344
16.6716 -2.4464 -2.0016 0.9344
16.7487 -1.8464 -2.0016 0.9344
16.8501 -0.0353 -2.0016 0.9344
16.7563 1.7762 -2.0016 0.9344
15.7882 5.8873 -2.0016 0.9344
15.5667 6.4502 -2.0016 0.9344
15.3251 7.0048 -2.0016 0.9344
15.0638 7.5504 -2.0016 0.9344
14.7831 8.0862 -2.0016 0.9344
13.8282 9.6285 -2.0016 0.9344
11.4506 12.3617 -2.0016 0.9344
10.9995 12.7648 -2.0016 0.9344
9.5636 13.8732 -2.0016 0.9344
9.0594 14.2076 -2.0016 0.9344
8.5436 14.5236 -2.0016 0.9344
7.4072 13.6939 -1.8494 0.9392
6.9109 13.9509 -1.8494 0.9392
5.8922 14.4108 -1.8494 0.9392
4.8432 14.7964 -1.8494 0.9392
4.0290 13.9887 -1.7292 0.9430
2.7459 12.9705 -1.5749 0.9480
2.2216 12.7340 -1.5355 0.9493
1.2449 12.2934 -1.4678 0.9514
0.7870 12.0869 -1.4388 0.9524
0.3462 11.8881 -1.4127 0.9532
-0.0794 11.6961 -1.3894 0.9540
-0.4917 11.5101 -1.3685 0.9547
-0.8989 11.4150 -1.3601 0.9549
-1.7306 11.4204 -1.3721 0.9545
-2.1530 11.4232 -1.3808 0.9543
-2.5814 11.4260 -1.3915 0.9539
-3.4612 11.4318 -1.4188 0.9530
-3.9154 11.4348 -1.4357 0.9525
-4.8601 11.4409 -1.4766 0.9512
-5.3542 11.4442 -1.5008 0.9504
-5.8655 11.4475 -1.5279 0.9495
-7.5271 11.4584 -1.6285 0.9463
-8.7716 11.4666 -1.7149 0.9435
-9.4465 11.4710 -1.7652 0.9419
-11.1317 10.8846 -1.8494 0.9392
-11.8839 10.0579 -1.8494 0.9392
-12.2373 9.6249 -1.8494 0.9392
-12.5748 9.1795 -1.8494 0.9392
-13.2171 8.2637 -1.8516 0.9391
-14.8795 7.8785 -1.9999 0.9344
-15.4188 6.7962 -2.0016 0.9344
-15.6528 6.2384 -2.0016 0.9344
-10.1378 -9.8377 -2.0016 0.9445
-9.7782 -10.1952 -2.0016 0.9445
-9.0216 -10.8705 -2.0016 0.9445
-8.2185 -11.4897 -2.0016 0.9445
-7.3730 -12.0497 -2.0016 0.9445
-6.9357 -12.3065 -2.0016 0.9445
-6.4895 -12.5476 -2.0016 0.9445
-6.0350 -12.7724 -2.0016 0.9445
-5.5726 -12.9808 -2.0016 0.9445
-5.1031 -13.1725 -2.0016 0.9445
-4.6270 -13.3471 -2.0016 0.9445
-3.6575 -13.6447 -2.0016 0.9445
-2.6692 -13.8719 -2.0016 0.9445
-2.1696 -13.9588 -2.0016 0.9445
-1.6671 -14.0277 -2.0016 0.9445
-1.1625 -14.0785 -2.0016 0.9445
-0.1495 -14.1256 -2.0016 0.9445
0.8642 -14.0999 -2.0016 0.9445
1.3698 -14.0598 -2.0016 0.9445
1.8736 -14.0016 -2.0016 0.9445
3.8581 -13.5893 -2.0016 0.9445
4.3434 -13.4421 -2.0016 0.9445
4.8231 -13.2775 -2.0016 0.9445
5.2966 -13.0959 -2.0016 0.9445
5.7632 -12.8973 -2.0016 0.9445
2.2462 -4.1906 -0.6737 0.9810
7.1162 -12.2030 -2.0016 0.9445
7.9734 -11.6611 -2.0016 0.9445
8.7894 -11.0590 -2.0016 0.9445
9.9273 -10.0501 -2.0016 0.9445
11.5622 -8.1161 -2.0016 0.9445
12.1146 -7.2657 -2.0016 0.9445
12.6047 -6.3779 -2.0016 0.9445
13.3877 -4.5083 -2.0016 0.9445
13.5409 -4.0249 -2.0016 0.9445
13.6766 -3.5362 -2.0016 0.9445
13.7947 -3.0431 -2.0016 0.9445
13.8951 -2.5459 -2.0016 0.9445
13.9775 -2.0456 -2.0016 0.9445
14.1164 -0.5312 -2.0016 0.9445
14.1264 -0.0241 -2.0016 0.9445
14.0917 0.9894 -2.0016 0.9445
13.9844 1.9978 -2.0016 0.9445
13.6886 3.4895 -2.0016 0.9445
13.4030 4.4626 -2.0016 0.9445
13.2342 4.9408 -2.0016 0.9445
13.0483 5.4126 -2.0016 0.9445
12.6264 6.3348 -2.0016 0.9445
12.1394 7.2243 -2.0016 0.9445
11.8723 7.6554 -2.0016 0.9445
11.5898 8.0766 -2.0016 0.9445
10.9805 8.8872 -2.0016 0.9445
10.6545 9.2757 -2.0016 0.9445
10.3147 9.6521 -2.0016 0.9445
8.8271 11.0289 -2.0016 0.9445
8.4256 11.3387 -2.0016 0.9445
7.5904 11.9139 -2.0016 0.9445
7.1344 12.1387 -1.9950 0.9447
6.2054 11.4827 -1.8494 0.9486
5.3656 11.8983 -1.8494 0.9486
4.9351 12.0833 -1.8494 0.9486
4.4982 12.2526 -1.8494 0.9486
4.0555 12.4062 -1.8494 0.9486
3.1550 12.6652 -1.8494 0.9486
2.2161 12.7315 -1.8310 0.9491
1.7169 12.5063 -1.7886 0.9503
1.2398 12.2911 -1.7504 0.9513
0.3416 11.8859 -1.6848 0.9531
-0.0839 11.6940 -1.6570 0.9539
-1.3174 11.4177 -1.6285 0.9546
-2.5861 11.4260 -1.6599 0.9538
-3.0218 11.4289 -1.6750 0.9534
-3.4661 11.4318 -1.6926 0.9529
-4.8654 11.4410 -1.7616 0.9510
-5.3597 11.4442 -1.7905 0.9502
-6.3695 11.3926 -1.8494 0.9486
-7.1704 10.9062 -1.8494 0.9486
-7.5572 10.6419 -1.8494 0.9486
-9.3358 9.1215 -1.8494 0.9486
-9.6572 8.7806 -1.8494 0.9486
-10.4999 8.2519 -1.8922 0.9475
-11.2910 8.2356 -1.9802 0.9451
-12.7160 6.1530 -2.0016 0.9445
-13.3037 4.7505 -2.0016 0.9445
-13.4656 4.2699 -2.0016 0.9445
-14.0116 1.7970 -2.0016 0.9445
-14.0671 1.2930 -2.0016 0.9445
-14.1045 0.7872 -2.0016 0.9445
-14.1246 -0.2267 -2.0016 0.9445
-14.0719 -1.2395 -2.0016 0.9445
-14.0184 -1.7438 -2.0016 0.9445
-12.7565 -3.0065 -1.8570 0.9484
-12.3594 -4.3604 -1.8570 0.9484
-12.1949 -4.8012 -1.8570 0.9484
-12.7392 -6.1047 -2.0016 0.9445
-12.5119 -6.5580 -2.0016 0.9445
-12.2685 -7.0029 -2.0016 0.9445
-12.0092 -7.4387 -2.0016 0.9445
-11.7344 -7.8650 -2.0016 0.9445
-11.4446 -8.2811 -2.0016 0.9445
-10.8210 -9.0808 -2.0016 0.9445
-10.4881 -9.4634 -2.0016 0.9445
-10.1416 -9.8337 -2.0016 0.9445
-8.2229 -11.4865 -2.0016 0.9445
-6.4944 -12.5451 -2.0016 0.9445
-6.0399 -12.7701 -2.0016 0.9445
-5.1082 -13.1705 -2.0016 0.9445
-4.6322 -13.3453 -2.0016 0.9445
-0.6619 -14.1109 -2.0016 0.9445
-0.1550 -14.1256 -2.0016 0.9445
0.8588 -14.1003 -2.0016 0.9445
1.3643 -14.0604 -2.0016 0.9445
2.8679 -13.8322 -2.0016 0.9445
3.3625 -13.7204 -2.0016 0.9445
4.3382 -13.4438 -2.0016 0.9445
4.8179 -13.2794 -2.0016 0.9445
5.2915 -13.0979 -2.0016 0.9445
5.7582 -12.8995 -2.0016 0.9445
2.2443 -4.1910 -0.6736 0.9810
7.5450 -11.9427 -2.0016 0.9445
7.9689 -11.6642 -2.0016 0.9445
8.3824 -11.3706 -2.0016 0.9445
8.7851 -11.0624 -2.0016 0.9445
9.1765 -10.7399 -2.0016 0.9445
9.5561 -10.4036 -2.0016 0.9445
9.9234 -10.0539 -2.0016 0.9445
10.2779 -9.6913 -2.0016 0.9445
10.9467 -8.9289 -2.0016 0.9445
11.2601 -8.5303 -2.0016 0.9445
11.5590 -8.1206 -2.0016 0.9445
11.8431 -7.7005 -2.0016 0.9445
12.6022 -6.3827 -2.0016 0.9445
13.2153 -4.9911 -2.0016 0.9445
13.5393 -4.0301 -2.0016 0.9445
13.7936 -3.0484 -2.0016 0.9445
13.8941 -2.5513 -2.0016 0.9445
13.9767 -2.0510 -2.0016 0.9445
14.0413 -1.5479 -2.0016 0.9445
14.0879 -1.0430 -2.0016 0.9445
14.1264 -0.0296 -2.0016 0.9445
14.0477 1.4891 -2.0016 0.9445
13.9852 1.9924 -2.0016 0.9445
13.9047 2.4931 -2.0016 0.9445
13.8062 2.9906 -2.0016 0.9445
13.6900 3.4842 -2.0016 0.9445
13.5561 3.9734 -2.0016 0.9445
13.2361 4.9356 -2.0016 0.9445
13.0504 5.4076 -2.0016 0.9445
11.8752 7.6508 -2.0016 0.9445
11.2957 8.4830 -2.0016 0.9445
10.6580 9.2715 -2.0016 0.9445
10.3184 9.6481 -2.0016 0.9445
9.5996 10.3635 -2.0016 0.9445
9.2214 10.7014 -2.0016 0.9445
8.8314 11.0255 -2.0016 0.9445
8.4299 11.3354 -2.0016 0.9445
8.0177 11.6307 -2.0016 0.9445
7.5950 11.9110 -2.0016 0.9445
7.1394 12.1365 -1.9951 0.9447
6.2099 11.4803 -1.8494 0.9486
5.7938 11.6958 -1.8494 0.9486
4.5029 12.2509 -1.8494 0.9486
3.1599 12.6639 -1.8494 0.9486
2.7033 12.7692 -1.8494 0.9486
2.2216 12.7340 -1.8315 0.9491
1.2449 12.2934 -1.7508 0.9513
0.7870 12.0869 -1.7162 0.9522
0.3462 11.8881 -1.6851 0.9531
-0.0794 11.6961 -1.6572 0.9538
-0.4916 11.5101 -1.6323 0.9545
-1.3129 11.4177 -1.6284 0.9546
-2.1530 11.4232 -1.6470 0.9541
-3.4612 11.4318 -1.6924 0.9529
-3.9154 11.4348 -1.7125 0.9523
-4.3811 11.4378 -1.7354 0.9517
-6.3651 11.3950 -1.8494 0.9486
-6.7700 11.1592 -1.8494 0.9486
-9.3323 9.1252 -1.8494 0.9486
-9.6538 8.7843 -1.8494 0.9486
-12.2390 7.0542 -2.0016 0.9445
-12.9264 5.6977 -2.0016 0.9445
-13.1226 5.2300 -2.0016 0.9445
-8.0899 -9.0649 -2.0016 0.9519
-7.7593 -9.3495 -2.0016 0.9519
-7.4187 -9.6220 -2.0016 0.9519
-6.3414 -10.3637 -2.0016 0.9519
-5.9653 -10.5846 -2.0016 0.9519
-5.5815 -10.7919 -2.0016 0.9519
-5.1906 -10.9853 -2.0016 0.9519
-3.9796 -11.4796 -2.0016 0.9519
-3.5650 -11.6151 -2.0016 0.9519
-3.1458 -11.7356 -2.0016 0.9519
-2.2958 -11.9310 -2.0016 0.9519
-1.8660 -12.0057 -2.0016 0.9519
-1.4339 -12.0650 -2.0016 0.9519
-0.9999 -12.1087 -2.0016 0.9519
0.3075 -12.1460 -2.0016 0.9519
0.7433 -12.1271 -2.0016 0.9519
1.1781 -12.0926 -2.0016 0.9519
1.6114 -12.0425 -2.0016 0.9519
2.0426 -11.9769 -2.0016 0.9519
3.7357 -11.5613 -2.0016 0.9519
4.1483 -11.4198 -2.0016 0.9519
4.5555 -11.2635 -2.0016 0.9519
4.9568 -11.0928 -2.0016 0.9519
5.3518 -10.9077 -2.0016 0.9519
2.2462 -4.1906 -0.7833 0.9809
6.4933 -10.2692 -2.0016 0.9519
6.8578 -10.0295 -2.0016 0.9519
7.5596 -9.5116 -2.0016 0.9519
7.8962 -9.2342 -2.0016 0.9519
8.5383 -8.6439 -2.0016 0.9519
8.8431 -8.3319 -2.0016 0.9519
9.4180 -7.6760 -2.0016 0.9519
9.9444 -6.9805 -2.0016 0.9519
10.6372 -5.8711 -2.0016 0.9519
10.8411 -5.4855 -2.0016 0.9519
11.0310 -5.0928 -2.0016 0.9519
11.2067 -4.6936 -2.0016 0.9519
11.3679 -4.2883 -2.0016 0.9519
11.5145 -3.8775 -2.0016 0.9519
11.6463 -3.4617 -2.0016 0.9519
11.8646 -2.6173 -2.0016 0.9519
12.0772 -1.3267 -2.0016 0.9519
12.1171 -0.8923 -2.0016 0.9519
12.1428 0.4154 -2.0016 0.9519
12.0817 1.2854 -2.0016 0.9519
11.9583 2.1489 -2.0016 0.9519
11.8735 2.5767 -2.0016 0.9519
10.8598 5.4484 -2.0016 0.9519
9.9682 6.9465 -2.0016 0.9519
9.4442 7.6438 -2.0016 0.9519
9.1637 7.9778 -2.0016 0.9519
7.9276 9.2072 -2.0016 0.9519
7.5921 9.4858 -2.0016 0.9519
7.2467 9.7522 -2.0016 0.9519
4.6149 10.2335 -1.8494 0.9555
3.8688 10.5383 -1.8494 0.9555
2.3208 10.9835 -1.8494 0.9555
0.3225 11.2214 -1.8494 0.9555
-0.0805 11.2257 -1.8494 0.9555
-0.8856 11.1910 -1.8494 0.9555
-1.2868 11.1520 -1.8494 0.9555
-1.3232 8.7091 -1.4512 0.9649
-2.0835 11.0309 -1.8494 0.9555
-2.4781 10.9490 -1.8494 0.9555
-3.2572 10.7431 -1.8494 0.9555
-3.6408 10.6192 -1.8494 0.9555
-4.3932 10.3307 -1.8494 0.9555
-5.4783 9.7985 -1.8494 0.9555
-5.8264 9.5956 -1.8494 0.9555
-8.4361 8.2424 -1.9430 0.9533
-8.9618 8.1483 -1.9954 0.9521
-9.8161 7.1598 -2.0016 0.9519
-10.0668 6.8029 -2.0016 0.9519
-10.3045 6.4371 -2.0016 0.9519
-10.7398 5.6813 -2.0016 0.9519
-11.4423 4.0858 -2.0016 0.9519
-11.8152 2.8321 -2.0016 0.9519
-11.9092 2.4062 -2.0016 0.9519
-12.1475 0.2412 -2.0016 0.9519
-12.1483 -0.1950 -2.0016 0.9519
-12.1335 -0.6309 -2.0016 0.9519
-12.0569 -1.4998 -2.0016 0.9519
-10.9716 -2.5858 -1.8570 0.9553
-10.4886 -4.1294 -1.8570 0.9553
-10.1654 -4.8712 -1.8570 0.9553
-9.9840 -5.2330 -1.8570 0.9553
-9.7897 -5.5880 -1.8570 0.9553
-10.0926 -6.7645 -2.0016 0.9519
-9.8433 -7.1224 -2.0016 0.9519
-9.3069 -7.8103 -2.0016 0.9519
-9.0206 -8.1393 -2.0016 0.9519
-8.4134 -8.7655 -2.0016 0.9519
-8.0934 -9.0618 -2.0016 0.9519
-7.7629 -9.3465 -2.0016 0.9519
-7.4224 -9.6191 -2.0016 0.9519
-6.7132 -10.1268 -2.0016 0.9519
-5.1948 -10.9833 -2.0016 0.9519
-4.3935 -11.3277 -2.0016 0.9519
-3.9840 -11.4781 -2.0016 0.9519
-3.5695 -11.6137 -2.0016 0.9519
-3.1503 -11.7343 -2.0016 0.9519
-1.8707 -12.0050 -2.0016 0.9519
-1.4385 -12.0644 -2.0016 0.9519
-1.0046 -12.1083 -2.0016 0.9519
-0.1333 -12.1491 -2.0016 0.9519
0.7386 -12.1274 -2.0016 0.9519
1.1734 -12.0931 -2.0016 0.9519
2.0380 -11.9777 -2.0016 0.9519
2.8921 -11.8007 -2.0016 0.9519
3.3138 -11.6892 -2.0016 0.9519
3.7312 -11.5628 -2.0016 0.9519
4.5511 -11.2653 -2.0016 0.9519
2.2443 -4.1910 -0.7832 0.9809
6.4894 -10.2717 -2.0016 0.9519
6.8539 -10.0321 -2.0016 0.9519
8.2191 -8.9480 -2.0016 0.9519
8.5349 -8.6472 -2.0016 0.9519
9.6846 -7.3367 -2.0016 0.9519
10.4172 -6.2531 -2.0016 0.9519
10.6349 -5.8752 -2.0016 0.9519
11.0290 -5.0971 -2.0016 0.9519
11.8636 -2.6219 -2.0016 0.9519
12.0211 -1.7640 -2.0016 0.9519
12.0767 -1.3314 -2.0016 0.9519
12.1167 -0.8970 -2.0016 0.9519
12.1204 0.8463 -2.0016 0.9519
11.8745 2.5722 -2.0016 0.9519
11.7745 2.9967 -2.0016 0.9519
11.5292 3.8337 -2.0016 0.9519
11.2244 4.6510 -2.0016 0.9519
11.0503 5.0509 -2.0016 0.9519
10.8619 5.4442 -2.0016 0.9519
10.6594 5.8306 -2.0016 0.9519
10.4433 6.2095 -2.0016 0.9519
10.2137 6.5803 -2.0016 0.9519
9.7153 7.2961 -2.0016 0.9519
9.4471 7.6401 -2.0016 0.9519
8.8747 8.2982 -2.0016 0.9519
8.5711 8.6114 -2.0016 0.9519
8.2565 8.9135 -2.0016 0.9519
7.9312 9.2041 -2.0016 0.9519
7.2504 9.7494 -2.0016 0.9519
6.8958 10.0033 -2.0016 0.9519
6.5323 10.2444 -2.0016 0.9519
5.5587 10.2766 -1.9248 0.9537
3.4922 10.6690 -1.8494 0.9555
2.7178 10.8920 -1.8494 0.9555
2.3251 10.9826 -1.8494 0.9555
1.1310 11.1689 -1.8494 0.9555
-0.4790 11.2158 -1.8494 0.9555
-0.8813 11.1913 -1.8494 0.9555
-1.2825 11.1525 -1.8494 0.9555
-1.3198 8.7098 -1.4512 0.9649
-2.0792 11.0318 -1.8494 0.9555
-2.4739 10.9500 -1.8494 0.9555
-2.8653 10.8542 -1.8494 0.9555
-3.2531 10.7443 -1.8494 0.9555
-4.0155 10.4833 -1.8494 0.9555
-4.7572 10.1682 -1.8494 0.9555
-6.1635 9.3827 -1.8494 0.9555
-6.4963 9.1554 -1.8494 0.9555
-6.8207 8.9163 -1.8494 0.9555
-7.1364 8.6657 -1.8494 0.9555
-8.9584 8.1515 -1.9953 0.9521
-9.8134 7.1636 -2.0016 0.9519
-10.3020 6.4411 -2.0016 0.9519
-11.2865 4.4982 -2.0016 0.9519
-7.3710 -7.6854 -2.0016 0.9576
-7.0904 -7.9450 -2.0016 0.9576
-6.8007 -8.1944 -2.0016 0.9576
-6.5022 -8.4332 -2.0016 0.9576
-5.8804 -8.8780 -2.0016 0.9576
-5.2283 -9.2770 -2.0016 0.9576
-4.8919 -9.4586 -2.0016 0.9576
-3.8468 -9.9297 -2.0016 0.9576
-3.4879 -10.0614 -2.0016 0.9576
-2.7571 -10.2857 -2.0016 0.9576
-2.3862 -10.3780 -2.0016 0.9576
-1.6355 -10.5225 -2.0016 0.9576
-1.2567 -10.5744 -2.0016 0.9576
-0.8764 -10.6127 -2.0016 0.9576
-0.4949 -10.6373 -2.0016 0.9576
-0.1127 -10.6482 -2.0016 0.9576
0.2696 -10.6454 -2.0016 0.9576
1.0326 -10.5986 -2.0016 0.9576
1.7903 -10.4972 -2.0016 0.9576
2.5388 -10.3418 -2.0016 0.9576
2.9083 -10.2440 -2.0016 0.9576
3.6357 -10.0089 -2.0016 0.9576
2.2462 -4.1906 -0.8937 0.9808
5.3644 -9.1989 -2.0016 0.9576
6.0105 -8.7904 -2.0016 0.9576
8.0077 -7.0196 -2.0016 0.9576
8.9298 -5.8013 -2.0016 0.9576
9.1323 -5.4771 -2.0016 0.9576
9.3230 -5.1457 -2.0016 0.9576
9.8221 -4.1137 -2.0016 0.9576
9.9635 -3.7585 -2.0016 0.9576
10.3098 -2.6657 -2.0016 0.9576
10.3988 -2.2939 -2.0016 0.9576
10.4744 -1.9192 -2.0016 0.9576
10.5851 -1.1628 -2.0016 0.9576
10.6201 -0.7821 -2.0016 0.9576
10.6488 -0.0182 -2.0016 0.9576
10.6426 0.3641 -2.0016 0.9576
10.5418 1.5060 -2.0016 0.9576
10.4809 1.8834 -2.0016 0.9576
10.3188 2.6305 -2.0016 0.9576
10.2177 2.9992 -2.0016 0.9576
10.1035 3.3640 -2.0016 0.9576
9.9763 3.7245 -2.0016 0.9576
9.6833 4.4306 -2.0016 0.9576
9.5181 4.7753 -2.0016 0.9576
9.1510 5.4459 -2.0016 0.9576
8.9496 5.7708 -2.0016 0.9576
8.7367 6.0883 -2.0016 0.9576
8.5125 6.3980 -2.0016 0.9576
8.0316 6.9922 -2.0016 0.9576
7.7754 7.2760 -2.0016 0.9576
7.5092 7.5504 -2.0016 0.9576
7.2334 7.8151 -2.0016 0.9576
6.9482 8.0697 -2.0016 0.9576
6.6541 8.3139 -2.0016 0.9576
6.3514 8.5473 -2.0016 0.9576
6.0405 8.7698 -2.0016 0.9576
5.0597 9.3626 -2.0003 0.9576
4.7071 9.5115 -1.9947 0.9577
4.1740 9.2558 -1.9084 0.9595
3.7202 9.1086 -1.8494 0.9607
3.3908 9.2363 -1.8494 0.9607
3.0571 9.3521 -1.8494 0.9607
2.7195 9.4558 -1.8494 0.9607
2.3783 9.5473 -1.8494 0.9607
2.0341 9.6265 -1.8494 0.9607
0.9875 9.7894 -1.8494 0.9607
0.2826 9.8350 -1.8494 0.9607
-1.3204 8.6908 -1.6523 0.9649
-2.5150 9.5122 -1.8494 0.9607
-3.8504 9.0544 -1.8494 0.9607
-4.1730 8.9103 -1.8494 0.9607
-4.4901 8.7548 -1.8494 0.9607
-4.8015 8.5880 -1.8494 0.9607
-5.1107 8.4169 -1.8509 0.9607
-5.4294 8.2582 -1.8577 0.9606
-6.3092 8.2410 -1.9508 0.9586
-6.7494 8.1893 -1.9947 0.9577
-7.0528 7.9574 -1.9986 0.9576
-7.8790 7.1637 -2.0016 0.9576
-8.1310 6.8763 -2.0016 0.9576
-8.8231 5.9624 -2.0016 0.9576
-9.0314 5.6419 -2.0016 0.9576
-9.2281 5.3141 -2.0016 0.9576
-9.5856 4.6383 -2.0016 0.9576
-9.8936 3.9387 -2.0016 0.9576
-10.0286 3.5810 -2.0016 0.9576
-10.2597 2.8523 -2.0016 0.9576
-10.3555 2.4822 -2.0016 0.9576
-10.4379 2.1089 -2.0016 0.9576
-10.6474 -0.1709 -2.0016 0.9576
-10.6344 -0.5530 -2.0016 0.9576
-10.6077 -0.9343 -2.0016 0.9576
-10.5134 -1.6929 -2.0016 0.9576
-9.6161 -2.2664 -1.8570 0.9606
-9.5286 -2.6101 -1.8570 0.9606
-9.4288 -2.9504 -1.8570 0.9606
-9.3168 -3.2870 -1.8570 0.9606
-9.1928 -3.6192 -1.8570 0.9606
-9.0570 -3.9469 -1.8570 0.9606
-8.9095 -4.2694 -1.8570 0.9606
-8.7505 -4.5865 -1.8570 0.9606
-8.5802 -4.8976 -1.8570 0.9606
-8.6272 -6.2425 -2.0016 0.9576
-7.9062 -7.1337 -2.0016 0.9576
-7.6450 -7.4129 -2.0016 0.9576
-7.0935 -7.9423 -2.0016 0.9576
-6.8038 -8.1918 -2.0016 0.9576
-6.5054 -8.4307 -2.0016 0.9576
-6.1986 -8.6588 -2.0016 0.9576
-5.5615 -9.0812 -2.0016 0.9576
-4.2046 -9.7836 -2.0016 0.9576
-3.4918 -10.0600 -2.0016 0.9576
-3.1285 -10.1789 -2.0016 0.9576
-2.7611 -10.2846 -2.0016 0.9576
-2.3902 -10.3771 -2.0016 0.9576
-1.2608 -10.5739 -2.0016 0.9576
-0.8805 -10.6124 -2.0016 0.9576
0.2654 -10.6455 -2.0016 0.9576
0.6474 -10.6291 -2.0016 0.9576
1.4082 -10.5553 -2.0016 0.9576
1.7862 -10.4979 -2.0016 0.9576
2.1619 -10.4271 -2.0016 0.9576
2.5348 -10.3427 -2.0016 0.9576
2.9044 -10.2451 -2.0016 0.9576
3.2702 -10.1342 -2.0016 0.9576
3.9888 -9.8735 -2.0016 0.9576
2.2443 -4.1910 -0.8936 0.9808
5.3608 -9.2010 -2.0016 0.9576
6.3188 -8.5714 -2.0016 0.9576
6.9175 -8.0960 -2.0016 0.9576
7.2036 -7.8425 -2.0016 0.9576
7.4805 -7.5789 -2.0016 0.9576
8.0049 -7.0227 -2.0016 0.9576
8.2519 -6.7308 -2.0016 0.9576
8.7135 -6.1215 -2.0016 0.9576
9.4998 -4.8115 -2.0016 0.9576
9.6664 -4.4674 -2.0016 0.9576
9.8206 -4.1175 -2.0016 0.9576
9.9620 -3.7624 -2.0016 0.9576
10.3087 -2.6697 -2.0016 0.9576
10.4737 -1.9232 -2.0016 0.9576
10.5360 -1.5461 -2.0016 0.9576
10.6411 -0.4045 -2.0016 0.9576
10.6427 0.3599 -2.0016 0.9576
10.5895 1.1225 -2.0016 0.9576
10.4817 1.8794 -2.0016 0.9576
10.3198 2.6265 -2.0016 0.9576
9.5199 4.7716 -2.0016 0.9576
8.9518 5.7673 -2.0016 0.9576
8.0343 6.9891 -2.0016 0.9576
7.2364 7.8123 -2.0016 0.9576
6.9513 8.0670 -2.0016 0.9576
6.6573 8.3113 -2.0016 0.9576
5.3993 9.1785 -2.0016 0.9576
4.7110 9.5100 -1.9948 0.9577
2.7231 9.4547 -1.8494 0.9607
2.3820 9.5464 -1.8494 0.9607
2.0378 9.6257 -1.8494 0.9607
-0.4199 9.8301 -1.8494 0.9607
-0.7724 9.8087 -1.8494 0.9607
-1.8224 9.6688 -1.8494 0.9607
-3.5194 9.1881 -1.8494 0.9607
-4.1695 8.9119 -1.8494 0.9607
-4.4867 8.7565 -1.8494 0.9607
-4.7981 8.5898 -1.8494 0.9607
-5.1034 8.4121 -1.8494 0.9607
-5.8540 8.2501 -1.9014 0.9597
-6.3042 8.2411 -1.9503 0.9586
-6.7460 8.1918 -1.9946 0.9577
-7.8762 7.1668 -2.0016 0.9576
-8.1284 6.8795 -2.0016 0.9576
-9.0292 5.6454 -2.0016 0.9576
-9.2261 5.3176 -2.0016 0.9576
-9.4110 4.9830 -2.0016 0.9576
-9.5838 4.6420 -2.0016 0.9576
-9.8921 3.9425 -2.0016 0.9576
-6.5544 -6.8339 -2.0016 0.9620
-5.5089 -7.7016 -2.0016 0.9620
-4.6491 -8.2492 -2.0016 0.9620
-4.3500 -8.4107 -2.0016 0.9620
-4.0453 -8.5614 -2.0016 0.9620
-3.7354 -8.7011 -2.0016 0.9620
-2.1218 -9.2282 -2.0016 0.9620
-1.7892 -9.2984 -2.0016 0.9620
-0.7793 -9.4369 -2.0016 0.9620
-0.4400 -9.4588 -2.0016 0.9620
-0.1002 -9.4685 -2.0016 0.9620
0.5793 -9.4513 -2.0016 0.9620
1.5919 -9.3342 -2.0016 0.9620
2.9114 -9.0103 -2.0016 0.9620
4.1709 -8.5009 -2.0016 0.9620
2.2462 -4.1906 -1.0050 0.9807
4.7701 -8.1798 -2.0016 0.9620
5.0606 -8.0033 -2.0016 0.9620
5.6217 -7.6196 -2.0016 0.9620
6.1539 -7.1967 -2.0016 0.9620
6.4082 -6.9711 -2.0016 0.9620
6.8918 -6.4934 -2.0016 0.9620
7.7502 -5.4403 -2.0016 0.9620
8.1205 -4.8703 -2.0016 0.9620
8.2901 -4.5756 -2.0016 0.9620
8.4490 -4.2751 -2.0016 0.9620
8.7339 -3.6580 -2.0016 0.9620
8.8596 -3.3421 -2.0016 0.9620
8.9739 -3.0219 -2.0016 0.9620
9.0765 -2.6979 -2.0016 0.9620
9.1675 -2.3704 -2.0016 0.9620
9.3140 -1.7066 -2.0016 0.9620
9.3692 -1.3711 -2.0016 0.9620
9.4124 -1.0340 -2.0016 0.9620
9.4434 -0.6954 -2.0016 0.9620
9.4623 -0.3560 -2.0016 0.9620
9.4690 -0.0162 -2.0016 0.9620
9.4635 0.3237 -2.0016 0.9620
9.3739 1.3391 -2.0016 0.9620
9.2536 2.0082 -2.0016 0.9620
9.1756 2.3390 -2.0016 0.9620
9.0857 2.6669 -2.0016 0.9620
8.9841 2.9913 -2.0016 0.9620
8.8710 3.3118 -2.0016 0.9620
8.6105 3.9397 -2.0016 0.9620
7.7687 5.4138 -2.0016 0.9620
7.3603 5.9572 -2.0016 0.9620
6.9140 6.4699 -2.0016 0.9620
6.6773 6.7139 -2.0016 0.9620
6.4320 6.9492 -2.0016 0.9620
5.6477 7.6004 -2.0016 0.9620
5.3713 7.7982 -2.0016 0.9620
5.0879 7.9860 -2.0016 0.9620
4.7980 8.1634 -2.0016 0.9620
4.5019 8.3304 -2.0016 0.9620
4.1999 8.4866 -2.0016 0.9620
2.1148 8.4895 -1.8494 0.9649
1.8087 8.5600 -1.8494 0.9649
1.1900 8.6677 -1.8494 0.9649
-1.0028 8.6913 -1.8494 0.9649
-1.3142 8.6497 -1.8494 0.9649
-1.6238 8.5970 -1.8494 0.9649
-1.9313 8.5332 -1.8494 0.9649
-2.5385 8.3726 -1.8494 0.9649
-2.8374 8.2761 -1.8494 0.9649
-3.5089 8.2513 -1.8953 0.9640
-3.8618 8.2458 -1.9247 0.9635
-4.2260 8.2398 -1.9574 0.9628
-4.6030 8.2330 -1.9938 0.9622
-4.9025 8.0739 -1.9966 0.9621
-5.7561 7.5186 -2.0016 0.9620
-6.5310 6.8563 -2.0016 0.9620
-6.7729 6.6174 -2.0016 0.9620
-7.0061 6.3701 -2.0016 0.9620
-7.2302 6.1145 -2.0016 0.9620
-7.4450 5.8510 -2.0016 0.9620
-7.8456 5.3018 -2.0016 0.9620
-8.2057 4.7253 -2.0016 0.9620
-8.5236 4.1244 -2.0016 0.9620
-8.6661 3.8158 -2.0016 0.9620
-8.9175 3.1843 -2.0016 0.9620
-9.0261 2.8621 -2.0016 0.9620
-9.2815 1.8753 -2.0016 0.9620
-9.3428 1.5409 -2.0016 0.9620
-9.4293 0.8667 -2.0016 0.9620
-9.4543 0.5277 -2.0016 0.9620
-9.4562 -0.4917 -2.0016 0.9620
-9.3486 -1.5054 -2.0016 0.9620
-9.2885 -1.8400 -2.0016 0.9620
-8.3842 -2.6235 -1.8570 0.9647
-8.1743 -3.2183 -1.8570 0.9647
-8.0535 -3.5096 -1.8570 0.9647
-7.7810 -4.0783 -1.8570 0.9647
-7.1173 -5.1499 -1.8570 0.9647
-6.9278 -5.4021 -1.8570 0.9647
-7.0302 -6.3434 -2.0016 0.9620
-6.7980 -6.5916 -2.0016 0.9620
-6.5570 -6.8314 -2.0016 0.9620
-6.3076 -7.0623 -2.0016 0.9620
-6.0500 -7.2842 -2.0016 0.9620
-5.5119 -7.6995 -2.0016 0.9620
-5.2320 -7.8923 -2.0016 0.9620
-4.9453 -8.0751 -2.0016 0.9620
-4.6523 -8.2474 -2.0016 0.9620
-4.0486 -8.5599 -2.0016 0.9620
-3.7387 -8.6997 -2.0016 0.9620
-3.4241 -8.8283 -2.0016 0.9620
-3.1050 -8.9455 -2.0016 0.9620
-2.1254 -9.2274 -2.0016 0.9620
-1.4579 -9.3561 -2.0016 0.9620
-1.1211 -9.4024 -2.0016 0.9620
-0.4437 -9.4586 -2.0016 0.9620
-0.1039 -9.4684 -2.0016 0.9620
0.2360 -9.4661 -2.0016 0.9620
0.5756 -9.4515 -2.0016 0.9620
1.2522 -9.3859 -2.0016 0.9620
1.5883 -9.3349 -2.0016 0.9620
2.5826 -9.1100 -2.0016 0.9620
2.9079 -9.0115 -2.0016 0.9620
3.2295 -8.9013 -2.0016 0.9620
5.6188 -7.6218 -2.0016 0.9620
6.8893 -6.4961 -2.0016 0.9620
7.1181 -6.2446 -2.0016 0.9620
7.3376 -5.9851 -2.0016 0.9620
7.7481 -5.4433 -2.0016 0.9620
7.9385 -5.1617 -2.0016 0.9620
8.1186 -4.8734 -2.0016 0.9620
8.4473 -4.2784 -2.0016 0.9620
8.7325 -3.6613 -2.0016 0.9620
9.0755 -2.7014 -2.0016 0.9620
9.1666 -2.3739 -2.0016 0.9620
9.2459 -2.0434 -2.0016 0.9620
9.3687 -1.3748 -2.0016 0.9620
9.4432 -0.6991 -2.0016 0.9620
9.4690 -0.0198 -2.0016 0.9620
9.4163 0.9982 -2.0016 0.9620
9.3744 1.3355 -2.0016 0.9620
9.3204 1.6711 -2.0016 0.9620
9.1765 2.3355 -2.0016 0.9620
9.0867 2.6634 -2.0016 0.9620
8.8723 3.3084 -2.0016 0.9620
8.7478 3.6247 -2.0016 0.9620
8.4652 4.2430 -2.0016 0.9620
8.1390 4.8393 -2.0016 0.9620
7.9600 5.1284 -2.0016 0.9620
7.7708 5.4108 -2.0016 0.9620
5.3743 7.7961 -2.0016 0.9620
5.0910 7.9840 -2.0016 0.9620
4.5051 8.3287 -2.0016 0.9620
3.8946 8.6275 -2.0009 0.9620
3.5751 8.7438 -1.9968 0.9621
0.8815 8.7045 -1.8494 0.9649
-0.9995 8.6917 -1.8494 0.9649
-1.3108 8.6502 -1.8494 0.9649
-2.2331 8.4592 -1.8494 0.9649
-2.8342 8.2772 -1.8494 0.9649
-3.1624 8.2562 -1.8688 0.9645
-3.5052 8.2513 -1.8950 0.9640
-3.8579 8.2459 -1.9243 0.9635
-5.4796 7.7225 -2.0016 0.9620
-6.0195 7.3095 -2.0016 0.9620
-6.5283 6.8588 -2.0016 0.9620
-7.2278 6.1173 -2.0016 0.9620
-7.4427 5.8539 -2.0016 0.9620
-8.0289 5.0199 -2.0016 0.9620
-8.5220 4.1277 -2.0016 0.9620
-5.6706 -6.3541 -2.0016 0.9656
-5.4389 -6.5535 -2.0016 0.9656
-5.2001 -6.7445 -2.0016 0.9656
-4.9547 -6.9268 -2.0016 0.9656
-4.7029 -7.1002 -2.0016 0.9656
-4.4450 -7.2644 -2.0016 0.9656
-3.9124 -7.5646 -2.0016 0.9656
-3.3596 -7.8258 -2.0016 0.9656
-3.0765 -7.9413 -2.0016 0.9656
-2.2050 -8.2260 -2.0016 0.9656
-1.9083 -8.2999 -2.0016 0.9656
-1.3080 -8.4154 -2.0016 0.9656
-1.0051 -8.4569 -2.0016 0.9656
-0.7009 -8.4876 -2.0016 0.9656
-0.3958 -8.5072 -2.0016 0.9656
0.2156 -8.5137 -2.0016 0.9656
1.7322 -8.3384 -2.0016 0.9656
2.0304 -8.2709 -2.0016 0.9656
2.3260 -8.1927 -2.0016 0.9656
2.6185 -8.1039 -2.0016 0.9656
3.1932 -7.8952 -2.0016 0.9656
2.2299 -4.1602 -1.1093 0.9808
4.5515 -7.1982 -2.0016 0.9656
4.8069 -7.0302 -2.0016 0.9656
5.0562 -6.8531 -2.0016 0.9656
5.2989 -6.6672 -2.0016 0.9656
5.5348 -6.4727 -2.0016 0.9656
5.7636 -6.2699 -2.0016 0.9656
6.1985 -5.8402 -2.0016 0.9656
6.4042 -5.6140 -2.0016 0.9656
6.9705 -4.8930 -2.0016 0.9656
7.1417 -4.6396 -2.0016 0.9656
7.3036 -4.3803 -2.0016 0.9656
7.5990 -3.8451 -2.0016 0.9656
7.7322 -3.5698 -2.0016 0.9656
8.4267 -1.2332 -2.0016 0.9656
8.5104 -0.3202 -2.0016 0.9656
8.5164 -0.0145 -2.0016 0.9656
8.5115 0.2912 -2.0016 0.9656
8.4955 0.5965 -2.0016 0.9656
8.3822 1.5063 -2.0016 0.9656
8.2525 2.1037 -2.0016 0.9656
8.1717 2.3986 -2.0016 0.9656
8.0803 2.6904 -2.0016 0.9656
7.9786 2.9787 -2.0016 0.9656
7.7443 3.5434 -2.0016 0.9656
7.6121 3.8191 -2.0016 0.9656
7.3185 4.3553 -2.0016 0.9656
6.6199 5.3579 -2.0016 0.9656
6.0056 6.0385 -2.0016 0.9656
5.5569 6.4538 -2.0016 0.9656
5.3216 6.6491 -2.0016 0.9656
5.0796 6.8358 -2.0016 0.9656
4.8309 7.0137 -2.0016 0.9656
4.5761 7.1826 -2.0016 0.9656
4.3153 7.3422 -2.0016 0.9656
3.5010 7.7635 -2.0016 0.9656
3.2201 7.8842 -2.0016 0.9656
2.6462 8.0949 -2.0016 0.9656
0.5338 8.2472 -1.9423 0.9666
-0.6523 8.2424 -1.9432 0.9666
-1.2518 8.2395 -1.9587 0.9663
-1.5559 8.2374 -1.9702 0.9661
-1.8638 8.2348 -1.9843 0.9659
-3.0453 7.9412 -1.9989 0.9657
-3.8865 7.5779 -2.0016 0.9656
-4.1560 7.4335 -2.0016 0.9656
-4.4202 7.2796 -2.0016 0.9656
-5.1771 6.7622 -2.0016 0.9656
-5.6489 6.3734 -2.0016 0.9656
-6.0915 5.9517 -2.0016 0.9656
-6.6960 5.2624 -2.0016 0.9656
-6.8806 5.0187 -2.0016 0.9656
-7.0563 4.7685 -2.0016 0.9656
-7.5280 3.9823 -2.0016 0.9656
-7.7943 3.4320 -2.0016 0.9656
-7.9125 3.1500 -2.0016 0.9656
-8.0205 2.8639 -2.0016 0.9656
-8.2052 2.2812 -2.0016 0.9656
-8.2818 1.9852 -2.0016 0.9656
-8.3478 1.6866 -2.0016 0.9656
-8.4029 1.3859 -2.0016 0.9656
-8.4473 1.0834 -2.0016 0.9656
-8.4807 0.7795 -2.0016 0.9656
-8.5148 0.1691 -2.0016 0.9656
-8.5153 -0.1367 -2.0016 0.9656
-8.5050 -0.4422 -2.0016 0.9656
-8.4513 -1.0513 -2.0016 0.9656
-8.3541 -1.6549 -2.0016 0.9656
-8.2893 -1.9537 -2.0016 0.9656
-7.3520 -2.8945 -1.8570 0.9681
-7.2434 -3.1565 -1.8570 0.9681
-7.1254 -3.4145 -1.8570 0.9681
-6.2309 -4.8586 -1.8570 0.9681
-5.6725 -5.5003 -1.8570 0.9681
-5.6731 -6.3519 -2.0016 0.9656
-4.7056 -7.0984 -2.0016 0.9656
-4.4478 -7.2627 -2.0016 0.9656
-4.1842 -7.4177 -2.0016 0.9656
-3.9153 -7.5631 -2.0016 0.9656
-3.3626 -7.8245 -2.0016 0.9656
-2.7926 -8.0456 -2.0016 0.9656
-2.5020 -8.1406 -2.0016 0.9656
-2.2082 -8.2252 -2.0016 0.9656
-1.3112 -8.4149 -2.0016 0.9656
-1.0083 -8.4565 -2.0016 0.9656
-0.3991 -8.5071 -2.0016 0.9656
-0.0935 -8.5159 -2.0016 0.9656
0.8225 -8.4766 -2.0016 0.9656
1.4285 -8.3958 -2.0016 0.9656
2.3228 -8.1936 -2.0016 0.9656
2.6154 -8.1049 -2.0016 0.9656
3.4715 -7.7768 -2.0016 0.9656
2.1492 -4.3846 -1.1476 0.9801
2.2284 -4.1612 -1.1094 0.9808
4.8042 -7.0320 -2.0016 0.9656
5.0535 -6.8550 -2.0016 0.9656
6.1963 -5.8426 -2.0016 0.9656
6.4020 -5.6164 -2.0016 0.9656
6.5995 -5.3830 -2.0016 0.9656
6.7884 -5.1427 -2.0016 0.9656
6.9686 -4.8957 -2.0016 0.9656
7.5976 -3.8480 -2.0016 0.9656
7.9672 -3.0090 -2.0016 0.9656
8.0700 -2.7211 -2.0016 0.9656
8.3158 -1.8378 -2.0016 0.9656
8.3764 -1.5381 -2.0016 0.9656
8.4652 -0.9332 -2.0016 0.9656
8.4932 -0.6288 -2.0016 0.9656
8.5164 -0.0178 -2.0016 0.9656
8.5116 0.2879 -2.0016 0.9656
8.4690 0.8978 -2.0016 0.9656
8.0814 2.6872 -2.0016 0.9656
7.9797 2.9756 -2.0016 0.9656
7.7457 3.5404 -2.0016 0.9656
7.6136 3.8161 -2.0016 0.9656
7.4717 4.0870 -2.0016 0.9656
7.3202 4.3525 -2.0016 0.9656
7.1593 4.6125 -2.0016 0.9656
6.9891 4.8665 -2.0016 0.9656
6.8099 5.1142 -2.0016 0.9656
5.7874 6.2479 -2.0016 0.9656
5.3242 6.6470 -2.0016 0.9656
4.8336 7.0118 -2.0016 0.9656
4.5788 7.1808 -2.0016 0.9656
4.3181 7.3405 -2.0016 0.9656
4.0519 7.4908 -2.0016 0.9656
3.5040 7.7622 -2.0016 0.9656
3.2232 7.8830 -2.0016 0.9656
2.3543 8.1739 -1.9992 0.9657
1.4502 8.3125 -1.9831 0.9659
1.1391 8.2733 -1.9628 0.9663
0.5370 8.2474 -1.9424 0.9666
0.2401 8.2433 -1.9382 0.9667
-0.0559 8.2435 -1.9375 0.9667
-0.3521 8.2432 -1.9391 0.9667
-0.6491 8.2424 -1.9432 0.9666
-0.9477 8.2412 -1.9496 0.9665
-1.2486 8.2396 -1.9586 0.9663
-1.8604 8.2348 -1.9842 0.9659
-2.1660 8.2050 -1.9944 0.9657
-2.4607 8.1273 -1.9957 0.9657
-3.3283 7.8351 -2.0007 0.9656
-3.6090 7.7139 -2.0016 0.9656
-4.4173 7.2813 -2.0016 0.9656
-4.6758 7.1180 -2.0016 0.9656
-4.9283 6.9456 -2.0016 0.9656
-5.1744 6.7642 -2.0016 0.9656
-5.4139 6.5742 -2.0016 0.9656
-5.6464 6.3756 -2.0016 0.9656
-6.5007 5.5019 -2.0016 0.9656
-6.6940 5.2650 -2.0016 0.9656
-7.2212 4.5149 -2.0016 0.9656
-7.3786 4.2528 -2.0016 0.9656
-7.6647 3.7125 -2.0016 0.9656
-7.7930 3.4350 -2.0016 0.9656
-7.9113 3.1530 -2.0016 0.9656
-5.1471 -4.9947 -1.8570 0.9708
-4.9645 -5.1762 -1.8570 0.9708
-4.5803 -5.5190 -1.8570 0.9708
-4.2689 -6.4449 -2.0016 0.9686
-4.0348 -6.5940 -2.0016 0.9686
-3.3026 -6.9895 -2.0016 0.9686
-2.7926 -7.2085 -2.0016 0.9686
-2.5321 -7.3040 -2.0016 0.9686
-1.4607 -7.5912 -2.0016 0.9686
-1.1873 -7.6388 -2.0016 0.9686
-0.6362 -7.7043 -2.0016 0.9686
-0.3592 -7.7221 -2.0016 0.9686
0.1957 -7.7280 -2.0016 0.9686
0.4729 -7.7160 -2.0016 0.9686
1.5723 -7.5689 -2.0016 0.9686
1.8430 -7.5076 -2.0016 0.9686
2.1113 -7.4366 -2.0016 0.9686
2.6394 -7.2660 -2.0016 0.9686
2.8985 -7.1665 -2.0016 0.9686
3.1538 -7.0579 -2.0016 0.9686
2.2039 -4.1117 -1.2079 0.9809
2.3963 -4.1092 -1.2316 0.9805
4.1315 -6.5339 -2.0016 0.9686
4.3633 -6.3814 -2.0016 0.9686
5.0240 -5.8753 -2.0016 0.9686
5.8131 -5.0959 -2.0016 0.9686
5.9923 -4.8839 -2.0016 0.9686
6.1637 -4.6657 -2.0016 0.9686
6.3272 -4.4414 -2.0016 0.9686
6.4826 -4.2115 -2.0016 0.9686
6.6296 -3.9761 -2.0016 0.9686
7.0186 -3.2404 -2.0016 0.9686
7.5490 -1.6653 -2.0016 0.9686
7.7250 -0.2907 -2.0016 0.9686
7.7260 0.2643 -2.0016 0.9686
7.7115 0.5414 -2.0016 0.9686
7.6528 1.0933 -2.0016 0.9686
7.6086 1.3673 -2.0016 0.9686
7.4909 1.9096 -2.0016 0.9686
7.2422 2.7038 -2.0016 0.9686
7.1405 2.9620 -2.0016 0.9686
7.0296 3.2164 -2.0016 0.9686
6.9096 3.4666 -2.0016 0.9686
6.7807 3.7124 -2.0016 0.9686
6.4969 4.1893 -2.0016 0.9686
6.3424 4.4198 -2.0016 0.9686
6.1796 4.6446 -2.0016 0.9686
5.6446 5.2820 -2.0016 0.9686
5.4513 5.4812 -2.0016 0.9686
5.2511 5.6733 -2.0016 0.9686
4.8305 6.0354 -2.0016 0.9686
4.6108 6.2049 -2.0016 0.9686
3.9171 6.6646 -2.0016 0.9686
3.1779 7.0471 -2.0016 0.9686
2.9229 7.1566 -2.0016 0.9686
1.5982 7.5635 -2.0016 0.9686
0.2221 7.7273 -2.0016 0.9686
-0.3329 7.7233 -2.0016 0.9686
-0.6099 7.7064 -2.0016 0.9686
-0.8861 7.6795 -2.0016 0.9686
-1.4348 7.5962 -2.0016 0.9686
-1.7065 7.5398 -2.0016 0.9686
-2.2430 7.3979 -2.0016 0.9686
-2.5071 7.3126 -2.0016 0.9686
-2.7680 7.2179 -2.0016 0.9686
-3.0253 7.1139 -2.0016 0.9686
-3.2787 7.0008 -2.0016 0.9686
-3.7725 6.7475 -2.0016 0.9686
-4.0122 6.6078 -2.0016 0.9686
-4.2468 6.4595 -2.0016 0.9686
-4.9166 5.9655 -2.0016 0.9686
-5.5294 5.4024 -2.0016 0.9686
-5.7197 5.2005 -2.0016 0.9686
-5.9027 4.9918 -2.0016 0.9686
-6.2456 4.5555 -2.0016 0.9686
-6.6991 3.8577 -2.0016 0.9686
-6.9586 3.3672 -2.0016 0.9686
-7.1823 2.8593 -2.0016 0.9686
-7.2803 2.5996 -2.0016 0.9686
-7.5774 1.5310 -2.0016 0.9686
-7.6274 1.2580 -2.0016 0.9686
-7.6677 0.9834 -2.0016 0.9686
-7.6980 0.7076 -2.0016 0.9686
-7.7185 0.4308 -2.0016 0.9686
-7.7295 -0.1241 -2.0016 0.9686
-7.6714 -0.9542 -2.0016 0.9686
-7.6322 -1.2290 -2.0016 0.9686
-7.5831 -1.5021 -2.0016 0.9686
-7.5243 -1.7734 -2.0016 0.9686
-7.4558 -2.0423 -2.0016 0.9686
-6.4678 -3.0994 -1.8570 0.9708
-6.0972 -3.7767 -1.8570 0.9708
-5.9577 -3.9931 -1.8570 0.9708
-5.8105 -4.2044 -1.8570 0.9708
-5.6559 -4.4102 -1.8570 0.9708
-5.4939 -4.6104 -1.8570 0.9708
-4.7775 -5.3492 -1.8570 0.9708
-4.2714 -6.4433 -2.0016 0.9686
-4.0373 -6.5925 -2.0016 0.9686
-3.7981 -6.7331 -2.0016 0.9686
-3.5540 -6.8651 -2.0016 0.9686
-3.3053 -6.9882 -2.0016 0.9686
-3.0523 -7.1024 -2.0016 0.9686
-2.7954 -7.2074 -2.0016 0.9686
-2.5349 -7.3031 -2.0016 0.9686
-2.0044 -7.4661 -2.0016 0.9686
-1.7352 -7.5332 -2.0016 0.9686
-1.1902 -7.6383 -2.0016 0.9686
-0.6392 -7.7040 -2.0016 0.9686
-0.3622 -7.7220 -2.0016 0.9686
0.1927 -7.7281 -2.0016 0.9686
0.7466 -7.6943 -2.0016 0.9686
1.2967 -7.6210 -2.0016 0.9686
1.5694 -7.5695 -2.0016 0.9686
1.8401 -7.5083 -2.0016 0.9686
2.1084 -7.4374 -2.0016 0.9686
2.6366 -7.2670 -2.0016 0.9686
3.1511 -7.0591 -2.0016 0.9686
2.3942 -4.1092 -1.2314 0.9805
4.1289 -6.5355 -2.0016 0.9686
5.0217 -5.8773 -2.0016 0.9686
5.2295 -5.6933 -2.0016 0.9686
5.4304 -5.5019 -2.0016 0.9686
5.9904 -4.8862 -2.0016 0.9686
6.4810 -4.2140 -2.0016 0.9686
6.6280 -3.9786 -2.0016 0.9686
7.0173 -3.2431 -2.0016 0.9686
7.1292 -2.9891 -2.0016 0.9686
7.2319 -2.7313 -2.0016 0.9686
7.4092 -2.2054 -2.0016 0.9686
7.6839 -0.8471 -2.0016 0.9686
7.7094 -0.5707 -2.0016 0.9686
7.7305 -0.0162 -2.0016 0.9686
7.7261 0.2613 -2.0016 0.9686
7.6874 0.8149 -2.0016 0.9686
7.6532 1.0903 -2.0016 0.9686
7.6091 1.3643 -2.0016 0.9686
7.5553 1.6366 -2.0016 0.9686
7.3356 2.4392 -2.0016 0.9686
7.2433 2.7010 -2.0016 0.9686
7.1417 2.9592 -2.0016 0.9686
6.7822 3.7098 -2.0016 0.9686
6.4986 4.1868 -2.0016 0.9686
6.3441 4.4173 -2.0016 0.9686
5.8325 5.0737 -2.0016 0.9686
5.6466 5.2798 -2.0016 0.9686
5.2533 5.6713 -2.0016 0.9686
4.1563 6.5181 -2.0016 0.9686
3.6779 6.7995 -2.0016 0.9686
2.9257 7.1555 -2.0016 0.9686
2.6670 7.2559 -2.0016 0.9686
2.4048 7.3469 -2.0016 0.9686
1.8715 7.5005 -2.0016 0.9686
1.3286 7.6155 -2.0016 0.9686
0.7788 7.6912 -2.0016 0.9686
0.2251 7.7272 -2.0016 0.9686
-0.0524 7.7303 -2.0016 0.9686
-0.6069 7.7066 -2.0016 0.9686
-0.8831 7.6799 -2.0016 0.9686
-1.4318 7.5967 -2.0016 0.9686
-1.7036 7.5404 -2.0016 0.9686
-1.9731 7.4744 -2.0016 0.9686
-2.2402 7.3988 -2.0016 0.9686
-3.0225 7.1151 -2.0016 0.9686
-3.5252 6.8799 -2.0016 0.9686
-3.7699 6.7490 -2.0016 0.9686
-4.0097 6.6093 -2.0016 0.9686
-4.2443 6.4611 -2.0016 0.9686
-4.4735 6.3046 -2.0016 0.9686
-4.9143 5.9674 -2.0016 0.9686
-5.1253 5.7872 -2.0016 0.9686
-5.7177 5.2027 -2.0016 0.9686
-5.9008 4.9941 -2.0016 0.9686
-6.4034 4.3309 -2.0016 0.9686
-6.6976 3.8603 -2.0016 0.9686
-6.9573 3.3699 -2.0016 0.9686
-7.0738 3.1180 -2.0016 0.9686
-7.1812 2.8621 -2.0016 0.9686
-4.7075 -4.5681 -1.8570 0.9731
-4.3677 -4.8941 -1.8570 0.9731
-3.8162 -5.3352 -1.8570 0.9731
-3.4714 -6.1595 -2.0016 0.9710
-3.2480 -6.2801 -2.0016 0.9710
-3.0205 -6.3927 -2.0016 0.9710
-2.7891 -6.4970 -2.0016 0.9710
-2.5541 -6.5929 -2.0016 0.9710
-2.3158 -6.6803 -2.0016 0.9710
-2.0746 -6.7591 -2.0016 0.9710
-1.5843 -6.8905 -2.0016 0.9710
-1.0859 -6.9864 -2.0016 0.9710
-0.8344 -7.0209 -2.0016 0.9710
-0.5819 -7.0464 -2.0016 0.9710
-0.3286 -7.0627 -2.0016 0.9710
-0.0748 -7.0699 -2.0016 0.9710
0.4326 -7.0571 -2.0016 0.9710
0.6856 -7.0370 -2.0016 0.9710
0.9377 -7.0079 -2.0016 0.9710
1.9310 -6.8015 -2.0016 0.9710
2.0943 -4.2684 -1.3460 0.9804
2.3878 -4.0947 -1.3419 0.9805
3.7786 -5.9759 -2.0016 0.9710
3.9907 -5.8364 -2.0016 0.9710
4.3991 -5.5351 -2.0016 0.9710
4.5950 -5.3736 -2.0016 0.9710
5.1460 -4.8485 -2.0016 0.9710
5.4806 -4.4668 -2.0016 0.9710
6.4192 -2.9636 -2.0016 0.9710
6.6153 -2.4955 -2.0016 0.9710
7.0281 -0.7720 -2.0016 0.9710
7.0653 -0.2658 -2.0016 0.9710
7.0662 0.2417 -2.0016 0.9710
6.9993 0.9999 -2.0016 0.9710
6.9589 1.2505 -2.0016 0.9710
6.9095 1.4995 -2.0016 0.9710
6.8512 1.7465 -2.0016 0.9710
6.7841 1.9913 -2.0016 0.9710
6.7083 2.2335 -2.0016 0.9710
6.5308 2.7090 -2.0016 0.9710
6.4293 2.9417 -2.0016 0.9710
6.2017 3.3954 -2.0016 0.9710
5.9421 3.8316 -2.0016 0.9710
5.6519 4.2480 -2.0016 0.9710
5.1625 4.8309 -2.0016 0.9710
4.9858 5.0131 -2.0016 0.9710
4.8026 5.1888 -2.0016 0.9710
4.4180 5.5200 -2.0016 0.9710
3.5825 6.0955 -2.0016 0.9710
3.3615 6.2202 -2.0016 0.9710
3.1360 6.3368 -2.0016 0.9710
2.6733 6.5455 -2.0016 0.9710
2.4367 6.6372 -2.0016 0.9710
2.1968 6.7204 -2.0016 0.9710
1.4617 6.9176 -2.0016 0.9710
0.7096 7.0346 -2.0016 0.9710
0.4567 7.0556 -2.0016 0.9710
0.2031 7.0674 -2.0016 0.9710
-1.0620 6.9901 -2.0016 0.9710
-1.5608 6.8959 -2.0016 0.9710
-1.8073 6.8354 -2.0016 0.9710
-2.7669 6.5064 -2.0016 0.9710
-2.9987 6.4029 -2.0016 0.9710
-3.2266 6.2912 -2.0016 0.9710
-3.4503 6.1713 -2.0016 0.9710
-3.8842 5.9079 -2.0016 0.9710
-4.2980 5.6140 -2.0016 0.9710
-4.8766 5.1194 -2.0016 0.9710
-5.2313 4.7564 -2.0016 0.9710
-5.7123 4.1665 -2.0016 0.9710
-5.9965 3.7459 -2.0016 0.9710
-6.1270 3.5283 -2.0016 0.9710
-6.2498 3.3061 -2.0016 0.9710
-6.4708 2.8492 -2.0016 0.9710
-6.5689 2.6151 -2.0016 0.9710
-6.7396 2.1371 -2.0016 0.9710
-6.8120 1.8938 -2.0016 0.9710
-6.8756 1.6481 -2.0016 0.9710
-6.9303 1.4002 -2.0016 0.9710
-7.0407 0.6471 -2.0016 0.9710
-7.0593 0.3940 -2.0016 0.9710
-7.0689 0.1404 -2.0016 0.9710
-7.0608 -0.3671 -2.0016 0.9710
-7.0431 -0.6204 -2.0016 0.9710
-6.9804 -1.1240 -2.0016 0.9710
-6.8818 -1.6219 -2.0016 0.9710
-6.7477 -2.1115 -2.0016 0.9710
-6.3354 -2.2351 -1.9018 0.9725
-6.1036 -2.4030 -1.8570 0.9731
-5.8099 -3.0452 -1.8570 0.9731
-5.5765 -3.4542 -1.8570 0.9731
-5.3143 -3.8453 -1.8570 0.9731
-4.8701 -4.3943 -1.8570 0.9731
-4.7093 -4.5663 -1.8570 0.9731
-4.5423 -4.7324 -1.8570 0.9731
-4.3696 -4.8924 -1.8570 0.9731
-4.1911 -5.0461 -1.8570 0.9731
-4.0073 -5.1933 -1.8570 0.9731
-3.8183 -5.3338 -1.8570 0.9731
-3.4737 -6.1581 -2.0016 0.9710
-3.2505 -6.2789 -2.0016 0.9710
-1.5870 -6.8899 -2.0016 0.9710
-1.3386 -6.9424 -2.0016 0.9710
-0.5846 -7.0461 -2.0016 0.9710
-0.3313 -7.0626 -2.0016 0.9710
-0.0776 -7.0699 -2.0016 0.9710
0.4298 -7.0573 -2.0016 0.9710
1.1860 -6.9701 -2.0016 0.9710
1.4354 -6.9231 -2.0016 0.9710
1.6830 -6.8671 -2.0016 0.9710
2.1713 -6.7287 -2.0016 0.9710
2.8820 -6.4563 -2.0016 0.9710
2.0942 -4.2723 -1.3469 0.9804
2.1943 -4.0975 -1.3158 0.9809
3.7763 -5.9774 -2.0016 0.9710
4.3970 -5.5368 -2.0016 0.9710
4.7829 -5.2071 -2.0016 0.9710
5.1441 -4.8505 -2.0016 0.9710
5.4789 -4.4690 -2.0016 0.9710
5.6357 -4.2694 -2.0016 0.9710
5.7853 -4.0644 -2.0016 0.9710
5.9275 -3.8541 -2.0016 0.9710
6.4181 -2.9661 -2.0016 0.9710
6.5204 -2.7339 -2.0016 0.9710
6.6143 -2.4981 -2.0016 0.9710
6.6997 -2.2590 -2.0016 0.9710
6.7765 -2.0171 -2.0016 0.9710
6.8445 -1.7726 -2.0016 0.9710
6.9038 -1.5257 -2.0016 0.9710
7.0510 -0.5220 -2.0016 0.9710
7.0309 0.7453 -2.0016 0.9710
6.9997 0.9972 -2.0016 0.9710
6.9594 1.2478 -2.0016 0.9710
6.8519 1.7439 -2.0016 0.9710
6.7091 2.2309 -2.0016 0.9710
6.6247 2.4703 -2.0016 0.9710
6.5318 2.7065 -2.0016 0.9710
6.4304 2.9392 -2.0016 0.9710
6.0772 3.6134 -2.0016 0.9710
5.9436 3.8293 -2.0016 0.9710
5.8023 4.0401 -2.0016 0.9710
5.1644 4.8289 -2.0016 0.9710
4.6154 5.3561 -2.0016 0.9710
4.4202 5.5183 -2.0016 0.9710
3.8013 5.9615 -2.0016 0.9710
3.5849 6.0941 -2.0016 0.9710
3.3639 6.2188 -2.0016 0.9710
3.1385 6.3356 -2.0016 0.9710
2.9090 6.4442 -2.0016 0.9710
2.4392 6.6362 -2.0016 0.9710
2.1994 6.7195 -2.0016 0.9710
1.9568 6.7941 -2.0016 0.9710
1.4644 6.9170 -2.0016 0.9710
0.2058 7.0673 -2.0016 0.9710
-0.8077 7.0240 -2.0016 0.9710
-1.0593 6.9905 -2.0016 0.9710
-1.3096 6.9480 -2.0016 0.9710
-1.5581 6.8965 -2.0016 0.9710
-2.5290 6.6025 -2.0016 0.9710
-3.2241 6.2924 -2.0016 0.9710
-3.4479 6.1726 -2.0016 0.9710
-3.6673 6.0449 -2.0016 0.9710
-4.2958 5.6157 -2.0016 0.9710
-4.4946 5.4578 -2.0016 0.9710
-5.2294 4.7584 -2.0016 0.9710
-5.3969 4.5676 -2.0016 0.9710
-5.5573 4.3710 -2.0016 0.9710
-5.7106 4.1687 -2.0016 0.9710
-5.9950 3.7483 -2.0016 0.9710
-6.5679 2.6177 -2.0016 0.9710
-4.3328 -4.2045 -1.8570 0.9751
-4.0200 -4.5045 -1.8570 0.9751
-3.6864 -4.7813 -1.8570 0.9751
-3.3339 -5.0334 -1.8570 0.9751
-2.9642 -5.2596 -1.8570 0.9751
-2.5793 -5.4587 -1.8570 0.9751
-2.3817 -5.5478 -1.8570 0.9751
-1.9094 -6.2210 -2.0016 0.9731
-1.4582 -6.3420 -2.0016 0.9731
-1.2296 -6.3903 -2.0016 0.9731
0.1647 -6.5054 -2.0016 0.9731
0.6310 -6.4768 -2.0016 0.9731
0.8631 -6.4500 -2.0016 0.9731
1.3236 -6.3714 -2.0016 0.9731
1.5514 -6.3198 -2.0016 0.9731
2.0008 -6.1922 -2.0016 0.9731
2.2218 -6.1164 -2.0016 0.9731
2.2637 -5.5970 -1.8570 0.9751
2.0804 -4.2400 -1.4527 0.9804
2.3793 -4.0801 -1.4527 0.9804
3.4778 -5.5002 -2.0016 0.9731
4.0489 -5.0944 -2.0016 0.9731
4.2292 -4.9458 -2.0016 0.9731
4.5731 -4.6297 -2.0016 0.9731
5.0443 -4.1113 -2.0016 0.9731
5.1886 -3.9275 -2.0016 0.9731
5.3262 -3.7388 -2.0016 0.9731
5.4570 -3.5452 -2.0016 0.9731
5.5807 -3.3470 -2.0016 0.9731
5.6973 -3.1446 -2.0016 0.9731
6.0887 -2.2968 -2.0016 0.9731
6.2377 -1.8541 -2.0016 0.9731
6.3003 -1.6290 -2.0016 0.9731
6.4899 -0.4779 -2.0016 0.9731
6.4915 0.4558 -2.0016 0.9731
6.4421 0.9203 -2.0016 0.9731
6.3058 1.6075 -2.0016 0.9731
6.1742 2.0557 -2.0016 0.9731
5.9175 2.7075 -2.0016 0.9731
5.4691 3.5265 -2.0016 0.9731
5.3390 3.7206 -2.0016 0.9731
5.0583 4.0940 -2.0016 0.9731
4.9081 4.2729 -2.0016 0.9731
4.7516 4.4463 -2.0016 0.9731
4.5889 4.6140 -2.0016 0.9731
4.4203 4.7758 -2.0016 0.9731
4.0663 5.0806 -2.0016 0.9731
3.2974 5.6102 -2.0016 0.9731
2.4605 6.0244 -2.0016 0.9731
2.2427 6.1088 -2.0016 0.9731
2.0220 6.1854 -2.0016 0.9731
1.7986 6.2540 -2.0016 0.9731
1.5730 6.3145 -2.0016 0.9731
1.1159 6.4111 -2.0016 0.9731
0.4203 6.4939 -2.0016 0.9731
0.1869 6.5048 -2.0016 0.9731
-0.0467 6.5073 -2.0016 0.9731
-0.7459 6.4646 -2.0016 0.9731
-0.9775 6.4336 -2.0016 0.9731
-1.4365 6.3469 -2.0016 0.9731
-1.6634 6.2913 -2.0016 0.9731
-1.8881 6.2275 -2.0016 0.9731
-2.1105 6.1557 -2.0016 0.9731
-2.5466 5.9885 -2.0016 0.9731
-2.7600 5.8932 -2.0016 0.9731
-3.1756 5.6800 -2.0016 0.9731
-3.3775 5.5624 -2.0016 0.9731
-4.1388 5.0218 -2.0016 0.9731
-4.4884 4.7119 -2.0016 0.9731
-4.6546 4.5478 -2.0016 0.9731
-4.9689 4.2021 -2.0016 0.9731
-5.1165 4.0210 -2.0016 0.9731
-5.2575 3.8348 -2.0016 0.9731
-5.3918 3.6436 -2.0016 0.9731
-5.5191 3.4477 -2.0016 0.9731
-5.6393 3.2474 -2.0016 0.9731
-5.7522 3.0429 -2.0016 0.9731
-5.8577 2.8345 -2.0016 0.9731
-5.9557 2.6224 -2.0016 0.9731
-6.1285 2.1884 -2.0016 0.9731
-6.2697 1.7431 -2.0016 0.9731
-6.3282 1.5169 -2.0016 0.9731
-6.3786 1.2888 -2.0016 0.9731
-6.5062 0.1292 -2.0016 0.9731
-6.5067 -0.1044 -2.0016 0.9731
-6.4987 -0.3379 -2.0016 0.9731
-6.4824 -0.5710 -2.0016 0.9731
-6.4247 -1.0346 -2.0016 0.9731
-5.6874 -2.2392 -1.8800 0.9747
-5.5347 -2.4119 -1.8570 0.9751
-5.1326 -3.1792 -1.8570 0.9751
-5.0151 -3.3614 -1.8570 0.9751
-4.8912 -3.5392 -1.8570 0.9751
-4.6247 -3.8810 -1.8570 0.9751
-4.4825 -4.0445 -1.8570 0.9751
-4.3344 -4.2028 -1.8570 0.9751
-4.1807 -4.3557 -1.8570 0.9751
-3.8575 -4.6444 -1.8570 0.9751
-3.6883 -4.7798 -1.8570 0.9751
-3.5144 -4.9092 -1.8570 0.9751
-3.3359 -5.0321 -1.8570 0.9751
-2.9663 -5.2585 -1.8570 0.9751
-2.5814 -5.4577 -1.8570 0.9751
-2.3838 -5.5469 -1.8570 0.9751
-2.1832 -5.6289 -1.8570 0.9751
-2.1339 -6.1477 -2.0016 0.9731
-1.9118 -6.2203 -2.0016 0.9731
-1.6873 -6.2849 -2.0016 0.9731
-1.0019 -6.4299 -2.0016 0.9731
-0.7705 -6.4617 -2.0016 0.9731
-0.5381 -6.4852 -2.0016 0.9731
-0.0714 -6.5071 -2.0016 0.9731
0.3956 -6.4954 -2.0016 0.9731
0.6285 -6.4771 -2.0016 0.9731
1.3211 -6.3720 -2.0016 0.9731
1.5490 -6.3204 -2.0016 0.9731
2.2194 -6.1173 -2.0016 0.9731
2.4610 -5.5131 -1.8570 0.9751
2.0802 -4.2439 -1.4537 0.9804
3.4757 -5.5015 -2.0016 0.9731
3.8614 -5.2380 -2.0016 0.9731
4.0470 -5.0960 -2.0016 0.9731
4.4021 -4.7925 -2.0016 0.9731
4.5713 -4.6315 -2.0016 0.9731
4.8918 -4.2916 -2.0016 0.9731
5.3248 -3.7408 -2.0016 0.9731
5.5794 -3.3492 -2.0016 0.9731
5.8053 -2.9403 -2.0016 0.9731
5.9071 -2.7300 -2.0016 0.9731
6.0878 -2.2992 -2.0016 0.9731
6.2370 -1.8565 -2.0016 0.9731
6.3542 -1.4043 -2.0016 0.9731
6.4005 -1.1753 -2.0016 0.9731
6.5075 -0.0136 -2.0016 0.9731
6.5038 0.2200 -2.0016 0.9731
6.4712 0.6860 -2.0016 0.9731
6.4424 0.9178 -2.0016 0.9731
6.4053 1.1485 -2.0016 0.9731
6.3064 1.6050 -2.0016 0.9731
6.1750 2.0533 -2.0016 0.9731
6.0974 2.2737 -2.0016 0.9731
5.9185 2.7052 -2.0016 0.9731
5.8176 2.9159 -2.0016 0.9731
5.3404 3.7185 -2.0016 0.9731
5.2035 3.9078 -2.0016 0.9731
5.0599 4.0921 -2.0016 0.9731
4.9097 4.2710 -2.0016 0.9731
4.7533 4.4445 -2.0016 0.9731
4.5907 4.6123 -2.0016 0.9731
4.4222 4.7741 -2.0016 0.9731
4.2480 4.9297 -2.0016 0.9731
4.0683 5.0790 -2.0016 0.9731
3.8833 5.2218 -2.0016 0.9731
3.6934 5.3578 -2.0016 0.9731
3.2995 5.6090 -2.0016 0.9731
2.8886 5.8312 -2.0016 0.9731
2.2450 6.1080 -2.0016 0.9731
2.0244 6.1846 -2.0016 0.9731
1.8011 6.2533 -2.0016 0.9731
0.4228 6.4937 -2.0016 0.9731
0.1895 6.5047 -2.0016 0.9731
-0.2777 6.5016 -2.0016 0.9731
-0.5109 6.4874 -2.0016 0.9731
-0.7434 6.4649 -2.0016 0.9731
-0.9750 6.4340 -2.0016 0.9731
-1.4341 6.3475 -2.0016 0.9731
-1.6610 6.2919 -2.0016 0.9731
-2.1081 6.1566 -2.0016 0.9731
-2.7577 5.8943 -2.0016 0.9731
-2.9675 5.7915 -2.0016 0.9731
-4.4865 4.7136 -2.0016 0.9731
-4.8131 4.3796 -2.0016 0.9731
-5.2560 3.8368 -2.0016 0.9731
-5.6380 3.2496 -2.0016 0.9731
-6.0451 2.4093 -2.0016 0.9731
-4.0092 -3.8904 -1.8570 0.9767
-3.8669 -4.0318 -1.8570 0.9767
-3.7197 -4.1680 -1.8570 0.9767
-3.5677 -4.2989 -1.8570 0.9767
-3.4111 -4.4242 -1.8570 0.9767
-3.2501 -4.5437 -1.8570 0.9767
-2.7428 -4.8668 -1.8570 0.9767
-2.3866 -5.0510 -1.8570 0.9767
-2.2038 -5.1334 -1.8570 0.9767
-2.0181 -5.2092 -1.8570 0.9767
-1.8298 -5.2783 -1.8570 0.9767
-1.6392 -5.3406 -1.8570 0.9767
-1.4464 -5.3960 -1.8570 0.9767
-1.0556 -5.4859 -1.8570 0.9767
-0.8580 -5.5202 -1.8570 0.9767
-0.2596 -5.5805 -1.8570 0.9767
0.5417 -5.5602 -1.8570 0.9767
0.7419 -5.5441 -1.8593 0.9767
1.3319 -5.4254 -1.8570 0.9767
1.5257 -5.3741 -1.8570 0.9767
1.7177 -5.3159 -1.8570 0.9767
2.2791 -5.1004 -1.8570 0.9767
2.1809 -4.0688 -1.5345 0.9807
3.3231 -4.5041 -1.8606 0.9767
3.4759 -4.3734 -1.8570 0.9767
4.2315 -4.2839 -2.0016 0.9749
4.5280 -3.9693 -2.0016 0.9749
4.8011 -3.6342 -2.0016 0.9749
5.0494 -3.2804 -2.0016 0.9749
5.1639 -3.0970 -2.0016 0.9749
5.3728 -2.7186 -2.0016 0.9749
5.4669 -2.5240 -2.0016 0.9749
5.5540 -2.3261 -2.0016 0.9749
5.6339 -2.1253 -2.0016 0.9749
5.7066 -1.9217 -2.0016 0.9749
5.7719 -1.7156 -2.0016 0.9749
5.8297 -1.5073 -2.0016 0.9749
5.8801 -1.2971 -2.0016 0.9749
6.0052 -0.4422 -2.0016 0.9749
6.0172 -0.2264 -2.0016 0.9749
6.0214 -0.0103 -2.0016 0.9749
6.0179 0.2059 -2.0016 0.9749
5.9265 1.0650 -2.0016 0.9749
5.8845 1.2770 -2.0016 0.9749
5.8348 1.4874 -2.0016 0.9749
5.6411 2.1060 -2.0016 0.9749
5.3821 2.7002 -2.0016 0.9749
5.2817 2.8917 -2.0016 0.9749
5.0606 3.2631 -2.0016 0.9749
