ply
format ascii 1.0
element vertex 1542
property float32 x
property float32 y
property float32 z
property float32 I
end_header
-0.2825 -22.4190 -0.1262 0.9142
0.4038 -17.3453 -0.0977 0.9330
1.3280 -22.4235 -0.1265 0.9141
2.2366 -4.1963 -0.0268 0.9812
32.9419 -36.0164 -0.2748 0.8226
32.8772 -33.4528 -0.2641 0.8289
32.7297 -30.9959 -0.2537 0.8350
34.0494 -30.0037 -0.2555 0.8340
32.9016 -26.9586 -0.2395 0.8435
37.2067 -26.2648 -0.2564 0.8335
38.9621 -25.4604 -0.2620 0.8301
35.2975 17.5613 -0.2220 0.8541
34.1335 18.5384 -0.2187 0.8561
29.8099 17.6034 -0.1949 0.8707
34.4728 22.0619 -0.2304 0.8490
35.1935 24.3456 -0.2409 0.8427
35.1988 26.2648 -0.2473 0.8389
4.6162 15.8188 -0.0928 0.9362
2.3676 13.2901 -0.0760 0.9474
1.8931 13.3932 -0.0762 0.9473
0.4039 12.3152 -0.0694 0.9519
-1.3486 12.1296 -0.0687 0.9524
-2.6837 12.0940 -0.0697 0.9517
-3.6106 12.0942 -0.0711 0.9508
-6.6107 11.9473 -0.0769 0.9468
-8.3601 11.8848 -0.0818 0.9435
-9.9601 12.1970 -0.0887 0.9390
-11.4874 12.1704 -0.0942 0.9352
-12.3109 12.1394 -0.0973 0.9332
-13.0799 12.0033 -0.1000 0.9315
-17.3428 11.8391 -0.1182 0.9194
-18.8576 11.9047 -0.1256 0.9147
-20.5154 11.9442 -0.1337 0.9094
-22.2528 11.9081 -0.1421 0.9040
-24.3099 11.9077 -0.1524 0.8974
-27.1462 -22.5249 -0.1986 0.8684
-23.2196 -22.2636 -0.1811 0.8793
-18.7974 -22.3725 -0.1645 0.8897
-16.3424 -22.5550 -0.1568 0.8946
-15.1414 -22.5583 -0.1530 0.8970
-11.8497 -22.5674 -0.1435 0.9031
-8.8399 -22.4002 -0.1356 0.9082
-6.1576 -22.4027 -0.1308 0.9113
-5.3018 -22.4050 -0.1296 0.9120
-3.6303 -22.4097 -0.1278 0.9132
-2.8099 -22.4120 -0.1272 0.9136
-0.3832 -22.4187 -0.1262 0.9142
0.3253 -17.3136 -0.0975 0.9331
1.2270 -22.4232 -0.1264 0.9141
2.2187 -4.2081 -0.0268 0.9812
28.2071 -38.7912 -0.2700 0.8254
32.8695 -36.2628 -0.2756 0.8222
32.6137 -31.1649 -0.2540 0.8349
32.8960 -27.2018 -0.2403 0.8430
33.1215 -25.4441 -0.2352 0.8461
37.2021 -26.5126 -0.2572 0.8330
41.3545 13.4141 -0.2448 0.8404
36.0142 16.1389 -0.2222 0.8540
34.1347 18.3411 -0.2182 0.8564
34.4726 21.8443 -0.2298 0.8494
35.1982 26.0192 -0.2464 0.8394
35.2038 28.0306 -0.2534 0.8353
4.7068 15.8639 -0.0932 0.9360
2.4445 13.3735 -0.0765 0.9471
1.9051 13.0544 -0.0743 0.9486
0.9327 12.7272 -0.0718 0.9502
0.0170 12.1549 -0.0684 0.9525
-0.8701 12.3457 -0.0697 0.9517
-1.2963 12.1556 -0.0688 0.9523
-2.6564 12.2304 -0.0705 0.9512
-3.0624 12.0057 -0.0698 0.9516
-4.0409 12.1325 -0.0720 0.9501
-4.4492 11.9148 -0.0716 0.9504
-7.2416 12.1695 -0.0797 0.9449
-7.7290 11.9881 -0.0803 0.9445
-8.3967 12.0514 -0.0827 0.9429
-9.1121 12.1264 -0.0854 0.9411
-9.6861 11.9708 -0.0867 0.9403
-10.3373 11.8777 -0.0887 0.9390
-11.3471 12.1304 -0.0935 0.9357
-26.6449 -22.3116 -0.9786 0.8702
-24.7573 -22.2896 -0.9380 0.8752
-23.0186 -22.2701 -0.9018 0.8797
-21.4078 -22.2528 -0.8695 0.8838
-18.5029 -22.2238 -0.8143 0.8907
-17.0591 -22.0527 -0.7851 0.8944
-11.5427 -22.2247 -0.7052 0.9046
-9.6077 -22.2720 -0.6830 0.9075
-6.0334 -22.3426 -0.6517 0.9116
-4.3760 -22.5119 -0.6458 0.9123
-2.7048 -22.3869 -0.6349 0.9137
-1.0867 -22.3987 -0.6314 0.9142
-0.2823 -22.4022 -0.6308 0.9142
0.4038 -17.3451 -0.4885 0.9329
32.7297 -30.9959 -1.2692 0.8350
33.9905 -29.9517 -1.2757 0.8342
32.8416 -26.9094 -1.1955 0.8437
33.4322 -25.4450 -1.1829 0.8453
38.9622 -25.4604 -1.3105 0.8301
34.4547 -3.8887 -0.9763 0.8704
40.1337 13.2175 -1.1898 0.8444
35.6497 13.1761 -1.0702 0.8589
36.0500 16.3497 -1.1146 0.8535
35.0472 17.4367 -1.1022 0.8550
29.8723 17.6402 -0.9768 0.8704
34.9774 26.0996 -1.2289 0.8398
34.9830 28.1124 -1.2637 0.8356
34.7159 34.6583 -1.3813 0.8218
7.6182 16.7236 -0.5175 0.9291
4.6461 15.9211 -0.4670 0.9358
2.8757 13.3490 -0.3845 0.9468
1.8022 12.7498 -0.3626 0.9498
1.3339 12.7125 -0.3599 0.9501
0.3988 12.1603 -0.3426 0.9525
-0.4636 11.8900 -0.3351 0.9535
-1.3204 11.8759 -0.3365 0.9533
-1.8124 12.2735 -0.3493 0.9516
-2.2006 11.9251 -0.3415 0.9526
-3.1165 11.9927 -0.3489 0.9516
-3.5356 11.8431 -0.3480 0.9517
-4.0694 12.0375 -0.3578 0.9504
-4.9798 11.8524 -0.3620 0.9499
-5.5384 11.9614 -0.3712 0.9486
-7.2266 12.0211 -0.3949 0.9454
-8.2764 11.7658 -0.4051 0.9441
-8.9906 11.8536 -0.4189 0.9422
-10.3843 11.8241 -0.4431 0.9390
-11.2381 11.9063 -0.4610 0.9366
-12.1236 11.9547 -0.4794 0.9341
-13.9407 11.9009 -0.5161 0.9293
-16.1562 11.9006 -0.5650 0.9228
-17.3620 11.8523 -0.5919 0.9193
-20.4786 11.9228 -0.6672 0.9095
-24.9848 -22.2922 -0.9428 0.8746
-23.2288 -22.2724 -0.9062 0.8792
-21.6029 -22.2549 -0.8733 0.8833
-20.0896 -22.2393 -0.8439 0.8870
-17.2173 -22.0520 -0.7878 0.8941
-12.7051 -22.2215 -0.7208 0.9026
-11.6695 -22.2243 -0.7068 0.9044
-6.1406 -22.3407 -0.6524 0.9115
-5.2899 -22.3547 -0.6468 0.9122
-4.4809 -22.5116 -0.6463 0.9122
-1.1875 -22.3982 -0.6316 0.9142
-0.3829 -22.4018 -0.6309 0.9142
0.3253 -17.3135 -0.4876 0.9331
1.2260 -22.4044 -0.6318 0.9141
28.1386 -38.6969 -1.3472 0.8258
32.8090 -36.1961 -1.3756 0.8224
32.8133 -33.6890 -1.3242 0.8285
32.6137 -31.1649 -1.2702 0.8348
32.8370 -27.1529 -1.1998 0.8432
33.1215 -25.4441 -1.1760 0.8461
38.5812 -25.4593 -1.3016 0.8311
34.4317 -4.0428 -0.9762 0.8705
44.8956 12.8022 -1.3146 0.8296
40.5903 13.1662 -1.2016 0.8430
36.1441 13.1747 -1.0832 0.8573
36.0495 16.1547 -1.1123 0.8538
34.9715 23.9606 -1.1937 0.8440
34.9823 27.8543 -1.2591 0.8362
4.7628 16.0530 -0.4715 0.9352
1.9049 13.0530 -0.3714 0.9486
1.3909 12.7063 -0.3599 0.9501
0.4561 12.2321 -0.3447 0.9522
0.0170 12.1668 -0.3426 0.9525
-0.4165 12.0745 -0.3402 0.9528
-0.8454 11.9960 -0.3386 0.9530
-1.2743 11.9497 -0.3384 0.9530
-2.1488 11.9446 -0.3417 0.9526
-3.0395 11.9161 -0.3463 0.9520
-4.4143 11.8212 -0.3553 0.9508
-5.9428 11.8449 -0.3731 0.9484
-7.7316 11.9921 -0.4018 0.9445
-8.2287 11.8103 -0.4053 0.9440
-11.8823 11.8224 -0.4720 0.9351
-37.1637 13.2866 -2.0016 0.8538
-38.0207 10.5879 -2.0016 0.8538
-38.6819 7.8348 -2.0016 0.8538
-39.2998 3.6340 -2.0016 0.8538
-39.4592 0.8070 -2.0016 0.8538
-39.4627 -0.6089 -2.0016 0.8538
-39.4155 -2.0241 -2.0016 0.8538
-39.3175 -3.4367 -2.0016 0.8538
-38.9699 -6.2467 -2.0016 0.8538
-38.0733 -10.3970 -2.0016 0.8538
-36.7361 -14.4269 -2.0016 0.8538
-36.1950 -15.7353 -2.0016 0.8538
-34.2951 -19.5326 -2.0016 0.8538
-31.0195 -19.1723 -1.8494 0.8641
-30.3118 -20.2727 -1.8494 0.8641
-28.7804 -22.3937 -1.8494 0.8641
-24.8307 -22.3558 -1.6945 0.8747
-20.0253 -22.3691 -1.5226 0.8867
-18.6271 -22.3730 -1.4764 0.8899
-17.0071 -21.9855 -1.4096 0.8946
-14.7263 -22.1541 -1.3491 0.8989
-12.6681 -22.3896 -1.3046 0.9021
-8.7240 -22.4005 -1.2191 0.9082
-7.8099 -22.3981 -1.2030 0.9094
-4.3760 -22.5119 -1.1630 0.9122
-3.5272 -22.4100 -1.1505 0.9131
-1.0876 -22.4167 -1.1382 0.9140
0.4038 -17.3449 -0.8799 0.9329
10.6954 -37.9906 -2.0016 0.8538
16.0189 -36.0704 -2.0016 0.8538
2.2366 -4.1962 -0.2411 0.9811
19.8011 -34.1408 -2.0016 0.8538
21.0130 -33.4085 -2.0016 0.8538
23.3542 -31.8160 -2.0016 0.8538
26.6108 -29.0944 -1.9996 0.8539
29.7913 -21.0301 -1.8494 0.8641
32.5804 -16.5978 -1.8543 0.8638
36.8880 -14.0339 -2.0016 0.8538
37.3677 -12.7017 -2.0016 0.8538
38.1822 -9.9899 -2.0016 0.8538
38.5159 -8.6139 -2.0016 0.8538
36.2148 -5.4092 -1.8570 0.8636
34.0670 -3.8450 -1.7387 0.8717
39.4670 -0.1876 -2.0016 0.8538
39.4483 1.2282 -2.0016 0.8538
39.3788 2.6424 -2.0016 0.8538
38.8671 6.8575 -2.0016 0.8538
38.4544 8.2170 -1.9942 0.8543
35.0231 10.1572 -1.8494 0.8641
33.7293 13.8609 -1.8494 0.8641
33.2104 15.0619 -1.8494 0.8641
32.6487 16.2435 -1.8494 0.8641
29.6403 17.5032 -1.7457 0.8712
30.7148 19.6568 -1.8494 0.8641
29.2265 21.8083 -1.8494 0.8641
27.8895 22.4120 -1.8145 0.8665
27.5877 23.8476 -1.8494 0.8641
27.2686 25.3366 -1.8877 0.8615
27.2668 27.2216 -1.9540 0.8570
26.9029 28.8579 -2.0008 0.8538
25.8598 29.8152 -2.0016 0.8538
24.7737 30.7236 -2.0016 0.8538
23.6556 31.5925 -2.0016 0.8538
7.6173 16.7218 -0.9319 0.9290
15.0623 36.4802 -2.0016 0.8538
13.7440 36.9970 -2.0016 0.8538
12.4081 37.4662 -2.0016 0.8538
4.4817 15.3578 -0.8113 0.9379
3.4467 13.6087 -0.7119 0.9453
2.8303 13.1387 -0.6816 0.9476
2.3739 13.3254 -0.6864 0.9472
1.8462 13.0610 -0.6690 0.9485
1.3038 12.4258 -0.6336 0.9512
0.4044 12.3315 -0.6257 0.9518
-0.0369 11.9251 -0.6048 0.9534
-0.4653 11.9347 -0.6057 0.9533
-1.3207 11.8787 -0.6061 0.9533
-2.2434 12.1570 -0.6269 0.9517
-3.0634 11.7886 -0.6177 0.9524
-3.5621 11.9315 -0.6315 0.9514
-4.0333 11.9307 -0.6387 0.9508
-4.4897 11.8603 -0.6431 0.9505
-6.1446 12.1112 -0.6887 0.9471
-6.6302 11.9825 -0.6945 0.9466
-8.3392 11.8551 -0.7351 0.9436
-8.9972 11.8623 -0.7551 0.9421
-10.4294 11.8755 -0.8015 0.9387
-11.2293 11.8969 -0.8297 0.9366
-12.0903 11.9218 -0.8611 0.9343
-13.8944 11.8614 -0.9265 0.9294
-17.2567 11.7804 -1.0596 0.9197
-18.8174 11.8793 -1.1286 0.9147
-20.5523 11.9657 -1.2061 0.9091
-23.6079 11.5638 -1.3332 0.9001
-33.3029 14.8561 -1.8494 0.8641
-21.2926 8.5965 -1.1645 0.9121
-37.1037 13.4533 -2.0016 0.8538
-37.5624 12.1137 -2.0016 0.8538
-37.9728 10.7585 -2.0016 0.8538
-38.3342 9.3895 -2.0016 0.8538
-38.6464 8.0084 -2.0016 0.8538
-39.3944 2.3988 -2.0016 0.8538
-39.4551 0.9841 -2.0016 0.8538
-39.1903 -4.6689 -2.0016 0.8538
-38.7547 -7.4666 -2.0016 0.8538
-38.4619 -8.8520 -2.0016 0.8538
-37.7283 -11.5867 -2.0016 0.8538
-37.2884 -12.9326 -2.0016 0.8538
-36.2652 -15.5727 -2.0016 0.8538
-35.0554 -18.1327 -2.0016 0.8538
-31.1053 -19.0329 -1.8494 0.8641
-30.4025 -20.1364 -1.8494 0.8641
-29.6607 -21.2140 -1.8494 0.8641
-20.2064 -22.3686 -1.5287 0.8863
-17.1651 -21.9851 -1.4145 0.8943
-13.5707 -21.8751 -1.3055 0.9020
-10.7526 -22.3949 -1.2599 0.9053
-9.7814 -22.3976 -1.2395 0.9068
-8.8399 -22.4002 -1.2213 0.9081
-7.0304 -22.4002 -1.1906 0.9103
-4.4809 -22.5116 -1.1641 0.9122
-3.6303 -22.4097 -1.1513 0.9131
-2.8099 -22.4120 -1.1455 0.9135
-0.3832 -22.4187 -1.1371 0.9141
0.3253 -17.3134 -0.8782 0.9330
1.2270 -22.4232 -1.1389 0.9140
3.2973 -36.3169 -1.8494 0.8641
5.8926 -35.9870 -1.8494 0.8641
7.1796 -35.7525 -1.8494 0.8641
10.5248 -38.0382 -2.0016 0.8538
11.8824 -37.6362 -2.0016 0.8538
13.2248 -37.1858 -2.0016 0.8538
14.5502 -36.6874 -2.0016 0.8538
15.8568 -36.1419 -2.0016 0.8538
22.0512 -32.7326 -2.0016 0.8538
24.3412 -31.0674 -2.0016 0.8538
26.5038 -29.2399 -2.0014 0.8538
26.9817 -25.7832 -1.8927 0.8612
28.1029 -23.2383 -1.8494 0.8641
28.9183 -22.2153 -1.8494 0.8641
30.4366 -20.0849 -1.8494 0.8641
30.1882 -18.4015 -1.7930 0.8680
34.4448 -16.2067 -1.9305 0.8586
36.8247 -14.1993 -2.0016 0.8538
37.7479 -11.5227 -2.0016 0.8538
38.7673 -7.4009 -2.0016 0.8538
34.4982 -5.3112 -1.7702 0.8695
39.4272 -1.7803 -2.0016 0.8538
39.4657 -0.3648 -2.0016 0.8538
39.4534 1.0511 -2.0016 0.8538
39.3903 2.4657 -2.0016 0.8538
39.2765 3.8770 -2.0016 0.8538
39.1122 5.2834 -2.0016 0.8538
38.8975 6.6830 -2.0016 0.8538
38.5438 8.0553 -1.9970 0.8541
35.4045 8.7356 -1.8494 0.8641
35.0684 9.9999 -1.8494 0.8641
34.6871 11.2514 -1.8494 0.8641
34.2612 12.4884 -1.8494 0.8641
32.7213 16.0967 -1.8494 0.8641
32.1229 17.2601 -1.8494 0.8641
29.6402 17.3242 -1.7411 0.8715
30.8027 19.5188 -1.8494 0.8641
30.0827 20.6111 -1.8494 0.8641
29.3241 21.6769 -1.8494 0.8641
27.2671 26.9785 -1.9453 0.8576
25.9934 29.6988 -2.0016 0.8538
23.7972 31.4860 -2.0016 0.8538
22.6525 32.3193 -2.0016 0.8538
19.0494 34.5658 -2.0016 0.8538
17.7972 35.2268 -2.0016 0.8538
16.5222 35.8426 -2.0016 0.8538
4.5502 15.3364 -0.8113 0.9379
3.4976 13.5539 -0.7099 0.9455
1.9043 13.0489 -0.6688 0.9486
0.8978 12.2507 -0.6229 0.9520
0.0166 11.8722 -0.6021 0.9536
-1.2608 11.8230 -0.6030 0.9535
-1.2626 8.8241 -0.4521 0.9649
-2.1966 12.2103 -0.6292 0.9515
-5.4201 11.8450 -0.6606 0.9492
-7.6164 11.8134 -0.7128 0.9453
-8.9603 11.9244 -0.7564 0.9420
-9.6157 11.8838 -0.7753 0.9406
-10.3113 11.8478 -0.7965 0.9390
-26.2975 7.3233 -2.0016 0.8963
-26.7549 5.4191 -2.0016 0.8963
-27.0746 3.4869 -2.0016 0.8963
-27.2549 1.5368 -2.0016 0.8963
-27.2949 -0.4212 -2.0016 0.8963
-26.0591 -8.1312 -2.0016 0.8963
-25.7506 -9.0607 -2.0016 0.8963
-25.4090 -9.9786 -2.0016 0.8963
-25.0348 -10.8836 -2.0016 0.8963
-24.6282 -11.7746 -2.0016 0.8963
-18.7446 -16.8763 -1.8494 0.9038
-18.1272 -17.5378 -1.8494 0.9038
-17.4865 -18.1767 -1.8494 0.9038
-16.8232 -18.7923 -1.8494 0.9038
-15.4326 -19.9501 -1.8494 0.9038
-13.9626 -21.0052 -1.8494 0.9038
-13.2001 -21.4925 -1.8494 0.9038
-10.6293 -22.3952 -1.8176 0.9054
-7.8099 -22.3981 -1.7392 0.9092
-6.0497 -22.4030 -1.7015 0.9111
-5.1958 -22.4053 -1.6864 0.9119
-4.2907 -22.0727 -1.6487 0.9138
-3.5272 -22.4100 -1.6634 0.9130
-2.7078 -22.4122 -1.6553 0.9134
-1.8953 -22.4145 -1.6493 0.9137
-1.0876 -22.4167 -1.6456 0.9139
0.4012 -17.2330 -1.2639 0.9332
2.3934 -25.1086 -1.8494 0.9038
3.2925 -25.0066 -1.8494 0.9038
5.0770 -24.7062 -1.8494 0.9038
5.9598 -24.5082 -1.8494 0.9038
7.7016 -24.0178 -1.8494 0.9038
9.2625 -25.6787 -2.0016 0.8963
2.2366 -4.1962 -0.3486 0.9811
14.5340 -23.1075 -2.0016 0.8963
15.3535 -22.5712 -2.0016 0.8963
16.1532 -22.0060 -2.0016 0.8963
19.8206 -18.7706 -2.0016 0.8963
20.4811 -18.0476 -2.0016 0.8963
21.1153 -17.3013 -2.0016 0.8963
21.7223 -16.5327 -2.0016 0.8963
22.3014 -15.7429 -2.0016 0.8963
24.3237 -12.3915 -2.0016 0.8963
25.1495 -10.6157 -2.0016 0.8963
25.5141 -9.7067 -2.0016 0.8963
26.1444 -7.8525 -2.0016 0.8963
26.8366 -4.9985 -2.0016 0.8963
26.9987 -4.0326 -2.0016 0.8963
27.2850 0.8495 -2.0016 0.8963
27.2369 1.8277 -2.0016 0.8963
27.0358 3.7757 -2.0016 0.8963
26.6955 5.7043 -2.0016 0.8963
26.4737 6.6583 -2.0016 0.8963
26.2179 7.6036 -2.0016 0.8963
25.6052 9.4637 -2.0016 0.8963
24.8609 11.2751 -2.0016 0.8963
24.4404 12.1596 -2.0016 0.8963
22.9927 14.7148 -2.0016 0.8963
22.4501 15.5301 -2.0016 0.8963
21.2789 17.0997 -2.0016 0.8963
20.6518 17.8520 -2.0016 0.8963
19.3188 19.2867 -2.0016 0.8963
18.6145 19.9672 -2.0016 0.8963
17.8863 20.6221 -2.0016 0.8963
16.3617 21.8514 -2.0016 0.8963
15.5674 22.4242 -2.0016 0.8963
14.7530 22.9682 -2.0016 0.8963
13.9196 23.4826 -2.0016 0.8963
12.2002 24.4202 -2.0016 0.8963
7.9296 23.9435 -1.8494 0.9038
4.6566 15.9573 -1.2188 0.9355
3.4108 13.4671 -1.0186 0.9458
0.8456 12.2957 -0.9037 0.9518
0.3988 12.1593 -0.8920 0.9524
-0.0370 11.9653 -0.8773 0.9531
-0.4645 11.9129 -0.8741 0.9533
-2.2130 11.9923 -0.8941 0.9523
-2.6306 11.8550 -0.8904 0.9525
-3.0775 11.8429 -0.8972 0.9521
-3.5453 11.8755 -0.9087 0.9515
-4.5162 11.9305 -0.9353 0.9501
-6.5833 11.8977 -0.9970 0.9469
-8.2944 11.7914 -1.0570 0.9438
-9.6459 11.8123 -1.1182 0.9407
-13.6400 11.6441 -1.3150 0.9306
-16.8748 11.5197 -1.4981 0.9213
-18.2622 11.5288 -1.5835 0.9170
-21.5846 11.5506 -1.7950 0.9065
-22.6510 11.0951 -1.8494 0.9038
-23.0344 10.2755 -1.8494 0.9038
-21.1071 8.5217 -1.6690 0.9127
-23.7118 8.5976 -1.8494 0.9038
-26.2644 7.4413 -2.0016 0.8963
-26.5144 6.4944 -2.0016 0.8963
-27.2897 0.6807 -2.0016 0.8963
-27.2965 -0.2986 -2.0016 0.8963
-26.8085 -2.2220 -1.9724 0.8977
-25.1485 -2.9960 -1.8570 0.9034
-26.0953 -8.0141 -2.0016 0.8963
-25.0833 -10.7711 -2.0016 0.8963
-23.7811 -13.4034 -2.0016 0.8963
-23.2850 -14.2478 -2.0016 0.8963
-22.7589 -15.0739 -2.0016 0.8963
-22.1764 -15.8611 -1.9991 0.8964
-20.9827 -16.1757 -1.9426 0.8992
-19.5130 -16.1912 -1.8591 0.9033
-16.9074 -18.7166 -1.8494 0.9038
-15.5220 -19.8806 -1.8494 0.9038
-14.7989 -20.4246 -1.8494 0.9038
-14.0567 -20.9423 -1.8494 0.9038
-11.7256 -22.3311 -1.8494 0.9038
-9.7814 -22.3976 -1.7920 0.9066
-8.8399 -22.4002 -1.7657 0.9079
-4.3935 -22.0724 -1.6501 0.9137
-3.6303 -22.4097 -1.6645 0.9130
-1.9967 -22.4142 -1.6500 0.9137
-0.3832 -22.4187 -1.6440 0.9140
0.3238 -17.2328 -1.2638 0.9332
1.2270 -22.4232 -1.6466 0.9139
2.2806 -25.1191 -1.8494 0.9038
3.1802 -25.0211 -1.8494 0.9038
4.0758 -24.8909 -1.8494 0.9038
4.9662 -24.7287 -1.8494 0.9038
5.8497 -24.5347 -1.8494 0.9038
6.7261 -24.3090 -1.8494 0.9038
9.1471 -25.7200 -2.0016 0.8963
10.0638 -25.3754 -2.0016 0.8963
15.2520 -22.6399 -2.0016 0.8963
17.5959 -20.8704 -2.0016 0.8963
18.3332 -20.2258 -2.0016 0.8963
19.0469 -19.5552 -2.0016 0.8963
19.7361 -18.8594 -2.0016 0.8963
20.3999 -18.1393 -2.0016 0.8963
21.0374 -17.3959 -2.0016 0.8963
22.2305 -15.8428 -2.0016 0.8963
22.7845 -15.0352 -2.0016 0.8963
23.8038 -13.3630 -2.0016 0.8963
25.1016 -10.7285 -2.0016 0.8963
25.4703 -9.8212 -2.0016 0.8963
25.8062 -8.9012 -2.0016 0.8963
26.3779 -7.0282 -2.0016 0.8963
26.6131 -6.0774 -2.0016 0.8963
26.9803 -4.1538 -2.0016 0.8963
27.2087 -2.2088 -2.0016 0.8963
27.2970 -0.2524 -2.0016 0.8963
27.2449 1.7054 -2.0016 0.8963
27.1661 2.6816 -2.0016 0.8963
27.0525 3.6543 -2.0016 0.8963
26.5033 6.5393 -2.0016 0.8963
25.9663 8.4227 -2.0016 0.8963
24.9112 11.1634 -2.0016 0.8963
24.0468 12.9207 -2.0016 0.8963
23.5678 13.7750 -2.0016 0.8963
23.0585 14.6115 -2.0016 0.8963
21.3554 17.0040 -2.0016 0.8963
19.4051 19.1998 -2.0016 0.8963
18.7039 19.8835 -2.0016 0.8963
17.2303 21.1733 -2.0016 0.8963
14.8560 22.9018 -2.0016 0.8963
13.1758 23.9079 -2.0016 0.8963
12.3097 24.3652 -2.0016 0.8963
7.6740 16.6476 -1.3441 0.9291
10.5312 25.1850 -2.0016 0.8963
3.4718 13.4537 -1.0188 0.9458
2.8886 13.1227 -0.9852 0.9475
1.8699 12.8134 -0.9495 0.9494
0.9011 12.2963 -0.9040 0.9518
0.4497 12.0586 -0.8848 0.9528
0.0166 11.9166 -0.8737 0.9533
-0.4137 11.9928 -0.8799 0.9530
-2.1356 11.8709 -0.8844 0.9528
-3.0711 12.0397 -0.9110 0.9514
-3.9662 11.9084 -0.9203 0.9509
-4.3982 11.7782 -0.9219 0.9508
-5.9921 11.9431 -0.9797 0.9478
-6.4818 11.8395 -0.9897 0.9473
-7.6269 11.8298 -1.0320 0.9451
-8.2447 11.8332 -1.0575 0.9438
-11.2623 12.0398 -1.2088 0.9360
-11.9751 11.9147 -1.2386 0.9345
-20.4336 4.1387 -2.0016 0.9196
-20.8460 -0.3217 -2.0016 0.9196
-20.7693 -1.8154 -2.0016 0.9196
-20.4541 -4.0361 -2.0016 0.9196
-20.2961 -4.7672 -2.0016 0.9196
-19.9021 -6.2101 -2.0016 0.9196
-19.4057 -7.6209 -2.0016 0.9196
-18.8094 -8.9926 -2.0016 0.9196
-18.1163 -10.3180 -2.0016 0.9196
-17.3299 -11.5903 -2.0016 0.9196
-16.9030 -12.2045 -2.0016 0.9196
-15.4940 -13.9497 -2.0016 0.9196
-14.9837 -14.4965 -2.0016 0.9196
-13.9058 -15.5334 -2.0016 0.9196
-13.3093 -15.9858 -1.9970 0.9198
-12.5100 -16.1720 -1.9629 0.9211
-10.7617 -16.1898 -1.8664 0.9249
-10.0813 -16.4145 -1.8494 0.9255
-9.4861 -16.7656 -1.8494 0.9255
-8.8785 -17.0950 -1.8494 0.9255
-8.2596 -17.4025 -1.8494 0.9255
-6.9907 -17.9499 -1.8494 0.9255
-6.3423 -18.1891 -1.8494 0.9255
-5.0219 -18.5970 -1.8494 0.9255
-4.3516 -18.7652 -1.8494 0.9255
-3.6757 -18.9092 -1.8494 0.9255
-2.9951 -19.0289 -1.8494 0.9255
-1.6231 -19.1947 -1.8494 0.9255
-0.2427 -19.2616 -1.8494 0.9255
0.4000 -17.1823 -1.6500 0.9333
1.1389 -19.2295 -1.8494 0.9255
1.8279 -19.1763 -1.8494 0.9255
3.1980 -18.9958 -1.8494 0.9255
4.5517 -18.7177 -1.8494 0.9255
5.3936 -19.1585 -1.9108 0.9231
6.3582 -19.8283 -1.9991 0.9197
7.0741 -19.6117 -2.0016 0.9196
8.4619 -19.0540 -2.0016 0.9196
9.1399 -18.7382 -2.0016 0.9196
2.2365 -4.1962 -0.4565 0.9811
11.1001 -17.6479 -2.0016 0.9196
12.3367 -16.8067 -2.0016 0.9196
12.9317 -16.3534 -2.0016 0.9196
13.5099 -15.8790 -2.0016 0.9196
14.0708 -15.3841 -2.0016 0.9196
15.1376 -14.3357 -2.0016 0.9196
15.6421 -13.7835 -2.0016 0.9196
16.5901 -12.6266 -2.0016 0.9196
17.0323 -12.0234 -2.0016 0.9196
18.2254 -10.1240 -2.0016 0.9196
19.2075 -8.1076 -2.0016 0.9196
19.7393 -6.7096 -2.0016 0.9196
20.1696 -5.2771 -2.0016 0.9196
20.6198 -3.0798 -2.0016 0.9196
20.7170 -2.3382 -2.0016 0.9196
20.7875 -1.5936 -2.0016 0.9196
20.8313 -0.8469 -2.0016 0.9196
20.8483 -0.0991 -2.0016 0.9196
20.8384 0.6488 -2.0016 0.9196
20.8017 1.3958 -2.0016 0.9196
20.7383 2.1411 -2.0016 0.9196
20.6481 2.8837 -2.0016 0.9196
20.2188 5.0851 -2.0016 0.9196
19.8022 6.5216 -2.0016 0.9196
19.5556 7.2277 -2.0016 0.9196
18.3208 9.9503 -2.0016 0.9196
17.9521 10.6011 -2.0016 0.9196
17.5603 11.2382 -2.0016 0.9196
17.1458 11.8609 -2.0016 0.9196
16.7094 12.4683 -2.0016 0.9196
15.2732 14.1911 -2.0016 0.9196
14.7543 14.7299 -2.0016 0.9196
13.6603 15.7498 -2.0016 0.9196
13.0866 16.2296 -2.0016 0.9196
12.4960 16.6886 -2.0016 0.9196
9.3177 18.6505 -2.0016 0.9196
7.5646 16.6061 -1.7519 0.9293
6.7082 18.0574 -1.8494 0.9255
6.0561 18.2864 -1.8494 0.9255
4.2525 14.5723 -1.4574 0.9408
1.8064 12.7792 -1.2391 0.9495
0.8470 12.3158 -1.1852 0.9516
0.4049 12.3445 -1.1858 0.9516
-0.4635 11.8861 -1.1420 0.9533
-1.3254 11.9209 -1.1515 0.9529
-2.6635 12.0030 -1.1804 0.9518
-3.1125 11.9776 -1.1881 0.9515
-4.1231 12.1963 -1.2360 0.9496
-4.4901 11.8615 -1.2176 0.9503
-8.0626 11.4619 -1.3454 0.9452
-9.3668 11.4705 -1.4217 0.9422
-10.0778 11.4751 -1.4662 0.9405
-11.6477 11.4854 -1.5705 0.9364
-13.4680 11.4974 -1.7001 0.9313
-15.5098 11.4244 -1.8494 0.9255
-16.2889 10.2831 -1.8494 0.9255
-16.9842 9.0888 -1.8494 0.9255
-18.4773 8.2426 -1.9424 0.9219
-19.3290 7.8038 -2.0012 0.9196
-19.5999 7.1066 -2.0016 0.9196
-19.8422 6.3990 -2.0016 0.9196
-20.2499 4.9600 -2.0016 0.9196
-20.8100 1.2671 -2.0016 0.9196
-20.8420 0.5199 -2.0016 0.9196
-20.8257 -0.9757 -2.0016 0.9196
-20.7021 -2.4663 -2.0016 0.9196
-20.1365 -5.4018 -2.0016 0.9196
-19.6974 -6.8316 -2.0016 0.9196
-19.4397 -7.5338 -2.0016 0.9196
-18.5179 -9.5785 -2.0016 0.9196
-18.1624 -10.2366 -2.0016 0.9196
-16.9576 -12.1285 -2.0016 0.9196
-16.5116 -12.7289 -2.0016 0.9196
-15.5565 -13.8800 -2.0016 0.9196
-14.5214 -14.9596 -2.0016 0.9196
-12.6255 -16.1707 -1.9696 0.9209
-11.7236 -16.1802 -1.9183 0.9228
-10.8661 -16.1888 -1.8719 0.9246
-9.5612 -16.7228 -1.8494 0.9255
-8.3377 -17.3653 -1.8494 0.9255
-5.1054 -18.5743 -1.8494 0.9255
-2.3964 -19.1135 -1.8494 0.9255
-1.0199 -19.2361 -1.8494 0.9255
0.3228 -17.1821 -1.6499 0.9333
1.7418 -19.1842 -1.8494 0.9255
2.4288 -19.1094 -1.8494 0.9255
3.1127 -19.0100 -1.8494 0.9255
4.4677 -18.7379 -1.8494 0.9255
5.2626 -19.0199 -1.8946 0.9238
6.2647 -19.8425 -1.9977 0.9198
6.9860 -19.6432 -2.0016 0.9196
7.6861 -19.3800 -2.0016 0.9196
9.0557 -18.7791 -2.0016 0.9196
10.3788 -18.0815 -2.0016 0.9196
11.6484 -17.2908 -2.0016 0.9196
14.0017 -15.4471 -2.0016 0.9196
15.0731 -14.4035 -2.0016 0.9196
16.0670 -13.2858 -2.0016 0.9196
16.5332 -12.7009 -2.0016 0.9196
17.4012 -11.4829 -2.0016 0.9196
17.8019 -10.8513 -2.0016 0.9196
18.1797 -10.2058 -2.0016 0.9196
18.5341 -9.5471 -2.0016 0.9196
19.9402 -6.0868 -2.0016 0.9196
20.3253 -4.6415 -2.0016 0.9196
20.4787 -3.9095 -2.0016 0.9196
20.6057 -3.1724 -2.0016 0.9196
20.7063 -2.4312 -2.0016 0.9196
20.8273 -0.9404 -2.0016 0.9196
20.8476 -0.1927 -2.0016 0.9196
20.8411 0.5553 -2.0016 0.9196
20.8078 1.3025 -2.0016 0.9196
20.7477 2.0480 -2.0016 0.9196
20.5474 3.5303 -2.0016 0.9196
19.8313 6.4327 -2.0016 0.9196
19.5878 7.1399 -2.0016 0.9196
19.3191 7.8379 -2.0016 0.9196
19.0255 8.5258 -2.0016 0.9196
17.9995 10.5204 -2.0016 0.9196
17.6105 11.1593 -2.0016 0.9196
16.7652 12.3931 -2.0016 0.9196
16.3098 12.9865 -2.0016 0.9196
15.8335 13.5632 -2.0016 0.9196
14.8203 14.6635 -2.0016 0.9196
14.2848 15.1856 -2.0016 0.9196
13.1593 16.1707 -2.0016 0.9196
12.5708 16.6323 -2.0016 0.9196
11.9661 17.0725 -2.0016 0.9196
11.3460 17.4908 -2.0016 0.9196
10.0628 18.2593 -2.0016 0.9196
9.4013 18.6085 -2.0016 0.9196
7.6545 16.6055 -1.7554 0.9292
7.4314 17.7720 -1.8494 0.9255
6.1381 18.2590 -1.8494 0.9255
3.4262 13.2774 -1.3165 0.9464
2.8860 13.1110 -1.2889 0.9475
1.8681 12.8013 -1.2420 0.9493
1.3587 12.4118 -1.1987 0.9511
0.8998 12.2784 -1.1819 0.9517
0.4570 12.2549 -1.1774 0.9519
-0.4127 11.9636 -1.1492 0.9530
-1.2637 11.8498 -1.1441 0.9532
-1.2622 8.8215 -0.8555 0.9648
-2.1379 11.8840 -1.1592 0.9526
-2.5687 11.8268 -1.1619 0.9525
-3.9891 11.9769 -1.2119 0.9505
-4.4784 11.9929 -1.2290 0.9499
-5.4210 11.8470 -1.2508 0.9490
-7.0042 11.7706 -1.3150 0.9464
-8.6155 11.4656 -1.3769 0.9440
-10.7382 11.4795 -1.5091 0.9388
-11.5429 11.4847 -1.5633 0.9367
-15.8666 5.6726 -2.0016 0.9344
-16.3842 3.9352 -2.0016 0.9344
-16.6242 2.7504 -2.0016 0.9344
-16.7121 2.1523 -2.0016 0.9344
-16.7786 1.5515 -2.0016 0.9344
-16.8466 0.3445 -2.0016 0.9344
-16.8280 -0.8642 -2.0016 0.9344
-16.7862 -1.4672 -2.0016 0.9344
-16.7227 -2.0684 -2.0016 0.9344
-16.5314 -3.2620 -2.0016 0.9344
-16.0853 -5.0191 -2.0016 0.9344
-15.8949 -5.5928 -2.0016 0.9344
-15.6841 -6.1594 -2.0016 0.9344
-15.4530 -6.7180 -2.0016 0.9344
-14.9316 -7.8086 -2.0016 0.9344
-14.3333 -8.8591 -2.0016 0.9344
-13.2987 -10.3476 -2.0016 0.9344
-12.9190 -10.8180 -2.0016 0.9344
-12.1101 -11.7163 -2.0016 0.9344
-11.6821 -12.1432 -2.0016 0.9344
-11.2390 -12.5544 -2.0016 0.9344
-9.8252 -13.6891 -2.0016 0.9344
-9.3279 -14.0328 -2.0016 0.9344
-8.8185 -14.3583 -2.0016 0.9344
-8.2978 -14.6654 -2.0016 0.9344
-7.7664 -14.9536 -2.0016 0.9344
-7.2250 -15.2226 -2.0016 0.9344
-4.3658 -16.1671 -1.9892 0.9348
-3.7499 -16.1703 -1.9718 0.9353
0.3808 -16.3555 -1.9433 0.9362
2.7974 -16.6163 -2.0016 0.9344
3.3917 -16.5053 -2.0016 0.9344
3.9815 -16.3730 -2.0016 0.9344
4.5663 -16.2196 -2.0016 0.9344
5.1451 -16.0454 -2.0016 0.9344
7.3871 -15.1446 -2.0016 0.9344
2.2365 -4.1961 -0.5648 0.9810
8.9713 -14.2634 -2.0016 0.9344
9.4771 -13.9324 -2.0016 0.9344
9.9708 -13.5835 -2.0016 0.9344
10.4516 -13.2171 -2.0016 0.9344
10.9190 -12.8337 -2.0016 0.9344
11.3723 -12.4337 -2.0016 0.9344
13.0337 -10.6794 -2.0016 0.9344
13.4084 -10.2050 -2.0016 0.9344
15.0141 -7.6488 -2.0016 0.9344
15.2788 -7.1053 -2.0016 0.9344
15.9537 -5.4228 -2.0016 0.9344
16.1380 -4.8471 -2.0016 0.9344
16.3014 -4.2651 -2.0016 0.9344
16.4439 -3.6776 -2.0016 0.9344
16.5653 -3.0854 -2.0016 0.9344
16.7438 -1.8898 -2.0016 0.9344
16.8009 -1.2880 -2.0016 0.9344
16.8420 0.5244 -2.0016 0.9344
16.7611 1.7305 -2.0016 0.9344
16.6882 2.3306 -2.0016 0.9344
16.4782 3.5211 -2.0016 0.9344
16.1833 4.6934 -2.0016 0.9344
15.5855 6.4048 -2.0016 0.9344
15.3457 6.9597 -2.0016 0.9344
14.8072 8.0420 -2.0016 0.9344
14.5092 8.5680 -2.0016 0.9344
13.8576 9.5862 -2.0016 0.9344
13.5048 10.0771 -2.0016 0.9344
13.1347 10.5550 -2.0016 0.9344
12.7476 11.0194 -2.0016 0.9344
12.3441 11.4696 -2.0016 0.9344
11.9248 11.9050 -2.0016 0.9344
11.0405 12.7293 -2.0016 0.9344
10.0995 13.4881 -2.0016 0.9344
9.6092 13.8416 -2.0016 0.9344
7.4532 13.6689 -1.8494 0.9392
5.4217 14.5943 -1.8494 0.9392
4.8947 14.7794 -1.8494 0.9392
4.2525 14.5722 -1.8032 0.9407
2.7993 12.9945 -1.5790 0.9479
2.2726 12.7570 -1.5392 0.9491
-0.4496 11.5291 -1.3705 0.9546
-1.6864 11.4201 -1.3713 0.9546
-2.1079 11.4229 -1.3798 0.9543
-2.5354 11.4257 -1.3902 0.9540
-2.9699 11.4286 -1.4026 0.9535
-3.4128 11.4315 -1.4171 0.9531
-3.8655 11.4344 -1.4338 0.9525
-4.8067 11.4406 -1.4741 0.9512
-5.2988 11.4438 -1.4980 0.9505
-5.8077 11.4472 -1.5248 0.9496
-6.3359 11.4506 -1.5545 0.9487
-6.8857 11.4542 -1.5875 0.9476
-7.4602 11.4580 -1.6241 0.9464
-8.0626 11.4619 -1.6646 0.9451
-8.6967 11.4661 -1.7095 0.9437
-9.3668 11.4705 -1.7591 0.9421
-10.0778 11.4751 -1.8141 0.9403
-10.6866 11.3220 -1.8494 0.9392
-11.0858 10.9313 -1.8494 0.9392
-11.4708 10.5266 -1.8494 0.9392
-11.8410 10.1084 -1.8494 0.9392
-12.8584 8.7778 -1.8494 0.9392
-13.1650 8.3110 -1.8494 0.9392
-14.8370 7.9397 -1.9989 0.9345
-15.1323 7.4122 -2.0016 0.9344
-15.3884 6.8647 -2.0016 0.9344
-15.8410 5.7437 -2.0016 0.9344
-16.2120 4.5932 -2.0016 0.9344
-16.3664 4.0087 -2.0016 0.9344
-16.8190 1.0241 -2.0016 0.9344
-16.8449 0.4202 -2.0016 0.9344
-16.8491 -0.1843 -2.0016 0.9344
-16.8317 -0.7886 -2.0016 0.9344
-16.7926 -1.3919 -2.0016 0.9344
-16.6496 -2.5922 -2.0016 0.9344
-16.5459 -3.1878 -2.0016 0.9344
-16.2747 -4.3658 -2.0016 0.9344
-15.9198 -5.5214 -2.0016 0.9344
-15.7115 -6.0889 -2.0016 0.9344
-14.6792 -8.2734 -2.0016 0.9344
-14.3730 -8.7946 -2.0016 0.9344
-14.0482 -9.3045 -2.0016 0.9344
-13.7054 -9.8025 -2.0016 0.9344
-11.7365 -12.0906 -2.0016 0.9344
-11.2952 -12.5039 -2.0016 0.9344
-10.8394 -12.9010 -2.0016 0.9344
-10.3697 -13.2815 -2.0016 0.9344
-9.3908 -13.9908 -2.0016 0.9344
-8.8829 -14.3186 -2.0016 0.9344
-8.3635 -14.6280 -2.0016 0.9344
-7.8334 -14.9186 -2.0016 0.9344
-7.2933 -15.1900 -2.0016 0.9344
-6.7437 -15.4418 -2.0016 0.9344
-6.1854 -15.6738 -2.0016 0.9344
-5.6121 -15.8656 -1.9990 0.9345
-5.0323 -16.0338 -1.9962 0.9345
-3.8264 -16.1700 -1.9738 0.9353
-2.6203 -16.1750 -1.9464 0.9361
-0.8587 -16.1970 -1.9267 0.9368
0.9013 -16.4707 -1.9594 0.9357
1.5112 -16.6442 -1.9852 0.9349
2.1196 -16.6769 -1.9969 0.9345
2.7228 -16.6287 -2.0016 0.9344
3.3175 -16.5203 -2.0016 0.9344
3.9080 -16.3907 -2.0016 0.9344
4.4934 -16.2400 -2.0016 0.9344
5.6462 -15.8760 -2.0016 0.9344
6.2120 -15.6633 -2.0016 0.9344
7.3190 -15.1776 -2.0016 0.9344
2.2187 -4.2080 -0.5651 0.9810
8.3883 -14.6138 -2.0016 0.9344
9.9097 -13.6281 -2.0016 0.9344
11.7569 -12.0707 -2.0016 0.9344
12.1824 -11.6412 -2.0016 0.9344
12.5921 -11.1967 -2.0016 0.9344
13.3624 -10.2651 -2.0016 0.9344
14.9796 -7.7161 -2.0016 0.9344
15.2468 -7.1738 -2.0016 0.9344
15.4943 -6.6223 -2.0016 0.9344
16.1160 -4.9195 -2.0016 0.9344
16.2821 -4.3382 -2.0016 0.9344
16.4273 -3.7514 -2.0016 0.9344
16.5513 -3.1597 -2.0016 0.9344
16.7352 -1.9649 -2.0016 0.9344
16.7949 -1.3634 -2.0016 0.9344
16.8494 -0.1558 -2.0016 0.9344
16.4938 3.4471 -2.0016 0.9344
16.2042 4.6207 -2.0016 0.9344
15.8312 5.7706 -2.0016 0.9344
15.6141 6.3347 -2.0016 0.9344
14.5475 8.5028 -2.0016 0.9344
14.2332 9.0191 -2.0016 0.9344
13.9005 9.5239 -2.0016 0.9344
13.5499 10.0164 -2.0016 0.9344
11.5453 12.2733 -2.0016 0.9344
8.6571 14.4563 -2.0016 0.9344
7.0205 13.8961 -1.8494 0.9392
4.9609 14.7573 -1.8494 0.9392
4.4284 14.9258 -1.8494 0.9392
3.4262 13.2774 -1.6288 0.9463
2.8671 13.0251 -1.5842 0.9477
1.8327 12.5585 -1.5076 0.9502
1.3509 12.3412 -1.4747 0.9512
0.8891 12.1329 -1.4451 0.9522
0.4449 11.9326 -1.4184 0.9530
0.0164 11.7393 -1.3945 0.9538
-0.3985 11.5521 -1.3730 0.9545
-1.2175 11.4171 -1.3639 0.9548
-1.2620 8.8202 -1.0584 0.9647
-2.0549 11.4226 -1.3786 0.9543
-3.3568 11.4311 -1.4152 0.9531
-3.8083 11.4341 -1.4316 0.9526
-4.2708 11.4371 -1.4502 0.9520
-4.7463 11.4402 -1.4712 0.9513
-5.2363 11.4434 -1.4949 0.9506
-6.2686 11.4502 -1.5506 0.9488
-6.8157 11.4538 -1.5832 0.9477
-7.3869 11.4575 -1.6193 0.9466
-8.6155 11.4656 -1.7036 0.9439
-9.2808 11.4699 -1.7526 0.9423
-9.9864 11.4745 -1.8069 0.9406
-11.0366 10.9810 -1.8494 0.9392
-11.4234 10.5780 -1.8494 0.9392
-13.3019 4.7556 -2.0016 0.9445
-13.6086 3.7897 -2.0016 0.9445
-13.8453 2.8043 -2.0016 0.9445
-13.9369 2.3058 -2.0016 0.9445
-14.0107 1.8044 -2.0016 0.9445
-14.0664 1.3007 -2.0016 0.9445
-14.1040 0.7953 -2.0016 0.9445
-14.1247 -0.2180 -2.0016 0.9445
-14.0196 -1.7341 -2.0016 0.9445
-12.7588 -2.9968 -1.8570 0.9484
-12.1990 -4.7908 -1.8570 0.9484
-12.2751 -6.9912 -2.0016 0.9445
-12.0164 -7.4270 -2.0016 0.9445
-11.4530 -8.2694 -2.0016 0.9445
-10.4984 -9.4520 -2.0016 0.9445
-9.4222 -10.5251 -2.0016 0.9445
-9.0386 -10.8563 -2.0016 0.9445
-8.6434 -11.1735 -2.0016 0.9445
-7.8201 -11.7644 -2.0016 0.9445
-7.3930 -12.0374 -2.0016 0.9445
-6.5110 -12.5364 -2.0016 0.9445
-4.6511 -13.3388 -2.0016 0.9445
-4.1696 -13.4970 -2.0016 0.9445
-3.6828 -13.6379 -2.0016 0.9445
-3.1912 -13.7612 -2.0016 0.9445
-2.1964 -13.9546 -2.0016 0.9445
-1.6944 -14.0244 -2.0016 0.9445
-1.1903 -14.0762 -2.0016 0.9445
-0.1780 -14.1253 -2.0016 0.9445
0.3288 -14.1226 -2.0016 0.9445
1.3405 -14.0627 -2.0016 0.9445
3.3379 -13.7264 -2.0016 0.9445
4.3135 -13.4517 -2.0016 0.9445
5.2668 -13.1079 -2.0016 0.9445
6.1930 -12.6965 -2.0016 0.9445
2.2365 -4.1961 -0.6737 0.9810
7.5211 -11.9578 -2.0016 0.9445
8.3591 -11.3878 -2.0016 0.9445
9.1540 -10.7592 -2.0016 0.9445
9.5340 -10.4239 -2.0016 0.9445
10.2568 -9.7135 -2.0016 0.9445
10.5987 -9.3393 -2.0016 0.9445
11.2410 -8.5554 -2.0016 0.9445
11.5406 -8.1467 -2.0016 0.9445
11.8254 -7.7275 -2.0016 0.9445
12.5871 -6.4124 -2.0016 0.9445
13.2032 -5.0231 -2.0016 0.9445
13.3749 -4.5463 -2.0016 0.9445
13.6664 -3.5757 -2.0016 0.9445
13.7858 -3.0831 -2.0016 0.9445
13.8876 -2.5866 -2.0016 0.9445
14.0373 -1.5843 -2.0016 0.9445
14.0851 -1.0798 -2.0016 0.9445
14.1147 -0.5738 -2.0016 0.9445
14.0947 0.9458 -2.0016 0.9445
14.0517 1.4508 -2.0016 0.9445
13.9906 1.9539 -2.0016 0.9445
13.9115 2.4545 -2.0016 0.9445
13.8145 2.9519 -2.0016 0.9445
13.5674 3.9347 -2.0016 0.9445
13.4175 4.4189 -2.0016 0.9445
13.0661 5.3695 -2.0016 0.9445
12.1639 7.1830 -2.0016 0.9445
11.6176 8.0366 -2.0016 0.9445
11.0115 8.8488 -2.0016 0.9445
10.6870 9.2381 -2.0016 0.9445
10.3487 9.6155 -2.0016 0.9445
9.9972 9.9806 -2.0016 0.9445
9.2559 10.6716 -2.0016 0.9445
8.8671 10.9968 -2.0016 0.9445
8.4670 11.3078 -2.0016 0.9445
5.8333 11.6762 -1.8494 0.9486
5.4108 11.8779 -1.8494 0.9486
4.1035 12.3904 -1.8494 0.9486
3.2046 12.6527 -1.8494 0.9486
1.2921 12.3147 -1.7544 0.9512
0.8326 12.1075 -1.7195 0.9522
-0.4496 11.5291 -1.6348 0.9545
-1.2694 11.4174 -1.6277 0.9547
-1.2899 8.7356 -1.2512 0.9650
-2.5354 11.4257 -1.6583 0.9538
-2.9699 11.4286 -1.6731 0.9534
-4.3296 11.4375 -1.7328 0.9518
-5.2988 11.4438 -1.7868 0.9503
-7.5095 10.6756 -1.8494 0.9486
-7.8876 10.3993 -1.8494 0.9486
-9.9270 8.4744 -1.8494 0.9486
-11.6503 7.9531 -1.9987 0.9446
-12.6862 6.2141 -2.0016 0.9445
-13.0991 5.2885 -2.0016 0.9445
-13.2804 4.8153 -2.0016 0.9445
-13.5914 3.8507 -2.0016 0.9445
-14.0024 1.8673 -2.0016 0.9445
-14.1003 0.8586 -2.0016 0.9445
-14.1220 0.3522 -2.0016 0.9445
-14.1109 -0.6611 -2.0016 0.9445
-14.0781 -1.1669 -2.0016 0.9445
-14.0272 -1.6711 -2.0016 0.9445
-13.9582 -2.1732 -2.0016 0.9445
-12.7721 -2.9395 -1.8570 0.9484
-12.5285 -3.8476 -1.8570 0.9484
-12.3824 -4.2945 -1.8570 0.9484
-12.0426 -5.1713 -1.8570 0.9484
-12.5472 -6.4902 -2.0016 0.9445
-12.0496 -7.3730 -2.0016 0.9445
-11.7774 -7.8005 -2.0016 0.9445
-11.4900 -8.2179 -2.0016 0.9445
-11.1879 -8.6248 -2.0016 0.9445
-10.8713 -9.0206 -2.0016 0.9445
-10.1966 -9.7768 -2.0016 0.9445
-9.4694 -10.4827 -2.0016 0.9445
-8.6934 -11.1346 -2.0016 0.9445
-7.4470 -12.0041 -2.0016 0.9445
-6.5672 -12.5071 -2.0016 0.9445
-5.6536 -12.9457 -2.0016 0.9445
-4.7109 -13.3178 -2.0016 0.9445
-3.7440 -13.6212 -2.0016 0.9445
-2.2590 -13.9446 -2.0016 0.9445
-0.7479 -14.1066 -2.0016 0.9445
-0.2414 -14.1243 -2.0016 0.9445
3.7671 -13.6149 -2.0016 0.9445
4.7335 -13.3097 -2.0016 0.9445
5.2079 -13.1314 -2.0016 0.9445
5.6756 -12.9361 -2.0016 0.9445
2.2186 -4.2080 -0.6740 0.9810
7.0324 -12.2516 -2.0016 0.9445
7.4673 -11.9914 -2.0016 0.9445
7.8927 -11.7158 -2.0016 0.9445
8.7123 -11.1198 -2.0016 0.9445
9.1056 -10.8001 -2.0016 0.9445
10.8866 -9.0021 -2.0016 0.9445
11.2025 -8.6058 -2.0016 0.9445
11.5039 -8.1984 -2.0016 0.9445
11.7906 -7.7805 -2.0016 0.9445
12.3181 -6.9152 -2.0016 0.9445
12.7822 -6.0142 -2.0016 0.9445
13.3543 -4.6062 -2.0016 0.9445
13.7719 -3.1450 -2.0016 0.9445
13.8758 -2.6490 -2.0016 0.9445
14.0801 -1.1430 -2.0016 0.9445
14.1120 -0.6372 -2.0016 0.9445
14.1214 0.3762 -2.0016 0.9445
14.0988 0.8825 -2.0016 0.9445
13.9993 1.8911 -2.0016 0.9445
13.9224 2.3920 -2.0016 0.9445
13.7151 3.3840 -2.0016 0.9445
13.5849 3.8738 -2.0016 0.9445
13.4372 4.3586 -2.0016 0.9445
13.2722 4.8378 -2.0016 0.9445
12.8912 5.7769 -2.0016 0.9445
12.6757 6.2356 -2.0016 0.9445
11.9324 7.5612 -2.0016 0.9445
11.3596 8.3973 -2.0016 0.9445
11.0511 8.7993 -2.0016 0.9445
10.7284 9.1901 -2.0016 0.9445
10.0419 9.9356 -2.0016 0.9445
8.9164 10.9569 -2.0016 0.9445
8.1079 11.5679 -2.0016 0.9445
7.6877 11.8513 -2.0016 0.9445
4.6001 12.2147 -1.8494 0.9486
2.8059 12.7471 -1.8494 0.9486
2.3371 12.7861 -1.8417 0.9488
-0.3985 11.5521 -1.6378 0.9544
-0.8044 11.4144 -1.6213 0.9548
-1.2175 11.4171 -1.6268 0.9547
-1.2515 8.7465 -1.2519 0.9649
-2.4815 11.4254 -1.6566 0.9539
-3.3568 11.4311 -1.6881 0.9530
-3.8083 11.4341 -1.7076 0.9525
-5.2363 11.4434 -1.7831 0.9504
-6.2679 11.4488 -1.8494 0.9486
-7.8408 10.4346 -1.8494 0.9486
-8.2101 10.1467 -1.8494 0.9486
-8.9164 9.5319 -1.8494 0.9486
-9.5769 8.8682 -1.8494 0.9486
-11.7045 3.2595 -2.0016 0.9519
-11.9081 2.4119 -2.0016 0.9519
-12.0503 1.5520 -2.0016 0.9519
-12.1473 0.2484 -2.0016 0.9519
-12.1037 -1.0580 -2.0016 0.9519
-11.9967 -1.9230 -2.0016 0.9519
-10.9736 -2.5775 -1.8570 0.9553
-10.7606 -3.3576 -1.8570 0.9553
-10.3376 -4.4942 -1.8570 0.9553
-9.9888 -5.2237 -1.8570 0.9553
-9.7950 -5.5787 -1.8570 0.9553
-10.0993 -6.7545 -2.0016 0.9519
-9.5891 -7.4612 -2.0016 0.9519
-9.3153 -7.8003 -2.0016 0.9519
-9.0295 -8.1295 -2.0016 0.9519
-8.7321 -8.4481 -2.0016 0.9519
-8.4234 -8.7559 -2.0016 0.9519
-7.7740 -9.3373 -2.0016 0.9519
-7.4340 -9.6101 -2.0016 0.9519
-6.3586 -10.3531 -2.0016 0.9519
-3.5862 -11.6086 -2.0016 0.9519
-2.7447 -11.8358 -2.0016 0.9519
-1.8891 -12.0021 -2.0016 0.9519
-1.0237 -12.1067 -2.0016 0.9519
-0.1531 -12.1489 -2.0016 0.9519
0.7183 -12.1286 -2.0016 0.9519
1.5860 -12.0459 -2.0016 0.9519
2.4456 -11.9012 -2.0016 0.9519
2.8709 -11.8058 -2.0016 0.9519
3.2925 -11.6952 -2.0016 0.9519
4.5299 -11.2739 -2.0016 0.9519
4.9313 -11.1041 -2.0016 0.9519
6.0957 -10.5101 -2.0016 0.9519
7.1895 -9.7944 -2.0016 0.9519
7.5362 -9.5302 -2.0016 0.9519
8.2001 -8.9654 -2.0016 0.9519
8.8217 -8.3544 -2.0016 0.9519
9.3980 -7.7005 -2.0016 0.9519
9.6682 -7.3584 -2.0016 0.9519
9.9259 -7.0068 -2.0016 0.9519
10.1708 -6.6463 -2.0016 0.9519
10.4027 -6.2772 -2.0016 0.9519
11.0168 -5.1233 -2.0016 0.9519
11.6363 -3.4950 -2.0016 0.9519
11.7542 -3.0754 -2.0016 0.9519
11.8570 -2.6518 -2.0016 0.9519
12.0732 -1.3626 -2.0016 0.9519
12.1399 -0.4935 -2.0016 0.9519
12.1226 0.8135 -2.0016 0.9519
12.0856 1.2478 -2.0016 0.9519
11.9651 2.1111 -2.0016 0.9519
11.7829 2.9635 -2.0016 0.9519
11.0651 5.0183 -2.0016 0.9519
10.8779 5.4120 -2.0016 0.9519
10.6768 5.7987 -2.0016 0.9519
9.7377 7.2661 -2.0016 0.9519
9.4708 7.6107 -2.0016 0.9519
9.1917 7.9456 -2.0016 0.9519
7.9608 9.1785 -2.0016 0.9519
6.9287 9.9806 -2.0016 0.9519
6.5663 10.2227 -2.0016 0.9519
5.6423 10.3478 -1.9416 0.9533
5.0172 10.0425 -1.8494 0.9555
4.2843 10.3763 -1.8494 0.9555
3.5293 10.6568 -1.8494 0.9555
2.3641 10.9742 -1.8494 0.9555
1.9689 11.0520 -1.8494 0.9555
1.5712 11.1155 -1.8494 0.9555
-0.8395 11.1946 -1.8494 0.9555
-1.2878 8.7210 -1.4523 0.9649
-2.4319 10.9594 -1.8494 0.9555
-2.8235 10.8651 -1.8494 0.9555
-3.2114 10.7569 -1.8494 0.9555
-3.5952 10.6347 -1.8494 0.9555
-4.3484 10.3496 -1.8494 0.9555
-4.7168 10.1870 -1.8494 0.9555
-5.0792 10.0112 -1.8494 0.9555
-5.7839 9.6213 -1.8494 0.9555
-7.1005 8.6952 -1.8494 0.9555
-7.4078 8.4349 -1.8494 0.9555
-7.7926 8.2559 -1.8702 0.9550
-9.2330 7.8820 -1.9999 0.9520
-9.7825 7.2057 -2.0016 0.9519
-10.4999 6.1131 -2.0016 0.9519
-10.7125 5.7326 -2.0016 0.9519
-11.2663 4.5486 -2.0016 0.9519
-11.5634 3.7292 -2.0016 0.9519
-11.8010 2.8905 -2.0016 0.9519
-12.0433 1.6060 -2.0016 0.9519
-12.0931 1.1730 -2.0016 0.9519
-12.1461 0.3030 -2.0016 0.9519
-12.1491 -0.1329 -2.0016 0.9519
-12.1083 -1.0036 -2.0016 0.9519
-12.0052 -1.8691 -2.0016 0.9519
-10.3577 -4.4477 -1.8570 0.9553
-10.1915 -4.8164 -1.8570 0.9553
-10.0121 -5.1789 -1.8570 0.9553
-8.1444 -9.0160 -2.0016 0.9519
-7.8158 -9.3023 -2.0016 0.9519
-6.0306 -10.5476 -2.0016 0.9519
-5.2588 -10.9528 -2.0016 0.9519
-4.8626 -11.1344 -2.0016 0.9519
-4.0518 -11.4544 -2.0016 0.9519
-3.6383 -11.5923 -2.0016 0.9519
-3.2201 -11.7154 -2.0016 0.9519
-2.3719 -11.9161 -2.0016 0.9519
-1.9429 -11.9935 -2.0016 0.9519
-1.5115 -12.0555 -2.0016 0.9519
0.2282 -12.1477 -2.0016 0.9519
2.3921 -11.9121 -2.0016 0.9519
2.8179 -11.8186 -2.0016 0.9519
3.6580 -11.5861 -2.0016 0.9519
4.8814 -11.1261 -2.0016 0.9519
5.2774 -10.9439 -2.0016 0.9519
2.2186 -4.2080 -0.7837 0.9809
6.0484 -10.5373 -2.0016 0.9519
6.4225 -10.3136 -2.0016 0.9519
6.7884 -10.0766 -2.0016 0.9519
7.1454 -9.8266 -2.0016 0.9519
7.4933 -9.5640 -2.0016 0.9519
7.8316 -9.2890 -2.0016 0.9519
8.1597 -9.0021 -2.0016 0.9519
8.4774 -8.7036 -2.0016 0.9519
8.7841 -8.3939 -2.0016 0.9519
9.3633 -7.7426 -2.0016 0.9519
9.6350 -7.4017 -2.0016 0.9519
9.8943 -7.0513 -2.0016 0.9519
10.9937 -5.1727 -2.0016 0.9519
11.3363 -4.3712 -2.0016 0.9519
11.6205 -3.5472 -2.0016 0.9519
11.7403 -3.1281 -2.0016 0.9519
11.9343 -2.2783 -2.0016 0.9519
12.1456 0.3236 -2.0016 0.9519
12.1261 0.7590 -2.0016 0.9519
12.0911 1.1935 -2.0016 0.9519
12.0405 1.6265 -2.0016 0.9519
11.7961 2.9105 -2.0016 0.9519
11.5571 3.7488 -2.0016 0.9519
11.4152 4.1609 -2.0016 0.9519
11.2586 4.5677 -2.0016 0.9519
11.0875 4.9686 -2.0016 0.9519
10.4896 6.1310 -2.0016 0.9519
9.7702 7.2223 -2.0016 0.9519
9.2273 7.9042 -2.0016 0.9519
8.9378 8.2301 -2.0016 0.9519
8.3248 8.8497 -2.0016 0.9519
8.0020 9.1427 -2.0016 0.9519
7.6689 9.4238 -2.0016 0.9519
5.7599 10.4516 -1.9659 0.9528
5.0622 10.0198 -1.8494 0.9555
3.9565 10.5057 -1.8494 0.9555
3.5771 10.6408 -1.8494 0.9555
3.1931 10.7623 -1.8494 0.9555
2.0185 11.0430 -1.8494 0.9555
1.6211 11.1083 -1.8494 0.9555
1.2216 11.1593 -1.8494 0.9555
0.8205 11.1960 -1.8494 0.9555
0.4183 11.2182 -1.8494 0.9555
0.0157 11.2260 -1.8494 0.9555
-2.3827 10.9702 -1.8494 0.9555
-3.5474 10.6508 -1.8494 0.9555
-3.9272 10.5167 -1.8494 0.9555
-4.3019 10.3690 -1.8494 0.9555
-4.6710 10.2080 -1.8494 0.9555
-5.3909 9.8469 -1.8494 0.9555
-6.0830 9.4350 -1.8494 0.9555
-6.4175 9.2108 -1.8494 0.9555
-7.0614 8.7270 -1.8494 0.9555
-7.3699 8.4681 -1.8494 0.9555
-8.2874 8.2456 -1.9259 0.9537
-8.8815 8.2242 -1.9941 0.9521
-10.0273 3.5849 -2.0016 0.9576
-10.1494 3.2229 -2.0016 0.9576
-10.2585 2.8568 -2.0016 0.9576
-10.3543 2.4870 -2.0016 0.9576
-10.5616 1.3602 -2.0016 0.9576
-10.6466 0.2177 -2.0016 0.9576
-10.6475 -0.1643 -2.0016 0.9576
-10.6348 -0.5461 -2.0016 0.9576
-10.6084 -0.9273 -2.0016 0.9576
-10.5146 -1.6854 -2.0016 0.9576
-9.6179 -2.2591 -1.8570 0.9606
-9.5306 -2.6026 -1.8570 0.9606
-9.1959 -3.6114 -1.8570 0.9606
-9.0604 -3.9389 -1.8570 0.9606
-8.7547 -4.5784 -1.8570 0.9606
-8.4039 -5.1943 -1.8570 0.9606
-8.4044 -6.5394 -2.0016 0.9576
-8.1644 -6.8366 -2.0016 0.9576
-7.9139 -7.1251 -2.0016 0.9576
-7.3827 -7.6742 -2.0016 0.9576
-6.8135 -8.1837 -2.0016 0.9576
-6.2093 -8.6511 -2.0016 0.9576
-5.2440 -9.2681 -2.0016 0.9576
-4.9081 -9.4503 -2.0016 0.9576
-3.1432 -10.1744 -2.0016 0.9576
-2.7762 -10.2806 -2.0016 0.9576
-2.0320 -10.4531 -2.0016 0.9576
-1.6557 -10.5193 -2.0016 0.9576
-1.2773 -10.5719 -2.0016 0.9576
-0.5161 -10.6363 -2.0016 0.9576
0.6296 -10.6302 -2.0016 0.9576
1.3901 -10.5577 -2.0016 0.9576
2.5162 -10.3473 -2.0016 0.9576
2.8858 -10.2503 -2.0016 0.9576
3.2516 -10.1402 -2.0016 0.9576
3.6132 -10.0171 -2.0016 0.9576
3.9702 -9.8810 -2.0016 0.9576
4.6684 -9.5710 -2.0016 0.9576
5.3426 -9.2116 -2.0016 0.9576
5.6696 -9.0140 -2.0016 0.9576
6.9005 -8.1105 -2.0016 0.9576
7.1870 -7.8578 -2.0016 0.9576
7.9895 -7.0402 -2.0016 0.9576
8.4737 -6.4493 -2.0016 0.9576
8.9143 -5.8252 -2.0016 0.9576
9.1175 -5.5017 -2.0016 0.9576
9.3090 -5.1711 -2.0016 0.9576
9.9529 -3.7865 -2.0016 0.9576
10.0823 -3.4271 -2.0016 0.9576
10.1987 -3.0632 -2.0016 0.9576
10.3021 -2.6954 -2.0016 0.9576
10.3921 -2.3241 -2.0016 0.9576
10.5320 -1.5731 -2.0016 0.9576
10.5816 -1.1943 -2.0016 0.9576
10.6177 -0.8140 -2.0016 0.9576
10.6400 -0.4326 -2.0016 0.9576
10.6487 -0.0506 -2.0016 0.9576
10.6249 0.7130 -2.0016 0.9576
10.5465 1.4729 -2.0016 0.9576
10.4868 1.8502 -2.0016 0.9576
10.4137 2.2252 -2.0016 0.9576
10.2274 2.9661 -2.0016 0.9576
10.1144 3.3311 -2.0016 0.9576
9.8496 4.0476 -2.0016 0.9576
9.6980 4.3983 -2.0016 0.9576
9.3577 5.0823 -2.0016 0.9576
8.7576 6.0582 -2.0016 0.9576
8.5347 6.3684 -2.0016 0.9576
8.0561 6.9639 -2.0016 0.9576
7.8011 7.2484 -2.0016 0.9576
7.5361 7.5236 -2.0016 0.9576
7.2614 7.7891 -2.0016 0.9576
6.9773 8.0445 -2.0016 0.9576
6.6843 8.2896 -2.0016 0.9576
6.3826 8.5241 -2.0016 0.9576
5.7550 8.9597 -2.0016 0.9576
5.4299 9.1604 -2.0016 0.9576
4.2308 9.2876 -1.9183 0.9593
3.7550 9.0944 -1.8494 0.9607
3.0933 9.3402 -1.8494 0.9607
2.7563 9.4451 -1.8494 0.9607
2.4157 9.5379 -1.8494 0.9607
2.0720 9.6184 -1.8494 0.9607
1.3771 9.7422 -1.8494 0.9607
1.0267 9.7854 -1.8494 0.9607
-0.0304 9.8390 -1.8494 0.9607
-0.3833 9.8316 -1.8494 0.9607
-1.0872 9.7788 -1.8494 0.9607
-1.7855 9.6757 -1.8494 0.9607
-2.1315 9.6054 -1.8494 0.9607
-2.8146 9.4279 -1.8494 0.9607
-3.1510 9.3209 -1.8494 0.9607
-3.4833 9.2018 -1.8494 0.9607
-4.1341 8.9284 -1.8494 0.9607
-4.4517 8.7744 -1.8494 0.9607
-7.3094 7.7440 -2.0016 0.9576
-7.5825 7.4768 -2.0016 0.9576
-8.5739 6.3155 -2.0016 0.9576
-9.3890 5.0243 -2.0016 0.9576
-9.5632 4.6843 -2.0016 0.9576
-9.7251 4.3383 -2.0016 0.9576
-10.0111 3.6299 -2.0016 0.9576
-10.4273 2.1608 -2.0016 0.9576
-10.4981 1.7853 -2.0016 0.9576
-10.5554 1.4076 -2.0016 0.9576
-10.6371 -0.4984 -2.0016 0.9576
-10.6124 -0.8796 -2.0016 0.9576
-10.5221 -1.6382 -2.0016 0.9576
-10.4565 -2.0146 -2.0016 0.9576
-9.7316 -2.2397 -1.8770 0.9602
-9.3342 -3.2373 -1.8570 0.9606
-9.0780 -3.8982 -1.8570 0.9606
-8.7752 -4.5390 -1.8570 0.9606
-8.4272 -5.1565 -1.8570 0.9606
-8.4337 -6.5016 -2.0016 0.9576
-7.9458 -7.0895 -2.0016 0.9576
-7.6864 -7.3700 -2.0016 0.9576
-6.8502 -8.1531 -2.0016 0.9576
-6.5533 -8.3935 -2.0016 0.9576
-6.2480 -8.6232 -2.0016 0.9576
-5.9347 -8.8418 -2.0016 0.9576
-4.9505 -9.4281 -2.0016 0.9576
-4.6091 -9.5996 -2.0016 0.9576
-4.2618 -9.7588 -2.0016 0.9576
-3.9090 -9.9054 -2.0016 0.9576
-3.5512 -10.0392 -2.0016 0.9576
-2.8223 -10.2680 -2.0016 0.9576
-2.0789 -10.4439 -2.0016 0.9576
-1.3247 -10.5661 -2.0016 0.9576
0.5818 -10.6329 -2.0016 0.9576
0.9629 -10.6052 -2.0016 0.9576
1.3427 -10.5638 -2.0016 0.9576
2.8397 -10.2632 -2.0016 0.9576
3.2060 -10.1547 -2.0016 0.9576
3.9258 -9.8987 -2.0016 0.9576
4.6254 -9.5918 -2.0016 0.9576
2.2186 -4.2080 -0.8941 0.9808
5.3012 -9.2355 -2.0016 0.9576
5.6291 -9.0394 -2.0016 0.9576
6.5676 -8.3824 -2.0016 0.9576
6.8640 -8.1414 -2.0016 0.9576
7.1516 -7.8899 -2.0016 0.9576
7.4301 -7.6283 -2.0016 0.9576
7.6989 -7.3569 -2.0016 0.9576
8.2066 -6.7860 -2.0016 0.9576
8.8881 -5.8651 -2.0016 0.9576
9.0927 -5.5425 -2.0016 0.9576
9.4667 -4.8764 -2.0016 0.9576
9.7919 -4.1851 -2.0016 0.9576
10.0668 -3.4723 -2.0016 0.9576
10.2898 -2.7416 -2.0016 0.9576
10.3816 -2.3708 -2.0016 0.9576
10.4599 -1.9968 -2.0016 0.9576
10.6139 -0.8616 -2.0016 0.9576
10.6380 -0.4803 -2.0016 0.9576
10.6280 0.6653 -2.0016 0.9576
10.5973 1.0461 -2.0016 0.9576
10.5530 1.4255 -2.0016 0.9576
10.3388 2.5509 -2.0016 0.9576
9.8676 4.0034 -2.0016 0.9576
9.1936 5.3735 -2.0016 0.9576
8.9950 5.6998 -2.0016 0.9576
8.7847 6.0188 -2.0016 0.9576
8.3306 6.6331 -2.0016 0.9576
8.0873 6.9277 -2.0016 0.9576
7.0133 8.0131 -2.0016 0.9576
6.7214 8.2595 -2.0016 0.9576
6.4208 8.4953 -2.0016 0.9576
6.1119 8.7202 -2.0016 0.9576
5.7952 8.9338 -2.0016 0.9576
5.4710 9.1359 -2.0016 0.9576
5.1398 9.3263 -2.0016 0.9576
4.7886 9.4784 -1.9960 0.9577
3.1352 9.3262 -1.8494 0.9607
2.7986 9.4327 -1.8494 0.9607
2.1152 9.6090 -1.8494 0.9607
1.0706 9.7807 -1.8494 0.9607
0.0137 9.8391 -1.8494 0.9607
-0.3392 9.8332 -1.8494 0.9607
-1.0433 9.7836 -1.8494 0.9607
-1.2457 8.7059 -1.6530 0.9648
-2.0883 9.6149 -1.8494 0.9607
-3.1091 9.3349 -1.8494 0.9607
-3.4420 9.2174 -1.8494 0.9607
-3.7704 9.0880 -1.8494 0.9607
-4.0940 8.9469 -1.8494 0.9607
-4.4123 8.7943 -1.8494 0.9607
-4.7249 8.6304 -1.8494 0.9607
-5.0314 8.4553 -1.8494 0.9607
-5.3315 8.2694 -1.8494 0.9607
-6.6621 8.2336 -1.9908 0.9578
-6.9771 8.0168 -1.9976 0.9577
-7.2746 7.7768 -2.0016 0.9576
-7.5489 7.5108 -2.0016 0.9576
-8.9163 3.1877 -2.0016 0.9620
-9.0249 2.8658 -2.0016 0.9620
-9.2072 2.2114 -2.0016 0.9620
-9.3915 1.2095 -2.0016 0.9620
-9.4540 0.5331 -2.0016 0.9620
-9.4670 0.1936 -2.0016 0.9620
-9.4679 -0.1461 -2.0016 0.9620
-9.4566 -0.4856 -2.0016 0.9620
-9.3974 -1.1624 -2.0016 0.9620
-9.3497 -1.4987 -2.0016 0.9620
-8.4747 -2.3143 -1.8570 0.9647
-8.3863 -2.6168 -1.8570 0.9647
-8.2870 -2.9159 -1.8570 0.9647
-7.3024 -4.8839 -1.8570 0.9647
-7.1225 -5.1427 -1.8570 0.9647
-6.7355 -5.6401 -1.8570 0.9647
-7.0371 -6.3357 -2.0016 0.9620
-6.8053 -6.5841 -2.0016 0.9620
-6.5648 -6.8239 -2.0016 0.9620
-6.0586 -7.2770 -2.0016 0.9620
-5.7937 -7.4897 -2.0016 0.9620
-5.5213 -7.6927 -2.0016 0.9620
-5.2418 -7.8858 -2.0016 0.9620
-4.9556 -8.0687 -2.0016 0.9620
-3.4364 -8.8235 -2.0016 0.9620
-2.7949 -9.0471 -2.0016 0.9620
-2.1391 -9.2242 -2.0016 0.9620
-1.8068 -9.2950 -2.0016 0.9620
-1.1358 -9.4007 -2.0016 0.9620
-0.4589 -9.4579 -2.0016 0.9620
0.5598 -9.4525 -2.0016 0.9620
0.8985 -9.4263 -2.0016 0.9620
1.5720 -9.3376 -2.0016 0.9620
1.9060 -9.2752 -2.0016 0.9620
2.2374 -9.2009 -2.0016 0.9620
3.2129 -8.9073 -2.0016 0.9620
3.8432 -8.6540 -2.0016 0.9620
2.2365 -4.1961 -1.0051 0.9807
5.0414 -8.0154 -2.0016 0.9620
6.6373 -6.7535 -2.0016 0.9620
6.8752 -6.5110 -2.0016 0.9620
7.3243 -6.0014 -2.0016 0.9620
7.9267 -5.1798 -2.0016 0.9620
8.2776 -4.5982 -2.0016 0.9620
8.4372 -4.2983 -2.0016 0.9620
8.5860 -3.9929 -2.0016 0.9620
8.8502 -3.3670 -2.0016 0.9620
9.0688 -2.7238 -2.0016 0.9620
9.1607 -2.3968 -2.0016 0.9620
9.2407 -2.0666 -2.0016 0.9620
9.4612 -0.3846 -2.0016 0.9620
9.4689 -0.0450 -2.0016 0.9620
9.4478 0.6340 -2.0016 0.9620
9.3780 1.3097 -2.0016 0.9620
9.2600 1.9787 -2.0016 0.9620
8.7583 3.5992 -2.0016 0.9620
8.4777 4.2179 -2.0016 0.9620
8.3210 4.5192 -2.0016 0.9620
8.1535 4.8148 -2.0016 0.9620
7.9756 5.1042 -2.0016 0.9620
7.5891 5.6629 -2.0016 0.9620
7.3811 5.9314 -2.0016 0.9620
7.1636 6.1924 -2.0016 0.9620
6.7012 6.6900 -2.0016 0.9620
6.4569 6.9261 -2.0016 0.9620
5.6755 7.5797 -2.0016 0.9620
5.1174 7.9671 -2.0016 0.9620
4.5331 8.3135 -2.0016 0.9620
