ply
format ascii 1.0
element vertex 1594
property float32 x
property float32 y
property float32 z
property float32 I
end_header
-3.5349 -4.8944 -1.8570 0.9751
-3.1746 -5.1354 -1.8570 0.9751
-2.6041 -5.4469 -1.8570 0.9751
-2.2066 -5.6197 -1.8570 0.9751
-2.1595 -6.1387 -2.0016 0.9731
-1.9377 -6.2123 -2.0016 0.9731
-1.2587 -6.3846 -2.0016 0.9731
-0.5651 -6.4829 -2.0016 0.9731
-0.0985 -6.5067 -2.0016 0.9731
0.8338 -6.4538 -2.0016 0.9731
1.5227 -6.3268 -2.0016 0.9731
1.9727 -6.2013 -2.0016 0.9731
2.2383 -5.6072 -1.8570 0.9751
2.3548 -4.0805 -1.4491 0.9805
4.5521 -4.6503 -2.0016 0.9731
4.7161 -4.4839 -2.0016 0.9731
4.8740 -4.3118 -2.0016 0.9731
5.3093 -3.7628 -2.0016 0.9731
5.4409 -3.5698 -2.0016 0.9731
5.9909 -2.5410 -2.0016 0.9731
6.2293 -1.8822 -2.0016 0.9731
6.2929 -1.6574 -2.0016 0.9731
6.5017 -0.2740 -2.0016 0.9731
6.5073 -0.0404 -2.0016 0.9731
6.5046 0.1932 -2.0016 0.9731
6.4935 0.4266 -2.0016 0.9731
6.4461 0.8913 -2.0016 0.9731
6.4100 1.1222 -2.0016 0.9731
6.3656 1.3515 -2.0016 0.9731
6.1066 2.2486 -2.0016 0.9731
6.0220 2.4664 -2.0016 0.9731
5.9296 2.6810 -2.0016 0.9731
5.7219 3.0995 -2.0016 0.9731
5.6070 3.3029 -2.0016 0.9731
5.3556 3.6966 -2.0016 0.9731
5.2194 3.8865 -2.0016 0.9731
5.0766 4.0713 -2.0016 0.9731
4.6095 4.5935 -2.0016 0.9731
4.2681 4.9123 -2.0016 0.9731
4.0890 5.0624 -2.0016 0.9731
3.9046 5.2059 -2.0016 0.9731
3.7152 5.3427 -2.0016 0.9731
3.5211 5.4726 -2.0016 0.9731
3.3224 5.5955 -2.0016 0.9731
2.9124 5.8194 -2.0016 0.9731
2.4874 6.0133 -2.0016 0.9731
2.2699 6.0988 -2.0016 0.9731
2.0495 6.1763 -2.0016 0.9731
1.6011 6.3074 -2.0016 0.9731
0.9138 6.4430 -2.0016 0.9731
0.6819 6.4717 -2.0016 0.9731
0.4492 6.4920 -2.0016 0.9731
0.2159 6.5039 -2.0016 0.9731
-0.7172 6.4678 -2.0016 0.9731
-0.9489 6.4379 -2.0016 0.9731
-2.0831 6.1651 -2.0016 0.9731
-2.3031 6.0863 -2.0016 0.9731
-2.5201 5.9997 -2.0016 0.9731
-2.9440 5.8035 -2.0016 0.9731
-3.1504 5.6940 -2.0016 0.9731
-3.3528 5.5773 -2.0016 0.9731
-3.7443 5.3224 -2.0016 0.9731
-3.9329 5.1845 -2.0016 0.9731
-4.2948 4.8890 -2.0016 0.9731
-4.7954 4.3990 -2.0016 0.9731
-5.5038 3.4721 -2.0016 0.9731
-5.7387 3.0683 -2.0016 0.9731
-5.8452 2.8603 -2.0016 0.9731
-5.9441 2.6486 -2.0016 0.9731
-6.0353 2.4336 -2.0016 0.9731
-6.2620 1.7707 -2.0016 0.9731
-6.3729 1.3168 -2.0016 0.9731
-6.4775 0.6241 -2.0016 0.9731
-6.5056 0.1578 -2.0016 0.9731
-6.5070 -0.0758 -2.0016 0.9731
-6.4848 -0.5425 -2.0016 0.9731
-6.4612 -0.7749 -2.0016 0.9731
-6.4292 -1.0063 -2.0016 0.9731
-6.3889 -1.2365 -2.0016 0.9731
-6.3404 -1.4650 -2.0016 0.9731
-6.2838 -1.6916 -2.0016 0.9731
-6.2190 -1.9161 -2.0016 0.9731
-5.7527 -2.2358 -1.8983 0.9745
-5.5640 -2.3957 -1.8633 0.9750
-5.4560 -2.5852 -1.8570 0.9751
-5.2564 -2.9699 -1.8570 0.9751
-5.1464 -3.1567 -1.8570 0.9751
-4.9067 -3.5178 -1.8570 0.9751
-4.7773 -3.6916 -1.8570 0.9751
-4.5001 -4.0249 -1.8570 0.9751
-4.1997 -4.3374 -1.8570 0.9751
-3.5358 -4.8938 -1.8570 0.9751
-3.3578 -5.0175 -1.8570 0.9751
-2.9892 -5.2455 -1.8570 0.9751
-2.7990 -5.3494 -1.8570 0.9751
-2.4080 -5.5364 -1.8570 0.9751
-2.2077 -5.6193 -1.8570 0.9751
-1.9389 -6.2119 -2.0016 0.9731
-1.7147 -6.2775 -2.0016 0.9731
-1.0299 -6.4255 -2.0016 0.9731
-0.7986 -6.4583 -2.0016 0.9731
-0.3332 -6.4989 -2.0016 0.9731
-0.0997 -6.5067 -2.0016 0.9731
0.3674 -6.4971 -2.0016 0.9731
0.8326 -6.4540 -2.0016 0.9731
1.7477 -6.2684 -2.0016 0.9731
1.9716 -6.2016 -2.0016 0.9731
2.4371 -5.5237 -1.8570 0.9751
3.4519 -5.5165 -2.0016 0.9731
3.6476 -5.3891 -2.0016 0.9731
3.8387 -5.2547 -2.0016 0.9731
4.0249 -5.1135 -2.0016 0.9731
4.5513 -4.6512 -2.0016 0.9731
5.3086 -3.7638 -2.0016 0.9731
5.4403 -3.5708 -2.0016 0.9731
5.6824 -3.1713 -2.0016 0.9731
5.8953 -2.7554 -2.0016 0.9731
5.9904 -2.5421 -2.0016 0.9731
6.3481 -1.4316 -2.0016 0.9731
6.4652 -0.7409 -2.0016 0.9731
6.5074 -0.0416 -2.0016 0.9731
6.5046 0.1920 -2.0016 0.9731
6.4741 0.6582 -2.0016 0.9731
6.4102 1.1210 -2.0016 0.9731
6.3133 1.5780 -2.0016 0.9731
5.8300 2.8910 -2.0016 0.9731
5.7225 3.0984 -2.0016 0.9731
5.6076 3.3018 -2.0016 0.9731
5.3563 3.6956 -2.0016 0.9731
5.0773 4.0704 -2.0016 0.9731
4.9279 4.2500 -2.0016 0.9731
4.7722 4.4242 -2.0016 0.9731
4.4425 4.7551 -2.0016 0.9731
4.0899 5.0616 -2.0016 0.9731
3.9056 5.2052 -2.0016 0.9731
3.5221 5.4719 -2.0016 0.9731
3.3234 5.5948 -2.0016 0.9731
3.1204 5.7105 -2.0016 0.9731
-1.5144 5.8279 -2.0016 0.9749
-1.9286 5.7042 -2.0016 0.9749
-2.3329 5.5512 -2.0016 0.9749
-2.5306 5.4639 -2.0016 0.9749
-2.9161 5.2682 -2.0016 0.9749
-3.2866 5.0454 -2.0016 0.9749
-3.4655 4.9242 -2.0016 0.9749
-3.6401 4.7966 -2.0016 0.9749
-3.9748 4.5231 -2.0016 0.9749
-4.1346 4.3775 -2.0016 0.9749
-4.4380 4.0696 -2.0016 0.9749
-4.7185 3.7407 -2.0016 0.9749
-5.0933 3.2118 -2.0016 0.9749
-5.2053 3.0269 -2.0016 0.9749
-5.3106 2.8381 -2.0016 0.9749
-5.4091 2.6457 -2.0016 0.9749
-5.5006 2.4498 -2.0016 0.9749
-5.5850 2.2508 -2.0016 0.9749
-5.7946 1.6373 -2.0016 0.9749
-5.8971 1.2174 -2.0016 0.9749
-5.9938 0.5764 -2.0016 0.9749
-6.0106 0.3609 -2.0016 0.9749
-6.0197 0.1449 -2.0016 0.9749
-6.0210 -0.0713 -2.0016 0.9749
-6.0004 -0.5031 -2.0016 0.9749
-5.9115 -1.1452 -2.0016 0.9749
-5.8666 -1.3567 -2.0016 0.9749
-5.7542 -1.7741 -2.0016 0.9749
-5.6868 -1.9795 -2.0016 0.9749
-5.6121 -2.1823 -2.0016 0.9749
-5.1973 -2.2390 -1.8811 0.9764
-5.0587 -2.3981 -1.8609 0.9767
-4.9589 -2.5727 -1.8570 0.9767
-4.6536 -3.0908 -1.8570 0.9767
-4.5396 -3.2559 -1.8570 0.9767
-4.4198 -3.4167 -1.8570 0.9767
-4.0269 -3.8721 -1.8570 0.9767
-3.2708 -4.5289 -1.8570 0.9767
-2.9375 -4.7518 -1.8570 0.9767
-2.7650 -4.8542 -1.8570 0.9767
-2.5890 -4.9503 -1.8570 0.9767
-2.4096 -5.0401 -1.8570 0.9767
-2.2272 -5.1233 -1.8570 0.9767
-1.6635 -5.3331 -1.8570 0.9767
-1.4710 -5.3893 -1.8570 0.9767
-1.0806 -5.4810 -1.8570 0.9767
-0.4851 -5.5654 -1.8570 0.9767
-0.2850 -5.5792 -1.8570 0.9767
-0.0846 -5.5858 -1.8570 0.9767
0.1160 -5.5853 -1.8570 0.9767
0.3164 -5.5775 -1.8570 0.9767
0.5164 -5.5626 -1.8570 0.9767
0.9142 -5.5112 -1.8570 0.9767
1.1114 -5.4748 -1.8570 0.9767
1.3072 -5.4314 -1.8570 0.9767
1.5013 -5.3810 -1.8570 0.9767
1.6935 -5.3236 -1.8570 0.9767
1.8835 -5.2594 -1.8570 0.9767
2.1574 -4.0692 -1.5310 0.9808
2.3464 -4.0658 -1.5604 0.9804
2.9642 -4.7352 -1.8570 0.9767
3.1323 -4.6258 -1.8570 0.9767
3.2963 -4.5104 -1.8570 0.9767
3.4561 -4.3891 -1.8570 0.9767
3.8926 -4.5941 -2.0016 0.9749
4.2121 -4.3030 -2.0016 0.9749
4.3639 -4.1490 -2.0016 0.9749
5.0346 -3.3032 -2.0016 0.9749
5.1499 -3.1203 -2.0016 0.9749
5.3605 -2.7428 -2.0016 0.9749
5.6243 -2.1507 -2.0016 0.9749
5.7641 -1.7416 -2.0016 0.9749
5.9540 -0.8988 -2.0016 0.9749
5.9824 -0.6844 -2.0016 0.9749
6.0031 -0.4693 -2.0016 0.9749
6.0161 -0.2535 -2.0016 0.9749
6.0213 -0.0374 -2.0016 0.9749
6.0085 0.3947 -2.0016 0.9749
5.9647 0.8248 -2.0016 0.9749
5.9312 1.0383 -2.0016 0.9749
5.8901 1.2506 -2.0016 0.9749
5.8415 1.4612 -2.0016 0.9749
5.5722 2.2822 -2.0016 0.9749
5.4867 2.4807 -2.0016 0.9749
5.1882 3.0562 -2.0016 0.9749
5.0752 3.2404 -2.0016 0.9749
4.5592 3.9334 -2.0016 0.9749
4.4150 4.0945 -2.0016 0.9749
3.7836 4.6843 -2.0016 0.9749
3.6130 4.8171 -2.0016 0.9749
3.2581 5.0638 -2.0016 0.9749
2.6948 5.3848 -2.0016 0.9749
2.4998 5.4780 -2.0016 0.9749
2.1004 5.6432 -2.0016 0.9749
1.8965 5.7150 -2.0016 0.9749
1.6901 5.7794 -2.0016 0.9749
1.2711 5.8858 -2.0016 0.9749
0.8455 5.9618 -2.0016 0.9749
0.6310 5.9883 -2.0016 0.9749
0.1998 6.0181 -2.0016 0.9749
-0.6636 5.9848 -2.0016 0.9749
-1.0913 5.9217 -2.0016 0.9749
-1.7215 5.7701 -2.0016 0.9749
-1.9275 5.7046 -2.0016 0.9749
-2.1311 5.6317 -2.0016 0.9749
-2.7241 5.3700 -2.0016 0.9749
-3.1024 5.1607 -2.0016 0.9749
-3.2856 5.0460 -2.0016 0.9749
-3.4646 4.9248 -2.0016 0.9749
-3.6392 4.7973 -2.0016 0.9749
-3.9740 4.5239 -2.0016 0.9749
-4.2883 4.2271 -2.0016 0.9749
-4.5805 3.9085 -2.0016 0.9749
-4.7179 3.7416 -2.0016 0.9749
-4.9741 3.3935 -2.0016 0.9749
-5.2048 3.0279 -2.0016 0.9749
-5.3101 2.8391 -2.0016 0.9749
-5.4086 2.6467 -2.0016 0.9749
-5.5001 2.4508 -2.0016 0.9749
-5.5845 2.2518 -2.0016 0.9749
-5.9368 1.0060 -2.0016 0.9749
-5.9691 0.7923 -2.0016 0.9749
-5.9937 0.5775 -2.0016 0.9749
-6.0105 0.3620 -2.0016 0.9749
-6.0197 0.1460 -2.0016 0.9749
-6.0210 -0.0702 -2.0016 0.9749
-6.0005 -0.5020 -2.0016 0.9749
-5.9786 -0.7170 -2.0016 0.9749
-5.9490 -0.9312 -2.0016 0.9749
-5.9117 -1.1441 -2.0016 0.9749
-5.8669 -1.3556 -2.0016 0.9749
-5.6871 -1.9784 -2.0016 0.9749
-5.6125 -2.1813 -2.0016 0.9749
-4.5402 -3.2550 -1.8570 0.9767
-4.1640 -3.7243 -1.8570 0.9767
-4.0276 -3.8713 -1.8570 0.9767
-3.5881 -4.2819 -1.8570 0.9767
-3.2717 -4.5282 -1.8570 0.9767
-2.9384 -4.7513 -1.8570 0.9767
-2.7659 -4.8537 -1.8570 0.9767
-2.4106 -5.0396 -1.8570 0.9767
-2.2281 -5.1229 -1.8570 0.9767
-2.0428 -5.1996 -1.8570 0.9767
-1.8548 -5.2696 -1.8570 0.9767
-1.6645 -5.3328 -1.8570 0.9767
-1.4720 -5.3891 -1.8570 0.9767
-1.0816 -5.4808 -1.8570 0.9767
-0.8841 -5.5161 -1.8570 0.9767
-0.2860 -5.5792 -1.8570 0.9767
0.1150 -5.5853 -1.8570 0.9767
0.3154 -5.5776 -1.8570 0.9767
0.5154 -5.5627 -1.8570 0.9767
1.1104 -5.4750 -1.8570 0.9767
1.5003 -5.3812 -1.8570 0.9767
2.2550 -5.1111 -1.8570 0.9767
2.1565 -4.0692 -1.5308 0.9808
3.2954 -4.5110 -1.8570 0.9767
3.4553 -4.3898 -1.8570 0.9767
3.8917 -4.5948 -2.0016 0.9749
4.0541 -4.4522 -2.0016 0.9749
4.2113 -4.3038 -2.0016 0.9749
4.3631 -4.1498 -2.0016 0.9749
4.6496 -3.8261 -2.0016 0.9749
4.7839 -3.6567 -2.0016 0.9749
4.9121 -3.4827 -2.0016 0.9749
5.1493 -3.1213 -2.0016 0.9749
5.2580 -2.9344 -2.0016 0.9749
5.4550 -2.5496 -2.0016 0.9749
5.5430 -2.3522 -2.0016 0.9749
5.6239 -2.1517 -2.0016 0.9749
5.6975 -1.9485 -2.0016 0.9749
5.8226 -1.5347 -2.0016 0.9749
5.8739 -1.3247 -2.0016 0.9749
5.9177 -1.1130 -2.0016 0.9749
5.9538 -0.8998 -2.0016 0.9749
5.9823 -0.6856 -2.0016 0.9749
6.0030 -0.4704 -2.0016 0.9749
6.0161 -0.2546 -2.0016 0.9749
6.0213 -0.0385 -2.0016 0.9749
6.0188 0.1777 -2.0016 0.9749
5.9314 1.0373 -2.0016 0.9749
5.8904 1.2495 -2.0016 0.9749
5.7856 1.6689 -2.0016 0.9749
5.7219 1.8755 -2.0016 0.9749
5.6509 2.0797 -2.0016 0.9749
5.5726 2.2811 -2.0016 0.9749
5.3946 2.6751 -2.0016 0.9749
4.9562 3.4196 -2.0016 0.9749
4.8303 3.5953 -2.0016 0.9749
4.6981 3.7664 -2.0016 0.9749
4.1107 4.4000 -2.0016 0.9749
3.9501 4.5447 -2.0016 0.9749
3.7844 4.6836 -2.0016 0.9749
3.6139 4.8164 -2.0016 0.9749
3.2590 5.0632 -2.0016 0.9749
2.8874 5.2840 -2.0016 0.9749
-1.2123 5.4642 -2.0016 0.9765
-1.6012 5.3632 -2.0016 0.9765
-1.9818 5.2345 -2.0016 0.9765
-2.3523 5.0788 -2.0016 0.9765
-2.5331 4.9911 -2.0016 0.9765
-2.7106 4.8970 -2.0016 0.9765
-2.8846 4.7965 -2.0016 0.9765
-3.0549 4.6899 -2.0016 0.9765
-3.5414 4.3343 -2.0016 0.9765
-3.9868 3.9285 -2.0016 0.9765
-4.5080 3.3174 -2.0016 0.9765
-4.6242 3.1535 -2.0016 0.9765
-4.9364 2.6381 -2.0016 0.9765
-5.0279 2.4592 -2.0016 0.9765
-5.1129 2.2771 -2.0016 0.9765
-5.1914 2.0921 -2.0016 0.9765
-5.2631 1.9045 -2.0016 0.9765
-5.3281 1.7143 -2.0016 0.9765
-5.3862 1.5220 -2.0016 0.9765
-5.4374 1.3276 -2.0016 0.9765
-5.4815 1.1316 -2.0016 0.9765
-5.5186 0.9341 -2.0016 0.9765
-5.5486 0.7354 -2.0016 0.9765
-5.5714 0.5358 -2.0016 0.9765
-5.5955 0.1347 -2.0016 0.9765
-5.5967 -0.0663 -2.0016 0.9765
-5.5572 -0.6675 -2.0016 0.9765
-5.5296 -0.8666 -2.0016 0.9765
-5.4532 -1.2610 -2.0016 0.9765
-5.4044 -1.4560 -2.0016 0.9765
-5.3487 -1.6490 -2.0016 0.9765
-5.2860 -1.8400 -2.0016 0.9765
-5.2166 -2.0285 -2.0016 0.9765
-5.1404 -2.2145 -2.0016 0.9765
-4.5206 -2.5553 -1.8570 0.9782
-4.2197 -3.0264 -1.8570 0.9782
-4.1083 -3.1759 -1.8570 0.9782
-3.9917 -3.3214 -1.8570 0.9782
-3.8699 -3.4625 -1.8570 0.9782
-3.7431 -3.5992 -1.8570 0.9782
-3.6115 -3.7312 -1.8570 0.9782
-2.8873 -4.3161 -1.8570 0.9782
-2.2398 -4.6849 -1.8570 0.9782
-1.5463 -4.9572 -1.8570 0.9782
-1.1866 -5.0554 -1.8570 0.9782
-0.8209 -5.1275 -1.8570 0.9782
-0.6363 -5.1537 -1.8570 0.9782
-0.4509 -5.1732 -1.8570 0.9782
0.1078 -5.1917 -1.8570 0.9782
0.2941 -5.1845 -1.8570 0.9782
0.4800 -5.1706 -1.8570 0.9782
0.6653 -5.1500 -1.8570 0.9782
1.0331 -5.0890 -1.8570 0.9782
1.2151 -5.0486 -1.8570 0.9782
1.3955 -5.0018 -1.8570 0.9782
1.7508 -4.8887 -1.8570 0.9782
2.5117 -4.0123 -1.6928 0.9801
3.0640 -4.1925 -1.8570 0.9782
3.2125 -4.0798 -1.8570 0.9782
3.3569 -3.9619 -1.8570 0.9782
3.4969 -3.8388 -1.8570 0.9782
3.9153 -3.9997 -2.0016 0.9765
4.0563 -3.8566 -2.0016 0.9765
4.1921 -3.7085 -2.0016 0.9765
4.4474 -3.3982 -2.0016 0.9765
4.7869 -2.9004 -2.0016 0.9765
4.8880 -2.7267 -2.0016 0.9765
4.9827 -2.5495 -2.0016 0.9765
5.0710 -2.3690 -2.0016 0.9765
5.2279 -1.9991 -2.0016 0.9765
5.2963 -1.8102 -2.0016 0.9765
5.3579 -1.6189 -2.0016 0.9765
5.4125 -1.4255 -2.0016 0.9765
5.4602 -1.2303 -2.0016 0.9765
5.5344 -0.8354 -2.0016 0.9765
5.5921 -0.2356 -2.0016 0.9765
5.5970 -0.0347 -2.0016 0.9765
5.4751 1.1624 -2.0016 0.9765
5.3184 1.7443 -2.0016 0.9765
5.1000 2.3059 -2.0016 0.9765
5.0140 2.4875 -2.0016 0.9765
4.9214 2.6659 -2.0016 0.9765
4.8226 2.8408 -2.0016 0.9765
4.7175 3.0121 -2.0016 0.9765
4.6063 3.1795 -2.0016 0.9765
4.4893 3.3428 -2.0016 0.9765
4.3664 3.5018 -2.0016 0.9765
4.2379 3.6562 -2.0016 0.9765
3.9646 3.9508 -2.0016 0.9765
3.6710 4.2251 -2.0016 0.9765
3.5169 4.3541 -2.0016 0.9765
2.5049 5.0053 -2.0016 0.9765
2.3236 5.0920 -2.0016 0.9765
2.1394 5.1721 -2.0016 0.9765
1.9523 5.2456 -2.0016 0.9765
1.7628 5.3123 -2.0016 0.9765
1.5710 5.3721 -2.0016 0.9765
1.3771 5.4250 -2.0016 0.9765
0.9844 5.5099 -2.0016 0.9765
0.7860 5.5416 -2.0016 0.9765
0.5865 5.5663 -2.0016 0.9765
0.3864 5.5837 -2.0016 0.9765
-0.2161 5.5929 -2.0016 0.9765
-0.4168 5.5816 -2.0016 0.9765
-0.6168 5.5630 -2.0016 0.9765
-1.4067 5.4174 -2.0016 0.9765
-1.6002 5.3635 -2.0016 0.9765
-1.9809 5.2348 -2.0016 0.9765
-2.3513 5.0792 -2.0016 0.9765
-2.5321 4.9916 -2.0016 0.9765
-2.7097 4.8974 -2.0016 0.9765
-3.0541 4.6904 -2.0016 0.9765
-3.5406 4.3349 -2.0016 0.9765
-3.9861 3.9292 -2.0016 0.9765
-4.5074 3.3183 -2.0016 0.9765
-4.6236 3.1543 -2.0016 0.9765
-4.7338 2.9863 -2.0016 0.9765
-4.8380 2.8145 -2.0016 0.9765
-5.1125 2.2781 -2.0016 0.9765
-5.2628 1.9054 -2.0016 0.9765
-5.3278 1.7153 -2.0016 0.9765
-5.3859 1.5229 -2.0016 0.9765
-5.5184 0.9351 -2.0016 0.9765
-5.5908 -0.2661 -2.0016 0.9765
-5.5776 -0.4666 -2.0016 0.9765
-5.5298 -0.8655 -2.0016 0.9765
-5.3490 -1.6480 -2.0016 0.9765
-5.2864 -1.8390 -2.0016 0.9765
-5.2169 -2.0275 -2.0016 0.9765
-5.1408 -2.2135 -2.0016 0.9765
-4.7291 -2.2407 -1.8714 0.9780
-4.2203 -3.0256 -1.8570 0.9782
-3.9923 -3.3206 -1.8570 0.9782
-3.7438 -3.5985 -1.8570 0.9782
-3.6122 -3.7306 -1.8570 0.9782
-3.3352 -3.9801 -1.8570 0.9782
-3.1902 -4.0973 -1.8570 0.9782
-3.0411 -4.2091 -1.8570 0.9782
-2.4074 -4.6010 -1.8570 0.9782
-2.2407 -4.6845 -1.8570 0.9782
-2.0711 -4.7619 -1.8570 0.9782
-1.5472 -4.9569 -1.8570 0.9782
-1.1876 -5.0552 -1.8570 0.9782
-0.8218 -5.1273 -1.8570 0.9782
-0.6373 -5.1535 -1.8570 0.9782
-0.4519 -5.1731 -1.8570 0.9782
-0.2659 -5.1860 -1.8570 0.9782
0.1069 -5.1917 -1.8570 0.9782
0.4791 -5.1706 -1.8570 0.9782
0.6644 -5.1501 -1.8570 0.9782
0.8488 -5.1230 -1.8570 0.9782
1.2142 -5.0489 -1.8570 0.9782
1.3946 -5.0020 -1.8570 0.9782
1.5732 -4.9487 -1.8570 0.9782
1.7499 -4.8891 -1.8570 0.9782
2.0961 -4.7509 -1.8570 0.9782
2.0464 -4.2211 -1.6775 0.9803
2.1488 -4.0547 -1.6410 0.9807
3.0632 -4.1931 -1.8570 0.9782
3.4962 -3.8395 -1.8570 0.9782
3.9145 -4.0005 -2.0016 0.9765
4.1915 -3.7093 -2.0016 0.9765
4.5659 -3.2372 -2.0016 0.9765
4.8875 -2.7276 -2.0016 0.9765
5.0706 -2.3700 -2.0016 0.9765
5.1524 -2.1864 -2.0016 0.9765
5.2275 -2.0001 -2.0016 0.9765
5.2960 -1.8111 -2.0016 0.9765
5.3576 -1.6199 -2.0016 0.9765
5.5006 -1.0345 -2.0016 0.9765
5.5342 -0.8364 -2.0016 0.9765
5.5607 -0.6372 -2.0016 0.9765
5.5921 -0.2367 -2.0016 0.9765
5.5947 0.1652 -2.0016 0.9765
5.5851 0.3659 -2.0016 0.9765
5.5684 0.5661 -2.0016 0.9765
5.5445 0.7656 -2.0016 0.9765
5.5134 0.9642 -2.0016 0.9765
5.2527 1.9331 -2.0016 0.9765
5.1005 2.3050 -2.0016 0.9765
4.7181 3.0112 -2.0016 0.9765
4.4899 3.3419 -2.0016 0.9765
4.3670 3.5009 -2.0016 0.9765
4.2385 3.6554 -2.0016 0.9765
3.8210 4.0899 -2.0016 0.9765
3.5177 4.3535 -2.0016 0.9765
3.3592 4.4770 -2.0016 0.9765
3.1963 4.5947 -2.0016 0.9765
3.0294 4.7064 -2.0016 0.9765
2.6839 4.9116 -2.0016 0.9765
-1.4942 5.0047 -2.0016 0.9779
-1.8494 4.8846 -2.0016 0.9779
-2.0235 4.8151 -2.0016 0.9779
-2.3638 4.6575 -2.0016 0.9779
-2.8508 4.3764 -2.0016 0.9779
-3.0060 4.2713 -2.0016 0.9779
-3.3047 4.0446 -2.0016 0.9779
-3.4478 3.9234 -2.0016 0.9779
-3.7204 3.6659 -2.0016 0.9779
-3.8496 3.5300 -2.0016 0.9779
-4.0929 3.2447 -2.0016 0.9779
-4.2067 3.0957 -2.0016 0.9779
-4.3151 2.9427 -2.0016 0.9779
-4.6919 2.2949 -2.0016 0.9779
-4.7712 2.1250 -2.0016 0.9779
-4.9114 1.7772 -2.0016 0.9779
-5.0262 1.4202 -2.0016 0.9779
-5.1152 1.0560 -2.0016 0.9779
-5.1498 0.8717 -2.0016 0.9779
-5.1778 0.6863 -2.0016 0.9779
-5.1990 0.5000 -2.0016 0.9779
-5.2171 -0.2493 -2.0016 0.9779
-5.1858 -0.6229 -2.0016 0.9779
-5.1601 -0.8086 -2.0016 0.9779
-5.0887 -1.1768 -2.0016 0.9779
-5.0432 -1.3587 -2.0016 0.9779
-4.9327 -1.7170 -2.0016 0.9779
-4.8679 -1.8929 -2.0016 0.9779
-4.6822 -2.2196 -1.9857 0.9780
-4.2185 -2.3845 -1.8570 0.9795
-3.3702 -3.4819 -1.8570 0.9795
-3.2430 -3.6006 -1.8570 0.9795
-3.1117 -3.7147 -1.8570 0.9795
-2.9763 -3.8240 -1.8570 0.9795
-2.3984 -4.2106 -1.8570 0.9795
-2.2457 -4.2940 -1.8570 0.9795
-2.0901 -4.3718 -1.8570 0.9795
-1.9319 -4.4440 -1.8570 0.9795
-1.2760 -4.6747 -1.8570 0.9795
-0.7660 -4.7848 -1.8570 0.9795
-0.2472 -4.8394 -1.8570 0.9795
-0.0733 -4.8452 -1.8570 0.9795
0.1006 -4.8447 -1.8570 0.9795
0.2745 -4.8380 -1.8570 0.9795
0.6208 -4.8058 -1.8570 0.9795
1.6338 -4.5620 -1.8570 0.9795
1.7965 -4.5004 -1.8570 0.9795
1.9569 -4.4331 -1.8570 0.9795
2.3087 -4.0005 -1.7700 0.9804
2.5066 -4.0043 -1.8104 0.9800
3.2632 -3.5823 -1.8570 0.9795
4.0337 -3.3180 -2.0016 0.9779
4.1502 -3.1711 -2.0016 0.9779
4.2613 -3.0201 -2.0016 0.9779
4.4670 -2.7066 -2.0016 0.9779
4.5613 -2.5445 -2.0016 0.9779
4.6497 -2.3791 -2.0016 0.9779
4.8785 -1.8655 -2.0016 0.9779
4.9423 -1.6892 -2.0016 0.9779
5.0508 -1.3303 -2.0016 0.9779
5.1645 -0.7796 -2.0016 0.9779
5.2184 -0.2199 -2.0016 0.9779
5.2207 0.1551 -2.0016 0.9779
5.1738 0.7154 -2.0016 0.9779
5.1448 0.9007 -2.0016 0.9779
5.1091 1.0848 -2.0016 0.9779
5.0669 1.2675 -2.0016 0.9779
5.0182 1.4485 -2.0016 0.9779
4.9629 1.6277 -2.0016 0.9779
4.7592 2.1518 -2.0016 0.9779
4.5003 2.6509 -2.0016 0.9779
4.0746 3.2677 -2.0016 0.9779
3.8296 3.5516 -2.0016 0.9779
3.1339 4.1783 -2.0016 0.9779
2.9819 4.2881 -2.0016 0.9779
2.8261 4.3924 -2.0016 0.9779
2.5037 4.5839 -2.0016 0.9779
1.6450 4.9572 -2.0016 0.9779
1.4660 5.0131 -2.0016 0.9779
1.2851 5.0625 -2.0016 0.9779
0.7334 5.1713 -2.0016 0.9779
0.1733 5.2202 -2.0016 0.9779
-0.0142 5.2230 -2.0016 0.9779
-0.2017 5.2191 -2.0016 0.9779
-0.3889 5.2085 -2.0016 0.9779
-0.7616 5.1672 -2.0016 0.9779
-0.9466 5.1365 -2.0016 0.9779
-1.1303 5.0993 -2.0016 0.9779
-1.3126 5.0554 -2.0016 0.9779
-2.0226 4.8155 -2.0016 0.9779
-2.1942 4.7398 -2.0016 0.9779
-2.5286 4.5701 -2.0016 0.9779
-3.0052 4.2718 -2.0016 0.9779
-3.1566 4.1612 -2.0016 0.9779
-3.5857 3.7978 -2.0016 0.9779
-4.0923 3.2455 -2.0016 0.9779
-4.4175 2.7868 -2.0016 0.9779
-4.5147 2.6264 -2.0016 0.9779
-4.6915 2.2957 -2.0016 0.9779
-4.8441 1.9532 -2.0016 0.9779
-4.9111 1.7781 -2.0016 0.9779
-4.9717 1.6007 -2.0016 0.9779
-5.0260 1.4212 -2.0016 0.9779
-5.1150 1.0569 -2.0016 0.9779
-5.1776 0.6872 -2.0016 0.9779
-5.1990 0.5009 -2.0016 0.9779
-5.2136 0.3140 -2.0016 0.9779
-5.2215 0.1266 -2.0016 0.9779
-5.2227 -0.0609 -2.0016 0.9779
-5.1859 -0.6219 -2.0016 0.9779
-5.0890 -1.1758 -2.0016 0.9779
-5.0435 -1.3577 -2.0016 0.9779
-4.9915 -1.5379 -2.0016 0.9779
-4.9331 -1.7161 -2.0016 0.9779
-4.8683 -1.8920 -2.0016 0.9779
-4.2189 -2.3837 -1.8570 0.9795
-4.1306 -2.5336 -1.8570 0.9795
-3.7255 -3.0987 -1.8570 0.9795
-3.2437 -3.6000 -1.8570 0.9795
-3.1123 -3.7141 -1.8570 0.9795
-2.9770 -3.8234 -1.8570 0.9795
-2.8379 -3.9278 -1.8570 0.9795
-2.6951 -4.0272 -1.8570 0.9795
-2.3992 -4.2101 -1.8570 0.9795
-2.2465 -4.2935 -1.8570 0.9795
-2.0909 -4.3714 -1.8570 0.9795
-1.9327 -4.4437 -1.8570 0.9795
-1.7719 -4.5102 -1.8570 0.9795
-1.1082 -4.7173 -1.8570 0.9795
-0.9382 -4.7541 -1.8570 0.9795
-0.7669 -4.7847 -1.8570 0.9795
-0.4217 -4.8274 -1.8570 0.9795
-0.2481 -4.8394 -1.8570 0.9795
0.0997 -4.8447 -1.8570 0.9795
0.4471 -4.8251 -1.8570 0.9795
0.7921 -4.7806 -1.8570 0.9795
0.9632 -4.7491 -1.8570 0.9795
1.1330 -4.7114 -1.8570 0.9795
1.3014 -4.6677 -1.8570 0.9795
1.4681 -4.6180 -1.8570 0.9795
1.9560 -4.4334 -1.8570 0.9795
2.3077 -4.0005 -1.7699 0.9804
2.5054 -4.0039 -1.8100 0.9800
2.7162 -4.0129 -1.8570 0.9795
2.8585 -3.9128 -1.8570 0.9795
3.2626 -3.5829 -1.8570 0.9795
3.3891 -3.4635 -1.8570 0.9795
3.7846 -3.5996 -2.0016 0.9779
3.9114 -3.4614 -2.0016 0.9779
4.0331 -3.3188 -2.0016 0.9779
4.1496 -3.1719 -2.0016 0.9779
4.4665 -2.7074 -2.0016 0.9779
4.5608 -2.5453 -2.0016 0.9779
4.8080 -2.0403 -2.0016 0.9779
4.8782 -1.8664 -2.0016 0.9779
5.0506 -1.3312 -2.0016 0.9779
5.0951 -1.1490 -2.0016 0.9779
5.1330 -0.9654 -2.0016 0.9779
5.1644 -0.7805 -2.0016 0.9779
5.1891 -0.5947 -2.0016 0.9779
5.2184 -0.2208 -2.0016 0.9779
5.2208 0.1541 -2.0016 0.9779
5.2119 0.3414 -2.0016 0.9779
5.1962 0.5283 -2.0016 0.9779
5.1739 0.7145 -2.0016 0.9779
5.1450 0.8997 -2.0016 0.9779
5.1093 1.0838 -2.0016 0.9779
5.0672 1.2665 -2.0016 0.9779
4.9632 1.6268 -2.0016 0.9779
4.7596 2.1509 -2.0016 0.9779
4.6793 2.3204 -2.0016 0.9779
4.4028 2.8100 -2.0016 0.9779
4.2991 2.9662 -2.0016 0.9779
4.1898 3.1186 -2.0016 0.9779
3.9553 3.4111 -2.0016 0.9779
3.8303 3.5509 -2.0016 0.9779
3.7003 3.6861 -2.0016 0.9779
3.1347 4.1778 -2.0016 0.9779
2.9827 4.2876 -2.0016 0.9779
2.8269 4.3919 -2.0016 0.9779
-1.0593 4.7744 -2.0016 0.9791
-1.2299 4.7333 -2.0016 0.9791
-1.3991 4.6861 -2.0016 0.9791
-1.7317 4.5737 -2.0016 0.9791
-2.0553 4.4376 -2.0016 0.9791
-2.2133 4.3610 -2.0016 0.9791
-2.3684 4.2787 -2.0016 0.9791
-2.8146 3.9993 -2.0016 0.9791
-2.9564 3.8957 -2.0016 0.9791
-3.0943 3.7871 -2.0016 0.9791
-3.2283 3.6736 -2.0016 0.9791
-3.4835 3.4325 -2.0016 0.9791
-3.8323 3.0381 -2.0016 0.9791
-3.9389 2.8986 -2.0016 0.9791
-4.0404 2.7554 -2.0016 0.9791
-4.1367 2.6086 -2.0016 0.9791
-4.2277 2.4584 -2.0016 0.9791
-4.3132 2.3051 -2.0016 0.9791
-4.5360 1.8280 -2.0016 0.9791
-4.7062 1.3298 -2.0016 0.9791
-4.7509 1.1600 -2.0016 0.9791
-4.7895 0.9887 -2.0016 0.9791
-1.9579 0.1883 -0.8050 0.9915
-1.9099 -0.0226 -0.7817 0.9918
-1.9394 -0.0927 -0.7947 0.9916
-1.9571 -0.1641 -0.8038 0.9915
-4.8012 -0.9301 -2.0016 0.9791
-4.7221 -1.2722 -2.0016 0.9791
-4.5580 -1.7724 -2.0016 0.9791
-3.8672 -2.3730 -1.8570 0.9806
-3.7795 -2.5103 -1.8570 0.9806
-3.6870 -2.6444 -1.8570 0.9806
-3.3814 -3.0254 -1.8570 0.9806
-3.1556 -3.2602 -1.8570 0.9806
-2.9136 -3.4782 -1.8570 0.9806
-2.7868 -3.5805 -1.8570 0.9806
-2.6565 -3.6783 -1.8570 0.9806
-2.5228 -3.7712 -1.8570 0.9806
-1.9571 -4.0935 -1.8570 0.9806
-1.8089 -4.1611 -1.8570 0.9806
-1.5057 -4.2801 -1.8570 0.9806
-1.1947 -4.3771 -1.8570 0.9806
-0.8776 -4.4516 -1.8570 0.9806
-0.7173 -4.4802 -1.8570 0.9806
-0.5560 -4.5031 -1.8570 0.9806
-0.3940 -4.5201 -1.8570 0.9806
-0.0687 -4.5367 -1.8570 0.9806
0.0942 -4.5363 -1.8570 0.9806
0.7425 -4.4761 -1.8570 0.9806
0.9027 -4.4465 -1.8570 0.9806
1.3754 -4.3237 -1.8570 0.9806
1.5298 -4.2716 -1.8570 0.9806
2.2679 -3.9298 -1.8570 0.9806
2.5440 -3.7570 -1.8570 0.9806
2.6772 -3.6632 -1.8570 0.9806
2.8069 -3.5648 -1.8570 0.9806
2.9331 -3.4617 -1.8570 0.9806
3.0555 -3.3542 -1.8570 0.9806
3.1739 -3.2424 -1.8570 0.9806
3.6629 -3.2404 -2.0016 0.9791
3.7769 -3.1068 -2.0016 0.9791
3.9900 -2.8278 -2.0016 0.9791
4.1826 -2.5343 -2.0016 0.9791
4.2709 -2.3825 -2.0016 0.9791
4.4308 -2.0700 -2.0016 0.9791
4.5023 -1.9096 -2.0016 0.9791
4.6277 -1.5816 -2.0016 0.9791
4.7292 -1.2456 -2.0016 0.9791
4.7709 -1.0750 -2.0016 0.9791
4.8064 -0.9031 -2.0016 0.9791
4.8357 -0.7299 -2.0016 0.9791
4.8588 -0.5559 -2.0016 0.9791
4.8756 -0.3811 -2.0016 0.9791
4.8862 -0.2059 -2.0016 0.9791
4.8800 0.3206 -2.0016 0.9791
4.8172 0.8433 -2.0016 0.9791
4.7839 1.0157 -2.0016 0.9791
4.7443 1.1868 -2.0016 0.9791
4.5892 1.6899 -2.0016 0.9791
4.5256 1.8535 -2.0016 0.9791
4.4562 2.0148 -2.0016 0.9791
4.1220 2.6318 -2.0016 0.9791
4.0248 2.7781 -2.0016 0.9791
3.8152 3.0597 -2.0016 0.9791
3.7029 3.1947 -2.0016 0.9791
3.4641 3.4521 -2.0016 0.9791
3.2075 3.6917 -2.0016 0.9791
3.0730 3.8045 -2.0016 0.9791
2.7921 4.0151 -2.0016 0.9791
2.6462 4.1128 -2.0016 0.9791
2.3443 4.2920 -2.0016 0.9791
2.0303 4.4491 -2.0016 0.9791
1.7059 4.5833 -2.0016 0.9791
1.5403 4.6416 -2.0016 0.9791
1.3727 4.6939 -2.0016 0.9791
0.8601 4.8143 -2.0016 0.9791
0.5125 4.8636 -2.0016 0.9791
-0.1889 4.8869 -2.0016 0.9791
-0.7131 4.8382 -2.0016 0.9791
-1.5655 4.6332 -2.0016 0.9791
-1.8939 4.5089 -2.0016 0.9791
-2.3676 4.2792 -2.0016 0.9791
-2.5197 4.1914 -2.0016 0.9791
-2.9557 3.8963 -2.0016 0.9791
-3.3574 3.5560 -2.0016 0.9791
-3.6039 3.3059 -2.0016 0.9791
-3.8318 3.0389 -2.0016 0.9791
-4.3128 2.3059 -2.0016 0.9791
-4.4671 1.9905 -2.0016 0.9791
-4.5984 1.6649 -2.0016 0.9791
-4.7060 1.3307 -2.0016 0.9791
-4.7507 1.1609 -2.0016 0.9791
-4.7893 0.9896 -2.0016 0.9791
-2.1265 0.3604 -0.8827 0.9907
-1.9579 0.1886 -0.8050 0.9915
-1.9469 0.1173 -0.7983 0.9916
-1.9097 -0.0223 -0.7817 0.9918
-1.9543 -0.2344 -0.8056 0.9915
-4.8014 -0.9292 -2.0016 0.9791
-4.7650 -1.1010 -2.0016 0.9791
-4.7224 -1.2713 -2.0016 0.9791
-4.5583 -1.7716 -2.0016 0.9791
-4.4918 -1.9341 -2.0016 0.9791
-4.4195 -2.0941 -2.0016 0.9791
-3.9679 -2.2419 -1.8652 0.9805
-3.8676 -2.3723 -1.8570 0.9806
-3.7800 -2.5096 -1.8570 0.9806
-3.6875 -2.6437 -1.8570 0.9806
-3.5902 -2.7743 -1.8570 0.9806
-3.3819 -3.0248 -1.8570 0.9806
-3.2712 -3.1442 -1.8570 0.9806
-3.0372 -3.3708 -1.8570 0.9806
-2.7875 -3.5800 -1.8570 0.9806
-2.6572 -3.6778 -1.8570 0.9806
-2.5235 -3.7708 -1.8570 0.9806
-2.2464 -3.9421 -1.8570 0.9806
-2.1035 -4.0202 -1.8570 0.9806
-1.9578 -4.0931 -1.8570 0.9806
-1.6591 -4.2230 -1.8570 0.9806
-1.3519 -4.3312 -1.8570 0.9806
-0.7181 -4.4801 -1.8570 0.9806
-0.5568 -4.5030 -1.8570 0.9806
-0.3948 -4.5200 -1.8570 0.9806
-0.2323 -4.5313 -1.8570 0.9806
-0.0695 -4.5367 -1.8570 0.9806
0.2562 -4.5300 -1.8570 0.9806
0.4186 -4.5179 -1.8570 0.9806
0.5805 -4.5000 -1.8570 0.9806
1.0609 -4.4115 -1.8570 0.9806
1.3746 -4.3240 -1.8570 0.9806
1.5290 -4.2719 -1.8570 0.9806
1.6813 -4.2142 -1.8570 0.9806
1.8315 -4.1512 -1.8570 0.9806
2.2671 -3.9302 -1.8570 0.9806
2.4068 -3.8463 -1.8570 0.9806
2.5433 -3.7574 -1.8570 0.9806
2.6765 -3.6637 -1.8570 0.9806
2.8063 -3.5653 -1.8570 0.9806
3.2877 -3.1270 -1.8570 0.9806
3.8854 -2.9699 -2.0016 0.9791
4.0885 -2.6835 -2.0016 0.9791
4.2705 -2.3833 -2.0016 0.9791
4.3533 -2.2285 -2.0016 0.9791
4.4305 -2.0708 -2.0016 0.9791
4.5676 -1.7476 -2.0016 0.9791
4.6274 -1.5825 -2.0016 0.9791
4.6812 -1.4154 -2.0016 0.9791
4.7290 -1.2464 -2.0016 0.9791
4.7707 -1.0759 -2.0016 0.9791
4.8587 -0.5568 -2.0016 0.9791
4.8756 -0.3820 -2.0016 0.9791
4.8445 0.6690 -2.0016 0.9791
4.7841 1.0148 -2.0016 0.9791
4.7445 1.1859 -2.0016 0.9791
4.6989 1.3554 -2.0016 0.9791
4.5896 1.6891 -2.0016 0.9791
4.3006 2.3285 -2.0016 0.9791
4.2142 2.4814 -2.0016 0.9791
4.1224 2.6311 -2.0016 0.9791
4.0253 2.7773 -2.0016 0.9791
3.8157 3.0590 -2.0016 0.9791
3.5864 3.3248 -2.0016 0.9791
3.4648 3.4514 -2.0016 0.9791
3.3386 3.5736 -2.0016 0.9791
3.0737 3.8039 -2.0016 0.9791
2.9351 3.9118 -2.0016 0.9791
2.4976 4.2046 -2.0016 0.9791
-0.9947 4.4836 -2.0016 0.9802
-1.1550 4.4450 -2.0016 0.9802
-1.4710 4.3507 -2.0016 0.9802
-1.6262 4.2951 -2.0016 0.9802
-1.7793 4.2340 -2.0016 0.9802
-1.9302 4.1674 -2.0016 0.9802
-2.2242 4.0182 -2.0016 0.9802
-2.3670 3.9357 -2.0016 0.9802
-2.5067 3.8482 -2.0016 0.9802
-2.6432 3.7558 -2.0016 0.9802
-2.9059 3.5565 -2.0016 0.9802
-3.1535 3.3388 -2.0016 0.9802
-3.2714 3.2235 -2.0016 0.9802
-3.3850 3.1040 -2.0016 0.9802
-3.6990 2.7221 -2.0016 0.9802
-3.9702 2.3087 -2.0016 0.9802
-4.0505 2.1647 -2.0016 0.9802
-4.1256 2.0179 -2.0016 0.9802
-4.1954 1.8685 -2.0016 0.9802
-1.5411 0.3763 -0.6914 0.9931
-1.5124 0.3122 -0.6730 0.9933
-1.5052 0.2548 -0.6653 0.9934
-1.5187 0.2013 -0.6677 0.9933
-1.5269 0.1468 -0.6685 0.9933
-1.5296 0.0918 -0.6678 0.9933
-1.5269 0.0368 -0.6657 0.9934
-1.5293 -0.0731 -0.6673 0.9933
-1.5221 -0.1828 -0.6681 0.9933
-1.5016 -0.2909 -0.6666 0.9933
-1.5573 -0.4195 -0.7029 0.9930
-4.2804 -1.6645 -2.0016 0.9802
-4.2179 -1.8171 -2.0016 0.9802
-4.1500 -1.9673 -2.0016 0.9802
-3.9323 -2.2227 -1.9686 0.9805
-3.6527 -2.2414 -1.8677 0.9815
-3.5494 -2.3574 -1.8570 0.9816
-2.8516 -3.1660 -1.8570 0.9816
-2.6171 -3.3625 -1.8570 0.9816
-2.4947 -3.4542 -1.8570 0.9816
-2.2405 -3.6243 -1.8570 0.9816
-2.1089 -3.7024 -1.8570 0.9816
-1.9747 -3.7757 -1.8570 0.9816
-1.8379 -3.8442 -1.8570 0.9816
-1.6987 -3.9077 -1.8570 0.9816
-0.6736 -4.2073 -1.8570 0.9816
-0.3700 -4.2448 -1.8570 0.9816
-0.0645 -4.2604 -1.8570 0.9816
0.0885 -4.2600 -1.8570 0.9816
0.3939 -4.2427 -1.8570 0.9816
0.5459 -4.2258 -1.8570 0.9816
0.6973 -4.2035 -1.8570 0.9816
0.8477 -4.1757 -1.8570 0.9816
0.9970 -4.1426 -1.8570 0.9816
1.1451 -4.1042 -1.8570 0.9816
1.2917 -4.0604 -1.8570 0.9816
1.4366 -4.0114 -1.8570 0.9816
1.5797 -3.9573 -1.8570 0.9816
1.8595 -3.8338 -1.8570 0.9816
2.6360 -3.3477 -1.8570 0.9816
2.8694 -3.1499 -1.8570 0.9816
2.9806 -3.0449 -1.8570 0.9816
3.6493 -2.7884 -2.0016 0.9802
4.2281 -1.7933 -2.0016 0.9802
4.2897 -1.6404 -2.0016 0.9802
4.3458 -1.4853 -2.0016 0.9802
4.4412 -1.1697 -2.0016 0.9802
4.5629 -0.5220 -2.0016 0.9802
4.5886 -0.1933 -2.0016 0.9802
4.5828 0.3011 -2.0016 0.9802
4.5690 0.4654 -2.0016 0.9802
4.5494 0.6291 -2.0016 0.9802
4.4125 1.2737 -2.0016 0.9802
4.2500 1.7407 -2.0016 0.9802
4.1142 2.0411 -2.0016 0.9802
3.9572 2.3310 -2.0016 0.9802
3.8709 2.4715 -2.0016 0.9802
3.7797 2.6089 -2.0016 0.9802
3.5828 2.8733 -2.0016 0.9802
3.1347 3.3565 -2.0016 0.9802
3.0122 3.4669 -2.0016 0.9802
2.8858 3.5728 -2.0016 0.9802
2.4850 3.8623 -2.0016 0.9802
2.3448 3.9490 -2.0016 0.9802
1.9067 4.1782 -2.0016 0.9802
1.7555 4.2439 -2.0016 0.9802
1.4465 4.3589 -2.0016 0.9802
1.2891 4.4080 -2.0016 0.9802
0.9695 4.4892 -2.0016 0.9802
0.6449 4.5472 -2.0016 0.9802
0.3170 4.5817 -2.0016 0.9802
-0.0125 4.5926 -2.0016 0.9802
-1.6254 4.2954 -2.0016 0.9802
-1.7785 4.2343 -2.0016 0.9802
-1.9294 4.1677 -2.0016 0.9802
-2.3662 3.9362 -2.0016 0.9802
-2.5060 3.8487 -2.0016 0.9802
-3.3844 3.1046 -2.0016 0.9802
-3.4936 2.9811 -2.0016 0.9802
-3.5984 2.8538 -2.0016 0.9802
-3.7939 2.5883 -2.0016 0.9802
-3.8843 2.4504 -2.0016 0.9802
-4.1950 1.8693 -2.0016 0.9802
-4.2594 1.7175 -2.0016 0.9802
-1.5961 0.5779 -0.7398 0.9926
-1.5649 0.4425 -0.7088 0.9929
-1.5412 0.3766 -0.6915 0.9931
-1.5268 0.1471 -0.6685 0.9933
-1.5293 -0.0728 -0.6672 0.9933
-1.5105 -0.2364 -0.6663 0.9934
-1.5014 -0.2906 -0.6665 0.9933
-1.5318 -0.3539 -0.6852 0.9932
-1.5571 -0.4192 -0.7028 0.9930
-1.5776 -0.4861 -0.7194 0.9928
-1.5924 -0.5539 -0.7348 0.9927
-4.2807 -1.6637 -2.0016 0.9802
-4.2183 -1.8163 -2.0016 0.9802
-4.0771 -2.1142 -2.0016 0.9802
-3.6541 -2.2413 -1.8682 0.9815
-3.5498 -2.3568 -1.8570 0.9816
-3.4629 -2.4827 -1.8570 0.9816
-3.3716 -2.6054 -1.8570 0.9816
-3.0719 -2.9527 -1.8570 0.9816
-2.9640 -3.0611 -1.8570 0.9816
-2.8522 -3.1655 -1.8570 0.9816
-2.6177 -3.3620 -1.8570 0.9816
-2.4954 -3.4538 -1.8570 0.9816
-2.1096 -3.7020 -1.8570 0.9816
-1.5581 -3.9658 -1.8570 0.9816
-1.4147 -4.0192 -1.8570 0.9816
-1.2695 -4.0674 -1.8570 0.9816
-0.5229 -4.2287 -1.8570 0.9816
-0.3708 -4.2448 -1.8570 0.9816
-0.0653 -4.2604 -1.8570 0.9816
0.0877 -4.2600 -1.8570 0.9816
0.2406 -4.2541 -1.8570 0.9816
0.5451 -4.2259 -1.8570 0.9816
0.6965 -4.2036 -1.8570 0.9816
0.8469 -4.1759 -1.8570 0.9816
0.9963 -4.1428 -1.8570 0.9816
1.1443 -4.1044 -1.8570 0.9816
1.2909 -4.0607 -1.8570 0.9816
1.7200 -3.8984 -1.8570 0.9816
1.8588 -3.8341 -1.8570 0.9816
2.1291 -3.6909 -1.8570 0.9816
2.5135 -3.4406 -1.8570 0.9816
2.6354 -3.3482 -1.8570 0.9816
2.7539 -3.2514 -1.8570 0.9816
3.4393 -3.0437 -2.0016 0.9802
3.6488 -2.7891 -2.0016 0.9802
3.9275 -2.3807 -2.0016 0.9802
4.0881 -2.0928 -2.0016 0.9802
4.1606 -1.9447 -2.0016 0.9802
4.2278 -1.7941 -2.0016 0.9802
4.2894 -1.6411 -2.0016 0.9802
4.3456 -1.4861 -2.0016 0.9802
4.3961 -1.3292 -2.0016 0.9802
4.4410 -1.1705 -2.0016 0.9802
4.5135 -0.8489 -2.0016 0.9802
4.5786 -0.3588 -2.0016 0.9802
4.5926 -0.0294 -2.0016 0.9802
4.5907 0.1355 -2.0016 0.9802
4.1852 1.8913 -2.0016 0.9802
4.0387 2.1867 -2.0016 0.9802
3.8714 2.4708 -2.0016 0.9802
3.7802 2.6082 -2.0016 0.9802
3.5833 2.8727 -2.0016 0.9802
3.4779 2.9995 -2.0016 0.9802
3.3680 3.1224 -2.0016 0.9802
3.1353 3.3559 -2.0016 0.9802
2.8865 3.5722 -2.0016 0.9802
2.7564 3.6735 -2.0016 0.9802
-1.0875 4.1851 -2.0016 0.9811
-1.2370 4.1434 -2.0016 0.9811
-1.5311 4.0440 -2.0016 0.9811
-1.9570 3.8559 -2.0016 0.9811
-2.0941 3.7832 -2.0016 0.9811
-2.3601 3.6232 -2.0016 0.9811
-2.8544 3.2481 -2.0016 0.9811
-2.9691 3.1436 -2.0016 0.9811
-3.3885 2.6863 -2.0016 0.9811
-3.5725 2.4363 -2.0016 0.9811
-3.8844 1.8999 -2.0016 0.9811
-1.3284 0.5354 -0.6630 0.9937
-1.3305 0.4281 -0.6470 0.9939
-1.3385 0.0804 -0.6207 0.9941
-1.3351 -0.0158 -0.6180 0.9941
-1.3379 -0.1122 -0.6215 0.9941
-1.3237 -0.2074 -0.6202 0.9941
-1.3167 -0.3547 -0.6312 0.9940
-1.3277 -0.4093 -0.6431 0.9939
-1.3306 -0.5174 -0.6609 0.9937
-3.3729 -2.2402 -1.8742 0.9823
-3.1740 -2.4536 -1.8570 0.9825
-3.0838 -2.5660 -1.8570 0.9825
-2.5761 -3.0754 -1.8570 0.9825
-2.2306 -3.3345 -1.8570 0.9825
-1.9856 -3.4859 -1.8570 0.9825
-1.8592 -3.5549 -1.8570 0.9825
-1.7304 -3.6194 -1.8570 0.9825
-1.5994 -3.6792 -1.8570 0.9825
-1.1946 -3.8298 -1.8570 0.9825
-1.0563 -3.8702 -1.8570 0.9825
-0.9167 -3.9056 -1.8570 0.9825
0.0833 -4.0109 -1.8570 0.9825
0.5140 -3.9787 -1.8570 0.9825
0.7981 -3.9316 -1.8570 0.9825
0.9387 -3.9004 -1.8570 0.9825
1.0781 -3.8642 -1.8570 0.9825
1.2161 -3.8230 -1.8570 0.9825
1.3526 -3.7769 -1.8570 0.9825
1.4873 -3.7259 -1.8570 0.9825
1.6201 -3.6701 -1.8570 0.9825
1.7508 -3.6096 -1.8570 0.9825
2.1286 -3.4004 -1.8570 0.9825
2.3671 -3.2390 -1.8570 0.9825
2.4819 -3.1519 -1.8570 0.9825
2.5934 -3.0608 -1.8570 0.9825
2.8063 -2.8669 -1.8570 0.9825
2.9143 -2.7708 -1.8614 0.9824
3.0048 -2.6581 -1.8570 0.9825
3.3395 -2.7470 -2.0016 0.9811
3.4359 -2.6253 -2.0016 0.9811
3.5279 -2.5003 -2.0016 0.9811
3.8494 -1.9697 -2.0016 0.9811
3.9808 -1.6884 -2.0016 0.9811
4.0389 -1.5444 -2.0016 0.9811
4.0917 -1.3985 -2.0016 0.9811
4.1393 -1.2507 -2.0016 0.9811
4.2183 -0.9505 -2.0016 0.9811
4.2497 -0.7985 -2.0016 0.9811
4.2757 -0.6454 -2.0016 0.9811
4.3018 0.4382 -2.0016 0.9811
4.2833 0.5923 -2.0016 0.9811
4.1949 1.0493 -2.0016 0.9811
4.1545 1.1992 -2.0016 0.9811
4.0577 1.4942 -2.0016 0.9811
4.0015 1.6389 -2.0016 0.9811
3.8736 1.9217 -2.0016 0.9811
3.7257 2.1947 -2.0016 0.9811
3.6446 2.3270 -2.0016 0.9811
3.5587 2.4563 -2.0016 0.9811
3.4682 2.5825 -2.0016 0.9811
3.2740 2.8247 -2.0016 0.9811
3.1705 2.9404 -2.0016 0.9811
3.0629 3.0523 -2.0016 0.9811
2.9514 3.1602 -2.0016 0.9811
2.8360 3.2642 -2.0016 0.9811
2.7171 3.3638 -2.0016 0.9811
2.5946 3.4592 -2.0016 0.9811
2.4687 3.5501 -2.0016 0.9811
2.2076 3.7181 -2.0016 0.9811
2.0728 3.7949 -2.0016 0.9811
1.2137 4.1503 -2.0016 0.9811
1.0639 4.1912 -2.0016 0.9811
0.9128 4.2267 -2.0016 0.9811
0.1434 4.3217 -2.0016 0.9811
-0.1670 4.3209 -2.0016 0.9811
-0.6305 4.2779 -2.0016 0.9811
-0.7837 4.2525 -2.0016 0.9811
-1.3842 4.0966 -2.0016 0.9811
-1.6745 3.9867 -2.0016 0.9811
-2.0934 3.7836 -2.0016 0.9811
-2.2279 3.7060 -2.0016 0.9811
-2.4880 3.5366 -2.0016 0.9811
-2.7353 3.3490 -2.0016 0.9811
-2.9685 3.1441 -2.0016 0.9811
-3.0795 3.0355 -2.0016 0.9811
-3.1865 2.9231 -2.0016 0.9811
-3.2893 2.8068 -2.0016 0.9811
-3.3880 2.6869 -2.0016 0.9811
-3.4822 2.5636 -2.0016 0.9811
-3.5720 2.4369 -2.0016 0.9811
-3.7376 2.1744 -2.0016 0.9811
-3.8133 2.0388 -2.0016 0.9811
-1.3305 0.4284 -0.6470 0.9939
-1.3074 0.3195 -0.6230 0.9941
-1.3059 0.2698 -0.6173 0.9941
-1.3197 0.2236 -0.6196 0.9941
-1.3385 0.0806 -0.6207 0.9941
-1.3366 0.0324 -0.6189 0.9941
-1.3351 -0.0156 -0.6180 0.9941
-1.3383 -0.0637 -0.6202 0.9941
-1.3277 -0.4091 -0.6431 0.9939
-3.7647 -2.1271 -2.0016 0.9811
-3.3741 -2.2401 -1.8747 0.9823
-3.1744 -2.4530 -1.8570 0.9825
-3.0843 -2.5654 -1.8570 0.9825
-2.9902 -2.6745 -1.8570 0.9825
-2.8923 -2.7801 -1.8570 0.9825
-2.7906 -2.8821 -1.8570 0.9825
-2.6854 -2.9804 -1.8570 0.9825
-2.5767 -3.0749 -1.8570 0.9825
-1.9863 -3.4855 -1.8570 0.9825
-1.6001 -3.6789 -1.8570 0.9825
-1.3320 -3.7842 -1.8570 0.9825
-0.7767 -3.9358 -1.8570 0.9825
-0.2054 -4.0065 -1.8570 0.9825
0.9380 -3.9006 -1.8570 0.9825
1.0774 -3.8644 -1.8570 0.9825
1.7501 -3.6099 -1.8570 0.9825
2.1280 -3.4008 -1.8570 0.9825
2.2487 -3.3223 -1.8570 0.9825
2.3665 -3.2394 -1.8570 0.9825
2.4813 -3.1524 -1.8570 0.9825
2.5928 -3.0613 -1.8570 0.9825
3.0043 -2.6587 -1.8570 0.9825
3.4354 -2.6260 -2.0016 0.9811
3.5275 -2.5010 -2.0016 0.9811
3.8491 -1.9704 -2.0016 0.9811
4.1813 -1.1021 -2.0016 0.9811
4.2496 -0.7993 -2.0016 0.9811
4.2755 -0.6462 -2.0016 0.9811
4.3109 -0.3378 -2.0016 0.9811
4.3202 -0.1828 -2.0016 0.9811
4.3240 -0.0276 -2.0016 0.9811
4.3222 0.1276 -2.0016 0.9811
4.2835 0.5915 -2.0016 0.9811
4.2595 0.7449 -2.0016 0.9811
4.1950 1.0485 -2.0016 0.9811
4.1547 1.1984 -2.0016 0.9811
4.0580 1.4934 -2.0016 0.9811
4.0018 1.6381 -2.0016 0.9811
3.9404 1.7807 -2.0016 0.9811
3.8025 2.0588 -2.0016 0.9811
3.6450 2.3263 -2.0016 0.9811
3.5591 2.4557 -2.0016 0.9811
3.3738 2.7047 -2.0016 0.9811
3.1711 2.9398 -2.0016 0.9811
3.0635 3.0517 -2.0016 0.9811
2.9520 3.1597 -2.0016 0.9811
2.8367 3.2636 -2.0016 0.9811
2.7177 3.3633 -2.0016 0.9811
2.3404 3.6360 -2.0016 0.9811
2.2083 3.7177 -2.0016 0.9811
2.0735 3.7945 -2.0016 0.9811
-0.8838 3.9836 -2.0016 0.9820
-1.0262 3.9493 -2.0016 0.9820
-1.3069 3.8655 -2.0016 0.9820
-1.4448 3.8161 -2.0016 0.9820
-1.7149 3.7026 -2.0016 0.9820
-1.9761 3.5700 -2.0016 0.9820
-2.4667 3.2505 -2.0016 0.9820
-2.5818 3.1598 -2.0016 0.9820
-2.8018 2.9665 -2.0016 0.9820
-3.1975 2.5349 -2.0016 0.9820
-3.3712 2.2990 -2.0016 0.9820
-3.4515 2.1765 -2.0016 0.9820
-1.1503 0.4636 -0.6083 0.9945
-1.1555 0.4181 -0.6028 0.9945
-1.1584 0.3727 -0.5969 0.9946
-1.1589 0.3275 -0.5907 0.9946
-1.1612 0.2835 -0.5863 0.9947
-1.1726 0.2421 -0.5873 0.9947
-1.1933 0.1148 -0.5881 0.9947
-1.1960 -0.0142 -0.5867 0.9947
-1.1904 -0.1430 -0.5881 0.9947
-1.1842 -0.1856 -0.5880 0.9947
-1.1585 -0.3121 -0.5885 0.9947
-1.1588 -0.3573 -0.5948 0.9946
-1.1360 -0.5385 -0.6167 0.9944
-1.1232 -0.5827 -0.6207 0.9944
-3.4779 -2.1341 -2.0016 0.9820
-3.1210 -2.2384 -1.8840 0.9830
-2.8213 -2.5243 -1.8570 0.9833
-2.7289 -2.6239 -1.8570 0.9833
-2.6329 -2.7202 -1.8570 0.9833
-2.5336 -2.8129 -1.8570 0.9833
-2.4310 -2.9021 -1.8570 0.9833
-2.3252 -2.9875 -1.8570 0.9833
-2.2165 -3.0690 -1.8570 0.9833
-1.8737 -3.2895 -1.8570 0.9833
-1.6329 -3.4154 -1.8570 0.9833
-1.5093 -3.4719 -1.8570 0.9833
-1.3837 -3.5238 -1.8570 0.9833
-1.2563 -3.5712 -1.8570 0.9833
-0.9968 -3.6521 -1.8570 0.9833
-0.8651 -3.6855 -1.8570 0.9833
-0.7322 -3.7142 -1.8570 0.9833
-0.5985 -3.7381 -1.8570 0.9833
-0.3287 -3.7714 -1.8570 0.9833
-0.0573 -3.7853 -1.8570 0.9833
0.2144 -3.7796 -1.8570 0.9833
0.3500 -3.7695 -1.8570 0.9833
0.6195 -3.7347 -1.8570 0.9833
0.7532 -3.7100 -1.8570 0.9833
0.8858 -3.6806 -1.8570 0.9833
1.1476 -3.6076 -1.8570 0.9833
1.4035 -3.5159 -1.8570 0.9833
1.5288 -3.4633 -1.8570 0.9833
2.0087 -3.2088 -1.8570 0.9833
2.1226 -3.1347 -1.8570 0.9833
2.3420 -2.9743 -1.8570 0.9833
2.4473 -2.8883 -1.8570 0.9833
2.5494 -2.7986 -1.8570 0.9833
2.6482 -2.7053 -1.8570 0.9833
2.7436 -2.6085 -1.8570 0.9833
3.1513 -2.5922 -2.0016 0.9820
3.2423 -2.4774 -2.0016 0.9820
3.3291 -2.3594 -2.0016 0.9820
3.4898 -2.1145 -2.0016 0.9820
3.5635 -1.9879 -2.0016 0.9820
3.6325 -1.8587 -2.0016 0.9820
3.7565 -1.5933 -2.0016 0.9820
3.9459 -1.0393 -2.0016 0.9820
3.9807 -0.8969 -2.0016 0.9820
4.0348 -0.6090 -2.0016 0.9820
4.0681 -0.3180 -2.0016 0.9820
4.0768 -0.1718 -2.0016 0.9820
4.0804 -0.0253 -2.0016 0.9820
4.0787 0.1212 -2.0016 0.9820
4.0420 0.5589 -2.0016 0.9820
3.9084 1.1282 -1.9954 0.9820
3.8773 1.2716 -2.0016 0.9820
3.7760 1.5465 -2.0016 0.9820
3.7181 1.6811 -2.0016 0.9820
3.6553 1.8134 -2.0016 0.9820
3.5158 2.0710 -2.0016 0.9820
3.4392 2.1959 -2.0016 0.9820
3.3582 2.3179 -2.0016 0.9820
3.2728 2.4370 -2.0016 0.9820
3.1832 2.5529 -2.0016 0.9820
3.0895 2.6655 -2.0016 0.9820
2.7851 2.9822 -2.0016 0.9820
2.5640 3.1743 -2.0016 0.9820
2.4484 3.2643 -2.0016 0.9820
2.3296 3.3501 -2.0016 0.9820
2.2079 3.4315 -2.0016 0.9820
2.0833 3.5086 -2.0016 0.9820
1.8262 3.6490 -2.0016 0.9820
1.6940 3.7122 -2.0016 0.9820
1.5597 3.7706 -2.0016 0.9820
1.4233 3.8242 -2.0016 0.9820
1.2851 3.8728 -2.0016 0.9820
0.8614 3.9885 -2.0016 0.9820
0.7176 4.0169 -2.0016 0.9820
0.5730 4.0400 -2.0016 0.9820
0.2817 4.0707 -2.0016 0.9820
-0.0111 4.0804 -2.0016 0.9820
-0.1576 4.0774 -2.0016 0.9820
-1.0255 3.9495 -2.0016 0.9820
-1.1666 3.9101 -2.0016 0.9820
-1.3062 3.8657 -2.0016 0.9820
-1.5802 3.7621 -2.0016 0.9820
-1.7142 3.7029 -2.0016 0.9820
-1.8460 3.6390 -2.0016 0.9820
-2.1023 3.4972 -2.0016 0.9820
-2.3478 3.3373 -2.0016 0.9820
-2.4661 3.2509 -2.0016 0.9820
-3.0069 2.7583 -2.0016 0.9820
-3.1040 2.6486 -2.0016 0.9820
-3.2860 2.4191 -2.0016 0.9820
-3.5270 2.0519 -2.0016 0.9820
-1.1164 0.5969 -0.6210 0.9944
-1.1321 0.5540 -0.6183 0.9944
-1.1502 0.4638 -0.6084 0.9945
-1.1589 0.3277 -0.5907 0.9946
-1.1959 0.0720 -0.5877 0.9947
-1.1963 -0.0569 -0.5875 0.9947
-1.1945 -0.0999 -0.5880 0.9947
-1.1843 -0.1854 -0.5880 0.9947
-1.1655 -0.2693 -0.5868 0.9947
-1.1585 -0.3119 -0.5885 0.9947
-1.1568 -0.4024 -0.6008 0.9946
-1.1360 -0.5383 -0.6166 0.9944
-3.5526 -2.0073 -2.0016 0.9820
-3.3473 -2.2223 -1.9708 0.9823
-2.9105 -2.4208 -1.8570 0.9833
-2.7293 -2.6234 -1.8570 0.9833
-2.3258 -2.9870 -1.8570 0.9833
-2.2171 -3.0686 -1.8570 0.9833
-2.1055 -3.1462 -1.8570 0.9833
-1.9912 -3.2197 -1.8570 0.9833
-1.6335 -3.4151 -1.8570 0.9833
-1.3843 -3.5235 -1.8570 0.9833
-1.2569 -3.5710 -1.8570 0.9833
-0.9975 -3.6519 -1.8570 0.9833
-0.5991 -3.7380 -1.8570 0.9833
-0.4646 -3.7571 -1.8570 0.9833
-0.3294 -3.7714 -1.8570 0.9833
0.3493 -3.7696 -1.8570 0.9833
0.4843 -3.7546 -1.8570 0.9833
0.6188 -3.7348 -1.8570 0.9833
0.7525 -3.7102 -1.8570 0.9833
0.8852 -3.6808 -1.8570 0.9833
1.0167 -3.6466 -1.8570 0.9833
1.2757 -3.5643 -1.8570 0.9833
1.6515 -3.4065 -1.8570 0.9833
1.7727 -3.3450 -1.8570 0.9833
2.0081 -3.2092 -1.8570 0.9833
2.2332 -3.0569 -1.8570 0.9833
2.4467 -2.8888 -1.8570 0.9833
2.5489 -2.7991 -1.8570 0.9833
2.6477 -2.7058 -1.8570 0.9833
2.7431 -2.6090 -1.8570 0.9833
2.8804 -2.5491 -1.8867 0.9830
3.2419 -2.4780 -2.0016 0.9820
3.4113 -2.2390 -2.0016 0.9820
3.4894 -2.1152 -2.0016 0.9820
3.6322 -1.8594 -2.0016 0.9820
3.8609 -1.3204 -2.0016 0.9820
3.9457 -1.0400 -2.0016 0.9820
4.0101 -0.7542 -2.0016 0.9820
4.0539 -0.4646 -2.0016 0.9820
4.0680 -0.3188 -2.0016 0.9820
4.0768 -0.1725 -2.0016 0.9820
4.0717 0.2667 -2.0016 0.9820
4.0595 0.4127 -2.0016 0.9820
4.0421 0.5582 -2.0016 0.9820
4.0195 0.7029 -2.0016 0.9820
3.9345 0.9834 -1.9894 0.9821
3.8775 1.2709 -2.0016 0.9820
3.6557 1.8128 -2.0016 0.9820
3.5883 1.9428 -2.0016 0.9820
3.4396 2.1953 -2.0016 0.9820
3.3586 2.3173 -2.0016 0.9820
2.9924 2.7741 -2.0016 0.9820
2.8909 2.8798 -2.0016 0.9820
2.3302 3.3497 -2.0016 0.9820
2.0839 3.5082 -2.0016 0.9820
1.9566 3.5807 -2.0016 0.9820
-0.8357 3.7666 -2.0016 0.9828
-0.9703 3.7342 -2.0016 0.9828
-1.1037 3.6970 -2.0016 0.9828
-1.3661 3.6083 -2.0016 0.9828
-1.4948 3.5569 -2.0016 0.9828
-1.8685 3.3756 -2.0016 0.9828
-2.1058 3.2328 -2.0016 0.9828
-2.2205 3.1552 -2.0016 0.9828
-2.3324 3.0734 -2.0016 0.9828
-2.5468 2.8982 -2.0016 0.9828
-2.6492 2.8049 -2.0016 0.9828
-2.8436 2.6076 -2.0016 0.9828
-3.0234 2.3969 -2.0016 0.9828
-3.1075 2.2868 -2.0016 0.9828
-3.1876 2.1738 -2.0016 0.9828
-0.9750 0.6149 -0.5980 0.9948
-1.0165 0.5433 -0.5979 0.9948
-1.0340 0.5058 -0.5972 0.9948
-1.0454 0.4656 -0.5937 0.9949
-1.0738 0.2622 -0.5734 0.9950
-1.0844 0.2239 -0.5744 0.9950
-1.0992 0.1457 -0.5752 0.9950
-1.1036 0.1061 -0.5752 0.9950
-1.1061 0.0664 -0.5748 0.9950
-1.1065 0.0266 -0.5742 0.9950
-1.1063 -0.0131 -0.5739 0.9950
-1.1047 -0.0926 -0.5751 0.9950
-1.0952 -0.1716 -0.5751 0.9950
-1.0776 -0.2492 -0.5738 0.9950
-1.0604 -0.3691 -0.5825 0.9950
-1.0484 -0.4516 -0.5922 0.9949
-1.0227 -0.5306 -0.5977 0.9948
-1.0038 -0.5674 -0.5982 0.9948
-3.2139 -2.1346 -2.0016 0.9828
-3.0969 -2.2212 -1.9771 0.9830
-2.7516 -2.2895 -1.8570 0.9840
-2.4895 -2.5720 -1.8570 0.9840
-2.2986 -2.7440 -1.8570 0.9840
-2.0958 -2.9018 -1.8570 0.9840
-1.9903 -2.9752 -1.8570 0.9840
-1.8822 -3.0447 -1.8570 0.9840
-1.6589 -3.1719 -1.8570 0.9840
-1.5440 -3.2294 -1.8570 0.9840
-1.3083 -3.3319 -1.8570 0.9840
-1.1879 -3.3767 -1.8570 0.9840
-0.8180 -3.4848 -1.8570 0.9840
-0.5658 -3.5345 -1.8570 0.9840
-0.1826 -3.5749 -1.8570 0.9840
-0.0542 -3.5791 -1.8570 0.9840
0.2027 -3.5738 -1.8570 0.9840
0.3309 -3.5642 -1.8570 0.9840
0.4586 -3.5500 -1.8570 0.9840
0.5858 -3.5313 -1.8570 0.9840
0.7121 -3.5080 -1.8570 0.9840
0.9620 -3.4478 -1.8570 0.9840
1.2068 -3.3699 -1.8570 0.9840
1.3270 -3.3244 -1.8570 0.9840
1.5621 -3.2207 -1.8570 0.9840
1.7892 -3.1003 -1.8570 0.9840
1.8993 -3.0341 -1.8570 0.9840
2.0070 -2.9639 -1.8570 0.9840
2.1121 -2.8900 -1.8570 0.9840
2.3140 -2.7310 -1.8570 0.9840
2.4105 -2.6462 -1.8570 0.9840
2.5039 -2.5580 -1.8570 0.9840
2.5942 -2.4664 -1.8570 0.9840
2.8290 -2.5026 -1.9594 0.9831
2.9797 -2.4510 -2.0016 0.9828
3.0657 -2.3425 -2.0016 0.9828
3.1478 -2.2309 -2.0016 0.9828
3.2259 -2.1165 -2.0016 0.9828
3.2998 -1.9993 -2.0016 0.9828
3.4347 -1.7574 -2.0016 0.9828
3.5519 -1.5065 -2.0016 0.9828
3.6037 -1.3780 -2.0016 0.9828
3.7638 -0.8481 -2.0016 0.9828
3.7919 -0.7124 -2.0016 0.9828
3.8150 -0.5759 -2.0016 0.9828
3.8332 -0.4386 -2.0016 0.9828
3.8465 -0.3007 -2.0016 0.9828
3.8499 0.2529 -2.0016 0.9828
3.8384 0.3909 -2.0016 0.9828
3.8218 0.5285 -2.0016 0.9828
3.8004 0.6653 -2.0016 0.9828
3.6857 1.0639 -1.9901 0.9829
3.6206 1.3332 -2.0016 0.9828
3.5156 1.5895 -2.0016 0.9828
3.4562 1.7147 -2.0016 0.9828
3.3925 1.8376 -2.0016 0.9828
3.3243 1.9582 -2.0016 0.9828
3.1753 2.1917 -2.0016 0.9828
2.7329 2.7234 -2.0016 0.9828
2.2027 3.1676 -2.0016 0.9828
2.0876 3.2446 -2.0016 0.9828
1.7267 3.4503 -2.0016 0.9828
1.6018 3.5100 -2.0016 0.9828
1.4747 3.5652 -2.0016 0.9828
1.3458 3.6159 -2.0016 0.9828
1.2151 3.6619 -2.0016 0.9828
1.0829 3.7031 -2.0016 0.9828
0.9493 3.7396 -2.0016 0.9828
0.5418 3.8200 -2.0016 0.9828
-0.1490 3.8553 -2.0016 0.9828
-0.2873 3.8475 -2.0016 0.9828
-0.4252 3.8347 -2.0016 0.9828
-0.5626 3.8170 -2.0016 0.9828
-0.8350 3.7668 -2.0016 0.9828
-1.6208 3.5012 -2.0016 0.9828
-1.7455 3.4408 -2.0016 0.9828
-1.8679 3.3759 -2.0016 0.9828
-1.9878 3.3067 -2.0016 0.9828
-2.2200 3.1556 -2.0016 0.9828
-2.3318 3.0739 -2.0016 0.9828
-2.4406 2.9882 -2.0016 0.9828
-2.7477 2.7085 -2.0016 0.9828
-2.8432 2.6081 -2.0016 0.9828
-2.9349 2.5044 -2.0016 0.9828
-3.0229 2.3974 -2.0016 0.9828
-0.9967 0.5798 -0.5982 0.9948
-1.0164 0.5434 -0.5979 0.9948
-1.0340 0.5060 -0.5972 0.9948
-1.0533 0.4247 -0.5892 0.9949
-1.0589 0.3834 -0.5842 0.9949
-1.0624 0.3421 -0.5790 0.9950
-1.0638 0.3008 -0.5735 0.9950
-1.0737 0.2624 -0.5734 0.9950
-1.0843 0.2241 -0.5744 0.9950
-1.0928 0.1852 -0.5750 0.9950
-1.1036 0.1063 -0.5752 0.9950
-1.1060 0.0666 -0.5748 0.9950
-1.1063 -0.0129 -0.5739 0.9950
-1.1065 -0.0527 -0.5747 0.9950
-1.1009 -0.1320 -0.5752 0.9950
-1.0777 -0.2490 -0.5738 0.9950
-1.0555 -0.4102 -0.5875 0.9949
-1.0484 -0.4514 -0.5922 0.9949
-1.0039 -0.5672 -0.5982 0.9948
-0.9828 -0.6028 -0.5981 0.9948
-3.2143 -2.1340 -2.0016 0.9828
-2.8935 -2.2360 -1.8971 0.9837
-2.7520 -2.2890 -1.8570 0.9840
-2.1991 -2.8243 -1.8570 0.9840
-1.4277 -3.2825 -1.8570 0.9840
-1.3089 -3.3316 -1.8570 0.9840
-1.1885 -3.3765 -1.8570 0.9840
-1.0665 -3.4169 -1.8570 0.9840
-0.8186 -3.4847 -1.8570 0.9840
-0.4393 -3.5525 -1.8570 0.9840
0.4580 -3.5501 -1.8570 0.9840
0.5851 -3.5314 -1.8570 0.9840
0.7115 -3.5081 -1.8570 0.9840
0.8369 -3.4803 -1.8570 0.9840
0.9613 -3.4480 -1.8570 0.9840
1.0845 -3.4113 -1.8570 0.9840
1.7886 -3.1006 -1.8570 0.9840
1.8987 -3.0344 -1.8570 0.9840
2.1115 -2.8904 -1.8570 0.9840
2.2139 -2.8127 -1.8570 0.9840
2.5937 -2.4669 -1.8570 0.9840
2.8267 -2.5015 -1.9582 0.9831
2.9792 -2.4516 -2.0016 0.9828
3.1474 -2.2315 -2.0016 0.9828
3.2255 -2.1171 -2.0016 0.9828
3.2994 -2.0000 -2.0016 0.9828
3.4344 -1.7581 -2.0016 0.9828
3.4953 -1.6337 -2.0016 0.9828
3.6506 -1.2485 -2.0016 0.9828
3.6931 -1.1166 -2.0016 0.9828
3.7308 -0.9833 -2.0016 0.9828
3.8149 -0.5766 -2.0016 0.9828
3.8565 0.1138 -2.0016 0.9828
3.8384 0.3902 -2.0016 0.9828
3.6859 1.0632 -1.9901 0.9829
3.6435 1.1942 -1.9891 0.9829
3.5706 1.4616 -2.0016 0.9828
3.4566 1.7140 -2.0016 0.9828
3.3928 1.8370 -2.0016 0.9828
2.7334 2.7229 -2.0016 0.9828
2.4249 3.0010 -2.0016 0.9828
2.3156 3.0861 -2.0016 0.9828
2.2033 3.1672 -2.0016 0.9828
1.8501 3.3857 -2.0016 0.9828
-0.7915 3.5677 -2.0016 0.9835
