ply
format ascii 1.0
element vertex 1580
property float32 x
property float32 y
property float32 z
property float32 I
end_header
13.4088 -10.2045 -2.0016 0.9344
13.7663 -9.7168 -2.0016 0.9344
14.1061 -9.2166 -2.0016 0.9344
14.4277 -8.7045 -2.0016 0.9344
14.7307 -8.1813 -2.0016 0.9344
15.7496 -5.9897 -2.0016 0.9344
15.9544 -5.4208 -2.0016 0.9344
16.6657 -2.4862 -2.0016 0.9344
16.8011 -1.2847 -2.0016 0.9344
16.8364 -0.6810 -2.0016 0.9344
9.1913 10.7273 -2.0016 0.9445
8.8005 11.0502 -2.0016 0.9445
8.3983 11.3588 -2.0016 0.9445
7.9854 11.6529 -2.0016 0.9445
7.5621 11.9319 -2.0016 0.9445
5.3380 11.9107 -1.8494 0.9486
4.4701 12.2629 -1.8494 0.9486
3.5792 12.5519 -1.8494 0.9486
3.1266 12.6722 -1.8494 0.9486
2.6698 12.7762 -1.8494 0.9486
1.6870 12.4928 -1.7862 0.9503
1.2113 12.2783 -1.7481 0.9514
0.3155 11.8742 -1.6830 0.9531
-0.1090 11.6827 -1.6554 0.9539
-0.5202 11.4972 -1.6307 0.9546
-0.9278 11.4152 -1.6227 0.9548
-1.3474 8.7448 -1.2537 0.9649
-2.1823 11.4234 -1.6478 0.9541
-2.6110 11.4262 -1.6607 0.9538
-5.8998 11.4478 -1.8248 0.9493
-6.7960 11.1434 -1.8494 0.9486
-7.1914 10.8924 -1.8494 0.9486
-7.9540 10.3486 -1.8494 0.9486
-8.6757 9.7515 -1.8494 0.9486
-9.0200 9.4340 -1.8494 0.9486
-9.3527 9.1043 -1.8494 0.9486
-9.6733 8.7628 -1.8494 0.9486
-11.9940 7.4632 -2.0016 0.9445
-12.2541 7.0280 -2.0016 0.9445
-12.9383 5.6705 -2.0016 0.9445
-13.4727 4.2474 -2.0016 0.9445
-13.6165 3.7613 -2.0016 0.9445
-13.7427 3.2703 -2.0016 0.9445
-13.8511 2.7751 -2.0016 0.9445
-14.0145 1.7746 -2.0016 0.9445
-14.0691 1.2706 -2.0016 0.9445
-14.1057 0.7650 -2.0016 0.9445
-14.1240 0.2584 -2.0016 0.9445
-14.0700 -1.2608 -2.0016 0.9445
-13.8531 -2.7654 -2.0016 0.9445
-12.5023 -3.9319 -1.8570 0.9484
-12.5029 -6.5751 -2.0016 0.9445
-11.9992 -7.4548 -2.0016 0.9445
-10.4760 -9.4767 -2.0016 0.9445
-10.1293 -9.8465 -2.0016 0.9445
-9.3970 -10.5475 -2.0016 0.9445
-8.2092 -11.4962 -2.0016 0.9445
-7.7915 -11.7834 -2.0016 0.9445
-6.9264 -12.3118 -2.0016 0.9445
-6.0256 -12.7768 -2.0016 0.9445
-5.5633 -12.9848 -2.0016 0.9445
-4.1358 -13.5074 -2.0016 0.9445
-3.6485 -13.6471 -2.0016 0.9445
-3.1565 -13.7692 -2.0016 0.9445
-2.6604 -13.8736 -2.0016 0.9445
-1.1542 -14.0792 -2.0016 0.9445
0.3654 -14.1217 -2.0016 0.9445
0.8719 -14.0995 -2.0016 0.9445
1.8808 -14.0006 -2.0016 0.9445
2.8800 -13.8297 -2.0016 0.9445
3.3743 -13.7175 -2.0016 0.9445
3.8643 -13.5876 -2.0016 0.9445
4.3494 -13.4402 -2.0016 0.9445
4.8288 -13.2755 -2.0016 0.9445
5.3020 -13.0937 -2.0016 0.9445
5.7684 -12.8950 -2.0016 0.9445
6.2274 -12.6797 -2.0016 0.9445
2.2481 -4.1903 -0.6738 0.9810
7.5538 -11.9374 -2.0016 0.9445
8.3904 -11.3647 -2.0016 0.9445
8.7928 -11.0563 -2.0016 0.9445
9.5631 -10.3973 -2.0016 0.9445
10.2841 -9.6847 -2.0016 0.9445
10.6249 -9.3095 -2.0016 0.9445
11.5638 -8.1138 -2.0016 0.9445
12.1159 -7.2637 -2.0016 0.9445
12.6056 -6.3761 -2.0016 0.9445
12.8263 -5.9197 -2.0016 0.9445
13.0304 -5.4557 -2.0016 0.9445
13.2177 -4.9846 -2.0016 0.9445
13.3881 -4.5072 -2.0016 0.9445
13.5412 -4.0239 -2.0016 0.9445
13.6768 -3.5354 -2.0016 0.9445
13.8952 -2.5455 -2.0016 0.9445
13.9776 -2.0453 -2.0016 0.9445
14.0882 -1.0376 -2.0016 0.9445
14.1264 -0.0246 -2.0016 0.9445
13.9040 2.4970 -2.0016 0.9445
13.6891 3.4877 -2.0016 0.9445
13.5551 3.9766 -2.0016 0.9445
13.2351 4.9385 -2.0016 0.9445
13.0493 5.4102 -2.0016 0.9445
12.8468 5.8749 -2.0016 0.9445
12.6278 6.3321 -2.0016 0.9445
12.3924 6.7811 -2.0016 0.9445
11.8742 7.6523 -2.0016 0.9445
11.2949 8.4842 -2.0016 0.9445
10.6573 9.2723 -2.0016 0.9445
9.9649 10.0127 -2.0016 0.9445
9.5993 10.3638 -2.0016 0.9445
9.2212 10.7016 -2.0016 0.9445
8.8313 11.0256 -2.0016 0.9445
8.0179 11.6305 -2.0016 0.9445
7.5954 11.9107 -2.0016 0.9445
7.1401 12.1363 -1.9951 0.9447
5.3713 11.8958 -1.8494 0.9486
4.9410 12.0808 -1.8494 0.9486
4.0619 12.4041 -1.8494 0.9486
3.1619 12.6634 -1.8494 0.9486
2.7055 12.7687 -1.8494 0.9486
0.7898 12.0881 -1.7164 0.9522
-0.0764 11.6974 -1.6574 0.9538
-0.8957 11.4150 -1.6224 0.9548
-3.4567 11.4318 -1.6922 0.9529
-4.8546 11.4409 -1.7610 0.9510
-7.9251 10.3708 -1.8494 0.9486
-8.2921 10.0798 -1.8494 0.9486
-8.6484 9.7757 -1.8494 0.9486
-8.9936 9.4591 -1.8494 0.9486
-9.3272 9.1304 -1.8494 0.9486
-9.9580 8.4380 -1.8494 0.9486
-11.2680 8.2360 -1.9776 0.9452
-11.6836 7.9127 -1.9994 0.9446
-11.9731 7.4966 -2.0016 0.9445
-12.2344 7.0622 -2.0016 0.9445
-12.4799 6.6187 -2.0016 0.9445
-12.7094 6.1666 -2.0016 0.9445
-13.2984 4.7652 -2.0016 0.9445
-13.4608 4.2850 -2.0016 0.9445
-13.6059 3.7993 -2.0016 0.9445
-13.9354 2.3152 -2.0016 0.9445
-14.0095 1.8138 -2.0016 0.9445
-14.1233 0.2979 -2.0016 0.9445
-14.1249 -0.2091 -2.0016 0.9445
-14.0735 -1.2215 -2.0016 0.9445
-13.9497 -2.2276 -2.0016 0.9445
-12.3654 -4.3434 -1.8570 0.9484
-12.0220 -5.2190 -1.8570 0.9484
-11.8270 -5.6470 -1.8570 0.9484
-12.5212 -6.5401 -2.0016 0.9445
-12.2785 -6.9852 -2.0016 0.9445
-11.1529 -8.6699 -2.0016 0.9445
-10.8347 -9.0645 -2.0016 0.9445
-10.1567 -9.8182 -2.0016 0.9445
-9.7979 -10.1763 -2.0016 0.9445
-9.4265 -10.5212 -2.0016 0.9445
-8.2413 -11.4733 -2.0016 0.9445
-7.8244 -11.7616 -2.0016 0.9445
-6.5152 -12.5343 -2.0016 0.9445
-6.0613 -12.7599 -2.0016 0.9445
-5.1306 -13.1618 -2.0016 0.9445
-3.1949 -13.7604 -2.0016 0.9445
-2.1999 -13.9541 -2.0016 0.9445
-1.1935 -14.0759 -2.0016 0.9445
-0.1810 -14.1252 -2.0016 0.9445
2.8413 -13.8377 -2.0016 0.9445
3.8264 -13.5983 -2.0016 0.9445
4.7917 -13.2889 -2.0016 0.9445
5.2654 -13.1084 -2.0016 0.9445
6.1919 -12.6971 -2.0016 0.9445
2.2362 -4.1963 -0.6737 0.9810
7.0865 -12.2203 -2.0016 0.9445
8.7619 -11.0808 -2.0016 0.9445
9.1538 -10.7593 -2.0016 0.9445
9.5340 -10.4239 -2.0016 0.9445
10.2570 -9.7134 -2.0016 0.9445
10.5989 -9.3391 -2.0016 0.9445
10.9271 -8.9528 -2.0016 0.9445
11.2413 -8.5550 -2.0016 0.9445
11.8259 -7.7268 -2.0016 0.9445
12.0955 -7.2975 -2.0016 0.9445
12.3496 -6.8588 -2.0016 0.9445
12.5877 -6.4113 -2.0016 0.9445
13.0151 -5.4920 -2.0016 0.9445
13.6669 -3.5736 -2.0016 0.9445
13.7863 -3.0810 -2.0016 0.9445
13.9718 -2.0843 -2.0016 0.9445
14.0853 -1.0770 -2.0016 0.9445
14.1149 -0.5709 -2.0016 0.9445
9.6941 7.3242 -2.0016 0.9519
9.4251 7.6673 -2.0016 0.9519
9.1439 8.0006 -2.0016 0.9519
8.8509 8.3235 -2.0016 0.9519
8.5466 8.6357 -2.0016 0.9519
8.2312 8.9368 -2.0016 0.9519
7.9053 9.2264 -2.0016 0.9519
7.5691 9.5041 -2.0016 0.9519
7.2233 9.7695 -2.0016 0.9519
6.8681 10.0224 -2.0016 0.9519
6.5041 10.2624 -2.0016 0.9519
4.9558 10.0729 -1.8494 0.9555
4.2206 10.4023 -1.8494 0.9555
3.8447 10.5471 -1.8494 0.9555
1.5023 11.1250 -1.8494 0.9555
1.1022 11.1718 -1.8494 0.9555
0.7006 11.2041 -1.8494 0.9555
0.2982 11.2220 -1.8494 0.9555
-0.1047 11.2255 -1.8494 0.9555
-1.0529 8.9588 -1.4860 0.9641
-1.3421 8.7107 -1.4519 0.9649
-3.2792 10.7364 -1.8494 0.9555
-3.6623 10.6118 -1.8494 0.9555
-4.4138 10.3219 -1.8494 0.9555
-4.7814 10.1568 -1.8494 0.9555
-5.8451 9.5842 -1.8494 0.9555
-6.1852 9.3683 -1.8494 0.9555
-6.5174 9.1404 -1.8494 0.9555
-6.8411 8.9007 -1.8494 0.9555
-7.1561 8.6495 -1.8494 0.9555
-7.4618 8.3871 -1.8494 0.9555
-7.8917 8.2539 -1.8812 0.9548
-8.9779 8.1329 -1.9956 0.9521
-9.2881 7.8259 -2.0008 0.9520
-9.5664 7.4903 -2.0016 0.9519
-9.8290 7.1422 -2.0016 0.9519
-10.0789 6.7849 -2.0016 0.9519
-10.5395 6.0447 -2.0016 0.9519
-10.7496 5.6626 -2.0016 0.9519
-11.1280 4.8771 -2.0016 0.9519
-11.2959 4.4747 -2.0016 0.9519
-11.4491 4.0665 -2.0016 0.9519
-11.5877 3.6531 -2.0016 0.9519
-11.8198 2.8127 -2.0016 0.9519
-11.9131 2.3868 -2.0016 0.9519
-11.9911 1.9578 -2.0016 0.9519
-12.0536 1.5263 -2.0016 0.9519
-12.1478 0.2222 -2.0016 0.9519
-12.1480 -0.2138 -2.0016 0.9519
-12.1325 -0.6495 -2.0016 0.9519
-12.0547 -1.5179 -2.0016 0.9519
-11.9925 -1.9495 -2.0016 0.9519
-11.2133 -2.2385 -1.8837 0.9547
-10.8674 -2.9938 -1.8570 0.9553
-10.6248 -3.7654 -1.8570 0.9553
-10.4828 -4.1442 -1.8570 0.9553
-10.1586 -4.8853 -1.8570 0.9553
-9.9768 -5.2466 -1.8570 0.9553
-9.7821 -5.6012 -1.8570 0.9553
-8.4025 -8.7759 -2.0016 0.9519
-7.7515 -9.3559 -2.0016 0.9519
-6.7013 -10.1347 -2.0016 0.9519
-6.3333 -10.3686 -2.0016 0.9519
-5.5735 -10.7961 -2.0016 0.9519
-3.9717 -11.4824 -2.0016 0.9519
-2.7148 -11.8427 -2.0016 0.9519
-2.2881 -11.9325 -2.0016 0.9519
-1.4265 -12.0658 -2.0016 0.9519
-0.9927 -12.1093 -2.0016 0.9519
-0.1217 -12.1493 -2.0016 0.9519
1.6176 -12.0417 -2.0016 0.9519
2.0486 -11.9759 -2.0016 0.9519
2.9022 -11.7982 -2.0016 0.9519
3.7408 -11.5597 -2.0016 0.9519
4.1532 -11.4180 -2.0016 0.9519
4.9613 -11.0908 -2.0016 0.9519
5.3560 -10.9056 -2.0016 0.9519
2.2480 -4.1903 -0.7834 0.9809
6.4969 -10.2669 -2.0016 0.9519
7.5625 -9.5094 -2.0016 0.9519
8.2250 -8.9425 -2.0016 0.9519
9.1383 -8.0069 -2.0016 0.9519
9.9458 -6.9786 -2.0016 0.9519
10.4207 -6.2474 -2.0016 0.9519
11.0316 -5.0914 -2.0016 0.9519
11.2072 -4.6923 -2.0016 0.9519
11.7632 -3.0408 -2.0016 0.9519
11.8647 -2.6167 -2.0016 0.9519
11.9510 -2.1893 -2.0016 0.9519
12.0219 -1.7591 -2.0016 0.9519
12.1171 -0.8925 -2.0016 0.9519
12.1413 -0.4571 -2.0016 0.9519
12.1201 0.8502 -2.0016 0.9519
11.8738 2.5753 -2.0016 0.9519
11.6585 3.4202 -2.0016 0.9519
11.5283 3.8363 -2.0016 0.9519
11.3832 4.2475 -2.0016 0.9519
11.2235 4.6532 -2.0016 0.9519
11.0493 5.0529 -2.0016 0.9519
10.8609 5.4461 -2.0016 0.9519
10.4424 6.2110 -2.0016 0.9519
9.7145 7.2971 -2.0016 0.9519
9.1662 7.9750 -2.0016 0.9519
8.8742 8.2987 -2.0016 0.9519
8.5707 8.6118 -2.0016 0.9519
8.2562 8.9138 -2.0016 0.9519
7.9310 9.2043 -2.0016 0.9519
7.5957 9.4829 -2.0016 0.9519
7.2505 9.7493 -2.0016 0.9519
6.8961 10.0032 -2.0016 0.9519
6.5327 10.2442 -2.0016 0.9519
5.5603 10.2779 -1.9251 0.9537
3.8742 10.5363 -1.8494 0.9555
3.4936 10.6685 -1.8494 0.9555
2.7195 10.8916 -1.8494 0.9555
1.1334 11.1686 -1.8494 0.9555
0.7319 11.2021 -1.8494 0.9555
0.3295 11.2211 -1.8494 0.9555
-0.0733 11.2258 -1.8494 0.9555
-0.4760 11.2159 -1.8494 0.9555
-0.8782 11.1916 -1.8494 0.9555
-1.2791 11.1529 -1.8494 0.9555
-1.3172 8.7104 -1.4513 0.9649
-2.4702 10.9508 -1.8494 0.9555
-4.7530 10.1702 -1.8494 0.9555
-5.4701 9.8031 -1.8494 0.9555
-6.8162 8.9197 -1.8494 0.9555
-7.1319 8.6694 -1.8494 0.9555
-8.4205 8.2428 -1.9412 0.9534
-8.9534 8.1563 -1.9952 0.9521
-9.2643 7.8502 -2.0004 0.9520
-9.5454 7.5170 -2.0016 0.9519
-10.2979 6.4477 -2.0016 0.9519
-11.2833 4.5062 -2.0016 0.9519
-11.4377 4.0985 -2.0016 0.9519
-11.7022 3.2677 -2.0016 0.9519
-11.8119 2.8457 -2.0016 0.9519
-11.9856 1.9913 -2.0016 0.9519
-12.0493 1.5600 -2.0016 0.9519
-12.0975 1.1266 -2.0016 0.9519
-12.1343 -0.6156 -2.0016 0.9519
-12.1044 -1.0506 -2.0016 0.9519
-12.0589 -1.4842 -2.0016 0.9519
-11.9979 -1.9160 -2.0016 0.9519
-11.3570 -2.2342 -1.9068 0.9542
-10.8757 -2.9634 -1.8570 0.9553
-10.7624 -3.3517 -1.8570 0.9553
-10.6352 -3.7357 -1.8570 0.9553
-10.4943 -4.1149 -1.8570 0.9553
-10.1722 -4.8569 -1.8570 0.9553
-9.9914 -5.2187 -1.8570 0.9553
-10.3382 -6.3829 -2.0016 0.9519
-10.1025 -6.7497 -2.0016 0.9519
-9.8538 -7.1079 -2.0016 0.9519
-9.5924 -7.4568 -2.0016 0.9519
-9.0330 -8.1255 -2.0016 0.9519
-8.4270 -8.7524 -2.0016 0.9519
-8.1076 -9.0491 -2.0016 0.9519
-7.7776 -9.3342 -2.0016 0.9519
-7.4377 -9.6073 -2.0016 0.9519
-7.0882 -9.8680 -2.0016 0.9519
-6.7296 -10.1159 -2.0016 0.9519
-6.3623 -10.3509 -2.0016 0.9519
-5.6036 -10.7805 -2.0016 0.9519
-4.8161 -11.1546 -2.0016 0.9519
-3.5896 -11.6075 -2.0016 0.9519
-2.7479 -11.8351 -2.0016 0.9519
-2.3215 -11.9260 -2.0016 0.9519
-1.4602 -12.0618 -2.0016 0.9519
-1.0265 -12.1064 -2.0016 0.9519
-0.1557 -12.1489 -2.0016 0.9519
0.2803 -12.1466 -2.0016 0.9519
0.7160 -12.1288 -2.0016 0.9519
1.5840 -12.0462 -2.0016 0.9519
2.0151 -11.9816 -2.0016 0.9519
2.8692 -11.8062 -2.0016 0.9519
4.5287 -11.2743 -2.0016 0.9519
4.9303 -11.1046 -2.0016 0.9519
6.0950 -10.5105 -2.0016 0.9519
6.8331 -10.0463 -2.0016 0.9519
7.1891 -9.7947 -2.0016 0.9519
7.5359 -9.5304 -2.0016 0.9519
7.8730 -9.2539 -2.0016 0.9519
8.8218 -8.3543 -2.0016 0.9519
9.1159 -8.0324 -2.0016 0.9519
9.3983 -7.7001 -2.0016 0.9519
9.6685 -7.3580 -2.0016 0.9519
9.9263 -7.0063 -2.0016 0.9519
10.6217 -5.8991 -2.0016 0.9519
11.3563 -4.3189 -2.0016 0.9519
11.6368 -3.4934 -2.0016 0.9519
11.7547 -3.0736 -2.0016 0.9519
11.9448 -2.2227 -2.0016 0.9519
12.0169 -1.7927 -2.0016 0.9519
12.0735 -1.3604 -2.0016 0.9519
12.1145 -0.9263 -2.0016 0.9519
12.1400 -0.4910 -2.0016 0.9519
8.4964 6.4193 -2.0016 0.9576
8.0142 7.0121 -2.0016 0.9576
7.7575 7.2952 -2.0016 0.9576
7.4907 7.5688 -2.0016 0.9576
6.9286 8.0865 -2.0016 0.9576
5.0368 9.3727 -2.0000 0.9576
4.1396 9.2365 -1.9025 0.9596
3.3697 9.2441 -1.8494 0.9607
1.6657 9.6970 -1.8494 0.9607
0.9660 9.7915 -1.8494 0.9607
0.6141 9.8199 -1.8494 0.9607
0.2613 9.8356 -1.8494 0.9607
-0.4447 9.8290 -1.8494 0.9607
-1.0490 8.9259 -1.6893 0.9641
-1.3384 8.6867 -1.6520 0.9649
-2.5346 9.5070 -1.8494 0.9607
-2.8740 9.4100 -1.8494 0.9607
-3.5415 9.1796 -1.8494 0.9607
-4.5074 8.7459 -1.8494 0.9607
-5.1230 8.4002 -1.8494 0.9607
-5.4520 8.2578 -1.8599 0.9605
-6.7655 8.1774 -1.9949 0.9577
-7.0685 7.9450 -1.9988 0.9576
-7.8921 7.1493 -2.0016 0.9576
-8.6146 6.2598 -2.0016 0.9576
-9.0414 5.6259 -2.0016 0.9576
-9.4216 4.9630 -2.0016 0.9576
-9.5936 4.6218 -2.0016 0.9576
-9.9003 3.9219 -2.0016 0.9576
-10.0347 3.5641 -2.0016 0.9576
-10.1561 3.2018 -2.0016 0.9576
-10.3595 2.4652 -2.0016 0.9576
-10.4413 2.0919 -2.0016 0.9576
-10.6057 0.9578 -2.0016 0.9576
-10.6472 -0.1874 -2.0016 0.9576
-10.6336 -0.5693 -2.0016 0.9576
-9.6128 -2.2805 -1.8570 0.9606
-9.5248 -2.6239 -1.8570 0.9606
-9.4245 -2.9640 -1.8570 0.9606
-9.1877 -3.6322 -1.8570 0.9606
-8.7442 -4.5984 -1.8570 0.9606
-8.3891 -6.5590 -2.0016 0.9576
-8.1483 -6.8558 -2.0016 0.9576
-7.6357 -7.4225 -2.0016 0.9576
-7.3644 -7.6917 -2.0016 0.9576
-7.0837 -7.9510 -2.0016 0.9576
-6.7939 -8.2000 -2.0016 0.9576
-6.4953 -8.4385 -2.0016 0.9576
-6.1883 -8.6661 -2.0016 0.9576
-5.5509 -9.0876 -2.0016 0.9576
-5.2213 -9.2809 -2.0016 0.9576
-4.8849 -9.4623 -2.0016 0.9576
-4.1937 -9.7883 -2.0016 0.9576
-3.8398 -9.9324 -2.0016 0.9576
-3.4810 -10.0638 -2.0016 0.9576
-3.1176 -10.1822 -2.0016 0.9576
-2.7503 -10.2875 -2.0016 0.9576
-1.2503 -10.5752 -2.0016 0.9576
-0.8700 -10.6132 -2.0016 0.9576
-0.1067 -10.6483 -2.0016 0.9576
0.2755 -10.6453 -2.0016 0.9576
1.7955 -10.4964 -2.0016 0.9576
2.1710 -10.4252 -2.0016 0.9576
3.9968 -9.8703 -2.0016 0.9576
4.6943 -9.5583 -2.0016 0.9576
2.2480 -4.1902 -0.8938 0.9808
5.3677 -9.1970 -2.0016 0.9576
5.6943 -8.9985 -2.0016 0.9576
6.0134 -8.7884 -2.0016 0.9576
6.9230 -8.0913 -2.0016 0.9576
7.7524 -7.3006 -2.0016 0.9576
8.0093 -7.0177 -2.0016 0.9576
8.7170 -6.1164 -2.0016 0.9576
9.1332 -5.4755 -2.0016 0.9576
9.3238 -5.1443 -2.0016 0.9576
9.5024 -4.8064 -2.0016 0.9576
9.9639 -3.7575 -2.0016 0.9576
10.3989 -2.2935 -2.0016 0.9576
10.4745 -1.9189 -2.0016 0.9576
10.5851 -1.1628 -2.0016 0.9576
10.6201 -0.7822 -2.0016 0.9576
10.6413 -0.4006 -2.0016 0.9576
10.6488 -0.0186 -2.0016 0.9576
10.6426 0.3635 -2.0016 0.9576
10.5891 1.1258 -2.0016 0.9576
10.4811 1.8823 -2.0016 0.9576
10.4068 2.2572 -2.0016 0.9576
10.1040 3.3624 -2.0016 0.9576
9.9769 3.7227 -2.0016 0.9576
9.8369 4.0783 -2.0016 0.9576
9.5191 4.7733 -2.0016 0.9576
9.1523 5.4436 -2.0016 0.9576
8.9511 5.7685 -2.0016 0.9576
8.7383 6.0860 -2.0016 0.9576
8.5143 6.3956 -2.0016 0.9576
7.7778 7.2735 -2.0016 0.9576
7.5118 7.5478 -2.0016 0.9576
7.2362 7.8125 -2.0016 0.9576
6.9512 8.0671 -2.0016 0.9576
6.6573 8.3113 -2.0016 0.9576
6.3548 8.5448 -2.0016 0.9576
5.7256 8.9786 -2.0016 0.9576
4.7117 9.5097 -1.9948 0.9577
4.1811 9.2598 -1.9097 0.9595
3.7247 9.1068 -1.8494 0.9607
3.3955 9.2346 -1.8494 0.9607
2.7245 9.4543 -1.8494 0.9607
0.9934 9.7888 -1.8494 0.9607
0.6415 9.8181 -1.8494 0.9607
0.2888 9.8348 -1.8494 0.9607
-0.0642 9.8389 -1.8494 0.9607
-1.0289 8.9708 -1.6972 0.9639
-1.3145 8.6926 -1.6524 0.9649
-2.8477 9.4179 -1.8494 0.9607
-3.1838 9.3097 -1.8494 0.9607
-3.5158 9.1895 -1.8494 0.9607
-3.8432 9.0574 -1.8494 0.9607
-4.1658 8.9137 -1.8494 0.9607
-5.4195 8.2587 -1.8567 0.9606
-6.2977 8.2412 -1.9495 0.9587
-6.7416 8.1950 -1.9946 0.9577
-7.0452 7.9635 -1.9985 0.9576
-7.3376 7.7174 -2.0016 0.9576
-7.6097 7.4491 -2.0016 0.9576
-8.1243 6.8842 -2.0016 0.9576
-8.5971 6.2838 -2.0016 0.9576
-9.0256 5.6511 -2.0016 0.9576
-9.2226 5.3237 -2.0016 0.9576
-9.5806 4.6485 -2.0016 0.9576
-9.7412 4.3018 -2.0016 0.9576
-9.8893 3.9495 -2.0016 0.9576
-10.3526 2.4941 -2.0016 0.9576
-10.4354 2.1211 -2.0016 0.9576
-10.5048 1.7453 -2.0016 0.9576
-10.5607 1.3673 -2.0016 0.9576
-10.6029 0.9874 -2.0016 0.9576
-10.6315 0.6064 -2.0016 0.9576
-10.6465 0.2245 -2.0016 0.9576
-10.5156 -1.6793 -2.0016 0.9576
-9.6192 -2.2536 -1.8570 0.9606
-9.4328 -2.9376 -1.8570 0.9606
-9.3213 -3.2742 -1.8570 0.9606
-9.1978 -3.6065 -1.8570 0.9606
-8.5873 -4.8852 -1.8570 0.9606
-8.4065 -5.1902 -1.8570 0.9606
-8.2148 -5.4885 -1.8570 0.9606
-8.6364 -6.2297 -2.0016 0.9576
-8.4074 -6.5356 -2.0016 0.9576
-8.1674 -6.8330 -2.0016 0.9576
-7.3859 -7.6711 -2.0016 0.9576
-6.5188 -8.4204 -2.0016 0.9576
-5.8982 -8.8661 -2.0016 0.9576
-4.2211 -9.7765 -2.0016 0.9576
-3.8676 -9.9217 -2.0016 0.9576
-3.1461 -10.1735 -2.0016 0.9576
-2.7790 -10.2798 -2.0016 0.9576
-2.4084 -10.3729 -2.0016 0.9576
-1.6583 -10.5189 -2.0016 0.9576
-0.8997 -10.6107 -2.0016 0.9576
-0.5184 -10.6362 -2.0016 0.9576
-0.1364 -10.6479 -2.0016 0.9576
0.6275 -10.6303 -2.0016 0.9576
1.0085 -10.6010 -2.0016 0.9576
1.3883 -10.5579 -2.0016 0.9576
1.7662 -10.5013 -2.0016 0.9576
2.1418 -10.4312 -2.0016 0.9576
2.5147 -10.3476 -2.0016 0.9576
2.8844 -10.2507 -2.0016 0.9576
3.9692 -9.8814 -2.0016 0.9576
4.6676 -9.5714 -2.0016 0.9576
5.3420 -9.2120 -2.0016 0.9576
5.6691 -9.0144 -2.0016 0.9576
5.9889 -8.8051 -2.0016 0.9576
6.3009 -8.5846 -2.0016 0.9576
6.6049 -8.3530 -2.0016 0.9576
6.9004 -8.1106 -2.0016 0.9576
7.1869 -7.8578 -2.0016 0.9576
7.4642 -7.5949 -2.0016 0.9576
7.7320 -7.3222 -2.0016 0.9576
8.2371 -6.7488 -2.0016 0.9576
8.4740 -6.4489 -2.0016 0.9576
8.6999 -6.1407 -2.0016 0.9576
8.9146 -5.8246 -2.0016 0.9576
9.4889 -4.8330 -2.0016 0.9576
9.6562 -4.4894 -2.0016 0.9576
9.9533 -3.7853 -2.0016 0.9576
10.1992 -3.0618 -2.0016 0.9576
10.3024 -2.6939 -2.0016 0.9576
10.3925 -2.3225 -2.0016 0.9576
10.5323 -1.5712 -2.0016 0.9576
10.6178 -0.8119 -2.0016 0.9576
7.7551 5.4334 -2.0016 0.9620
7.5551 5.7081 -2.0016 0.9620
6.6608 6.7302 -2.0016 0.9620
6.4150 6.9649 -2.0016 0.9620
6.1610 7.1906 -2.0016 0.9620
5.8990 7.4070 -2.0016 0.9620
5.6295 7.6139 -2.0016 0.9620
5.0689 7.9980 -2.0016 0.9620
4.1801 8.4964 -2.0016 0.9620
3.1960 8.7675 -1.9726 0.9626
2.4332 8.5329 -1.8756 0.9644
1.7896 8.5640 -1.8494 0.9649
1.1708 8.6703 -1.8494 0.9649
0.5460 8.7319 -1.8494 0.9649
0.2324 8.7459 -1.8494 0.9649
-0.0816 8.7486 -1.8494 0.9649
-0.3954 8.7400 -1.8494 0.9649
-1.0212 8.6892 -1.8494 0.9649
-1.3323 8.6470 -1.8494 0.9649
-1.6417 8.5936 -1.8494 0.9649
-2.2537 8.4537 -1.8494 0.9649
-2.5556 8.3674 -1.8494 0.9649
-2.8542 8.2703 -1.8494 0.9649
-3.1851 8.2559 -1.8705 0.9645
-3.5283 8.2510 -1.8969 0.9640
-3.8816 8.2455 -1.9264 0.9634
-4.2463 8.2394 -1.9593 0.9628
-4.9185 8.0649 -1.9968 0.9621
-5.2123 7.8947 -1.9997 0.9621
-5.7704 7.5076 -2.0016 0.9620
-6.0361 7.2958 -2.0016 0.9620
-6.2940 7.0745 -2.0016 0.9620
-7.2413 6.1013 -2.0016 0.9620
-7.6602 5.5663 -2.0016 0.9620
-8.0397 5.0026 -2.0016 0.9620
-8.2140 4.7109 -2.0016 0.9620
-8.3777 4.4132 -2.0016 0.9620
-8.5307 4.1097 -2.0016 0.9620
-8.9229 3.1692 -2.0016 0.9620
-9.0309 2.8471 -2.0016 0.9620
-9.2118 2.1921 -2.0016 0.9620
-9.2845 1.8601 -2.0016 0.9620
-9.4312 -0.8451 -2.0016 0.9620
-9.3463 -1.5193 -2.0016 0.9620
-9.2133 -2.1857 -2.0016 0.9620
-8.1698 -3.2298 -1.8570 0.9647
-8.0486 -3.5208 -1.8570 0.9647
-7.7754 -4.0890 -1.8570 0.9647
-7.6237 -4.3653 -1.8570 0.9647
-7.2910 -4.9008 -1.8570 0.9647
-7.1105 -5.1593 -1.8570 0.9647
-6.9208 -5.4111 -1.8570 0.9647
-6.7222 -5.6559 -1.8570 0.9647
-7.0222 -6.3523 -2.0016 0.9620
-6.7897 -6.6002 -2.0016 0.9620
-6.2989 -7.0701 -2.0016 0.9620
-6.0412 -7.2915 -2.0016 0.9620
-5.7757 -7.5036 -2.0016 0.9620
-5.5027 -7.7060 -2.0016 0.9620
-4.9359 -8.0808 -2.0016 0.9620
-4.6428 -8.2527 -2.0016 0.9620
-4.0390 -8.5644 -2.0016 0.9620
-3.7291 -8.7038 -2.0016 0.9620
-3.4144 -8.8320 -2.0016 0.9620
-3.0953 -8.9488 -2.0016 0.9620
-2.7722 -9.0541 -2.0016 0.9620
-2.1158 -9.2296 -2.0016 0.9620
-1.1118 -9.4035 -2.0016 0.9620
-0.7736 -9.4374 -2.0016 0.9620
-0.4345 -9.4590 -2.0016 0.9620
-0.0949 -9.4685 -2.0016 0.9620
0.5844 -9.4510 -2.0016 0.9620
1.2607 -9.3847 -2.0016 0.9620
2.9154 -9.0090 -2.0016 0.9620
3.5540 -8.7768 -2.0016 0.9620
4.1742 -8.4993 -2.0016 0.9620
4.7730 -8.1781 -2.0016 0.9620
5.6242 -7.6178 -2.0016 0.9620
5.8939 -7.4111 -2.0016 0.9620
6.4102 -6.9694 -2.0016 0.9620
6.8935 -6.4917 -2.0016 0.9620
7.1220 -6.2402 -2.0016 0.9620
7.7513 -5.4388 -2.0016 0.9620
7.9414 -5.1571 -2.0016 0.9620
8.1214 -4.8689 -2.0016 0.9620
8.5975 -3.9680 -2.0016 0.9620
8.7344 -3.6570 -2.0016 0.9620
8.8599 -3.3412 -2.0016 0.9620
8.9741 -3.0212 -2.0016 0.9620
9.0767 -2.6972 -2.0016 0.9620
9.2468 -2.0394 -2.0016 0.9620
9.3140 -1.7063 -2.0016 0.9620
9.3693 -1.3710 -2.0016 0.9620
9.4623 -0.3563 -2.0016 0.9620
9.4635 0.3232 -2.0016 0.9620
9.0861 2.6655 -2.0016 0.9620
8.7471 3.6265 -2.0016 0.9620
8.6113 3.9380 -2.0016 0.9620
8.1383 4.8405 -2.0016 0.9620
7.9594 5.1294 -2.0016 0.9620
7.3621 5.9550 -2.0016 0.9620
7.1437 6.2153 -2.0016 0.9620
6.9161 6.4676 -2.0016 0.9620
6.1810 7.1733 -2.0016 0.9620
5.3745 7.7960 -2.0016 0.9620
4.2039 8.4847 -2.0016 0.9620
3.8954 8.6272 -2.0009 0.9620
2.8317 8.6472 -1.9234 0.9635
2.1195 8.4884 -1.8494 0.9649
1.8135 8.5590 -1.8494 0.9649
1.5053 8.6185 -1.8494 0.9649
0.8833 8.7043 -1.8494 0.9649
0.5704 8.7304 -1.8494 0.9649
-0.3710 8.7411 -1.8494 0.9649
-0.6844 8.7222 -1.8494 0.9649
-1.6177 8.5981 -1.8494 0.9649
-2.2301 8.4600 -1.8494 0.9649
-2.5322 8.3745 -1.8494 0.9649
-3.1588 8.2562 -1.8686 0.9645
-3.8537 8.2460 -1.9240 0.9635
-4.2175 8.2399 -1.9566 0.9629
-4.5941 8.2332 -1.9929 0.9622
-4.8955 8.0778 -1.9966 0.9621
-5.4758 7.7252 -2.0016 0.9620
-5.7494 7.5237 -2.0016 0.9620
-6.2742 7.0920 -2.0016 0.9620
-7.2242 6.1215 -2.0016 0.9620
-7.4392 5.8583 -2.0016 0.9620
-7.8402 5.3098 -2.0016 0.9620
-8.6620 3.8252 -2.0016 0.9620
-8.7937 3.5119 -2.0016 0.9620
-8.9140 3.1942 -2.0016 0.9620
-9.2056 2.2178 -2.0016 0.9620
-9.3410 1.5519 -2.0016 0.9620
-9.3906 1.2158 -2.0016 0.9620
-9.4282 0.8780 -2.0016 0.9620
-9.4537 0.5392 -2.0016 0.9620
-9.4669 0.1997 -2.0016 0.9620
-9.4680 -0.1402 -2.0016 0.9620
-9.4569 -0.4798 -2.0016 0.9620
-9.4335 -0.8188 -2.0016 0.9620
-9.3981 -1.1567 -2.0016 0.9620
-9.3505 -1.4932 -2.0016 0.9620
-9.2910 -1.8277 -2.0016 0.9620
-9.2194 -2.1599 -2.0016 0.9620
-8.3877 -2.6122 -1.8570 0.9647
-8.2886 -2.9114 -1.8570 0.9647
-7.7868 -4.0672 -1.8570 0.9647
-7.6359 -4.3440 -1.8570 0.9647
-7.4751 -4.6152 -1.8570 0.9647
-7.3047 -4.8804 -1.8570 0.9647
-7.1249 -5.1394 -1.8570 0.9647
-6.7380 -5.6371 -1.8570 0.9647
-7.0399 -6.3327 -2.0016 0.9620
-6.5676 -6.8212 -2.0016 0.9620
-6.0615 -7.2746 -2.0016 0.9620
-5.2447 -7.8839 -2.0016 0.9620
-2.7975 -9.0463 -2.0016 0.9620
-2.4711 -9.1409 -2.0016 0.9620
-2.1416 -9.2237 -2.0016 0.9620
-0.1213 -9.4682 -2.0016 0.9620
0.2185 -9.4665 -2.0016 0.9620
0.8968 -9.4265 -2.0016 0.9620
1.9045 -9.2755 -2.0016 0.9620
2.2361 -9.2012 -2.0016 0.9620
2.8902 -9.0171 -2.0016 0.9620
3.5294 -8.7867 -2.0016 0.9620
3.8424 -8.6544 -2.0016 0.9620
4.1505 -8.5109 -2.0016 0.9620
5.0410 -8.0156 -2.0016 0.9620
5.3254 -7.8296 -2.0016 0.9620
5.6029 -7.6335 -2.0016 0.9620
6.3907 -6.9872 -2.0016 0.9620
6.6373 -6.7534 -2.0016 0.9620
7.1045 -6.2601 -2.0016 0.9620
7.5351 -5.7344 -2.0016 0.9620
7.9270 -5.1793 -2.0016 0.9620
8.2780 -4.5975 -2.0016 0.9620
8.7241 -3.6814 -2.0016 0.9620
8.8506 -3.3660 -2.0016 0.9620
8.9656 -3.0462 -2.0016 0.9620
9.0692 -2.7226 -2.0016 0.9620
9.1610 -2.3954 -2.0016 0.9620
9.2411 -2.0652 -2.0016 0.9620
9.4095 -1.0602 -2.0016 0.9620
9.4613 -0.3827 -2.0016 0.9620
6.9749 4.8868 -2.0016 0.9656
6.7951 5.1339 -2.0016 0.9656
5.7697 6.2642 -2.0016 0.9656
5.3056 6.6619 -2.0016 0.9656
5.0631 6.8480 -2.0016 0.9656
3.4830 7.7716 -2.0016 0.9656
3.2019 7.8916 -2.0016 0.9656
2.9167 8.0014 -2.0016 0.9656
2.0350 8.2481 -1.9966 0.9657
1.1171 8.2724 -1.9618 0.9663
0.8149 8.2595 -1.9506 0.9665
0.2190 8.2434 -1.9381 0.9667
-0.0769 8.2435 -1.9375 0.9667
-0.6699 8.2423 -1.9435 0.9666
-0.9685 8.2411 -1.9502 0.9665
-2.1861 8.2000 -1.9945 0.9657
-2.4806 8.1217 -1.9958 0.9657
-3.3473 7.8276 -2.0008 0.9656
-3.6273 7.7054 -2.0016 0.9656
-4.9443 6.9342 -2.0016 0.9656
-5.1899 6.7524 -2.0016 0.9656
-5.4289 6.5618 -2.0016 0.9656
-5.6608 6.3628 -2.0016 0.9656
-6.1025 5.9404 -2.0016 0.9656
-6.3117 5.7177 -2.0016 0.9656
-6.5128 5.4875 -2.0016 0.9656
-6.7055 5.2503 -2.0016 0.9656
-6.8896 5.0063 -2.0016 0.9656
-7.0648 4.7559 -2.0016 0.9656
-7.2309 4.4993 -2.0016 0.9656
-7.5349 3.9692 -2.0016 0.9656
-8.0253 2.8504 -2.0016 0.9656
-8.1224 2.5606 -2.0016 0.9656
-8.2851 1.9716 -2.0016 0.9656
-8.3505 1.6730 -2.0016 0.9656
-8.4051 1.3723 -2.0016 0.9656
-8.4490 1.0699 -2.0016 0.9656
-8.4819 0.7660 -2.0016 0.9656
-8.4825 -0.7601 -2.0016 0.9656
-8.4497 -1.0640 -2.0016 0.9656
-8.4061 -1.3665 -2.0016 0.9656
-8.3517 -1.6672 -2.0016 0.9656
-8.2865 -1.9658 -2.0016 0.9656
-7.3479 -2.9049 -1.8570 0.9681
-6.9932 -3.6776 -1.8570 0.9681
-6.7115 -4.1697 -1.8570 0.9681
-6.0459 -5.0869 -1.8570 0.9681
-5.1946 -6.7488 -2.0016 0.9656
-4.9491 -6.9308 -2.0016 0.9656
-4.6973 -7.1039 -2.0016 0.9656
-4.1757 -7.4225 -2.0016 0.9656
-3.9067 -7.5675 -2.0016 0.9656
-2.4934 -8.1433 -2.0016 0.9656
-2.1996 -8.2275 -2.0016 0.9656
-1.6039 -8.3641 -2.0016 0.9656
-1.3027 -8.4162 -2.0016 0.9656
-0.9999 -8.4575 -2.0016 0.9656
-0.6958 -8.4880 -2.0016 0.9656
0.5256 -8.5002 -2.0016 0.9656
0.8303 -8.4759 -2.0016 0.9656
1.1339 -8.4406 -2.0016 0.9656
1.7362 -8.3376 -2.0016 0.9656
2.0343 -8.2699 -2.0016 0.9656
2.3297 -8.1916 -2.0016 0.9656
2.9112 -8.0034 -2.0016 0.9656
3.1964 -7.8938 -2.0016 0.9656
2.1520 -4.3818 -1.1473 0.9801
2.2315 -4.1593 -1.1093 0.9808
4.8093 -7.0286 -2.0016 0.9656
5.3009 -6.6656 -2.0016 0.9656
5.5367 -6.4711 -2.0016 0.9656
5.7653 -6.2682 -2.0016 0.9656
5.9865 -6.0573 -2.0016 0.9656
6.2000 -5.8387 -2.0016 0.9656
6.4055 -5.6124 -2.0016 0.9656
6.7915 -5.1386 -2.0016 0.9656
6.9715 -4.8916 -2.0016 0.9656
7.7326 -3.5688 -2.0016 0.9656
7.8557 -3.2891 -2.0016 0.9656
8.2454 -2.1314 -2.0016 0.9656
8.3166 -1.8342 -2.0016 0.9656
8.4267 -1.2331 -2.0016 0.9656
8.5164 -0.0149 -2.0016 0.9656
8.5115 0.2907 -2.0016 0.9656
8.4956 0.5959 -2.0016 0.9656
8.4310 1.2037 -2.0016 0.9656
8.2528 2.1026 -2.0016 0.9656
8.0808 2.6891 -2.0016 0.9656
7.9791 2.9773 -2.0016 0.9656
7.4711 4.0881 -2.0016 0.9656
7.3196 4.3536 -2.0016 0.9656
7.1587 4.6134 -2.0016 0.9656
6.9885 4.8673 -2.0016 0.9656
6.8094 5.1149 -2.0016 0.9656
6.2203 5.8170 -2.0016 0.9656
6.0076 6.0364 -2.0016 0.9656
4.5791 7.1807 -2.0016 0.9656
3.7810 7.6311 -2.0016 0.9656
3.2240 7.8826 -2.0016 0.9656
2.9391 7.9932 -2.0016 0.9656
2.6504 8.0935 -2.0016 0.9656
2.0582 8.2431 -1.9968 0.9657
1.7594 8.3034 -1.9948 0.9657
1.4519 8.3127 -1.9832 0.9659
1.1408 8.2733 -1.9628 0.9663
0.8383 8.2605 -1.9514 0.9665
0.2421 8.2433 -1.9382 0.9667
-0.0538 8.2435 -1.9374 0.9667
-0.3499 8.2432 -1.9391 0.9667
-0.9452 8.2412 -1.9496 0.9665
-2.1631 8.2057 -1.9944 0.9657
-2.4577 8.1281 -1.9957 0.9657
-3.0391 7.9434 -1.9988 0.9657
-3.3251 7.8363 -2.0007 0.9656
-4.6725 7.1202 -2.0016 0.9656
-5.4105 6.5769 -2.0016 0.9656
-5.6430 6.3786 -2.0016 0.9656
-5.8682 6.1720 -2.0016 0.9656
-6.0859 5.9575 -2.0016 0.9656
-6.2958 5.7353 -2.0016 0.9656
-6.8756 5.0255 -2.0016 0.9656
-7.5238 3.9902 -2.0016 0.9656
-7.6622 3.7177 -2.0016 0.9656
-8.2795 1.9947 -2.0016 0.9656
-8.3458 1.6964 -2.0016 0.9656
-8.4013 1.3958 -2.0016 0.9656
-8.4460 1.0935 -2.0016 0.9656
-8.5026 0.4850 -2.0016 0.9656
-8.4845 -0.7364 -2.0016 0.9656
-8.4527 -1.0404 -2.0016 0.9656
-8.3563 -1.6439 -2.0016 0.9656
-7.1302 -3.4044 -1.8570 0.9681
-7.0035 -3.6581 -1.8570 0.9681
-6.8677 -3.9070 -1.8570 0.9681
-6.5698 -4.3895 -1.8570 0.9681
-6.4081 -4.6224 -1.8570 0.9681
-6.2381 -4.8493 -1.8570 0.9681
-5.8743 -5.2842 -1.8570 0.9681
-5.6809 -5.4916 -1.8570 0.9681
-5.2135 -6.7342 -2.0016 0.9656
-4.9685 -6.9169 -2.0016 0.9656
-4.7171 -7.0908 -2.0016 0.9656
-3.3758 -7.8188 -2.0016 0.9656
-3.0931 -7.9349 -2.0016 0.9656
-2.8064 -8.0408 -2.0016 0.9656
-2.2225 -8.2213 -2.0016 0.9656
-1.3262 -8.4125 -2.0016 0.9656
-1.0235 -8.4547 -2.0016 0.9656
-0.7195 -8.4860 -2.0016 0.9656
-0.4146 -8.5063 -2.0016 0.9656
-0.1091 -8.5157 -2.0016 0.9656
0.1965 -8.5142 -2.0016 0.9656
0.8066 -8.4782 -2.0016 0.9656
1.7129 -8.3424 -2.0016 0.9656
2.0112 -8.2756 -2.0016 0.9656
2.3068 -8.1981 -2.0016 0.9656
2.8888 -8.0115 -2.0016 0.9656
3.1744 -7.9027 -2.0016 0.9656
2.1417 -4.3918 -1.1484 0.9801
2.2203 -4.1665 -1.1096 0.9808
2.4107 -4.1571 -1.1294 0.9804
4.5339 -7.2093 -2.0016 0.9656
4.7896 -7.0420 -2.0016 0.9656
5.0392 -6.8656 -2.0016 0.9656
5.5186 -6.4865 -2.0016 0.9656
6.3898 -5.6303 -2.0016 0.9656
6.9578 -4.9111 -2.0016 0.9656
7.1295 -4.6583 -2.0016 0.9656
7.2921 -4.3995 -2.0016 0.9656
7.4452 -4.1350 -2.0016 0.9656
8.2394 -2.1545 -2.0016 0.9656
6.1680 4.6601 -2.0016 0.9686
5.9968 4.8784 -2.0016 0.9686
5.8179 5.0904 -2.0016 0.9686
5.6315 5.2959 -2.0016 0.9686
5.4379 5.4946 -2.0016 0.9686
4.3699 6.3769 -2.0016 0.9686
4.1383 6.5296 -2.0016 0.9686
3.9013 6.6738 -2.0016 0.9686
2.9064 7.1633 -2.0016 0.9686
2.3852 7.3533 -2.0016 0.9686
1.8518 7.5054 -2.0016 0.9686
1.3088 7.6189 -2.0016 0.9686
1.0345 7.6609 -2.0016 0.9686
0.7590 7.6931 -2.0016 0.9686
-0.3494 7.7226 -2.0016 0.9686
-1.1772 7.6403 -2.0016 0.9686
-1.4506 7.5932 -2.0016 0.9686
-3.0395 7.1079 -2.0016 0.9686
-3.2926 6.9942 -2.0016 0.9686
-3.7857 6.7401 -2.0016 0.9686
-4.0251 6.5999 -2.0016 0.9686
-4.4880 6.2943 -2.0016 0.9686
-4.9278 5.9562 -2.0016 0.9686
-5.3423 5.5875 -2.0016 0.9686
-5.5394 5.3922 -2.0016 0.9686
-5.7293 5.1900 -2.0016 0.9686
-5.9118 4.9811 -2.0016 0.9686
-6.2538 4.5443 -2.0016 0.9686
-6.4128 4.3170 -2.0016 0.9686
-6.7059 3.8460 -2.0016 0.9686
-6.8396 3.6029 -2.0016 0.9686
-7.0803 3.1031 -2.0016 0.9686
-7.2846 2.5874 -2.0016 0.9686
-7.4514 2.0583 -2.0016 0.9686
-7.5205 1.7896 -2.0016 0.9686
-7.6295 1.2457 -2.0016 0.9686
-7.6992 0.6953 -2.0016 0.9686
-7.7191 0.4186 -2.0016 0.9686
-7.5217 -1.7844 -2.0016 0.9686
-7.4529 -2.0531 -2.0016 0.9686
-7.0932 -2.2308 -1.9252 0.9697
-6.5709 -2.8744 -1.8570 0.9708
-6.4635 -3.1083 -1.8570 0.9708
-6.2240 -3.5638 -1.8570 0.9708
-5.8050 -4.2120 -1.8570 0.9708
-5.6501 -4.4176 -1.8570 0.9708
-5.4880 -4.6175 -1.8570 0.9708
-5.1427 -4.9991 -1.8570 0.9708
-4.7710 -5.3551 -1.8570 0.9708
-4.5757 -5.5228 -1.8570 0.9708
-4.3746 -5.6834 -1.8570 0.9708
-4.4924 -6.2912 -2.0016 0.9686
-4.0297 -6.5971 -2.0016 0.9686
-2.5270 -7.3058 -2.0016 0.9686
-1.9966 -7.4682 -2.0016 0.9686
-1.7273 -7.5350 -2.0016 0.9686
-1.4559 -7.5922 -2.0016 0.9686
-1.1825 -7.6395 -2.0016 0.9686
-0.9076 -7.6770 -2.0016 0.9686
-0.3548 -7.7223 -2.0016 0.9686
1.0292 -7.6617 -2.0016 0.9686
1.3035 -7.6198 -2.0016 0.9686
1.8465 -7.5067 -2.0016 0.9686
2.1147 -7.4356 -2.0016 0.9686
2.3801 -7.3550 -2.0016 0.9686
2.9015 -7.1653 -2.0016 0.9686
3.1567 -7.0566 -2.0016 0.9686
2.2059 -4.1117 -1.2081 0.9809
2.3982 -4.1091 -1.2319 0.9805
4.1337 -6.5324 -2.0016 0.9686
4.3655 -6.3799 -2.0016 0.9686
4.8117 -6.0504 -2.0016 0.9686
5.2333 -5.6898 -2.0016 0.9686
5.4340 -5.4983 -2.0016 0.9686
5.8143 -5.0945 -2.0016 0.9686
6.3281 -4.4402 -2.0016 0.9686
6.4834 -4.2103 -2.0016 0.9686
6.7686 -3.7345 -2.0016 0.9686
6.8982 -3.4892 -2.0016 0.9686
7.0190 -3.2395 -2.0016 0.9686
7.2332 -2.7278 -2.0016 0.9686
7.4102 -2.2020 -2.0016 0.9686
7.5491 -1.6649 -2.0016 0.9686
7.6490 -1.1193 -2.0016 0.9686
7.6843 -0.8441 -2.0016 0.9686
7.7096 -0.5678 -2.0016 0.9686
7.7250 -0.2908 -2.0016 0.9686
7.7305 -0.0135 -2.0016 0.9686
7.7115 0.5409 -2.0016 0.9686
7.6872 0.8173 -2.0016 0.9686
7.6088 1.3664 -2.0016 0.9686
7.4912 1.9086 -2.0016 0.9686
7.4179 2.1761 -2.0016 0.9686
7.3350 2.4409 -2.0016 0.9686
7.2427 2.7025 -2.0016 0.9686
7.1411 2.9606 -2.0016 0.9686
7.0303 3.2150 -2.0016 0.9686
6.9104 3.4651 -2.0016 0.9686
6.7816 3.7108 -2.0016 0.9686
6.3436 4.4181 -2.0016 0.9686
6.1810 4.6428 -2.0016 0.9686
6.0104 4.8616 -2.0016 0.9686
5.8321 5.0742 -2.0016 0.9686
5.6463 5.2802 -2.0016 0.9686
5.4532 5.4793 -2.0016 0.9686
5.0462 5.8563 -2.0016 0.9686
4.8328 6.0336 -2.0016 0.9686
4.1565 6.5180 -2.0016 0.9686
3.6784 6.7993 -2.0016 0.9686
3.4320 6.9269 -2.0016 0.9686
2.6678 7.2556 -2.0016 0.9686
1.8727 7.5002 -2.0016 0.9686
1.3300 7.6152 -2.0016 0.9686
1.0559 7.6580 -2.0016 0.9686
0.2269 7.7272 -2.0016 0.9686
-0.0505 7.7303 -2.0016 0.9686
-0.6047 7.7068 -2.0016 0.9686
-0.8808 7.6801 -2.0016 0.9686
-1.1558 7.6436 -2.0016 0.9686
-1.4294 7.5972 -2.0016 0.9686
-1.7010 7.5410 -2.0016 0.9686
-1.9705 7.4751 -2.0016 0.9686
-2.2374 7.3996 -2.0016 0.9686
-3.0196 7.1163 -2.0016 0.9686
-3.5222 6.8815 -2.0016 0.9686
-3.7668 6.7507 -2.0016 0.9686
-4.0066 6.6112 -2.0016 0.9686
-4.2413 6.4631 -2.0016 0.9686
-5.1222 5.7899 -2.0016 0.9686
-5.5243 5.4077 -2.0016 0.9686
-5.8978 4.9976 -2.0016 0.9686
-6.4007 4.3349 -2.0016 0.9686
-6.5521 4.1024 -2.0016 0.9686
-6.8295 3.6220 -2.0016 0.9686
-6.9550 3.3746 -2.0016 0.9686
-7.0716 3.1229 -2.0016 0.9686
-7.3663 2.3449 -2.0016 0.9686
-7.4457 2.0791 -2.0016 0.9686
-7.5155 1.8106 -2.0016 0.9686
-7.5756 1.5398 -2.0016 0.9686
-7.6665 0.9926 -2.0016 0.9686
-7.6726 -0.9444 -2.0016 0.9686
-7.4586 -2.0323 -2.0016 0.9686
-6.7668 -2.3769 -1.8570 0.9708
-6.5789 -2.8560 -1.8570 0.9708
-6.3571 -3.3205 -1.8570 0.9708
-5.5009 -4.6021 -1.8570 0.9708
-5.3322 -4.7965 -1.8570 0.9708
-5.1567 -4.9848 -1.8570 0.9708
-4.7859 -5.3417 -1.8570 0.9708
-4.3905 -5.6712 -1.8570 0.9708
-4.0481 -6.5859 -2.0016 0.9686
-3.5654 -6.8592 -2.0016 0.9686
-3.0643 -7.0972 -2.0016 0.9686
-2.5474 -7.2987 -2.0016 0.9686
-2.2839 -7.3854 -2.0016 0.9686
-2.0174 -7.4626 -2.0016 0.9686
-1.7484 -7.5302 -2.0016 0.9686
-1.4771 -7.5881 -2.0016 0.9686
-0.9291 -7.6744 -2.0016 0.9686
-0.6531 -7.7029 -2.0016 0.9686
-0.0990 -7.7299 -2.0016 0.9686
0.1784 -7.7284 -2.0016 0.9686
0.4556 -7.7171 -2.0016 0.9686
1.2822 -7.6234 -2.0016 0.9686
2.0939 -7.4415 -2.0016 0.9686
2.6222 -7.2722 -2.0016 0.9686
2.8814 -7.1734 -2.0016 0.9686
3.1369 -7.0654 -2.0016 0.9686
2.1912 -4.1119 -1.2064 0.9809
2.3830 -4.1093 -1.2299 0.9806
4.3476 -6.3921 -2.0016 0.9686
4.5742 -6.2320 -2.0016 0.9686
4.7948 -6.0638 -2.0016 0.9686
5.6130 -5.3155 -2.0016 0.9686
6.3157 -4.4579 -2.0016 0.9686
6.6191 -3.9935 -2.0016 0.9686
7.2256 -2.7480 -2.0016 0.9686
7.3195 -2.4869 -2.0016 0.9686
7.4790 -1.9556 -2.0016 0.9686
7.6000 -1.4142 -2.0016 0.9686
7.6459 -1.1406 -2.0016 0.9686
7.6819 -0.8656 -2.0016 0.9686
5.7906 4.0570 -2.0016 0.9710
5.4847 4.4618 -2.0016 0.9710
5.3211 4.6557 -2.0016 0.9710
4.9735 5.0253 -2.0016 0.9710
4.7900 5.2006 -2.0016 0.9710
4.6003 5.3691 -2.0016 0.9710
4.4047 5.5307 -2.0016 0.9710
3.7849 5.9720 -2.0016 0.9710
3.1212 6.3441 -2.0016 0.9710
2.4215 6.6427 -2.0016 0.9710
2.1815 6.7254 -2.0016 0.9710
1.9388 6.7993 -2.0016 0.9710
1.6936 6.8645 -2.0016 0.9710
0.6942 7.0362 -2.0016 0.9710
0.4413 7.0566 -2.0016 0.9710
0.1878 7.0678 -2.0016 0.9710
-1.0767 6.9879 -2.0016 0.9710
-1.3267 6.9447 -2.0016 0.9710
-2.5449 6.5964 -2.0016 0.9710
-2.7799 6.5009 -2.0016 0.9710
-3.0114 6.3970 -2.0016 0.9710
-4.5070 5.4476 -2.0016 0.9710
-4.8861 5.1103 -2.0016 0.9710
-5.0663 4.9317 -2.0016 0.9710
-5.2400 4.7468 -2.0016 0.9710
-5.4069 4.5557 -2.0016 0.9710
-5.5669 4.3588 -2.0016 0.9710
-5.7197 4.1562 -2.0016 0.9710
-5.8652 3.9483 -2.0016 0.9710
-6.1332 3.5175 -2.0016 0.9710
-6.3697 3.0686 -2.0016 0.9710
-6.4757 2.8381 -2.0016 0.9710
-6.5734 2.6039 -2.0016 0.9710
-6.6626 2.3664 -2.0016 0.9710
-6.7432 2.1258 -2.0016 0.9710
-6.8151 1.8825 -2.0016 0.9710
-6.8783 1.6368 -2.0016 0.9710
-6.9326 1.3889 -2.0016 0.9710
-7.0417 0.6359 -2.0016 0.9710
-7.0600 0.3829 -2.0016 0.9710
-7.0692 0.1293 -2.0016 0.9710
-7.0692 -0.1244 -2.0016 0.9710
-7.0421 -0.6311 -2.0016 0.9710
-7.0149 -0.8833 -2.0016 0.9710
-6.9787 -1.1345 -2.0016 0.9710
-6.8164 -1.8778 -2.0016 0.9710
-6.7447 -2.1211 -2.0016 0.9710
-5.8058 -3.0532 -1.8570 0.9731
-5.6925 -3.2595 -1.8570 0.9731
-5.3093 -3.8523 -1.8570 0.9731
-5.1676 -4.0403 -1.8570 0.9731
-5.0193 -4.2231 -1.8570 0.9731
-4.8646 -4.4005 -1.8570 0.9731
-4.7035 -4.5722 -1.8570 0.9731
-4.3635 -4.8978 -1.8570 0.9731
-4.0011 -5.1981 -1.8570 0.9731
-3.8120 -5.3383 -1.8570 0.9731
-3.4193 -5.5979 -1.8570 0.9731
-3.4667 -6.1621 -2.0016 0.9710
-3.2433 -6.2825 -2.0016 0.9710
-3.0158 -6.3949 -2.0016 0.9710
-2.0700 -6.7605 -2.0016 0.9710
-1.8261 -6.8305 -2.0016 0.9710
-1.3315 -6.9438 -2.0016 0.9710
-0.8301 -7.0214 -2.0016 0.9710
-0.5777 -7.0467 -2.0016 0.9710
-0.0708 -7.0700 -2.0016 0.9710
0.1829 -7.0680 -2.0016 0.9710
0.6893 -7.0367 -2.0016 0.9710
1.4414 -6.9218 -2.0016 0.9710
1.6889 -6.8657 -2.0016 0.9710
2.1769 -6.7269 -2.0016 0.9710
2.4168 -6.6444 -2.0016 0.9710
2.8871 -6.4540 -2.0016 0.9710
2.3898 -4.0946 -1.3421 0.9805
4.5965 -5.3723 -2.0016 0.9710
4.7864 -5.2039 -2.0016 0.9710
5.1472 -4.8472 -2.0016 0.9710
5.3178 -4.6594 -2.0016 0.9710
5.4816 -4.4656 -2.0016 0.9710
5.6383 -4.2661 -2.0016 0.9710
5.7877 -4.0610 -2.0016 0.9710
5.9297 -3.8507 -2.0016 0.9710
6.0640 -3.6355 -2.0016 0.9710
6.1906 -3.4156 -2.0016 0.9710
6.5218 -2.7306 -2.0016 0.9710
6.6156 -2.4948 -2.0016 0.9710
6.7008 -2.2559 -2.0016 0.9710
6.7774 -2.0140 -2.0016 0.9710
6.8453 -1.7695 -2.0016 0.9710
6.9044 -1.5227 -2.0016 0.9710
6.9546 -1.2740 -2.0016 0.9710
7.0281 -0.7720 -2.0016 0.9710
7.0512 -0.5193 -2.0016 0.9710
7.0653 -0.2660 -2.0016 0.9710
7.0703 -0.0123 -2.0016 0.9710
7.0530 0.4947 -2.0016 0.9710
6.9994 0.9993 -2.0016 0.9710
6.9590 1.2498 -2.0016 0.9710
6.9097 1.4986 -2.0016 0.9710
6.6242 2.4717 -2.0016 0.9710
6.5313 2.7078 -2.0016 0.9710
6.3202 3.1692 -2.0016 0.9710
6.0767 3.6143 -2.0016 0.9710
5.9431 3.8300 -2.0016 0.9710
5.6531 4.2464 -2.0016 0.9710
5.4971 4.4465 -2.0016 0.9710
4.9875 5.0114 -2.0016 0.9710
4.4201 5.5184 -2.0016 0.9710
3.5852 6.0939 -2.0016 0.9710
3.1389 6.3353 -2.0016 0.9710
2.9096 6.4439 -2.0016 0.9710
2.4400 6.6360 -2.0016 0.9710
2.2003 6.7192 -2.0016 0.9710
1.7128 6.8597 -2.0016 0.9710
0.9658 7.0041 -2.0016 0.9710
0.7138 7.0342 -2.0016 0.9710
0.4610 7.0553 -2.0016 0.9710
-0.0462 7.0702 -2.0016 0.9710
-0.5531 7.0487 -2.0016 0.9710
-1.0571 6.9909 -2.0016 0.9710
-2.0464 6.7677 -2.0016 0.9710
-2.9935 6.4053 -2.0016 0.9710
-3.2214 6.2938 -2.0016 0.9710
-3.4451 6.1742 -2.0016 0.9710
-3.8791 5.9112 -2.0016 0.9710
-4.0887 5.7682 -2.0016 0.9710
-4.2930 5.6178 -2.0016 0.9710
-4.4918 5.4602 -2.0016 0.9710
-4.8718 5.1239 -2.0016 0.9710
-5.0525 4.9459 -2.0016 0.9710
-5.2267 4.7614 -2.0016 0.9710
-5.3942 4.5708 -2.0016 0.9710
-5.5547 4.3743 -2.0016 0.9710
-5.7081 4.1722 -2.0016 0.9710
-5.8541 3.9647 -2.0016 0.9710
-6.4677 2.8562 -2.0016 0.9710
-6.5661 2.6223 -2.0016 0.9710
-6.8737 1.6560 -2.0016 0.9710
-6.9287 1.4083 -2.0016 0.9710
-6.9747 1.1588 -2.0016 0.9710
-7.0118 0.9078 -2.0016 0.9710
-7.0688 0.1491 -2.0016 0.9710
-7.0612 -0.3582 -2.0016 0.9710
-7.0438 -0.6114 -2.0016 0.9710
-6.8839 -1.6128 -2.0016 0.9710
-6.8216 -1.8587 -2.0016 0.9710
-6.7506 -2.1023 -2.0016 0.9710
-6.0171 -2.6121 -1.8570 0.9731
-5.8143 -3.0369 -1.8570 0.9731
-5.4543 -3.6441 -1.8570 0.9731
-5.1789 -4.0259 -1.8570 0.9731
-5.0311 -4.2091 -1.8570 0.9731
-4.8768 -4.3869 -1.8570 0.9731
-4.1991 -5.0395 -1.8570 0.9731
-4.0156 -5.1869 -1.8570 0.9731
-3.8269 -5.3276 -1.8570 0.9731
-3.0337 -6.3864 -2.0016 0.9710
-2.8026 -6.4912 -2.0016 0.9710
-2.5679 -6.5875 -2.0016 0.9710
-2.0889 -6.7547 -2.0016 0.9710
-1.8452 -6.8253 -2.0016 0.9710
-1.5991 -6.8871 -2.0016 0.9710
-1.3509 -6.9401 -2.0016 0.9710
-1.1010 -6.9841 -2.0016 0.9710
-0.8497 -7.0191 -2.0016 0.9710
-0.5973 -7.0451 -2.0016 0.9710
-0.3442 -7.0619 -2.0016 0.9710
-0.0906 -7.0698 -2.0016 0.9710
0.1631 -7.0685 -2.0016 0.9710
0.4167 -7.0580 -2.0016 0.9710
0.9217 -7.0100 -2.0016 0.9710
1.4221 -6.9258 -2.0016 0.9710
1.9151 -6.8060 -2.0016 0.9710
2.1581 -6.7329 -2.0016 0.9710
2.3983 -6.6512 -2.0016 0.9710
2.6354 -6.5608 -2.0016 0.9710
2.8691 -6.4620 -2.0016 0.9710
2.0934 -4.2927 -1.3521 0.9803
4.3854 -5.5460 -2.0016 0.9710
4.5815 -5.3851 -2.0016 0.9710
4.7718 -5.2172 -2.0016 0.9710
4.9559 -5.0427 -2.0016 0.9710
5.1337 -4.8616 -2.0016 0.9710
5.3048 -4.6743 -2.0016 0.9710
5.7764 -4.0772 -2.0016 0.9710
5.9189 -3.8673 -2.0016 0.9710
6.1810 -3.4329 -2.0016 0.9710
6.6085 -2.5133 -2.0016 0.9710
6.7718 -2.0329 -2.0016 0.9710
6.9929 -1.0432 -2.0016 0.9710
7.0259 -0.7916 -2.0016 0.9710
7.0498 -0.5390 -2.0016 0.9710
5.3296 3.7340 -2.0016 0.9731
5.1922 3.9228 -2.0016 0.9731
5.0481 4.1066 -2.0016 0.9731
4.5776 4.6253 -2.0016 0.9731
4.4087 4.7866 -2.0016 0.9731
4.2341 4.9417 -2.0016 0.9731
4.0540 5.0904 -2.0016 0.9731
3.8688 5.2326 -2.0016 0.9731
3.4836 5.4965 -2.0016 0.9731
2.8728 5.8391 -2.0016 0.9731
2.0079 6.1900 -2.0016 0.9731
1.7845 6.2580 -2.0016 0.9731
1.5588 6.3180 -2.0016 0.9731
1.3311 6.3699 -2.0016 0.9731
0.8709 6.4489 -2.0016 0.9731
0.1729 6.5052 -2.0016 0.9731
-0.5272 6.4861 -2.0016 0.9731
-1.2211 6.3919 -2.0016 0.9731
-1.4496 6.3440 -2.0016 0.9731
-1.9009 6.2237 -2.0016 0.9731
-2.5586 5.9834 -2.0016 0.9731
-2.7717 5.8877 -2.0016 0.9731
-2.9811 5.7845 -2.0016 0.9731
-3.1867 5.6738 -2.0016 0.9731
-3.5854 5.4306 -2.0016 0.9731
-3.9657 5.1595 -2.0016 0.9731
-4.4971 4.7035 -2.0016 0.9731
-4.6630 4.5391 -2.0016 0.9731
-4.8229 4.3689 -2.0016 0.9731
-4.9765 4.1930 -2.0016 0.9731
-5.1237 4.0118 -2.0016 0.9731
-5.3983 3.6340 -2.0016 0.9731
-5.6450 3.2375 -2.0016 0.9731
-5.8626 2.8244 -2.0016 0.9731
-6.1322 2.1780 -2.0016 0.9731
-6.2726 1.7327 -2.0016 0.9731
-6.3307 1.5065 -2.0016 0.9731
-6.3807 1.2784 -2.0016 0.9731
-6.4559 0.8175 -2.0016 0.9731
-6.4979 0.3524 -2.0016 0.9731
-6.5064 0.1190 -2.0016 0.9731
-6.4982 -0.3479 -2.0016 0.9731
-6.4815 -0.5808 -2.0016 0.9731
-6.4232 -1.0441 -2.0016 0.9731
-6.3816 -1.2739 -2.0016 0.9731
-6.2738 -1.7283 -2.0016 0.9731
-6.2077 -1.9523 -2.0016 0.9731
-6.1337 -2.1738 -2.0016 0.9731
-5.6667 -2.2402 -1.8742 0.9748
-5.4410 -2.6166 -1.8570 0.9751
-5.2393 -3.0000 -1.8570 0.9751
-5.0107 -3.3680 -1.8570 0.9751
-4.8866 -3.5456 -1.8570 0.9751
-4.7562 -3.7187 -1.8570 0.9751
-4.6197 -3.8870 -1.8570 0.9751
-4.3291 -4.2082 -1.8570 0.9751
-4.1753 -4.3609 -1.8570 0.9751
-4.0162 -4.5079 -1.8570 0.9751
-3.8518 -4.6491 -1.8570 0.9751
-3.6825 -4.7843 -1.8570 0.9751
-3.5085 -4.9133 -1.8570 0.9751
-3.3300 -5.0361 -1.8570 0.9751
-3.1471 -5.1523 -1.8570 0.9751
-2.7695 -5.3647 -1.8570 0.9751
-2.5752 -5.4606 -1.8570 0.9751
-2.1272 -6.1500 -2.0016 0.9731
-1.9052 -6.2223 -2.0016 0.9731
-1.4541 -6.3429 -2.0016 0.9731
-1.2255 -6.3910 -2.0016 0.9731
-0.9954 -6.4309 -2.0016 0.9731
-0.0652 -6.5072 -2.0016 0.9731
0.4016 -6.4951 -2.0016 0.9731
1.0972 -6.4143 -2.0016 0.9731
2.0036 -6.1914 -2.0016 0.9731
2.2660 -5.5960 -1.8570 0.9751
2.4653 -5.5111 -1.8570 0.9751
2.0805 -4.2362 -1.4516 0.9804
2.1906 -4.0832 -1.4252 0.9808
3.4798 -5.4990 -2.0016 0.9731
3.8651 -5.2353 -2.0016 0.9731
4.0505 -5.0932 -2.0016 0.9731
4.7375 -4.4614 -2.0016 0.9731
4.8945 -4.2885 -2.0016 0.9731
5.0452 -4.1101 -2.0016 0.9731
5.1894 -3.9265 -2.0016 0.9731
5.5813 -3.3461 -2.0016 0.9731
5.6978 -3.1437 -2.0016 0.9731
5.9085 -2.7270 -2.0016 0.9731
6.0889 -2.2962 -2.0016 0.9731
6.2379 -1.8536 -2.0016 0.9731
6.3004 -1.6286 -2.0016 0.9731
6.4010 -1.1726 -2.0016 0.9731
6.4389 -0.9422 -2.0016 0.9731
6.4686 -0.7106 -2.0016 0.9731
6.4899 -0.4780 -2.0016 0.9731
6.5075 -0.0114 -2.0016 0.9731
6.4710 0.6880 -2.0016 0.9731
6.4422 0.9197 -2.0016 0.9731
6.4050 1.1503 -2.0016 0.9731
6.3596 1.3793 -2.0016 0.9731
6.3060 1.6066 -2.0016 0.9731
6.0969 2.2750 -2.0016 0.9731
5.9180 2.7063 -2.0016 0.9731
5.8171 2.9169 -2.0016 0.9731
5.3400 3.7191 -2.0016 0.9731
5.0595 4.0925 -2.0016 0.9731
4.5905 4.6125 -2.0016 0.9731
4.4220 4.7742 -2.0016 0.9731
4.0682 5.0790 -2.0016 0.9731
3.8834 5.2217 -2.0016 0.9731
3.6935 5.3577 -2.0016 0.9731
3.2998 5.6088 -2.0016 0.9731
3.0964 5.7236 -2.0016 0.9731
2.6780 5.9309 -2.0016 0.9731
2.4635 6.0232 -2.0016 0.9731
2.2458 6.1077 -2.0016 0.9731
1.1196 6.4104 -2.0016 0.9731
0.6570 6.4742 -2.0016 0.9731
0.4243 6.4936 -2.0016 0.9731
0.1910 6.5047 -2.0016 0.9731
-0.0425 6.5073 -2.0016 0.9731
-0.2760 6.5016 -2.0016 0.9731
-0.5091 6.4875 -2.0016 0.9731
-0.7415 6.4651 -2.0016 0.9731
-1.2032 6.3953 -2.0016 0.9731
-2.7552 5.8954 -2.0016 0.9731
-3.1709 5.6827 -2.0016 0.9731
-3.3727 5.5652 -2.0016 0.9731
-3.5703 5.4406 -2.0016 0.9731
-4.1342 5.0255 -2.0016 0.9731
-4.3119 4.8739 -2.0016 0.9731
-4.6503 4.5521 -2.0016 0.9731
-4.8106 4.3824 -2.0016 0.9731
-5.1125 4.0261 -2.0016 0.9731
-5.2537 3.8401 -2.0016 0.9731
-5.3881 3.6491 -2.0016 0.9731
-5.5156 3.4534 -2.0016 0.9731
-5.7490 3.0490 -2.0016 0.9731
-5.8547 2.8407 -2.0016 0.9731
-6.2677 1.7502 -2.0016 0.9731
-6.4195 1.0665 -2.0016 0.9731
-6.4794 0.6034 -2.0016 0.9731
-6.5068 -0.0963 -2.0016 0.9731
-6.4991 -0.3297 -2.0016 0.9731
-6.4831 -0.5627 -2.0016 0.9731
-6.4261 -1.0262 -2.0016 0.9731
-6.3359 -1.4844 -2.0016 0.9731
-6.2131 -1.9349 -2.0016 0.9731
-6.1397 -2.1566 -2.0016 0.9731
-5.5381 -2.4042 -1.8570 0.9751
-5.4483 -2.6013 -1.8570 0.9751
-5.3514 -2.7952 -1.8570 0.9751
-5.2477 -2.9854 -1.8570 0.9751
-5.1372 -3.1717 -1.8570 0.9751
-5.0201 -3.3540 -1.8570 0.9751
-4.8965 -3.5320 -1.8570 0.9751
-4.7666 -3.7054 -1.8570 0.9751
-4.3408 -4.1961 -1.8570 0.9751
-4.0287 -4.4966 -1.8570 0.9751
-3.3440 -5.0267 -1.8570 0.9751
-2.9749 -5.2536 -1.8570 0.9751
-2.7845 -5.3570 -1.8570 0.9751
-2.1927 -5.6252 -1.8570 0.9751
-1.4718 -6.3389 -2.0016 0.9731
-1.0134 -6.4281 -2.0016 0.9731
-0.5498 -6.4842 -2.0016 0.9731
0.1502 -6.5057 -2.0016 0.9731
0.6163 -6.4782 -2.0016 0.9731
1.0793 -6.4173 -2.0016 0.9731
1.3089 -6.3745 -2.0016 0.9731
1.5368 -6.3234 -2.0016 0.9731
1.9863 -6.1969 -2.0016 0.9731
2.4499 -5.5180 -1.8570 0.9751
2.0794 -4.2641 -1.4592 0.9803
2.1760 -4.0834 -1.4232 0.9808
2.3662 -4.0803 -1.4508 0.9805
3.4644 -5.5087 -2.0016 0.9731
4.0363 -5.1045 -2.0016 0.9731
4.2168 -4.9564 -2.0016 0.9731
4.3919 -4.8019 -2.0016 0.9731
4.7250 -4.4746 -2.0016 0.9731
4.8825 -4.3022 -2.0016 0.9731
5.1784 -3.9409 -2.0016 0.9731
5.3165 -3.7526 -2.0016 0.9731
5.7987 -2.9534 -2.0016 0.9731
5.9009 -2.7435 -2.0016 0.9731
5.9955 -2.5300 -2.0016 0.9731
6.0825 -2.3132 -2.0016 0.9731
6.2327 -1.8711 -2.0016 0.9731
6.3508 -1.4193 -2.0016 0.9731
6.3977 -1.1905 -2.0016 0.9731
6.4666 -0.7286 -2.0016 0.9731
6.4885 -0.4961 -2.0016 0.9731
4.9315 3.4551 -2.0016 0.9749
4.8044 3.6299 -2.0016 0.9749
4.6710 3.7999 -2.0016 0.9749
4.0794 4.4290 -2.0016 0.9749
3.7512 4.7102 -2.0016 0.9749
3.5798 4.8418 -2.0016 0.9749
2.8504 5.3041 -2.0016 0.9749
2.2639 5.5797 -2.0016 0.9749
2.0622 5.6573 -2.0016 0.9749
1.6512 5.7906 -2.0016 0.9749
1.4424 5.8461 -2.0016 0.9749
1.0194 5.9345 -2.0016 0.9749
0.8058 5.9673 -2.0016 0.9749
0.3758 6.0097 -2.0016 0.9749
-0.2721 6.0153 -2.0016 0.9749
-0.4878 6.0016 -2.0016 0.9749
-0.7028 5.9803 -2.0016 0.9749
-1.5511 5.8182 -2.0016 0.9749
-2.3675 5.5365 -2.0016 0.9749
-2.9488 5.2500 -2.0016 0.9749
-3.1352 5.1408 -2.0016 0.9749
-3.3177 5.0250 -2.0016 0.9749
-4.0024 4.4987 -2.0016 0.9749
-4.1612 4.3522 -2.0016 0.9749
-4.3147 4.2001 -2.0016 0.9749
-4.6048 3.8799 -2.0016 0.9749
-4.8712 3.5396 -2.0016 0.9749
-5.1125 3.1812 -2.0016 0.9749
-5.2234 2.9957 -2.0016 0.9749
-5.3275 2.8064 -2.0016 0.9749
-5.4247 2.6134 -2.0016 0.9749
-5.5982 2.2176 -2.0016 0.9749
-5.7428 1.8105 -2.0016 0.9749
-5.8041 1.6033 -2.0016 0.9749
-5.9041 1.1829 -2.0016 0.9749
-5.9427 0.9703 -2.0016 0.9749
-6.0205 -0.1059 -2.0016 0.9749
-6.0128 -0.3219 -2.0016 0.9749
-5.9974 -0.5374 -2.0016 0.9749
-5.9743 -0.7523 -2.0016 0.9749
-5.9434 -0.9662 -2.0016 0.9749
-5.8052 -1.5992 -2.0016 0.9749
-5.5997 -2.2138 -2.0016 0.9749
-5.1316 -2.2448 -1.8618 0.9767
-5.0346 -2.4211 -1.8570 0.9767
-4.8480 -2.7760 -1.8570 0.9767
-4.7453 -2.9481 -1.8570 0.9767
-4.5216 -3.2808 -1.8570 0.9767
-3.7162 -4.1712 -1.8570 0.9767
-3.5641 -4.3018 -1.8570 0.9767
-3.2465 -4.5464 -1.8570 0.9767
-2.9121 -4.7675 -1.8570 0.9767
-2.5627 -4.9640 -1.8570 0.9767
-2.2001 -5.1350 -1.8570 0.9767
-2.0144 -5.2107 -1.8570 0.9767
-1.8262 -5.2796 -1.8570 0.9767
-1.4428 -5.3970 -1.8570 0.9767
-1.0521 -5.4865 -1.8570 0.9767
-0.8546 -5.5207 -1.8570 0.9767
-0.6559 -5.5479 -1.8570 0.9767
-0.2564 -5.5806 -1.8570 0.9767
0.1445 -5.5846 -1.8570 0.9767
0.3448 -5.5758 -1.8570 0.9767
0.5446 -5.5599 -1.8570 0.9767
0.7447 -5.5440 -1.8594 0.9767
1.7200 -5.3151 -1.8570 0.9767
1.9096 -5.2500 -1.8570 0.9767
2.0968 -5.1781 -1.8570 0.9767
2.2812 -5.0995 -1.8570 0.9767
2.0666 -4.2078 -1.5583 0.9804
2.3727 -4.0654 -1.5647 0.9804
2.9873 -4.7207 -1.8570 0.9767
3.1547 -4.6105 -1.8570 0.9767
3.3239 -4.5022 -1.8602 0.9767
3.9147 -4.5753 -2.0016 0.9749
4.0763 -4.4319 -2.0016 0.9749
4.3836 -4.1281 -2.0016 0.9749
