ply
format ascii 1.0
element vertex 1598
property float32 x
property float32 y
property float32 z
property float32 I
end_header
0.9410 -8.4643 -2.0016 0.9656
1.8445 -8.3143 -2.0016 0.9656
2.1414 -8.2428 -2.0016 0.9656
2.7266 -8.0682 -2.0016 0.9656
3.2978 -7.8520 -2.0016 0.9656
3.5772 -7.7288 -2.0016 0.9656
2.2955 -4.1504 -1.1147 0.9807
4.3864 -7.2999 -2.0016 0.9656
4.6453 -7.1380 -2.0016 0.9656
5.3849 -6.5979 -2.0016 0.9656
5.6180 -6.4006 -2.0016 0.9656
6.0623 -5.9815 -2.0016 0.9656
6.2728 -5.7603 -2.0016 0.9656
6.4754 -5.5317 -2.0016 0.9656
6.6695 -5.2960 -2.0016 0.9656
6.8551 -5.0534 -2.0016 0.9656
7.1996 -4.5492 -2.0016 0.9656
7.7760 -3.4732 -2.0016 0.9656
7.8956 -3.1922 -2.0016 0.9656
8.1040 -2.6182 -2.0016 0.9656
8.1927 -2.3259 -2.0016 0.9656
8.2708 -2.0307 -2.0016 0.9656
8.5004 -0.5230 -2.0016 0.9656
8.4878 0.6976 -2.0016 0.9656
8.4160 1.3040 -2.0016 0.9656
8.3639 1.6050 -2.0016 0.9656
8.3009 1.9038 -2.0016 0.9656
8.2273 2.2002 -2.0016 0.9656
8.1431 2.4938 -2.0016 0.9656
7.9435 3.0709 -2.0016 0.9656
7.7030 3.6323 -2.0016 0.9656
7.5678 3.9061 -2.0016 0.9656
7.1046 4.6962 -2.0016 0.9656
6.9317 4.9479 -2.0016 0.9656
6.7498 5.1932 -2.0016 0.9656
6.1531 5.8880 -2.0016 0.9656
5.9381 6.1049 -2.0016 0.9656
5.2482 6.7072 -2.0016 0.9656
4.2355 7.3885 -2.0016 0.9656
3.6951 7.6731 -2.0016 0.9656
3.4176 7.8006 -2.0016 0.9656
3.1357 7.9182 -2.0016 0.9656
2.8498 8.0255 -2.0016 0.9656
2.2638 8.1962 -1.9984 0.9657
1.6672 8.3202 -1.9943 0.9657
1.3555 8.2997 -1.9765 0.9660
1.0478 8.2695 -1.9590 0.9663
0.7465 8.2566 -1.9484 0.9665
0.4481 8.2434 -1.9402 0.9666
-0.4396 8.2430 -1.9400 0.9667
-1.6416 8.2367 -1.9739 0.9661
-1.9504 8.2340 -1.9887 0.9658
-2.5450 8.1031 -1.9961 0.9657
-2.8360 8.0128 -1.9977 0.9657
-3.6872 7.6769 -2.0016 0.9656
-3.9601 7.5397 -2.0016 0.9656
-4.2279 7.3929 -2.0016 0.9656
-4.4902 7.2366 -2.0016 0.9656
-4.9973 6.8962 -2.0016 0.9656
-5.2413 6.7126 -2.0016 0.9656
-5.9318 6.1109 -2.0016 0.9656
-6.7445 5.2002 -2.0016 0.9656
-7.4186 4.1826 -2.0016 0.9656
-7.5638 3.9139 -2.0016 0.9656
-7.6993 3.6402 -2.0016 0.9656
-7.8248 3.3618 -2.0016 0.9656
-8.0456 2.7924 -2.0016 0.9656
-8.1406 2.5022 -2.0016 0.9656
-8.2251 2.2087 -2.0016 0.9656
-8.4147 1.3127 -2.0016 0.9656
-8.4871 0.7063 -2.0016 0.9656
-8.5070 0.4015 -2.0016 0.9656
-8.5139 -0.2091 -2.0016 0.9656
-8.5009 -0.5143 -2.0016 0.9656
-8.4770 -0.8187 -2.0016 0.9656
-8.4422 -1.1221 -2.0016 0.9656
-8.3401 -1.7242 -2.0016 0.9656
-8.2729 -2.0222 -2.0016 0.9656
-7.2176 -3.2149 -1.8570 0.9681
-7.0977 -3.4716 -1.8570 0.9681
-6.9687 -3.7239 -1.8570 0.9681
-6.8307 -3.9714 -1.8570 0.9681
-6.5285 -4.4507 -1.8570 0.9681
-6.1928 -4.9071 -1.8570 0.9681
-6.0129 -5.1259 -1.8570 0.9681
-5.8503 -6.1890 -2.0016 0.9656
-5.6246 -6.3948 -2.0016 0.9656
-5.3917 -6.5924 -2.0016 0.9656
-1.8421 -7.5078 -2.0016 0.9686
-0.1966 -7.7280 -2.0016 0.9686
0.3577 -7.7222 -2.0016 0.9686
0.6344 -7.7044 -2.0016 0.9686
4.4923 -6.2913 -2.0016 0.9686
4.7149 -6.1262 -2.0016 0.9686
5.1418 -5.7725 -2.0016 0.9686
5.3455 -5.5845 -2.0016 0.9686
5.5423 -5.3892 -2.0016 0.9686
5.7319 -5.1870 -2.0016 0.9686
6.4146 -4.3143 -2.0016 0.9686
6.5652 -4.0816 -2.0016 0.9686
6.8408 -3.6006 -2.0016 0.9686
6.9655 -3.3530 -2.0016 0.9686
7.0812 -3.1011 -2.0016 0.9686
7.1879 -2.8452 -2.0016 0.9686
7.2852 -2.5857 -2.0016 0.9686
7.3733 -2.3228 -2.0016 0.9686
7.5208 -1.7884 -2.0016 0.9686
7.7192 -0.4184 -2.0016 0.9686
7.7292 -0.1414 -2.0016 0.9686
7.7194 0.4129 -2.0016 0.9686
7.6997 0.6894 -2.0016 0.9686
7.6700 0.9650 -2.0016 0.9686
7.6305 1.2394 -2.0016 0.9686
7.5221 1.7830 -2.0016 0.9686
7.3749 2.3175 -2.0016 0.9686
7.1899 2.8401 -2.0016 0.9686
7.0834 3.0960 -2.0016 0.9686
6.9679 3.3480 -2.0016 0.9686
6.8434 3.5957 -2.0016 0.9686
6.7100 3.8387 -2.0016 0.9686
6.5681 4.0769 -2.0016 0.9686
6.2590 4.5371 -2.0016 0.9686
5.9178 4.9739 -2.0016 0.9686
5.3495 5.5806 -2.0016 0.9686
5.1460 5.7688 -2.0016 0.9686
4.4967 6.2881 -2.0016 0.9686
4.2684 6.4452 -2.0016 0.9686
4.0346 6.5941 -2.0016 0.9686
3.3032 6.9892 -2.0016 0.9686
2.2701 7.3897 -2.0016 0.9686
2.0037 7.4663 -2.0016 0.9686
1.7347 7.5333 -2.0016 0.9686
1.4635 7.5907 -2.0016 0.9686
0.6399 7.7040 -2.0016 0.9686
0.3633 7.7219 -2.0016 0.9686
-0.4680 7.7163 -2.0016 0.9686
-1.0198 7.6629 -2.0016 0.9686
-1.2939 7.6214 -2.0016 0.9686
-1.5663 7.5701 -2.0016 0.9686
-1.8367 7.5091 -2.0016 0.9686
-2.1048 7.4384 -2.0016 0.9686
-2.6324 7.2685 -2.0016 0.9686
-3.3977 6.9438 -2.0016 0.9686
-3.6445 6.8175 -2.0016 0.9686
-4.1237 6.5388 -2.0016 0.9686
-4.5816 6.2265 -2.0016 0.9686
-4.8019 6.0582 -2.0016 0.9686
-5.2238 5.6985 -2.0016 0.9686
-5.4247 5.5075 -2.0016 0.9686
-5.9847 4.8932 -2.0016 0.9686
-6.3200 4.4517 -2.0016 0.9686
-6.6228 3.9874 -2.0016 0.9686
-7.0127 3.2532 -2.0016 0.9686
-7.1248 2.9996 -2.0016 0.9686
-7.3214 2.4813 -2.0016 0.9686
-7.6010 1.4092 -2.0016 0.9686
-7.6466 1.1358 -2.0016 0.9686
-7.6824 0.8609 -2.0016 0.9686
-7.7083 0.5849 -2.0016 0.9686
-7.7128 -0.5231 -2.0016 0.9686
-7.6891 -0.7993 -2.0016 0.9686
-7.6555 -1.0745 -2.0016 0.9686
-7.6120 -1.3483 -2.0016 0.9686
-7.5588 -1.6203 -2.0016 0.9686
-7.4958 -1.8903 -2.0016 0.9686
-7.4232 -2.1578 -2.0016 0.9686
-6.7258 -2.4904 -1.8570 0.9708
-6.6322 -2.7299 -1.8570 0.9708
-6.5301 -2.9660 -1.8570 0.9708
-6.4195 -3.1982 -1.8570 0.9708
-6.3007 -3.4263 -1.8570 0.9708
-6.1738 -3.6500 -1.8570 0.9708
-6.0390 -3.8690 -1.8570 0.9708
-5.7462 -4.2918 -1.8570 0.9708
-5.5886 -4.4951 -1.8570 0.9708
-4.8886 -5.2479 -1.8570 0.9708
-4.6973 -5.4198 -1.8570 0.9708
-4.5000 -5.5847 -1.8570 0.9708
-4.6314 -6.1896 -2.0016 0.9686
-3.9400 -6.6511 -2.0016 0.9686
-3.6990 -6.7881 -2.0016 0.9686
-2.6906 -7.2472 -2.0016 0.9686
-2.4290 -7.3390 -2.0016 0.9686
-1.6269 -7.5574 -2.0016 0.9686
-1.3549 -7.6108 -2.0016 0.9686
-0.5298 -7.7123 -2.0016 0.9686
0.0242 -7.7304 -2.0016 0.9686
0.3014 -7.7246 -2.0016 0.9686
0.5782 -7.7088 -2.0016 0.9686
1.1291 -7.6476 -2.0016 0.9686
1.4026 -7.6022 -2.0016 0.9686
1.6743 -7.5470 -2.0016 0.9686
1.9438 -7.4821 -2.0016 0.9686
3.2471 -7.0155 -2.0016 0.9686
2.1125 -4.1655 -1.2093 0.9809
3.9816 -6.6263 -2.0016 0.9686
4.2166 -6.4792 -2.0016 0.9686
4.6701 -6.1604 -2.0016 0.9686
4.8880 -5.9890 -2.0016 0.9686
5.0996 -5.8099 -2.0016 0.9686
5.3046 -5.6233 -2.0016 0.9686
5.5028 -5.4295 -2.0016 0.9686
5.8778 -5.0212 -2.0016 0.9686
6.2225 -4.5871 -2.0016 0.9686
6.3829 -4.3610 -2.0016 0.9686
6.8143 -3.6504 -2.0016 0.9686
6.9408 -3.4037 -2.0016 0.9686
7.0584 -3.1527 -2.0016 0.9686
7.1669 -2.8976 -2.0016 0.9686
7.3561 -2.3765 -2.0016 0.9686
7.4366 -2.1113 -2.0016 0.9686
7.5075 -1.8433 -2.0016 0.9686
7.5688 -1.5729 -2.0016 0.9686
7.6203 -1.3005 -2.0016 0.9686
7.7301 0.0794 -2.0016 0.9686
7.7223 0.3566 -2.0016 0.9686
7.5920 1.4568 -2.0016 0.9686
7.5349 1.7281 -2.0016 0.9686
7.3916 2.2636 -2.0016 0.9686
7.2104 2.7875 -2.0016 0.9686
6.9921 3.2971 -2.0016 0.9686
6.8694 3.5457 -2.0016 0.9686
6.7379 3.7897 -2.0016 0.9686
6.4490 4.2628 -2.0016 0.9686
5.9539 4.9306 -2.0016 0.9686
5.7733 5.1409 -2.0016 0.9686
5.3901 5.5414 -2.0016 0.9686
5.1879 5.7311 -2.0016 0.9686
4.5425 6.2551 -2.0016 0.9686
3.3541 6.9649 -2.0016 0.9686
2.5868 7.2848 -2.0016 0.9686
2.0581 7.4515 -2.0016 0.9686
1.7896 7.5205 -2.0016 0.9686
1.5188 7.5798 -2.0016 0.9686
1.2461 7.6294 -2.0016 0.9686
0.1426 7.7292 -2.0016 0.9686
-0.4117 7.7195 -2.0016 0.9686
-0.6882 7.6998 -2.0016 0.9686
-0.9638 7.6702 -2.0016 0.9686
-1.7819 7.5223 -2.0016 0.9686
-2.0504 7.4536 -2.0016 0.9686
-2.5793 7.2875 -2.0016 0.9686
-2.8389 7.1903 -2.0016 0.9686
-3.0949 7.0839 -2.0016 0.9686
-3.3469 6.9684 -2.0016 0.9686
-3.8377 6.7106 -2.0016 0.9686
-4.0758 6.5687 -2.0016 0.9686
-4.3087 6.4184 -2.0016 0.9686
-4.7576 6.0931 -2.0016 0.9686
-4.9730 5.9186 -2.0016 0.9686
-5.1820 5.7365 -2.0016 0.9686
-5.9489 4.9367 -2.0016 0.9686
-6.1220 4.7203 -2.0016 0.9686
-6.4446 4.2694 -2.0016 0.9686
-6.5935 4.0356 -2.0016 0.9686
-6.8658 3.5527 -2.0016 0.9686
-7.1027 3.0516 -2.0016 0.9686
-7.4660 2.0048 -2.0016 0.9686
-7.5905 1.4646 -2.0016 0.9686
-7.6759 0.9169 -2.0016 0.9686
-7.7039 0.6411 -2.0016 0.9686
-7.7219 0.3645 -2.0016 0.9686
-7.7300 0.0874 -2.0016 0.9686
-7.7164 -0.4668 -2.0016 0.9686
-7.6947 -0.7432 -2.0016 0.9686
-7.6631 -1.0186 -2.0016 0.9686
-7.6217 -1.2927 -2.0016 0.9686
-6.7438 -2.4412 -1.8570 0.9708
-6.6520 -2.6814 -1.8570 0.9708
-6.4427 -3.1512 -1.8570 0.9708
-6.2003 -3.6049 -1.8570 0.9708
-5.6213 -4.4542 -1.8570 0.9708
-5.4580 -4.6529 -1.8570 0.9708
-5.1105 -5.0321 -1.8570 0.9708
-4.9268 -5.2121 -1.8570 0.9708
-4.7367 -5.3854 -1.8570 0.9708
-1.4375 -6.9227 -2.0016 0.9710
-1.1884 -6.9698 -2.0016 0.9710
-0.6858 -7.0370 -2.0016 0.9710
0.0738 -7.0699 -2.0016 0.9710
0.3272 -7.0628 -2.0016 0.9710
0.8325 -7.0211 -2.0016 0.9710
1.5816 -6.8912 -2.0016 0.9710
2.5505 -6.5943 -2.0016 0.9710
2.1222 -4.1101 -1.3095 0.9810
3.6857 -6.0337 -2.0016 0.9710
3.8997 -5.8976 -2.0016 0.9710
4.1086 -5.7540 -2.0016 0.9710
4.7027 -5.2796 -2.0016 0.9710
5.2425 -4.7441 -2.0016 0.9710
5.5690 -4.3562 -2.0016 0.9710
5.7216 -4.1537 -2.0016 0.9710
5.8668 -3.9459 -2.0016 0.9710
6.0045 -3.7330 -2.0016 0.9710
6.1345 -3.5153 -2.0016 0.9710
6.3707 -3.0667 -2.0016 0.9710
6.5740 -2.6022 -2.0016 0.9710
6.7436 -2.1244 -2.0016 0.9710
6.9781 -1.1386 -2.0016 0.9710
7.0144 -0.8876 -2.0016 0.9710
7.0692 -0.1293 -2.0016 0.9710
7.0692 0.1242 -2.0016 0.9710
7.0150 0.8826 -2.0016 0.9710
6.8797 1.6308 -2.0016 0.9710
6.5759 2.5975 -2.0016 0.9710
6.4785 2.8316 -2.0016 0.9710
6.0072 3.7287 -2.0016 0.9710
5.8696 3.9417 -2.0016 0.9710
5.7245 4.1496 -2.0016 0.9710
5.4124 4.5492 -2.0016 0.9710
5.2459 4.7403 -2.0016 0.9710
4.8927 5.1041 -2.0016 0.9710
4.7065 5.2762 -2.0016 0.9710
4.5143 5.4416 -2.0016 0.9710
4.3163 5.5999 -2.0016 0.9710
3.9039 5.8948 -2.0016 0.9710
3.4714 6.1594 -2.0016 0.9710
3.2483 6.2800 -2.0016 0.9710
3.0211 6.3924 -2.0016 0.9710
2.7899 6.4966 -2.0016 0.9710
2.5552 6.5924 -2.0016 0.9710
2.3172 6.6798 -2.0016 0.9710
1.5865 6.8900 -2.0016 0.9710
1.3385 6.9425 -2.0016 0.9710
0.8375 7.0206 -2.0016 0.9710
0.5853 7.0461 -2.0016 0.9710
0.3322 7.0625 -2.0016 0.9710
-0.1747 7.0682 -2.0016 0.9710
-0.4280 7.0574 -2.0016 0.9710
-0.9327 7.0085 -2.0016 0.9710
-1.1834 6.9706 -2.0016 0.9710
-1.4325 6.9237 -2.0016 0.9710
-2.8778 6.4582 -2.0016 0.9710
-3.1075 6.3508 -2.0016 0.9710
-3.5547 6.1118 -2.0016 0.9710
-3.7715 5.9804 -2.0016 0.9710
-4.5877 5.3798 -2.0016 0.9710
-4.7777 5.2119 -2.0016 0.9710
-4.9615 5.0372 -2.0016 0.9710
-5.1389 4.8561 -2.0016 0.9710
-5.4737 4.4753 -2.0016 0.9710
-5.6306 4.2762 -2.0016 0.9710
-5.7803 4.0716 -2.0016 0.9710
-6.1841 3.4273 -2.0016 0.9710
-6.3030 3.2034 -2.0016 0.9710
-6.5164 2.7435 -2.0016 0.9710
-6.6962 2.2695 -2.0016 0.9710
-6.7733 2.0279 -2.0016 0.9710
-6.8416 1.7838 -2.0016 0.9710
-6.9012 1.5373 -2.0016 0.9710
-6.9936 1.0388 -2.0016 0.9710
-7.0703 0.0283 -2.0016 0.9710
-7.0324 -0.7310 -2.0016 0.9710
-7.0017 -0.9827 -2.0016 0.9710
-6.9620 -1.2331 -2.0016 0.9710
-6.9133 -1.4820 -2.0016 0.9710
-6.8557 -1.7289 -2.0016 0.9710
-6.7893 -1.9736 -2.0016 0.9710
-6.1515 -2.2777 -1.8570 0.9731
-5.9724 -2.7127 -1.8570 0.9731
-5.8713 -2.9251 -1.8570 0.9731
-5.7627 -3.1337 -1.8570 0.9731
-5.5233 -3.5386 -1.8570 0.9731
-5.3929 -3.7344 -1.8570 0.9731
-4.9607 -4.2919 -1.8570 0.9731
-4.6404 -4.6363 -1.8570 0.9731
-4.1157 -5.1078 -1.8570 0.9731
-3.9299 -5.2521 -1.8570 0.9731
-3.3432 -5.6437 -1.8570 0.9731
-3.1583 -6.3257 -2.0016 0.9710
-2.2216 -6.7123 -2.0016 0.9710
-1.9795 -6.7876 -2.0016 0.9710
-1.7348 -6.8542 -2.0016 0.9710
-1.4880 -6.9120 -2.0016 0.9710
-0.9888 -7.0008 -2.0016 0.9710
-0.7372 -7.0318 -2.0016 0.9710
-0.2313 -7.0665 -2.0016 0.9710
0.5288 -7.0505 -2.0016 0.9710
1.5313 -6.9025 -2.0016 0.9710
2.0220 -6.7750 -2.0016 0.9710
2.1011 -4.1431 -1.3151 0.9809
2.2657 -4.0965 -1.3252 0.9807
3.6416 -6.0604 -2.0016 0.9710
3.8565 -5.9259 -2.0016 0.9710
4.2713 -5.6343 -2.0016 0.9710
5.3758 -4.5924 -2.0016 0.9710
5.5370 -4.3967 -2.0016 0.9710
5.6911 -4.1953 -2.0016 0.9710
5.8379 -3.9886 -2.0016 0.9710
5.9771 -3.7767 -2.0016 0.9710
6.2324 -3.3387 -2.0016 0.9710
6.3481 -3.1131 -2.0016 0.9710
6.4556 -2.8834 -2.0016 0.9710
6.5549 -2.6501 -2.0016 0.9710
6.6457 -2.4134 -2.0016 0.9710
6.8015 -1.9310 -2.0016 0.9710
6.9696 -1.1895 -2.0016 0.9710
7.0369 -0.6869 -2.0016 0.9710
7.0570 -0.4342 -2.0016 0.9710
7.0466 0.5791 -2.0016 0.9710
7.0213 0.8314 -2.0016 0.9710
6.9870 1.0826 -2.0016 0.9710
6.9436 1.3324 -2.0016 0.9710
6.8303 1.8266 -2.0016 0.9710
6.7604 2.0703 -2.0016 0.9710
6.5947 2.5495 -2.0016 0.9710
6.3950 3.0155 -2.0016 0.9710
5.8982 3.8988 -2.0016 0.9710
5.7547 4.1077 -2.0016 0.9710
5.4455 4.5096 -2.0016 0.9710
4.7449 5.2417 -2.0016 0.9710
4.5539 5.4085 -2.0016 0.9710
4.1546 5.7209 -2.0016 0.9710
3.7339 6.0039 -2.0016 0.9710
3.2941 6.2561 -2.0016 0.9710
1.8823 6.8152 -2.0016 0.9710
1.6368 6.8783 -2.0016 0.9710
1.3891 6.9325 -2.0016 0.9710
1.1396 6.9779 -2.0016 0.9710
0.8887 7.0143 -2.0016 0.9710
-0.1231 7.0693 -2.0016 0.9710
-0.3765 7.0603 -2.0016 0.9710
-0.8815 7.0152 -2.0016 0.9710
-1.1325 6.9790 -2.0016 0.9710
-1.8753 6.8171 -2.0016 0.9710
-2.3590 6.6652 -2.0016 0.9710
-2.5965 6.5763 -2.0016 0.9710
-2.8306 6.4790 -2.0016 0.9710
-3.5100 6.1376 -2.0016 0.9710
-3.9408 5.8702 -2.0016 0.9710
-4.5483 5.4131 -2.0016 0.9710
-4.7395 5.2466 -2.0016 0.9710
-4.9246 5.0733 -2.0016 0.9710
-5.2755 4.7073 -2.0016 0.9710
-5.8942 3.9048 -2.0016 0.9710
-6.3919 3.0221 -2.0016 0.9710
-6.4962 2.7910 -2.0016 0.9710
-6.5921 2.5563 -2.0016 0.9710
-6.6795 2.3183 -2.0016 0.9710
-6.7583 2.0773 -2.0016 0.9710
-6.9423 1.3396 -2.0016 0.9710
-7.0460 0.5864 -2.0016 0.9710
-7.0699 0.0799 -2.0016 0.9710
-6.9239 -1.4315 -2.0016 0.9710
-6.8681 -1.6788 -2.0016 0.9710
-6.7302 -2.1667 -2.0016 0.9710
-6.0839 -2.4525 -1.8570 0.9731
-5.6708 -3.2970 -1.8570 0.9731
-5.5490 -3.4982 -1.8570 0.9731
-4.8361 -4.4318 -1.8570 0.9731
-4.5061 -4.7670 -1.8570 0.9731
-4.3322 -4.9255 -1.8570 0.9731
-1.5507 -6.3200 -2.0016 0.9731
-1.3231 -6.3716 -2.0016 0.9731
-1.0938 -6.4149 -2.0016 0.9731
-0.3986 -6.4953 -2.0016 0.9731
0.5340 -6.4855 -2.0016 0.9731
0.7662 -6.4622 -2.0016 0.9731
0.9974 -6.4306 -2.0016 0.9731
2.1283 -6.1496 -2.0016 0.9731
2.0743 -4.3972 -1.4954 0.9799
2.1135 -4.0932 -1.4169 0.9809
2.2964 -4.0815 -1.4404 0.9806
3.3923 -5.5533 -2.0016 0.9731
3.5892 -5.4281 -2.0016 0.9731
3.7816 -5.2960 -2.0016 0.9731
3.9690 -5.1570 -2.0016 0.9731
4.1514 -5.0113 -2.0016 0.9731
4.3284 -4.8593 -2.0016 0.9731
4.4998 -4.7010 -2.0016 0.9731
4.6655 -4.5366 -2.0016 0.9731
4.9786 -4.1906 -2.0016 0.9731
5.1256 -4.0094 -2.0016 0.9731
5.2661 -3.8230 -2.0016 0.9731
5.6462 -3.2355 -2.0016 0.9731
6.0507 -2.3951 -2.0016 0.9731
6.2068 -1.9553 -2.0016 0.9731
6.2729 -1.7315 -2.0016 0.9731
6.3309 -1.5055 -2.0016 0.9731
6.4811 -0.5850 -2.0016 0.9731
6.5065 0.1144 -2.0016 0.9731
6.4982 0.3476 -2.0016 0.9731
6.4566 0.8124 -2.0016 0.9731
6.4233 1.0433 -2.0016 0.9731
6.2082 1.9509 -2.0016 0.9731
6.0524 2.3908 -2.0016 0.9731
5.7607 3.0268 -2.0016 0.9731
5.5290 3.4319 -2.0016 0.9731
5.4024 3.6279 -2.0016 0.9731
5.1285 4.0057 -2.0016 0.9731
4.9816 4.1870 -2.0016 0.9731
4.8282 4.3630 -2.0016 0.9731
4.6687 4.5333 -2.0016 0.9731
4.5032 4.6977 -2.0016 0.9731
4.3318 4.8562 -2.0016 0.9731
4.1549 5.0084 -2.0016 0.9731
3.9727 5.1541 -2.0016 0.9731
3.7853 5.2933 -2.0016 0.9731
2.9898 5.7800 -2.0016 0.9731
2.5678 5.9794 -2.0016 0.9731
2.3518 6.0676 -2.0016 0.9731
1.6867 6.2851 -2.0016 0.9731
1.4602 6.3415 -2.0016 0.9731
1.0020 6.4299 -2.0016 0.9731
0.7708 6.4617 -2.0016 0.9731
-0.1608 6.5055 -2.0016 0.9731
-0.6266 6.4772 -2.0016 0.9731
-1.0892 6.4157 -2.0016 0.9731
-2.6487 5.9440 -2.0016 0.9731
-3.0679 5.7389 -2.0016 0.9731
-4.2225 4.9515 -2.0016 0.9731
-4.3973 4.7970 -2.0016 0.9731
-4.8870 4.2970 -2.0016 0.9731
-5.3202 3.7474 -2.0016 0.9731
-5.4511 3.5543 -2.0016 0.9731
-5.9032 2.7385 -2.0016 0.9731
-5.9976 2.5251 -2.0016 0.9731
-6.0843 2.3084 -2.0016 0.9731
-6.1631 2.0888 -2.0016 0.9731
-6.2970 1.6418 -2.0016 0.9731
-6.3518 1.4149 -2.0016 0.9731
-6.4670 0.7247 -2.0016 0.9731
-6.5023 0.2594 -2.0016 0.9731
-6.5074 0.0261 -2.0016 0.9731
-6.4443 -0.9045 -2.0016 0.9731
-6.4077 -1.1350 -2.0016 0.9731
-6.3629 -1.3640 -2.0016 0.9731
-6.1797 -2.0393 -2.0016 0.9731
-5.5830 -2.2980 -1.8570 0.9751
-5.4970 -2.4967 -1.8570 0.9751
-5.4039 -2.6922 -1.8570 0.9751
-5.3039 -2.8842 -1.8570 0.9751
-5.1971 -3.0726 -1.8570 0.9751
-5.0836 -3.2569 -1.8570 0.9751
-4.9635 -3.4371 -1.8570 0.9751
-4.8371 -3.6128 -1.8570 0.9751
-4.5658 -3.9502 -1.8570 0.9751
-4.4212 -4.1114 -1.8570 0.9751
-4.2710 -4.2672 -1.8570 0.9751
-3.9542 -4.5623 -1.8570 0.9751
-3.4414 -4.9606 -1.8570 0.9751
-3.2613 -5.0808 -1.8570 0.9751
-3.0771 -5.1944 -1.8570 0.9751
-2.8889 -5.3014 -1.8570 0.9751
-2.6969 -5.4016 -1.8570 0.9751
-2.5015 -5.4948 -1.8570 0.9751
-2.1013 -5.6599 -1.8570 0.9751
-1.8219 -6.2472 -2.0016 0.9731
-1.5967 -6.3085 -2.0016 0.9731
-0.9101 -6.4435 -2.0016 0.9731
-0.6785 -6.4720 -2.0016 0.9731
-0.4460 -6.4922 -2.0016 0.9731
-0.2129 -6.5040 -2.0016 0.9731
0.4867 -6.4893 -2.0016 0.9731
0.7190 -6.4676 -2.0016 0.9731
1.1807 -6.3995 -2.0016 0.9731
1.6363 -6.2984 -2.0016 0.9731
2.0834 -6.1650 -2.0016 0.9731
2.3031 -6.0863 -2.0016 0.9731
2.5359 -5.4790 -1.8570 0.9751
2.0903 -4.1217 -1.4215 0.9808
2.4582 -4.0909 -1.4680 0.9802
3.5495 -5.4542 -2.0016 0.9731
3.9313 -5.1858 -2.0016 0.9731
4.2928 -4.8907 -2.0016 0.9731
5.3731 -3.6711 -2.0016 0.9731
5.5013 -3.4761 -2.0016 0.9731
5.7363 -3.0729 -2.0016 0.9731
5.8427 -2.8652 -2.0016 0.9731
6.1166 -2.2213 -2.0016 0.9731
6.1923 -2.0005 -2.0016 0.9731
6.2601 -1.7772 -2.0016 0.9731
6.3198 -1.5516 -2.0016 0.9731
6.3714 -1.3241 -2.0016 0.9731
6.4147 -1.0948 -2.0016 0.9731
6.4499 -0.8641 -2.0016 0.9731
6.4767 -0.6322 -2.0016 0.9731
6.4952 -0.3996 -2.0016 0.9731
6.5054 -0.1665 -2.0016 0.9731
6.5006 0.3001 -2.0016 0.9731
6.4856 0.5330 -2.0016 0.9731
6.4623 0.7652 -2.0016 0.9731
6.4307 0.9964 -2.0016 0.9731
6.3428 1.4547 -2.0016 0.9731
6.2866 1.6812 -2.0016 0.9731
6.2222 1.9055 -2.0016 0.9731
6.0697 2.3465 -2.0016 0.9731
5.9817 2.5626 -2.0016 0.9731
5.7826 2.9847 -2.0016 0.9731
5.6719 3.1901 -2.0016 0.9731
5.5539 3.3914 -2.0016 0.9731
5.4287 3.5884 -2.0016 0.9731
5.2965 3.7807 -2.0016 0.9731
5.0120 4.1506 -2.0016 0.9731
4.5373 4.6648 -2.0016 0.9731
4.3672 4.8244 -2.0016 0.9731
4.1914 4.9779 -2.0016 0.9731
4.0102 5.1250 -2.0016 0.9731
3.6326 5.3992 -2.0016 0.9731
3.0318 5.7581 -2.0016 0.9731
2.8234 5.8631 -2.0016 0.9731
2.6114 5.9605 -2.0016 0.9731
1.7325 6.2726 -2.0016 0.9731
1.2785 6.3806 -2.0016 0.9731
1.0489 6.4224 -2.0016 0.9731
0.8180 6.4559 -2.0016 0.9731
0.3532 6.4979 -2.0016 0.9731
0.1200 6.5064 -2.0016 0.9731
-0.1133 6.5065 -2.0016 0.9731
-0.3466 6.4982 -2.0016 0.9731
-1.0423 6.4235 -2.0016 0.9731
-1.9499 6.2085 -2.0016 0.9731
-2.3898 6.0528 -2.0016 0.9731
-2.6053 5.9632 -2.0016 0.9731
-2.8174 5.8660 -2.0016 0.9731
-3.0259 5.7612 -2.0016 0.9731
-3.6271 5.4029 -2.0016 0.9731
-4.0049 5.1291 -2.0016 0.9731
-4.1863 4.9822 -2.0016 0.9731
-4.3622 4.8289 -2.0016 0.9731
-4.5325 4.6694 -2.0016 0.9731
-4.6970 4.5039 -2.0016 0.9731
-5.1535 3.9735 -2.0016 0.9731
-5.4250 3.5940 -2.0016 0.9731
-5.5504 3.3971 -2.0016 0.9731
-5.9790 2.5688 -2.0016 0.9731
-6.1477 2.1337 -2.0016 0.9731
-6.2203 1.9119 -2.0016 0.9731
-6.2848 1.6877 -2.0016 0.9731
-6.3896 1.2329 -2.0016 0.9731
-6.4297 1.0030 -2.0016 0.9731
-6.4615 0.7719 -2.0016 0.9731
-6.4851 0.5397 -2.0016 0.9731
-6.5071 0.0736 -2.0016 0.9731
-6.4507 -0.8574 -2.0016 0.9731
-5.5996 -2.2572 -1.8570 0.9751
-5.4234 -2.6527 -1.8570 0.9751
-4.8634 -3.5774 -1.8570 0.9751
-4.5945 -3.9168 -1.8570 0.9751
-4.3020 -4.2360 -1.8570 0.9751
-3.9874 -4.5334 -1.8570 0.9751
-3.8223 -4.6734 -1.8570 0.9751
-1.3312 -5.4256 -1.8570 0.9767
-0.9390 -5.5070 -1.8570 0.9767
-0.7418 -5.5441 -1.8593 0.9767
-0.3422 -5.5760 -1.8570 0.9767
-0.1420 -5.5847 -1.8570 0.9767
0.0583 -5.5862 -1.8570 0.9767
0.6578 -5.5476 -1.8570 0.9767
0.8563 -5.5205 -1.8570 0.9767
1.0537 -5.4862 -1.8570 0.9767
1.2497 -5.4449 -1.8570 0.9767
1.4441 -5.3966 -1.8570 0.9767
1.6367 -5.3414 -1.8570 0.9767
2.0152 -5.2103 -1.8570 0.9767
2.2008 -5.1347 -1.8570 0.9767
2.0600 -4.3669 -1.6050 0.9799
2.1054 -4.0775 -1.5254 0.9808
2.2882 -4.0669 -1.5512 0.9805
2.9122 -4.7674 -1.8570 0.9767
3.4073 -4.4271 -1.8570 0.9767
4.0051 -4.4963 -2.0016 0.9749
4.1637 -4.3498 -2.0016 0.9749
4.4647 -4.0403 -2.0016 0.9749
4.6067 -3.8776 -2.0016 0.9749
4.8728 -3.5375 -2.0016 0.9749
4.9965 -3.3605 -2.0016 0.9749
5.1137 -3.1792 -2.0016 0.9749
5.4256 -2.6117 -2.0016 0.9749
5.5157 -2.4155 -2.0016 0.9749
5.5988 -2.2162 -2.0016 0.9749
5.6746 -2.0140 -2.0016 0.9749
5.8044 -1.6022 -2.0016 0.9749
5.9429 -0.9696 -2.0016 0.9749
5.9738 -0.7560 -2.0016 0.9749
6.0128 0.3216 -2.0016 0.9749
5.9743 0.7517 -2.0016 0.9749
5.9435 0.9654 -2.0016 0.9749
5.9051 1.1779 -2.0016 0.9749
5.8055 1.5980 -2.0016 0.9749
5.6761 2.0100 -2.0016 0.9749
5.6004 2.2122 -2.0016 0.9749
5.5174 2.4116 -2.0016 0.9749
5.2266 2.9901 -2.0016 0.9749
4.9989 3.3569 -2.0016 0.9749
4.6095 3.8743 -2.0016 0.9749
4.4676 4.0371 -2.0016 0.9749
4.1668 4.3469 -2.0016 0.9749
3.5026 4.8979 -2.0016 0.9749
3.3247 5.0203 -2.0016 0.9749
3.1426 5.1363 -2.0016 0.9749
2.9564 5.2457 -2.0016 0.9749
2.3760 5.5328 -2.0016 0.9749
2.1762 5.6145 -2.0016 0.9749
1.7682 5.7560 -2.0016 0.9749
1.3512 5.8679 -2.0016 0.9749
1.1399 5.9126 -2.0016 0.9749
0.2830 6.0148 -2.0016 0.9749
-0.1488 6.0196 -2.0016 0.9749
-0.3645 6.0104 -2.0016 0.9749
-0.7943 5.9688 -2.0016 0.9749
-1.0078 5.9365 -2.0016 0.9749
-1.2200 5.8966 -2.0016 0.9749
-1.4307 5.8490 -2.0016 0.9749
-1.8461 5.7315 -2.0016 0.9749
-2.0504 5.6616 -2.0016 0.9749
-2.2521 5.5844 -2.0016 0.9749
-2.6465 5.4087 -2.0016 0.9749
-2.8388 5.3103 -2.0016 0.9749
-3.0273 5.2051 -2.0016 0.9749
-3.2120 5.0932 -2.0016 0.9749
-3.3925 4.9748 -2.0016 0.9749
-3.5687 4.8499 -2.0016 0.9749
-3.7403 4.7189 -2.0016 0.9749
-3.9071 4.5817 -2.0016 0.9749
-4.5220 3.9761 -2.0016 0.9749
-4.7953 3.6418 -2.0016 0.9749
-4.9228 3.4676 -2.0016 0.9749
-5.0440 3.2888 -2.0016 0.9749
-5.2667 2.9189 -2.0016 0.9749
-5.5496 2.3365 -2.0016 0.9749
-5.7028 1.9328 -2.0016 0.9749
-5.8267 1.5191 -2.0016 0.9749
-6.0184 -0.1918 -2.0016 0.9749
-5.9292 -1.0502 -2.0016 0.9749
-5.8877 -1.2621 -2.0016 0.9749
-5.6468 -2.0908 -2.0016 0.9749
-5.4107 -2.2271 -1.9450 0.9756
-5.0864 -2.3102 -1.8570 0.9767
-4.9078 -2.6688 -1.8570 0.9767
-4.8089 -2.8431 -1.8570 0.9767
-4.7039 -3.0137 -1.8570 0.9767
-4.5928 -3.1804 -1.8570 0.9767
-4.4758 -3.3430 -1.8570 0.9767
-4.3531 -3.5013 -1.8570 0.9767
-4.0910 -3.8043 -1.8570 0.9767
-3.9520 -3.9485 -1.8570 0.9767
-3.6588 -4.2216 -1.8570 0.9767
-3.1844 -4.5901 -1.8570 0.9767
-3.0178 -4.7013 -1.8570 0.9767
-2.8473 -4.8065 -1.8570 0.9767
-2.4955 -4.9981 -1.8570 0.9767
-2.3147 -5.0844 -1.8570 0.9767
-2.1309 -5.1641 -1.8570 0.9767
-1.1757 -5.4614 -1.8570 0.9767
-0.7813 -5.5316 -1.8570 0.9767
-0.3829 -5.5734 -1.8570 0.9767
0.2178 -5.5822 -1.8570 0.9767
0.8160 -5.5266 -1.8570 0.9767
1.0136 -5.4938 -1.8570 0.9767
1.2099 -5.4539 -1.8570 0.9767
1.4047 -5.4070 -1.8570 0.9767
1.7885 -5.2924 -1.8570 0.9767
1.9772 -5.2249 -1.8570 0.9767
2.1632 -5.1507 -1.8570 0.9767
2.0677 -4.4674 -1.6364 0.9795
2.0796 -4.1006 -1.5283 0.9808
2.2497 -4.0676 -1.5451 0.9806
3.0472 -4.6823 -1.8570 0.9767
4.1319 -4.3801 -2.0016 0.9749
4.2863 -4.2292 -2.0016 0.9749
4.4351 -4.0728 -2.0016 0.9749
5.2025 -3.0319 -2.0016 0.9749
5.3078 -2.8434 -2.0016 0.9749
5.6598 -2.0554 -2.0016 0.9749
5.7925 -1.6445 -2.0016 0.9749
5.9356 -1.0130 -2.0016 0.9749
5.9681 -0.7995 -2.0016 0.9749
5.9930 -0.5850 -2.0016 0.9749
6.0101 -0.3698 -2.0016 0.9749
6.0211 0.0619 -2.0016 0.9749
5.9797 0.7081 -2.0016 0.9749
5.9135 1.1348 -2.0016 0.9749
5.8691 1.3461 -2.0016 0.9749
5.7575 1.7632 -2.0016 0.9749
5.6906 1.9685 -2.0016 0.9749
5.6164 2.1713 -2.0016 0.9749
5.5349 2.3712 -2.0016 0.9749
5.3507 2.7618 -2.0016 0.9749
5.2483 2.9519 -2.0016 0.9749
4.9010 3.4983 -2.0016 0.9749
4.7724 3.6718 -2.0016 0.9749
4.4970 4.0044 -2.0016 0.9749
4.1984 4.3164 -2.0016 0.9749
4.0410 4.4641 -2.0016 0.9749
3.8783 4.6061 -2.0016 0.9749
3.1800 5.1132 -2.0016 0.9749
2.9946 5.2240 -2.0016 0.9749
2.6126 5.4252 -2.0016 0.9749
2.0149 5.6743 -2.0016 0.9749
1.8102 5.7429 -2.0016 0.9749
1.6031 5.8041 -2.0016 0.9749
1.1830 5.9041 -2.0016 0.9749
0.9706 5.9427 -2.0016 0.9749
0.3269 6.0126 -2.0016 0.9749
-0.1049 6.0205 -2.0016 0.9749
-0.3207 6.0129 -2.0016 0.9749
-0.7507 5.9745 -2.0016 0.9749
-0.9645 5.9437 -2.0016 0.9749
-1.5971 5.8058 -2.0016 0.9749
-1.8043 5.7448 -2.0016 0.9749
-2.4107 5.5178 -2.0016 0.9749
-2.6070 5.4278 -2.0016 0.9749
-2.7999 5.3309 -2.0016 0.9749
-2.9893 5.2271 -2.0016 0.9749
-3.3562 4.9994 -2.0016 0.9749
-3.5333 4.8758 -2.0016 0.9749
-3.7058 4.7460 -2.0016 0.9749
-4.1940 4.3207 -2.0016 0.9749
-4.3462 4.1675 -2.0016 0.9749
-4.8973 3.5034 -2.0016 0.9749
-5.0198 3.3255 -2.0016 0.9749
-5.1358 3.1434 -2.0016 0.9749
-5.5325 2.3769 -2.0016 0.9749
-5.6141 2.1770 -2.0016 0.9749
-5.8677 1.3521 -2.0016 0.9749
-5.9789 0.7142 -2.0016 0.9749
-6.0147 0.2839 -2.0016 0.9749
-6.0196 -0.1479 -2.0016 0.9749
-6.0105 -0.3636 -2.0016 0.9749
-5.9935 -0.5789 -2.0016 0.9749
-5.8967 -1.2191 -2.0016 0.9749
-5.7942 -1.6385 -2.0016 0.9749
-5.1031 -2.2731 -1.8570 0.9767
-4.8296 -2.8079 -1.8570 0.9767
-4.7258 -2.9793 -1.8570 0.9767
-4.6159 -3.1468 -1.8570 0.9767
-4.3785 -3.4695 -1.8570 0.9767
-4.2513 -3.6242 -1.8570 0.9767
-3.8376 -4.0598 -1.8570 0.9767
-3.5368 -4.3244 -1.8570 0.9767
-0.6887 -5.1469 -1.8570 0.9782
-0.5037 -5.1683 -1.8570 0.9782
-0.3181 -5.1830 -1.8570 0.9782
-0.1320 -5.1911 -1.8570 0.9782
0.2403 -5.1872 -1.8570 0.9782
0.4261 -5.1753 -1.8570 0.9782
0.6114 -5.1567 -1.8570 0.9782
0.7959 -5.1314 -1.8570 0.9782
0.9794 -5.0996 -1.8570 0.9782
1.1616 -5.0612 -1.8570 0.9782
1.6984 -4.9072 -1.8570 0.9782
3.0176 -4.2260 -1.8570 0.9782
3.8703 -4.0433 -2.0016 0.9765
4.0128 -3.9019 -2.0016 0.9765
4.1501 -3.7556 -2.0016 0.9765
4.2821 -3.6043 -2.0016 0.9765
4.5294 -3.2882 -2.0016 0.9765
4.6443 -3.1237 -2.0016 0.9765
4.7534 -2.9552 -2.0016 0.9765
4.8563 -2.7828 -2.0016 0.9765
4.9529 -2.6069 -2.0016 0.9765
5.1270 -2.2453 -2.0016 0.9765
5.2747 -1.8721 -2.0016 0.9765
5.3385 -1.6818 -2.0016 0.9765
5.3953 -1.4893 -2.0016 0.9765
5.4452 -1.2949 -2.0016 0.9765
5.4882 -1.0988 -2.0016 0.9765
5.5744 -0.5031 -2.0016 0.9765
5.5962 -0.1024 -2.0016 0.9765
5.5962 0.0984 -2.0016 0.9765
5.5891 0.2989 -2.0016 0.9765
5.5748 0.4991 -2.0016 0.9765
5.5247 0.8974 -2.0016 0.9765
5.4890 1.0949 -2.0016 0.9765
5.4462 1.2910 -2.0016 0.9765
5.3964 1.4854 -2.0016 0.9765
5.3397 1.6779 -2.0016 0.9765
5.2761 1.8683 -2.0016 0.9765
4.6466 3.1204 -2.0016 0.9765
4.4110 3.4453 -2.0016 0.9765
4.0156 3.8991 -2.0016 0.9765
3.5737 4.3077 -2.0016 0.9765
3.4169 4.4331 -2.0016 0.9765
3.0904 4.6665 -2.0016 0.9765
2.9211 4.7743 -2.0016 0.9765
2.7481 4.8760 -2.0016 0.9765
1.8344 5.2880 -2.0016 0.9765
1.6436 5.3503 -2.0016 0.9765
1.4507 5.4058 -2.0016 0.9765
1.2560 5.4544 -2.0016 0.9765
1.0596 5.4959 -2.0016 0.9765
0.8618 5.5303 -2.0016 0.9765
0.0624 5.5967 -2.0016 0.9765
-0.7383 5.5482 -2.0016 0.9765
-1.1340 5.4810 -2.0016 0.9765
-1.3298 5.4368 -2.0016 0.9765
-1.5239 5.3856 -2.0016 0.9765
-1.9059 5.2626 -2.0016 0.9765
-2.2782 5.1125 -2.0016 0.9765
-2.4600 5.0275 -2.0016 0.9765
-2.6387 4.9361 -2.0016 0.9765
-2.9856 4.7343 -2.0016 0.9765
-3.4767 4.3863 -2.0016 0.9765
-3.6318 4.2588 -2.0016 0.9765
-3.9276 3.9876 -2.0016 0.9765
-4.0681 3.8442 -2.0016 0.9765
-4.3331 3.5428 -2.0016 0.9765
-4.4574 3.3852 -2.0016 0.9765
-4.5759 3.2232 -2.0016 0.9765
-4.8955 2.7132 -2.0016 0.9765
-4.9896 2.5359 -2.0016 0.9765
-5.0774 2.3554 -2.0016 0.9765
-5.1585 2.1718 -2.0016 0.9765
-5.3009 1.7966 -2.0016 0.9765
-5.3619 1.6054 -2.0016 0.9765
-5.4632 1.2170 -2.0016 0.9765
-5.5364 0.8223 -2.0016 0.9765
-5.5810 0.4235 -2.0016 0.9765
-5.5926 0.2231 -2.0016 0.9765
-5.5970 0.0224 -2.0016 0.9765
-5.5942 -0.1783 -2.0016 0.9765
-5.5843 -0.3787 -2.0016 0.9765
-5.5671 -0.5787 -2.0016 0.9765
-5.4728 -1.1732 -2.0016 0.9765
-5.3746 -1.5623 -2.0016 0.9765
-5.3151 -1.7540 -2.0016 0.9765
-5.2488 -1.9435 -2.0016 0.9765
-5.1758 -2.1304 -2.0016 0.9765
-4.6479 -2.3156 -1.8570 0.9782
-4.5619 -2.4807 -1.8570 0.9782
-4.4700 -2.6427 -1.8570 0.9782
-4.3724 -2.8013 -1.8570 0.9782
-4.1604 -3.1074 -1.8570 0.9782
-4.0463 -3.2546 -1.8570 0.9782
-3.9270 -3.3976 -1.8570 0.9782
-3.8027 -3.5362 -1.8570 0.9782
-3.6735 -3.6703 -1.8570 0.9782
-3.5395 -3.7996 -1.8570 0.9782
-3.4010 -3.9241 -1.8570 0.9782
-2.8051 -4.3700 -1.8570 0.9782
-2.4847 -4.5598 -1.8570 0.9782
-1.9807 -4.8002 -1.8570 0.9782
-1.6316 -4.9298 -1.8570 0.9782
-0.7262 -5.1418 -1.8570 0.9782
-0.5414 -5.1645 -1.8570 0.9782
0.5738 -5.1610 -1.8570 0.9782
1.1246 -5.0695 -1.8570 0.9782
1.4851 -4.9759 -1.8570 0.9782
2.0108 -4.7877 -1.8570 0.9782
2.0020 -4.3255 -1.7045 0.9800
2.0569 -4.0559 -1.6263 0.9809
2.4229 -4.0323 -1.6823 0.9802
2.8324 -4.3523 -1.8570 0.9782
3.1371 -4.1381 -1.8570 0.9782
3.9842 -3.9311 -2.0016 0.9765
4.1226 -3.7857 -2.0016 0.9765
4.2557 -3.6355 -2.0016 0.9765
4.3833 -3.4806 -2.0016 0.9765
4.5053 -3.3212 -2.0016 0.9765
4.9338 -2.6430 -2.0016 0.9765
5.0254 -2.4644 -2.0016 0.9765
5.1105 -2.2826 -2.0016 0.9765
5.3260 -1.7207 -2.0016 0.9765
5.3843 -1.5286 -2.0016 0.9765
5.4800 -1.1388 -2.0016 0.9765
5.5173 -0.9416 -2.0016 0.9765
5.5706 -0.5438 -2.0016 0.9765
5.5968 0.0575 -2.0016 0.9765
5.5783 0.4585 -2.0016 0.9765
5.5311 0.8570 -2.0016 0.9765
5.4555 1.2512 -2.0016 0.9765
5.4071 1.4460 -2.0016 0.9765
5.2896 1.8298 -2.0016 0.9765
5.2206 2.0182 -2.0016 0.9765
5.0625 2.3872 -2.0016 0.9765
4.9737 2.5672 -2.0016 0.9765
4.8784 2.7438 -2.0016 0.9765
4.5556 3.2518 -2.0016 0.9765
4.4360 3.4131 -2.0016 0.9765
3.9026 4.0122 -2.0016 0.9765
3.7562 4.1495 -2.0016 0.9765
3.1244 4.6439 -2.0016 0.9765
2.7836 4.8558 -2.0016 0.9765
2.6077 4.9525 -2.0016 0.9765
2.4284 5.0428 -2.0016 0.9765
2.0608 5.2039 -2.0016 0.9765
1.8729 5.2744 -2.0016 0.9765
1.6826 5.3382 -2.0016 0.9765
1.0997 5.4880 -2.0016 0.9765
0.9022 5.5239 -2.0016 0.9765
0.7035 5.5527 -2.0016 0.9765
0.3038 5.5888 -2.0016 0.9765
-0.2981 5.5892 -2.0016 0.9765
-0.4983 5.5749 -2.0016 0.9765
-1.4846 5.3966 -2.0016 0.9765
-1.6771 5.3399 -2.0016 0.9765
-1.8675 5.2764 -2.0016 0.9765
-2.0555 5.2060 -2.0016 0.9765
-2.2408 5.1290 -2.0016 0.9765
-2.6026 4.9552 -2.0016 0.9765
-2.7786 4.8587 -2.0016 0.9765
-3.1196 4.6471 -2.0016 0.9765
-3.6006 4.2852 -2.0016 0.9765
-4.0399 3.8738 -2.0016 0.9765
-4.1762 3.7265 -2.0016 0.9765
-4.3071 3.5743 -2.0016 0.9765
-4.6660 3.0912 -2.0016 0.9765
-4.8756 2.7488 -2.0016 0.9765
-4.9710 2.5723 -2.0016 0.9765
-5.0600 2.3924 -2.0016 0.9765
-5.1426 2.2094 -2.0016 0.9765
-5.4056 1.4516 -2.0016 0.9765
-5.5302 0.8627 -2.0016 0.9765
-5.5576 0.6639 -2.0016 0.9765
-5.5778 0.4642 -2.0016 0.9765
-5.5909 0.2639 -2.0016 0.9765
-5.4812 -1.1332 -2.0016 0.9765
-5.4370 -1.3290 -2.0016 0.9765
-5.2629 -1.9051 -2.0016 0.9765
-4.6647 -2.2816 -1.8570 0.9782
-4.2906 -2.9250 -1.8570 0.9782
-4.0700 -3.2250 -1.8570 0.9782
-3.9517 -3.3688 -1.8570 0.9782
-3.8284 -3.5083 -1.8570 0.9782
-3.4295 -3.8992 -1.8570 0.9782
-0.9852 -4.7445 -1.8570 0.9795
-0.6427 -4.8029 -1.8570 0.9795
-0.4700 -4.8229 -1.8570 0.9795
0.2243 -4.8406 -1.8570 0.9795
0.7427 -4.7885 -1.8570 0.9795
0.9139 -4.7588 -1.8570 0.9795
1.0840 -4.7230 -1.8570 0.9795
1.9090 -4.4539 -1.8570 0.9795
2.2508 -4.0004 -1.7590 0.9805
2.4440 -4.0009 -1.7966 0.9801
3.0913 -3.7317 -1.8570 0.9795
3.3508 -3.5005 -1.8570 0.9795
3.8727 -3.5046 -2.0016 0.9779
3.9959 -3.3634 -2.0016 0.9779
4.1139 -3.2180 -2.0016 0.9779
4.2267 -3.0684 -2.0016 0.9779
4.5317 -2.5968 -2.0016 0.9779
4.6219 -2.4327 -2.0016 0.9779
4.9817 -1.5694 -2.0016 0.9779
5.0347 -1.3897 -2.0016 0.9779
5.1214 -1.0254 -2.0016 0.9779
5.1549 -0.8411 -2.0016 0.9779
5.1817 -0.6557 -2.0016 0.9779
5.2222 -0.0955 -2.0016 0.9779
5.2222 0.0918 -2.0016 0.9779
5.2022 0.4658 -2.0016 0.9779
5.1822 0.6520 -2.0016 0.9779
5.1555 0.8374 -2.0016 0.9779
5.1221 1.0217 -2.0016 0.9779
5.0822 1.2047 -2.0016 0.9779
4.9235 1.7435 -2.0016 0.9779
4.7859 2.0918 -2.0016 0.9779
4.7078 2.2621 -2.0016 0.9779
4.6236 2.4294 -2.0016 0.9779
4.5336 2.5936 -2.0016 0.9779
4.4377 2.7545 -2.0016 0.9779
4.2289 3.0654 -2.0016 0.9779
3.7472 3.6385 -2.0016 0.9779
3.4768 3.8977 -2.0016 0.9779
3.1886 4.1368 -2.0016 0.9779
2.5644 4.5501 -2.0016 0.9779
1.8876 4.8700 -2.0016 0.9779
1.3538 5.0445 -2.0016 0.9779
0.8042 5.1607 -2.0016 0.9779
-0.1291 5.2214 -2.0016 0.9779
-0.3162 5.2135 -2.0016 0.9779
-0.5029 5.1988 -2.0016 0.9779
-0.6890 5.1774 -2.0016 0.9779
-0.8742 5.1494 -2.0016 0.9779
-1.0583 5.1147 -2.0016 0.9779
-1.2410 5.0735 -2.0016 0.9779
-1.6013 4.9715 -2.0016 0.9779
-2.1259 4.7708 -2.0016 0.9779
-2.7861 4.4179 -2.0016 0.9779
-3.0955 4.2069 -2.0016 0.9779
-3.2444 4.0932 -2.0016 0.9779
-3.5294 3.8501 -2.0016 0.9779
-3.6651 3.7211 -2.0016 0.9779
-3.9224 3.4489 -2.0016 0.9779
-4.6562 2.3664 -2.0016 0.9779
-4.9467 1.6765 -2.0016 0.9779
-5.0036 1.4981 -2.0016 0.9779
-5.0541 1.3177 -2.0016 0.9779
-5.1355 0.9521 -2.0016 0.9779
-5.2081 0.3952 -2.0016 0.9779
-5.2230 0.0209 -2.0016 0.9779
-5.2204 -0.1664 -2.0016 0.9779
-5.2111 -0.3534 -2.0016 0.9779
-5.1950 -0.5400 -2.0016 0.9779
-5.1723 -0.7260 -2.0016 0.9779
-5.1430 -0.9109 -2.0016 0.9779
-5.0645 -1.2772 -2.0016 0.9779
-5.0154 -1.4579 -2.0016 0.9779
-4.9599 -1.6368 -2.0016 0.9779
-4.8299 -1.9880 -2.0016 0.9779
-4.7555 -2.1599 -2.0016 0.9779
-4.4803 -2.2321 -1.9182 0.9788
-4.1713 -2.4661 -1.8570 0.9795
-3.9838 -2.7587 -1.8570 0.9795
-3.6646 -3.1705 -1.8570 0.9795
-3.5486 -3.2999 -1.8570 0.9795
-3.3030 -3.5457 -1.8570 0.9795
-2.9031 -3.8799 -1.8570 0.9795
-2.7621 -3.9814 -1.8570 0.9795
-2.6176 -4.0779 -1.8570 0.9795
-2.0078 -4.4102 -1.8570 0.9795
-1.6866 -4.5428 -1.8570 0.9795
-1.3567 -4.6520 -1.8570 0.9795
-0.8493 -4.7707 -1.8570 0.9795
-0.5052 -4.8193 -1.8570 0.9795
0.1889 -4.8421 -1.8570 0.9795
0.7078 -4.7938 -1.8570 0.9795
0.8792 -4.7653 -1.8570 0.9795
1.2184 -4.6901 -1.8570 0.9795
1.3858 -4.6434 -1.8570 0.9795
1.7150 -4.5321 -1.8570 0.9795
2.0008 -4.3228 -1.8254 0.9798
2.2125 -4.0003 -1.7518 0.9806
2.4040 -4.0008 -1.7887 0.9802
2.7871 -3.9640 -1.8570 0.9795
2.9274 -3.8616 -1.8570 0.9795
3.0640 -3.7541 -1.8570 0.9795
3.3251 -3.5249 -1.8570 0.9795
3.4494 -3.4034 -1.8570 0.9795
4.3126 -2.9465 -2.0016 0.9779
4.4155 -2.7900 -2.0016 0.9779
4.5126 -2.6299 -2.0016 0.9779
4.6040 -2.4664 -2.0016 0.9779
4.7689 -2.1301 -2.0016 0.9779
4.8422 -1.9577 -2.0016 0.9779
5.0724 -1.2454 -2.0016 0.9779
5.1983 -0.5074 -2.0016 0.9779
5.2132 -0.3207 -2.0016 0.9779
5.1614 0.7998 -2.0016 0.9779
5.0909 1.1676 -2.0016 0.9779
5.0457 1.3494 -2.0016 0.9779
4.9360 1.7075 -2.0016 0.9779
4.8717 1.8834 -2.0016 0.9779
4.5524 2.5605 -2.0016 0.9779
4.4576 2.7220 -2.0016 0.9779
4.3572 2.8801 -2.0016 0.9779
3.9007 3.4734 -2.0016 0.9779
3.7736 3.6110 -2.0016 0.9779
3.5052 3.8722 -2.0016 0.9779
3.3641 3.9954 -2.0016 0.9779
3.0691 4.2262 -2.0016 0.9779
2.9156 4.3335 -2.0016 0.9779
2.5976 4.5313 -2.0016 0.9779
2.4334 4.6215 -2.0016 0.9779
2.2662 4.7058 -2.0016 0.9779
1.9231 4.8561 -2.0016 0.9779
1.2091 5.0811 -2.0016 0.9779
1.0262 5.1212 -2.0016 0.9779
0.8419 5.1547 -2.0016 0.9779
-0.2781 5.2156 -2.0016 0.9779
-0.4650 5.2023 -2.0016 0.9779
-0.6512 5.1823 -2.0016 0.9779
-1.0209 5.1223 -2.0016 0.9779
-1.3854 5.0360 -2.0016 0.9779
-1.7427 4.9237 -2.0016 0.9779
-1.9181 4.8581 -2.0016 0.9779
-2.2613 4.7081 -2.0016 0.9779
-2.5929 4.5340 -2.0016 0.9779
-2.7538 4.4381 -2.0016 0.9779
-3.0648 4.2293 -2.0016 0.9779
-3.5012 3.8758 -2.0016 0.9779
-3.6379 3.7478 -2.0016 0.9779
-3.7699 3.6149 -2.0016 0.9779
-3.8971 3.4774 -2.0016 0.9779
-4.0193 3.3355 -2.0016 0.9779
-4.4548 2.7266 -2.0016 0.9779
-4.5497 2.5651 -2.0016 0.9779
-4.6388 2.4004 -2.0016 0.9779
-4.7219 2.2325 -2.0016 0.9779
-4.7989 2.0618 -2.0016 0.9779
-5.1284 0.9896 -2.0016 0.9779
-5.1606 0.8051 -2.0016 0.9779
-5.1862 0.6195 -2.0016 0.9779
-5.2172 0.2463 -2.0016 0.9779
-5.2135 -0.3154 -2.0016 0.9779
-5.1988 -0.5021 -2.0016 0.9779
-5.1149 -1.0575 -2.0016 0.9779
-5.0737 -1.2402 -2.0016 0.9779
-5.0259 -1.4213 -2.0016 0.9779
-4.9112 -1.7778 -2.0016 0.9779
-4.8443 -1.9528 -2.0016 0.9779
-4.1892 -2.4356 -1.8570 0.9795
-3.5725 -3.2739 -1.8570 0.9795
-3.2003 -3.6386 -1.8570 0.9795
-3.0678 -3.7510 -1.8570 0.9795
-1.0812 -4.4065 -1.8570 0.9806
-0.9225 -4.4425 -1.8570 0.9806
-0.6017 -4.4972 -1.8570 0.9806
-0.4401 -4.5158 -1.8570 0.9806
-0.2779 -4.5287 -1.8570 0.9806
-0.1154 -4.5358 -1.8570 0.9806
0.2100 -4.5324 -1.8570 0.9806
0.5342 -4.5057 -1.8570 0.9806
0.6954 -4.4836 -1.8570 0.9806
0.8558 -4.4558 -1.8570 0.9806
1.3293 -4.3382 -1.8570 0.9806
1.9358 -4.1036 -1.8570 0.9806
2.2249 -3.9543 -1.8570 0.9806
2.7673 -3.5956 -1.8570 0.9806
3.2529 -3.1631 -1.8570 0.9806
3.6262 -3.2814 -2.0016 0.9791
3.8520 -3.0131 -2.0016 0.9791
4.0580 -2.7293 -2.0016 0.9791
4.1533 -2.5821 -2.0016 0.9791
4.2432 -2.4315 -2.0016 0.9791
4.3277 -2.2778 -2.0016 0.9791
4.4798 -1.9618 -2.0016 0.9791
4.5472 -1.7999 -2.0016 0.9791
4.6645 -1.4695 -2.0016 0.9791
4.7142 -1.3013 -2.0016 0.9791
4.7953 -0.9601 -2.0016 0.9791
4.8518 -0.6140 -2.0016 0.9791
4.8897 -0.0894 -2.0016 0.9791
4.8898 0.0859 -2.0016 0.9791
4.8835 0.2612 -2.0016 0.9791
4.8710 0.4361 -2.0016 0.9791
4.8272 0.7841 -2.0016 0.9791
4.7960 0.9567 -2.0016 0.9791
4.7586 1.1280 -2.0016 0.9791
4.6656 1.4661 -2.0016 0.9791
4.5485 1.7967 -2.0016 0.9791
4.4812 1.9586 -2.0016 0.9791
4.2449 2.4285 -2.0016 0.9791
4.1551 2.5791 -2.0016 0.9791
4.0600 2.7265 -2.0016 0.9791
3.7438 3.1466 -2.0016 0.9791
3.6285 3.2789 -2.0016 0.9791
3.5086 3.4068 -2.0016 0.9791
2.9856 3.8734 -2.0016 0.9791
2.8448 3.9780 -2.0016 0.9791
2.0897 4.4216 -2.0016 0.9791
1.9298 4.4937 -2.0016 0.9791
1.7674 4.5600 -2.0016 0.9791
1.4361 4.6749 -2.0016 0.9791
1.0974 4.7658 -2.0016 0.9791
0.7530 4.8322 -2.0016 0.9791
0.4048 4.8737 -2.0016 0.9791
0.2298 4.8851 -2.0016 0.9791
-0.1209 4.8890 -2.0016 0.9791
-0.2961 4.8815 -2.0016 0.9791
-0.4709 4.8678 -2.0016 0.9791
-0.9909 4.7891 -2.0016 0.9791
-1.8291 4.5356 -2.0016 0.9791
-2.6087 4.1366 -2.0016 0.9791
-2.7554 4.0404 -2.0016 0.9791
-2.8985 3.9390 -2.0016 0.9791
-3.0378 3.8326 -2.0016 0.9791
-3.1733 3.7212 -2.0016 0.9791
-3.6727 3.2293 -2.0016 0.9791
-3.9982 2.8163 -2.0016 0.9791
-4.0966 2.6711 -2.0016 0.9791
-4.3597 2.2158 -2.0016 0.9791
-4.7323 1.2338 -2.0016 0.9791
-4.7735 1.0633 -2.0016 0.9791
-2.1904 0.4061 -0.9118 0.9904
-1.9562 0.2192 -0.8056 0.9915
-1.9340 0.0771 -0.7922 0.9917
-1.9278 -0.0614 -0.7894 0.9917
-1.9508 -0.1323 -0.8002 0.9916
-1.9574 -0.2035 -0.8054 0.9915
-1.9466 -0.2732 -0.8045 0.9915
-4.7819 -1.0251 -2.0016 0.9791
-4.7420 -1.1959 -2.0016 0.9791
-4.6961 -1.3651 -2.0016 0.9791
-4.4527 -2.0224 -2.0016 0.9791
-4.3774 -2.1808 -2.0016 0.9791
-3.9057 -2.3091 -1.8570 0.9806
-3.8204 -2.4476 -1.8570 0.9806
-3.7302 -2.5830 -1.8570 0.9806
-3.6352 -2.7151 -1.8570 0.9806
-3.5355 -2.8437 -1.8570 0.9806
-3.2097 -3.2069 -1.8570 0.9806
-3.0927 -3.3199 -1.8570 0.9806
-2.9716 -3.4287 -1.8570 0.9806
-2.5863 -3.7280 -1.8570 0.9806
-2.4510 -3.8183 -1.8570 0.9806
-2.3125 -3.9037 -1.8570 0.9806
-2.0268 -4.0594 -1.8570 0.9806
-1.8799 -4.1295 -1.8570 0.9806
-1.7307 -4.1942 -1.8570 0.9806
-1.5792 -4.2536 -1.8570 0.9806
-1.1133 -4.3985 -1.8570 0.9806
-0.9549 -4.4356 -1.8570 0.9806
-0.7952 -4.4670 -1.8570 0.9806
-0.1485 -4.5348 -1.8570 0.9806
0.0142 -4.5372 -1.8570 0.9806
0.6627 -4.4886 -1.8570 0.9806
1.2976 -4.3477 -1.8570 0.9806
1.4526 -4.2984 -1.8570 0.9806
1.6058 -4.2436 -1.8570 0.9806
1.7569 -4.1833 -1.8570 0.9806
1.9058 -4.1176 -1.8570 0.9806
2.0337 -4.0101 -1.8402 0.9808
2.1960 -3.9704 -1.8570 0.9806
2.4749 -3.8028 -1.8570 0.9806
2.8689 -3.5151 -1.8570 0.9806
2.9931 -3.4100 -1.8570 0.9806
3.7184 -3.1765 -2.0016 0.9791
3.8299 -3.0412 -2.0016 0.9791
3.9365 -2.9019 -2.0016 0.9791
4.0380 -2.7589 -2.0016 0.9791
4.3109 -2.3093 -2.0016 0.9791
4.3909 -2.1533 -2.0016 0.9791
4.4653 -1.9945 -2.0016 0.9791
4.5340 -1.8331 -2.0016 0.9791
4.7046 -1.3356 -2.0016 0.9791
4.8208 -0.8227 -2.0016 0.9791
4.8472 -0.6494 -2.0016 0.9791
4.8674 -0.4751 -2.0016 0.9791
4.8813 -0.3003 -2.0016 0.9791
4.8889 -0.1251 -2.0016 0.9791
4.8902 0.0503 -2.0016 0.9791
4.8853 0.2256 -2.0016 0.9791
4.8741 0.4006 -2.0016 0.9791
4.8566 0.5751 -2.0016 0.9791
4.8328 0.7488 -2.0016 0.9791
4.7245 1.2635 -2.0016 0.9791
4.4234 2.0858 -2.0016 0.9791
4.2625 2.3974 -2.0016 0.9791
3.9805 2.8413 -2.0016 0.9791
3.8760 2.9822 -2.0016 0.9791
3.7666 3.1192 -2.0016 0.9791
3.6523 3.2523 -2.0016 0.9791
3.2820 3.6257 -2.0016 0.9791
3.0137 3.8515 -2.0016 0.9791
2.5827 4.1529 -2.0016 0.9791
2.2785 4.3273 -2.0016 0.9791
2.1219 4.4062 -2.0016 0.9791
1.8007 4.5469 -2.0016 0.9791
1.6365 4.6086 -2.0016 0.9791
1.3020 4.7140 -2.0016 0.9791
1.1321 4.7577 -2.0016 0.9791
0.7883 4.8266 -2.0016 0.9791
0.6147 4.8517 -2.0016 0.9791
0.4404 4.8706 -2.0016 0.9791
0.2655 4.8833 -2.0016 0.9791
0.0902 4.8897 -2.0016 0.9791
-0.0852 4.8898 -2.0016 0.9791
-0.2604 4.8836 -2.0016 0.9791
-0.4354 4.8711 -2.0016 0.9791
-0.6097 4.8523 -2.0016 0.9791
-0.7833 4.8274 -2.0016 0.9791
-1.1273 4.7588 -2.0016 0.9791
-1.2972 4.7153 -2.0016 0.9791
-1.6317 4.6103 -2.0016 0.9791
-1.9579 4.4815 -2.0016 0.9791
-2.1173 4.4084 -2.0016 0.9791
-2.2740 4.3296 -2.0016 0.9791
-2.4278 4.2453 -2.0016 0.9791
-2.7258 4.0604 -2.0016 0.9791
-2.8696 3.9601 -2.0016 0.9791
-3.0098 3.8546 -2.0016 0.9791
-3.2783 3.6290 -2.0016 0.9791
-3.5299 3.3848 -2.0016 0.9791
-3.7634 3.1231 -2.0016 0.9791
-3.8730 2.9862 -2.0016 0.9791
-3.9775 2.8454 -2.0016 0.9791
-4.1712 2.5530 -2.0016 0.9791
-4.4212 2.0904 -2.0016 0.9791
-4.6747 1.4368 -2.0016 0.9791
-4.7232 1.2683 -2.0016 0.9791
-4.8019 0.9266 -2.0016 0.9791
-1.9545 0.2335 -0.8056 0.9915
-1.9391 0.0915 -0.7945 0.9916
-1.9094 0.0216 -0.7815 0.9918
-2.1271 -0.3608 -0.8830 0.9907
-4.7892 -0.9901 -2.0016 0.9791
-4.7506 -1.1612 -2.0016 0.9791
-4.7060 -1.3308 -2.0016 0.9791
-4.5985 -1.6646 -2.0016 0.9791
-4.5358 -1.8284 -2.0016 0.9791
-4.3931 -2.1488 -2.0016 0.9791
-4.1710 -2.2289 -1.9355 0.9798
-3.7490 -2.5558 -1.8570 0.9806
-3.6549 -2.6885 -1.8570 0.9806
-3.4529 -2.9435 -1.8570 0.9806
-3.3451 -3.0654 -1.8570 0.9806
-3.1168 -3.2973 -1.8570 0.9806
-2.9966 -3.4069 -1.8570 0.9806
-2.8725 -3.5122 -1.8570 0.9806
-1.0153 -4.1382 -1.8570 0.9816
-0.8663 -4.1719 -1.8570 0.9816
-0.5651 -4.2233 -1.8570 0.9816
-0.4133 -4.2408 -1.8570 0.9816
-0.1083 -4.2595 -1.8570 0.9816
0.0445 -4.2607 -1.8570 0.9816
0.1972 -4.2564 -1.8570 0.9816
0.3497 -4.2465 -1.8570 0.9816
0.5017 -4.2313 -1.8570 0.9816
0.6531 -4.2106 -1.8570 0.9816
0.8036 -4.1844 -1.8570 0.9816
1.3936 -4.0266 -1.8570 0.9816
1.6786 -3.9164 -1.8570 0.9816
1.8179 -3.8537 -1.8570 0.9816
1.9549 -3.7860 -1.8570 0.9816
2.0894 -3.7135 -1.8570 0.9816
2.2212 -3.6362 -1.8570 0.9816
2.4761 -3.4676 -1.8570 0.9816
2.5988 -3.3766 -1.8570 0.9816
3.0548 -2.9704 -1.8570 0.9816
3.5136 -2.9575 -2.0016 0.9802
3.6174 -2.8296 -2.0016 0.9802
3.7166 -2.6981 -2.0016 0.9802
4.0641 -2.1391 -2.0016 0.9802
4.1382 -1.9920 -2.0016 0.9802
4.2069 -1.8423 -2.0016 0.9802
4.3282 -1.5361 -2.0016 0.9802
4.3804 -1.3800 -2.0016 0.9802
4.5033 -0.9016 -2.0016 0.9802
4.5563 -0.5766 -2.0016 0.9802
4.5741 -0.4128 -2.0016 0.9802
4.5861 0.2453 -2.0016 0.9802
4.5744 0.4096 -2.0016 0.9802
4.5567 0.5733 -2.0016 0.9802
4.5333 0.7363 -2.0016 0.9802
4.5039 0.8984 -2.0016 0.9802
4.4688 1.0593 -2.0016 0.9802
4.4280 1.2189 -2.0016 0.9802
4.2715 1.6873 -2.0016 0.9802
4.0656 2.1362 -2.0016 0.9802
3.9864 2.2806 -2.0016 0.9802
3.9021 2.4221 -2.0016 0.9802
3.8127 2.5604 -2.0016 0.9802
3.6194 2.8271 -2.0016 0.9802
3.4075 3.0792 -2.0016 0.9802
3.0572 3.4273 -2.0016 0.9802
2.5358 3.8291 -2.0016 0.9802
2.3969 3.9176 -2.0016 0.9802
2.1100 4.0793 -2.0016 0.9802
1.9624 4.1523 -2.0016 0.9802
1.8123 4.2200 -2.0016 0.9802
1.6598 4.2823 -2.0016 0.9802
1.5052 4.3390 -2.0016 0.9802
1.0306 4.4755 -2.0016 0.9802
0.3802 4.5769 -2.0016 0.9802
-0.1135 4.5913 -2.0016 0.9802
-0.2780 4.5842 -2.0016 0.9802
-0.4422 4.5713 -2.0016 0.9802
-0.7687 4.5279 -2.0016 0.9802
-1.0912 4.4611 -2.0016 0.9802
-1.2504 4.4192 -2.0016 0.9802
-1.5639 4.3182 -2.0016 0.9802
-1.7177 4.2593 -2.0016 0.9802
-1.8694 4.1950 -2.0016 0.9802
-2.0186 4.1253 -2.0016 0.9802
-2.3090 3.9700 -2.0016 0.9802
-2.4499 3.8847 -2.0016 0.9802
-2.5876 3.7943 -2.0016 0.9802
-2.9800 3.4946 -2.0016 0.9802
-3.2228 3.2720 -2.0016 0.9802
-3.4490 3.0326 -2.0016 0.9802
-3.6575 2.7777 -2.0016 0.9802
-3.7547 2.6448 -2.0016 0.9802
-3.8471 2.5084 -2.0016 0.9802
-4.0170 2.2263 -2.0016 0.9802
-4.0942 2.0808 -2.0016 0.9802
-4.2940 1.6292 -2.0016 0.9802
-1.4977 0.2777 -0.6639 0.9934
-1.5135 0.2248 -0.6668 0.9933
-1.5240 0.1708 -0.6683 0.9933
-1.5291 0.1160 -0.6683 0.9933
-1.5288 0.0610 -0.6668 0.9933
-1.5163 -0.2128 -0.6673 0.9933
-1.5865 -0.5236 -0.7281 0.9927
-4.1816 -1.8993 -2.0016 0.9802
-4.0347 -2.1940 -2.0016 0.9802
-3.7773 -2.2332 -1.9124 0.9810
-3.5878 -2.2986 -1.8570 0.9816
-3.2223 -2.7879 -1.8570 0.9816
-3.1203 -2.9016 -1.8570 0.9816
-3.0142 -3.0116 -1.8570 0.9816
-2.9043 -3.1178 -1.8570 0.9816
-2.6734 -3.3179 -1.8570 0.9816
-2.3017 -3.5858 -1.8570 0.9816
-2.0388 -3.7415 -1.8570 0.9816
-1.3388 -4.0451 -1.8570 0.9816
-1.0455 -4.1307 -1.8570 0.9816
-0.8967 -4.1655 -1.8570 0.9816
-0.7468 -4.1950 -1.8570 0.9816
-0.5959 -4.2190 -1.8570 0.9816
-0.4443 -4.2377 -1.8570 0.9816
-0.2920 -4.2509 -1.8570 0.9816
0.0134 -4.2609 -1.8570 0.9816
0.6223 -4.2152 -1.8570 0.9816
0.7731 -4.1902 -1.8570 0.9816
0.9228 -4.1598 -1.8570 0.9816
1.0714 -4.1240 -1.8570 0.9816
1.2186 -4.0830 -1.8570 0.9816
1.6499 -3.9285 -1.8570 0.9816
1.7897 -3.8668 -1.8570 0.9816
1.9272 -3.8002 -1.8570 0.9816
2.4507 -3.4856 -1.8570 0.9816
2.8108 -3.2023 -1.8570 0.9816
2.9238 -3.0995 -1.8570 0.9816
3.1384 -2.8820 -1.8570 0.9816
3.6968 -2.7252 -2.0016 0.9802
3.7921 -2.5909 -2.0016 0.9802
3.8825 -2.4532 -2.0016 0.9802
3.9680 -2.3125 -2.0016 0.9802
4.1934 -1.8730 -2.0016 0.9802
4.3168 -1.5677 -2.0016 0.9802
4.3703 -1.4119 -2.0016 0.9802
4.4181 -1.2543 -2.0016 0.9802
4.4966 -0.9345 -2.0016 0.9802
4.5272 -0.7726 -2.0016 0.9802
4.5520 -0.6098 -2.0016 0.9802
4.5912 -0.1175 -2.0016 0.9802
4.5924 0.0472 -2.0016 0.9802
4.5878 0.2118 -2.0016 0.9802
4.5385 0.7032 -2.0016 0.9802
4.4368 1.1865 -2.0016 0.9802
4.2837 1.6561 -2.0016 0.9802
4.2216 1.8086 -2.0016 0.9802
4.1540 1.9588 -2.0016 0.9802
4.0811 2.1065 -2.0016 0.9802
3.7380 2.6683 -2.0016 0.9802
3.6400 2.8006 -2.0016 0.9802
3.4299 3.0542 -2.0016 0.9802
3.2022 3.2922 -2.0016 0.9802
2.9581 3.5132 -2.0016 0.9802
2.8302 3.6170 -2.0016 0.9802
2.6987 3.7161 -2.0016 0.9802
2.5637 3.8105 -2.0016 0.9802
2.4254 3.9000 -2.0016 0.9802
2.2841 3.9844 -2.0016 0.9802
2.1397 4.0638 -2.0016 0.9802
1.8430 4.2067 -2.0016 0.9802
1.2227 4.4269 -2.0016 0.9802
1.0632 4.4679 -2.0016 0.9802
0.7403 4.5326 -2.0016 0.9802
0.5773 4.5562 -2.0016 0.9802
0.4136 4.5740 -2.0016 0.9802
0.0847 4.5919 -2.0016 0.9802
-0.4089 4.5744 -2.0016 0.9802
-0.7356 4.5334 -2.0016 0.9802
-1.3761 4.3816 -2.0016 0.9802
-1.9884 4.1399 -2.0016 0.9802
-2.2800 3.9868 -2.0016 0.9802
-2.4214 3.9025 -2.0016 0.9802
-2.5598 3.8131 -2.0016 0.9802
-2.6949 3.7189 -2.0016 0.9802
-2.8265 3.6199 -2.0016 0.9802
-2.9545 3.5162 -2.0016 0.9802
-3.1988 3.2954 -2.0016 0.9802
-3.3149 3.1786 -2.0016 0.9802
-3.4268 3.0577 -2.0016 0.9802
-3.5342 2.9329 -2.0016 0.9802
-3.7353 2.6721 -2.0016 0.9802
-3.8287 2.5365 -2.0016 0.9802
-4.0006 2.2555 -2.0016 0.9802
-4.0789 2.1107 -2.0016 0.9802
-4.2197 1.8129 -2.0016 0.9802
-4.2820 1.6605 -2.0016 0.9802
-1.5921 0.5526 -0.7345 0.9927
-1.5567 0.4180 -0.7025 0.9930
-1.5313 0.3529 -0.6849 0.9932
-1.5223 0.1818 -0.6681 0.9933
-1.5293 0.0722 -0.6672 0.9933
-1.5247 0.0172 -0.6645 0.9934
-1.5296 -0.0925 -0.6678 0.9933
-1.5186 -0.2018 -0.6676 0.9933
-1.5127 -0.3127 -0.6732 0.9933
-1.5413 -0.3767 -0.6915 0.9931
-1.5834 -0.5098 -0.7250 0.9928
-1.5961 -0.5778 -0.7398 0.9926
-4.1953 -1.8687 -2.0016 0.9802
-4.1256 -2.0179 -2.0016 0.9802
-3.6044 -2.2723 -1.8570 0.9816
-3.4323 -2.5248 -1.8570 0.9816
-3.1414 -2.8788 -1.8570 0.9816
-3.0361 -2.9895 -1.8570 0.9816
-2.8141 -3.1994 -1.8570 0.9816
-0.8156 -3.9280 -1.8570 0.9825
-0.6743 -3.9547 -1.8570 0.9825
-0.5321 -3.9763 -1.8570 0.9825
-0.2457 -4.0042 -1.8570 0.9825
-0.1020 -4.0105 -1.8570 0.9825
0.1857 -4.0075 -1.8570 0.9825
0.3292 -3.9982 -1.8570 0.9825
0.4724 -3.9838 -1.8570 0.9825
0.6149 -3.9643 -1.8570 0.9825
0.7566 -3.9398 -1.8570 0.9825
0.8974 -3.9101 -1.8570 0.9825
1.3121 -3.7911 -1.8570 0.9825
1.4472 -3.7416 -1.8570 0.9825
1.5804 -3.6873 -1.8570 0.9825
1.8406 -3.5646 -1.8570 0.9825
1.9672 -3.4963 -1.8570 0.9825
2.0913 -3.4235 -1.8570 0.9825
2.2127 -3.3464 -1.8570 0.9825
2.4468 -3.1792 -1.8570 0.9825
2.6684 -2.9957 -1.8570 0.9825
2.7741 -2.8981 -1.8570 0.9825
2.8762 -2.7967 -1.8570 0.9825
3.3082 -2.7846 -2.0016 0.9811
3.4059 -2.6642 -2.0016 0.9811
3.5880 -2.4132 -2.0016 0.9811
