ply
format ascii 1.0
element vertex 1598
property float32 x
property float32 y
property float32 z
property float32 I
end_header
-3.9681 -5.2233 -1.8570 0.9731
-3.5834 -5.4944 -1.8570 0.9731
-3.3839 -5.6194 -1.8570 0.9731
-3.4278 -6.1838 -2.0016 0.9710
-2.2692 -6.6963 -2.0016 0.9710
-2.0275 -6.7734 -2.0016 0.9710
-1.2880 -6.9520 -2.0016 0.9710
-0.7862 -7.0265 -2.0016 0.9710
-0.5336 -7.0502 -2.0016 0.9710
-0.2803 -7.0648 -2.0016 0.9710
-0.0267 -7.0703 -2.0016 0.9710
0.7332 -7.0322 -2.0016 0.9710
1.4845 -6.9127 -2.0016 0.9710
2.2186 -6.7132 -2.0016 0.9710
2.6943 -6.5368 -2.0016 0.9710
2.0966 -4.2029 -1.3296 0.9807
2.4256 -4.0975 -1.3480 0.9804
4.0287 -5.8103 -2.0016 0.9710
4.2345 -5.6620 -2.0016 0.9710
4.6296 -5.3438 -2.0016 0.9710
4.8183 -5.1743 -2.0016 0.9710
5.0009 -4.9981 -2.0016 0.9710
5.3464 -4.6266 -2.0016 0.9710
5.5090 -4.4318 -2.0016 0.9710
5.6644 -4.2313 -2.0016 0.9710
5.8126 -4.0254 -2.0016 0.9710
6.0862 -3.5982 -2.0016 0.9710
6.2114 -3.3776 -2.0016 0.9710
6.3286 -3.1525 -2.0016 0.9710
6.4376 -2.9235 -2.0016 0.9710
6.5384 -2.6906 -2.0016 0.9710
6.6307 -2.4543 -2.0016 0.9710
6.7145 -2.2149 -2.0016 0.9710
6.8560 -1.7277 -2.0016 0.9710
6.9136 -1.4806 -2.0016 0.9710
7.0326 -0.7292 -2.0016 0.9710
7.0543 -0.4764 -2.0016 0.9710
7.0668 -0.2230 -2.0016 0.9710
7.0646 0.2843 -2.0016 0.9710
7.0499 0.5375 -2.0016 0.9710
7.0260 0.7901 -2.0016 0.9710
6.7723 2.0313 -2.0016 0.9710
6.6950 2.2729 -2.0016 0.9710
6.6092 2.5117 -2.0016 0.9710
6.5148 2.7472 -2.0016 0.9710
5.6275 4.2802 -2.0016 0.9710
5.3061 4.6728 -2.0016 0.9710
5.1351 4.8601 -2.0016 0.9710
4.3871 5.5447 -2.0016 0.9710
4.1853 5.6985 -2.0016 0.9710
3.7659 5.9839 -2.0016 0.9710
2.8712 6.4611 -2.0016 0.9710
2.4005 6.6503 -2.0016 0.9710
1.9175 6.8054 -2.0016 0.9710
1.4245 6.9253 -2.0016 0.9710
1.1752 6.9720 -2.0016 0.9710
0.9243 7.0097 -2.0016 0.9710
0.4193 7.0579 -2.0016 0.9710
-0.0879 7.0698 -2.0016 0.9710
-0.3415 7.0621 -2.0016 0.9710
-1.0983 6.9845 -2.0016 0.9710
-1.3482 6.9406 -2.0016 0.9710
-2.5651 6.5886 -2.0016 0.9710
-3.0310 6.3877 -2.0016 0.9710
-3.6998 6.0251 -2.0016 0.9710
-3.9135 5.8885 -2.0016 0.9710
-4.3257 5.5927 -2.0016 0.9710
-4.7156 5.2681 -2.0016 0.9710
-5.4207 4.5394 -2.0016 0.9710
-5.7322 4.1390 -2.0016 0.9710
-6.1437 3.4991 -2.0016 0.9710
-6.2653 3.2765 -2.0016 0.9710
-6.4841 2.8188 -2.0016 0.9710
-6.5811 2.5843 -2.0016 0.9710
-6.7495 2.1058 -2.0016 0.9710
-6.8207 1.8623 -2.0016 0.9710
-6.8831 1.6164 -2.0016 0.9710
-6.9367 1.3684 -2.0016 0.9710
-7.0169 0.8675 -2.0016 0.9710
-7.0435 0.6152 -2.0016 0.9710
-7.0611 0.3621 -2.0016 0.9710
-7.0695 0.1085 -2.0016 0.9710
-7.0402 -0.6517 -2.0016 0.9710
-7.0123 -0.9039 -2.0016 0.9710
-6.9754 -1.1548 -2.0016 0.9710
-6.0932 -2.4293 -1.8570 0.9731
-5.9033 -2.8600 -1.8570 0.9731
-5.7969 -3.0699 -1.8570 0.9731
-5.4335 -3.6750 -1.8570 0.9731
-5.1560 -4.0551 -1.8570 0.9731
-4.8519 -4.4144 -1.8570 0.9731
-4.5229 -4.7510 -1.8570 0.9731
-4.1706 -5.0631 -1.8570 0.9731
-3.9863 -5.2094 -1.8570 0.9731
-3.7968 -5.3491 -1.8570 0.9731
-3.6025 -5.4819 -1.8570 0.9731
-2.9978 -6.4033 -2.0016 0.9710
-2.0510 -6.7663 -2.0016 0.9710
-1.5606 -6.8960 -2.0016 0.9710
-1.3121 -6.9475 -2.0016 0.9710
-1.0620 -6.9901 -2.0016 0.9710
-0.8106 -7.0237 -2.0016 0.9710
-0.3049 -7.0638 -2.0016 0.9710
0.2025 -7.0674 -2.0016 0.9710
0.4559 -7.0556 -2.0016 0.9710
0.7087 -7.0347 -2.0016 0.9710
1.2113 -6.9658 -2.0016 0.9710
1.4604 -6.9179 -2.0016 0.9710
1.7077 -6.8610 -2.0016 0.9710
1.9527 -6.7953 -2.0016 0.9710
2.1953 -6.7209 -2.0016 0.9710
2.4350 -6.6378 -2.0016 0.9710
2.9047 -6.4461 -2.0016 0.9710
2.2125 -4.0973 -1.3182 0.9808
2.4046 -4.0944 -1.3442 0.9805
4.0084 -5.8243 -2.0016 0.9710
4.4158 -5.5218 -2.0016 0.9710
4.8003 -5.1910 -2.0016 0.9710
5.3303 -4.6452 -2.0016 0.9710
5.7985 -4.0456 -2.0016 0.9710
6.0737 -3.6194 -2.0016 0.9710
6.1996 -3.3991 -2.0016 0.9710
6.3176 -3.1745 -2.0016 0.9710
6.7827 -1.9961 -2.0016 0.9710
6.8500 -1.7515 -2.0016 0.9710
6.9084 -1.5046 -2.0016 0.9710
6.9579 -1.2558 -2.0016 0.9710
7.0660 -0.2476 -2.0016 0.9710
7.0656 0.2597 -2.0016 0.9710
7.0288 0.7657 -2.0016 0.9710
6.9968 1.0174 -2.0016 0.9710
6.9558 1.2677 -2.0016 0.9710
6.9058 1.5165 -2.0016 0.9710
6.3121 3.1853 -2.0016 0.9710
5.6424 4.2606 -2.0016 0.9710
5.3223 4.6543 -2.0016 0.9710
5.1519 4.8422 -2.0016 0.9710
4.9749 5.0239 -2.0016 0.9710
4.7915 5.1992 -2.0016 0.9710
4.6018 5.3677 -2.0016 0.9710
4.2051 5.6839 -2.0016 0.9710
3.9985 5.8311 -2.0016 0.9710
3.5700 6.1028 -2.0016 0.9710
2.8937 6.4511 -2.0016 0.9710
2.6604 6.5507 -2.0016 0.9710
2.4236 6.6420 -2.0016 0.9710
2.1838 6.7246 -2.0016 0.9710
1.1994 6.9679 -2.0016 0.9710
0.6967 7.0359 -2.0016 0.9710
-0.3169 7.0632 -2.0016 0.9710
-0.5701 7.0473 -2.0016 0.9710
-0.8226 7.0223 -2.0016 0.9710
-1.3240 6.9453 -2.0016 0.9710
-1.8186 6.8324 -2.0016 0.9710
-2.5422 6.5975 -2.0016 0.9710
-3.2364 6.2861 -2.0016 0.9710
-3.4598 6.1660 -2.0016 0.9710
-3.8930 5.9020 -2.0016 0.9710
-4.5046 5.4496 -2.0016 0.9710
-4.6973 5.2844 -2.0016 0.9710
-4.8838 5.1125 -2.0016 0.9710
-5.7178 4.1589 -2.0016 0.9710
-5.8633 3.9511 -2.0016 0.9710
-6.0013 3.7382 -2.0016 0.9710
-6.3682 3.0717 -2.0016 0.9710
-6.4743 2.8413 -2.0016 0.9710
-6.6614 2.3697 -2.0016 0.9710
-6.7421 2.1292 -2.0016 0.9710
-6.8774 1.6403 -2.0016 0.9710
-6.9773 1.1429 -2.0016 0.9710
-7.0139 0.8919 -2.0016 0.9710
-7.0413 0.6396 -2.0016 0.9710
-3.4774 -4.9354 -1.8570 0.9751
-2.9270 -5.2804 -1.8570 0.9751
-1.4142 -6.3519 -2.0016 0.9731
-0.9551 -6.4370 -2.0016 0.9731
-0.7236 -6.4671 -2.0016 0.9731
0.2089 -6.5041 -2.0016 0.9731
0.4422 -6.4924 -2.0016 0.9731
0.9066 -6.4440 -2.0016 0.9731
1.5937 -6.3093 -2.0016 0.9731
1.8190 -6.2481 -2.0016 0.9731
2.0420 -6.1788 -2.0016 0.9731
2.2624 -6.1016 -2.0016 0.9731
2.0828 -4.1753 -1.4352 0.9807
2.4149 -4.0795 -1.4581 0.9804
3.7079 -5.3477 -2.0016 0.9731
3.8974 -5.2113 -2.0016 0.9731
4.7648 -4.4321 -2.0016 0.9731
4.9208 -4.2583 -2.0016 0.9731
5.0704 -4.0790 -2.0016 0.9731
5.3498 -3.7049 -2.0016 0.9731
5.4793 -3.5106 -2.0016 0.9731
5.7169 -3.1087 -2.0016 0.9731
5.8248 -2.9016 -2.0016 0.9731
5.9251 -2.6907 -2.0016 0.9731
6.1028 -2.2589 -2.0016 0.9731
6.1799 -2.0385 -2.0016 0.9731
6.4445 -0.9029 -2.0016 0.9731
6.4728 -0.6712 -2.0016 0.9731
6.5042 -0.2053 -2.0016 0.9731
6.5074 0.0282 -2.0016 0.9731
6.4667 0.7272 -2.0016 0.9731
6.3979 1.1890 -2.0016 0.9731
6.3511 1.4178 -2.0016 0.9731
6.1620 2.0920 -2.0016 0.9731
5.9016 2.7420 -2.0016 0.9731
5.1795 3.9395 -2.0016 0.9731
5.0349 4.1228 -2.0016 0.9731
4.5628 4.6399 -2.0016 0.9731
4.3934 4.8006 -2.0016 0.9731
4.2183 4.9551 -2.0016 0.9731
3.8521 5.2449 -2.0016 0.9731
3.4661 5.5076 -2.0016 0.9731
3.2663 5.6284 -2.0016 0.9731
3.0623 5.7419 -2.0016 0.9731
2.8543 5.8481 -2.0016 0.9731
2.2094 6.1209 -2.0016 0.9731
1.9884 6.1963 -2.0016 0.9731
1.7648 6.2636 -2.0016 0.9731
1.5390 6.3229 -2.0016 0.9731
0.8507 6.4516 -2.0016 0.9731
0.6187 6.4780 -2.0016 0.9731
0.3859 6.4960 -2.0016 0.9731
-0.0809 6.5070 -2.0016 0.9731
-0.5473 6.4844 -2.0016 0.9731
-1.2408 6.3881 -2.0016 0.9731
-1.4692 6.3395 -2.0016 0.9731
-2.1419 6.1449 -2.0016 0.9731
-2.7897 5.8792 -2.0016 0.9731
-2.9988 5.7753 -2.0016 0.9731
-3.2041 5.6640 -2.0016 0.9731
-3.4052 5.5454 -2.0016 0.9731
-3.9813 5.1474 -2.0016 0.9731
-4.5114 4.6899 -2.0016 0.9731
-4.8360 4.3543 -2.0016 0.9731
-5.1358 3.9963 -2.0016 0.9731
-5.5355 3.4214 -2.0016 0.9731
-5.6547 3.2206 -2.0016 0.9731
-5.8710 2.8068 -2.0016 0.9731
-6.0572 2.3786 -2.0016 0.9731
-6.1386 2.1598 -2.0016 0.9731
-6.2777 1.7140 -2.0016 0.9731
-6.3351 1.4877 -2.0016 0.9731
-6.3844 1.2595 -2.0016 0.9731
-6.4255 1.0296 -2.0016 0.9731
-6.5067 0.0999 -2.0016 0.9731
-6.4971 -0.3670 -2.0016 0.9731
-6.4798 -0.5998 -2.0016 0.9731
-6.2687 -1.7466 -2.0016 0.9731
-6.1273 -2.1916 -2.0016 0.9731
-5.6269 -2.2434 -1.8632 0.9750
-5.5243 -2.4357 -1.8570 0.9751
-5.3354 -2.8255 -1.8570 0.9751
-5.2306 -3.0151 -1.8570 0.9751
-5.1191 -3.2008 -1.8570 0.9751
-5.0010 -3.3824 -1.8570 0.9751
-4.7455 -3.7323 -1.8570 0.9751
-4.4657 -4.0630 -1.8570 0.9751
-4.3171 -4.2206 -1.8570 0.9751
-4.0033 -4.5193 -1.8570 0.9751
-3.8386 -4.6600 -1.8570 0.9751
-3.4945 -4.9233 -1.8570 0.9751
-2.7544 -5.3725 -1.8570 0.9751
-2.5598 -5.4679 -1.8570 0.9751
-2.3620 -5.5562 -1.8570 0.9751
-2.1612 -5.6374 -1.8570 0.9751
-2.1099 -6.1559 -2.0016 0.9731
-1.6631 -6.2914 -2.0016 0.9731
-1.4363 -6.3470 -2.0016 0.9731
-0.9775 -6.4336 -2.0016 0.9731
-0.5137 -6.4872 -2.0016 0.9731
0.4196 -6.4939 -2.0016 0.9731
0.6523 -6.4747 -2.0016 0.9731
0.8842 -6.4471 -2.0016 0.9731
1.1149 -6.4113 -2.0016 0.9731
1.5717 -6.3148 -2.0016 0.9731
1.7973 -6.2544 -2.0016 0.9731
2.0205 -6.1859 -2.0016 0.9731
2.0815 -4.2093 -1.4443 0.9805
2.2048 -4.0829 -1.4272 0.9808
3.4946 -5.4895 -2.0016 0.9731
3.6893 -5.3606 -2.0016 0.9731
3.8793 -5.2248 -2.0016 0.9731
4.0642 -5.0823 -2.0016 0.9731
4.5868 -4.6162 -2.0016 0.9731
4.9060 -4.2754 -2.0016 0.9731
5.0562 -4.0966 -2.0016 0.9731
5.1999 -3.9126 -2.0016 0.9731
5.3369 -3.7235 -2.0016 0.9731
5.4671 -3.5296 -2.0016 0.9731
5.5902 -3.3312 -2.0016 0.9731
5.9157 -2.7113 -2.0016 0.9731
6.0092 -2.4973 -2.0016 0.9731
6.0949 -2.2801 -2.0016 0.9731
6.4414 -0.9253 -2.0016 0.9731
6.4704 -0.6937 -2.0016 0.9731
6.4911 -0.4611 -2.0016 0.9731
6.5031 0.2390 -2.0016 0.9731
6.4903 0.4722 -2.0016 0.9731
6.4692 0.7047 -2.0016 0.9731
6.3560 1.3957 -2.0016 0.9731
6.3019 1.6229 -2.0016 0.9731
6.2396 1.8479 -2.0016 0.9731
5.9111 2.7214 -2.0016 0.9731
5.5845 3.3408 -2.0016 0.9731
5.3305 3.7326 -2.0016 0.9731
5.0492 4.1053 -2.0016 0.9731
4.8986 4.2838 -2.0016 0.9731
4.7418 4.4568 -2.0016 0.9731
4.5788 4.6240 -2.0016 0.9731
4.4100 4.7853 -2.0016 0.9731
4.0555 5.0892 -2.0016 0.9731
3.8703 5.2314 -2.0016 0.9731
3.4852 5.4955 -2.0016 0.9731
3.0822 5.7313 -2.0016 0.9731
2.8746 5.8381 -2.0016 0.9731
2.6633 5.9375 -2.0016 0.9731
2.4486 6.0292 -2.0016 0.9731
2.2307 6.1132 -2.0016 0.9731
1.5609 6.3175 -2.0016 0.9731
1.3333 6.3694 -2.0016 0.9731
0.4085 6.4946 -2.0016 0.9731
-0.2917 6.5009 -2.0016 0.9731
-2.1205 6.1523 -2.0016 0.9731
-2.5562 5.9844 -2.0016 0.9731
-2.7692 5.8889 -2.0016 0.9731
-2.9787 5.7857 -2.0016 0.9731
-3.7757 5.3001 -2.0016 0.9731
-4.3233 4.8638 -2.0016 0.9731
-4.4950 4.7055 -2.0016 0.9731
-4.6609 4.5412 -2.0016 0.9731
-4.8209 4.3711 -2.0016 0.9731
-5.1219 4.0142 -2.0016 0.9731
-5.2626 3.8278 -2.0016 0.9731
-5.6434 3.2402 -2.0016 0.9731
-5.7560 3.0357 -2.0016 0.9731
-5.9589 2.6151 -2.0016 0.9731
-6.1311 2.1811 -2.0016 0.9731
-6.2717 1.7358 -2.0016 0.9731
-6.4219 1.0519 -2.0016 0.9731
-6.4555 0.8209 -2.0016 0.9731
-6.4808 0.5887 -2.0016 0.9731
-3.2177 -4.5668 -1.8570 0.9767
-3.0518 -4.6793 -1.8570 0.9767
-2.8819 -4.7857 -1.8570 0.9767
-2.5313 -4.9801 -1.8570 0.9767
-2.3510 -5.0677 -1.8570 0.9767
-2.1677 -5.1488 -1.8570 0.9767
-1.7929 -5.2910 -1.8570 0.9767
-1.4089 -5.4059 -1.8570 0.9767
-1.2141 -5.4530 -1.8570 0.9767
-0.6212 -5.5518 -1.8570 0.9767
-0.4216 -5.5706 -1.8570 0.9767
0.1794 -5.5836 -1.8570 0.9767
0.7798 -5.5428 -1.8606 0.9767
1.7530 -5.3043 -1.8570 0.9767
2.1288 -5.1650 -1.8570 0.9767
2.2151 -4.0682 -1.5398 0.9807
2.4062 -4.0647 -1.5701 0.9803
3.0164 -4.7021 -1.8570 0.9767
3.1832 -4.5909 -1.8570 0.9767
4.6917 -3.7744 -2.0016 0.9749
4.8241 -3.6036 -2.0016 0.9749
5.3897 -2.6849 -2.0016 0.9749
5.5684 -2.2915 -2.0016 0.9749
5.6470 -2.0902 -2.0016 0.9749
5.8389 -1.4714 -2.0016 0.9749
5.8879 -1.2610 -2.0016 0.9749
6.0040 0.4578 -2.0016 0.9749
5.9837 0.6729 -2.0016 0.9749
5.9557 0.8871 -2.0016 0.9749
5.9201 1.1002 -2.0016 0.9749
5.8768 1.3119 -2.0016 0.9749
5.8259 1.5219 -2.0016 0.9749
5.7676 1.7300 -2.0016 0.9749
5.6287 2.1391 -2.0016 0.9749
5.4608 2.5372 -2.0016 0.9749
5.1566 3.1092 -2.0016 0.9749
5.0417 3.2922 -2.0016 0.9749
4.7927 3.6453 -2.0016 0.9749
4.6588 3.8149 -2.0016 0.9749
4.3733 4.1391 -2.0016 0.9749
3.9032 4.5850 -2.0016 0.9749
3.0223 5.2080 -2.0016 0.9749
2.6411 5.4113 -2.0016 0.9749
2.4453 5.5026 -2.0016 0.9749
1.2132 5.8980 -2.0016 0.9749
1.0008 5.9377 -2.0016 0.9749
0.7872 5.9698 -2.0016 0.9749
0.3571 6.0108 -2.0016 0.9749
-0.0749 6.0210 -2.0016 0.9749
-0.2908 6.0144 -2.0016 0.9749
-0.5064 6.0001 -2.0016 0.9749
-1.1482 5.9110 -2.0016 0.9749
-1.3595 5.8660 -2.0016 0.9749
-1.7766 5.7534 -2.0016 0.9749
-1.9819 5.6859 -2.0016 0.9749
-2.3845 5.5292 -2.0016 0.9749
-2.7748 5.3440 -2.0016 0.9749
-2.9648 5.2410 -2.0016 0.9749
-3.1509 5.1312 -2.0016 0.9749
-3.3329 5.0149 -2.0016 0.9749
-3.5107 4.8921 -2.0016 0.9749
-3.8525 4.6278 -2.0016 0.9749
-4.1744 4.3396 -2.0016 0.9749
-4.6165 3.8660 -2.0016 0.9749
-4.7522 3.6978 -2.0016 0.9749
-5.0052 3.3476 -2.0016 0.9749
-5.1220 3.1658 -2.0016 0.9749
-5.3359 2.7904 -2.0016 0.9749
-5.4325 2.5972 -2.0016 0.9749
-5.6801 1.9984 -2.0016 0.9749
-5.9076 1.1654 -2.0016 0.9749
-6.0135 0.3084 -2.0016 0.9749
-6.0207 0.0924 -2.0016 0.9749
-6.0202 -0.1236 -2.0016 0.9749
-5.9958 -0.5550 -2.0016 0.9749
-5.9720 -0.7698 -2.0016 0.9749
-5.9406 -0.9835 -2.0016 0.9749
-5.8548 -1.4070 -2.0016 0.9749
-5.8005 -1.6161 -2.0016 0.9749
-5.7388 -1.8232 -2.0016 0.9749
-5.5646 -2.2185 -1.9913 0.9751
-5.1117 -2.2537 -1.8570 0.9767
-5.0276 -2.4357 -1.8570 0.9767
-4.9369 -2.6145 -1.8570 0.9767
-4.8400 -2.7899 -1.8570 0.9767
-4.7367 -2.9618 -1.8570 0.9767
-4.6274 -3.1298 -1.8570 0.9767
-4.3911 -3.4536 -1.8570 0.9767
-4.1322 -3.7595 -1.8570 0.9767
-3.9946 -3.9054 -1.8570 0.9767
-3.8519 -4.0462 -1.8570 0.9767
-3.7043 -4.1817 -1.8570 0.9767
-3.5519 -4.3120 -1.8570 0.9767
-3.3949 -4.4366 -1.8570 0.9767
-3.2335 -4.5556 -1.8570 0.9767
-3.0680 -4.6686 -1.8570 0.9767
-2.8986 -4.7757 -1.8570 0.9767
-2.7254 -4.8766 -1.8570 0.9767
-2.5487 -4.9712 -1.8570 0.9767
-2.3687 -5.0595 -1.8570 0.9767
-1.9998 -5.2163 -1.8570 0.9767
-1.8113 -5.2847 -1.8570 0.9767
-1.0368 -5.4894 -1.8570 0.9767
-0.8392 -5.5231 -1.8570 0.9767
-0.6405 -5.5497 -1.8570 0.9767
-0.2409 -5.5813 -1.8570 0.9767
-0.0405 -5.5863 -1.8570 0.9767
0.3602 -5.5749 -1.8570 0.9767
0.7602 -5.5435 -1.8599 0.9767
0.9571 -5.5039 -1.8570 0.9767
1.1539 -5.4660 -1.8570 0.9767
1.5429 -5.3692 -1.8570 0.9767
2.1109 -5.1723 -1.8570 0.9767
2.2951 -5.0933 -1.8570 0.9767
2.0677 -4.1812 -1.5505 0.9805
3.1672 -4.6019 -1.8570 0.9767
3.4890 -4.3630 -1.8570 0.9767
4.0882 -4.4209 -2.0016 0.9749
4.2442 -4.2714 -2.0016 0.9749
4.3947 -4.1164 -2.0016 0.9749
4.6785 -3.7906 -2.0016 0.9749
5.1727 -3.0824 -2.0016 0.9749
5.3804 -2.7036 -2.0016 0.9749
5.4739 -2.5088 -2.0016 0.9749
5.5604 -2.3108 -2.0016 0.9749
5.8337 -1.4917 -2.0016 0.9749
5.8835 -1.2814 -2.0016 0.9749
5.9257 -1.0695 -2.0016 0.9749
6.0063 -0.4266 -2.0016 0.9749
6.0177 -0.2109 -2.0016 0.9749
6.0214 0.0051 -2.0016 0.9749
6.0174 0.2212 -2.0016 0.9749
6.0056 0.4369 -2.0016 0.9749
5.7085 1.9159 -2.0016 0.9749
5.6361 2.1195 -2.0016 0.9749
5.3757 2.7128 -2.0016 0.9749
5.2750 2.9039 -2.0016 0.9749
4.3876 4.1239 -2.0016 0.9749
4.2369 4.2786 -2.0016 0.9749
4.0806 4.4279 -2.0016 0.9749
3.7526 4.7091 -2.0016 0.9749
2.2657 5.5789 -2.0016 0.9749
2.0641 5.6566 -2.0016 0.9749
1.8598 5.7270 -2.0016 0.9749
1.4444 5.8456 -2.0016 0.9749
1.2337 5.8937 -2.0016 0.9749
1.0215 5.9342 -2.0016 0.9749
0.8079 5.9670 -2.0016 0.9749
0.1621 6.0193 -2.0016 0.9749
-0.4855 6.0018 -2.0016 0.9749
-0.7006 5.9805 -2.0016 0.9749
-1.3391 5.8707 -2.0016 0.9749
-1.7566 5.7595 -2.0016 0.9749
-1.9621 5.6928 -2.0016 0.9749
-2.3653 5.5374 -2.0016 0.9749
-2.5624 5.4490 -2.0016 0.9749
-2.9465 5.2513 -2.0016 0.9749
-3.1330 5.1422 -2.0016 0.9749
-3.4937 4.9043 -2.0016 0.9749
-4.0004 4.5005 -2.0016 0.9749
-4.1593 4.3541 -2.0016 0.9749
-4.3128 4.2021 -2.0016 0.9749
-4.8695 3.5419 -2.0016 0.9749
-5.1110 3.1836 -2.0016 0.9749
-5.3261 2.8089 -2.0016 0.9749
-5.4235 2.6160 -2.0016 0.9749
-5.5138 2.4198 -2.0016 0.9749
-5.9035 1.1859 -2.0016 0.9749
-5.9422 0.9734 -2.0016 0.9749
-5.9967 0.5448 -2.0016 0.9749
-3.1413 -4.1349 -1.8570 0.9782
-2.9909 -4.2449 -1.8570 0.9782
-2.8367 -4.3495 -1.8570 0.9782
-2.6788 -4.4485 -1.8570 0.9782
-2.1854 -4.7105 -1.8570 0.9782
-2.0150 -4.7859 -1.8570 0.9782
-1.8420 -4.8551 -1.8570 0.9782
-1.6666 -4.9181 -1.8570 0.9782
-0.5774 -5.1606 -1.8570 0.9782
-0.3919 -5.1780 -1.8570 0.9782
-0.2059 -5.1887 -1.8570 0.9782
-0.0196 -5.1928 -1.8570 0.9782
0.5385 -5.1648 -1.8570 0.9782
0.9074 -5.1129 -1.8570 0.9782
1.4515 -4.9858 -1.8570 0.9782
1.6295 -4.9305 -1.8570 0.9782
1.9788 -4.8010 -1.8570 0.9782
2.0006 -4.3988 -1.7281 0.9797
2.2072 -4.0536 -1.6506 0.9806
2.3952 -4.0461 -1.6814 0.9802
3.1100 -4.1585 -1.8570 0.9782
3.8144 -4.0961 -2.0016 0.9765
3.9589 -3.9566 -2.0016 0.9765
4.7128 -3.0195 -2.0016 0.9765
4.9171 -2.6738 -2.0016 0.9765
5.0099 -2.4956 -2.0016 0.9765
5.0962 -2.3143 -2.0016 0.9765
5.1760 -2.1300 -2.0016 0.9765
5.2491 -1.9429 -2.0016 0.9765
5.3154 -1.7533 -2.0016 0.9765
5.4274 -1.3677 -2.0016 0.9765
5.4730 -1.1721 -2.0016 0.9765
5.5115 -0.9750 -2.0016 0.9765
5.5429 -0.7766 -2.0016 0.9765
5.5672 -0.5773 -2.0016 0.9765
5.5943 -0.1766 -2.0016 0.9765
5.5926 0.2250 -2.0016 0.9765
5.5360 0.8246 -2.0016 0.9765
5.5029 1.0227 -2.0016 0.9765
5.4154 1.4147 -2.0016 0.9765
5.3611 1.6080 -2.0016 0.9765
5.3000 1.7993 -2.0016 0.9765
5.1573 2.1747 -2.0016 0.9765
4.8938 2.7163 -2.0016 0.9765
4.5736 3.2264 -2.0016 0.9765
4.4549 3.3884 -2.0016 0.9765
4.2005 3.6991 -2.0016 0.9765
3.9244 3.9908 -2.0016 0.9765
3.6282 4.2619 -2.0016 0.9765
3.4729 4.3893 -2.0016 0.9765
3.1492 4.6271 -2.0016 0.9765
2.8093 4.8410 -2.0016 0.9765
2.6339 4.9386 -2.0016 0.9765
2.4550 5.0300 -2.0016 0.9765
1.9003 5.2646 -2.0016 0.9765
1.7102 5.3294 -2.0016 0.9765
1.3237 5.4383 -2.0016 0.9765
1.1277 5.4823 -2.0016 0.9765
0.7317 5.5491 -2.0016 0.9765
0.5321 5.5717 -2.0016 0.9765
0.3319 5.5872 -2.0016 0.9765
0.1312 5.5956 -2.0016 0.9765
-0.8694 5.5292 -2.0016 0.9765
-1.0673 5.4944 -2.0016 0.9765
-1.2637 5.4526 -2.0016 0.9765
-1.6514 5.3479 -2.0016 0.9765
-1.8422 5.2852 -2.0016 0.9765
-2.0306 5.2157 -2.0016 0.9765
-2.2165 5.1395 -2.0016 0.9765
-2.3994 5.0567 -2.0016 0.9765
-2.5793 4.9674 -2.0016 0.9765
-2.7558 4.8716 -2.0016 0.9765
-3.0981 4.6615 -2.0016 0.9765
-3.8802 4.0338 -2.0016 0.9765
-4.4173 3.4372 -2.0016 0.9765
-4.5378 3.2766 -2.0016 0.9765
-4.6524 3.1116 -2.0016 0.9765
-4.7611 2.9427 -2.0016 0.9765
-5.3431 1.6670 -2.0016 0.9765
-5.3995 1.4742 -2.0016 0.9765
-5.4489 1.2796 -2.0016 0.9765
-5.4913 1.0833 -2.0016 0.9765
-5.5266 0.8856 -2.0016 0.9765
-5.5548 0.6867 -2.0016 0.9765
-5.5759 0.4870 -2.0016 0.9765
-5.5898 0.2866 -2.0016 0.9765
-5.5512 -0.7155 -2.0016 0.9765
-5.5219 -0.9142 -2.0016 0.9765
-5.4856 -1.1117 -2.0016 0.9765
-5.2701 -1.8850 -2.0016 0.9765
-4.6733 -2.2640 -1.8570 0.9782
-4.5890 -2.4302 -1.8570 0.9782
-4.1942 -3.0617 -1.8570 0.9782
-4.0817 -3.2102 -1.8570 0.9782
-3.9639 -3.3545 -1.8570 0.9782
-3.5805 -3.7610 -1.8570 0.9782
-3.0057 -4.2345 -1.8570 0.9782
-2.8518 -4.3396 -1.8570 0.9782
-2.6943 -4.4391 -1.8570 0.9782
-2.2017 -4.7029 -1.8570 0.9782
-1.1462 -5.0647 -1.8570 0.9782
-0.9637 -5.1026 -1.8570 0.9782
-0.7800 -5.1339 -1.8570 0.9782
0.1487 -5.1907 -1.8570 0.9782
0.3348 -5.1820 -1.8570 0.9782
0.7055 -5.1446 -1.8570 0.9782
0.8896 -5.1160 -1.8570 0.9782
1.0726 -5.0808 -1.8570 0.9782
1.4342 -4.9908 -1.8570 0.9782
1.6123 -4.9361 -1.8570 0.9782
1.7884 -4.8751 -1.8570 0.9782
2.0004 -4.4394 -1.7413 0.9795
2.3762 -4.0461 -1.6780 0.9803
2.7886 -4.3805 -1.8570 0.9782
3.8001 -4.1093 -2.0016 0.9765
3.9451 -3.9704 -2.0016 0.9765
4.0850 -3.8263 -2.0016 0.9765
4.2196 -3.6773 -2.0016 0.9765
4.3488 -3.5235 -2.0016 0.9765
4.5903 -3.2026 -2.0016 0.9765
4.8081 -2.8652 -2.0016 0.9765
5.0012 -2.5130 -2.0016 0.9765
5.0881 -2.3320 -2.0016 0.9765
5.1685 -2.1480 -2.0016 0.9765
5.2423 -1.9612 -2.0016 0.9765
5.3092 -1.7718 -2.0016 0.9765
5.3694 -1.5802 -2.0016 0.9765
5.4226 -1.3866 -2.0016 0.9765
5.4689 -1.1911 -2.0016 0.9765
5.5402 -0.7959 -2.0016 0.9765
5.5652 -0.5966 -2.0016 0.9765
5.5830 -0.3966 -2.0016 0.9765
5.5937 -0.1960 -2.0016 0.9765
5.5971 0.0048 -2.0016 0.9765
5.5933 0.2056 -2.0016 0.9765
5.5823 0.4061 -2.0016 0.9765
5.5642 0.6061 -2.0016 0.9765
5.5388 0.8054 -2.0016 0.9765
5.4668 1.2005 -2.0016 0.9765
5.4203 1.3958 -2.0016 0.9765
5.3667 1.5894 -2.0016 0.9765
4.9969 2.5216 -2.0016 0.9765
4.9032 2.6993 -2.0016 0.9765
4.8032 2.8734 -2.0016 0.9765
4.4667 3.3729 -2.0016 0.9765
4.2133 3.6845 -2.0016 0.9765
3.9383 3.9771 -2.0016 0.9765
3.4882 4.3772 -2.0016 0.9765
3.3289 4.4996 -2.0016 0.9765
2.9977 4.7267 -2.0016 0.9765
2.4725 5.0214 -2.0016 0.9765
2.2907 5.1069 -2.0016 0.9765
1.1468 5.4784 -2.0016 0.9765
0.9495 5.5160 -2.0016 0.9765
0.7510 5.5465 -2.0016 0.9765
0.3513 5.5861 -2.0016 0.9765
-0.0501 5.5969 -2.0016 0.9765
-0.6512 5.5591 -2.0016 0.9765
-0.8502 5.5321 -2.0016 0.9765
-1.0481 5.4981 -2.0016 0.9765
-1.2447 5.4569 -2.0016 0.9765
-1.4397 5.4088 -2.0016 0.9765
-1.8238 5.2916 -2.0016 0.9765
-2.0125 5.2228 -2.0016 0.9765
-2.1986 5.1472 -2.0016 0.9765
-2.5620 4.9763 -2.0016 0.9765
-2.7389 4.8812 -2.0016 0.9765
-2.9122 4.7798 -2.0016 0.9765
-3.7185 4.1833 -2.0016 0.9765
-3.8662 4.0472 -2.0016 0.9765
-4.0089 3.9059 -2.0016 0.9765
-4.2786 3.6084 -2.0016 0.9765
-4.5264 3.2923 -2.0016 0.9765
-4.7508 2.9593 -2.0016 0.9765
-5.1253 2.2493 -2.0016 0.9765
-5.4875 1.1024 -2.0016 0.9765
-5.5524 0.7060 -2.0016 0.9765
-5.5741 0.5064 -2.0016 0.9765
-2.9314 -3.8586 -1.8570 0.9795
-2.7910 -3.9612 -1.8570 0.9795
-2.6471 -4.0588 -1.8570 0.9795
-2.3493 -4.2382 -1.8570 0.9795
-2.1957 -4.3197 -1.8570 0.9795
-2.0393 -4.3957 -1.8570 0.9795
-1.7189 -4.5307 -1.8570 0.9795
-1.3896 -4.6422 -1.8570 0.9795
-1.0531 -4.7299 -1.8570 0.9795
-0.8827 -4.7647 -1.8570 0.9795
-0.7112 -4.7933 -1.8570 0.9795
-0.1921 -4.8419 -1.8570 0.9795
0.1556 -4.8433 -1.8570 0.9795
0.3292 -4.8346 -1.8570 0.9795
0.5025 -4.8196 -1.8570 0.9795
0.6751 -4.7985 -1.8570 0.9795
0.8468 -4.7712 -1.8570 0.9795
1.1867 -4.6982 -1.8570 0.9795
1.6847 -4.5435 -1.8570 0.9795
1.8466 -4.4801 -1.8570 0.9795
2.0115 -4.0322 -1.7268 0.9809
2.1781 -4.0002 -1.7454 0.9807
2.3683 -4.0007 -1.7816 0.9803
2.9022 -3.8805 -1.8570 0.9795
3.0395 -3.7739 -1.8570 0.9795
3.1730 -3.6624 -1.8570 0.9795
3.3023 -3.5462 -1.8570 0.9795
3.8244 -3.5573 -2.0016 0.9779
3.9495 -3.4178 -2.0016 0.9779
4.0696 -3.2739 -2.0016 0.9779
4.2939 -2.9737 -2.0016 0.9779
4.3978 -2.8177 -2.0016 0.9779
4.5885 -2.4951 -2.0016 0.9779
4.6751 -2.3289 -2.0016 0.9779
4.7556 -2.1596 -2.0016 0.9779
5.0157 -1.4572 -2.0016 0.9779
5.0647 -1.2763 -2.0016 0.9779
5.1432 -0.9098 -2.0016 0.9779
5.2230 0.0226 -2.0016 0.9779
5.2188 0.2100 -2.0016 0.9779
5.1903 0.5837 -2.0016 0.9779
5.1660 0.7695 -2.0016 0.9779
5.0535 1.3201 -2.0016 0.9779
5.0028 1.5006 -2.0016 0.9779
4.8824 1.8554 -2.0016 0.9779
4.5667 2.5348 -2.0016 0.9779
4.4729 2.6970 -2.0016 0.9779
4.2680 3.0108 -2.0016 0.9779
3.9198 3.4519 -2.0016 0.9779
3.7934 3.5903 -2.0016 0.9779
3.6622 3.7241 -2.0016 0.9779
3.5262 3.8531 -2.0016 0.9779
3.2408 4.0960 -2.0016 0.9779
3.0918 4.2096 -2.0016 0.9779
2.4578 4.6086 -2.0016 0.9779
2.2909 4.6938 -2.0016 0.9779
2.1210 4.7730 -2.0016 0.9779
1.7733 4.9128 -2.0016 0.9779
1.4165 5.0273 -2.0016 0.9779
1.2352 5.0749 -2.0016 0.9779
0.3097 5.2138 -2.0016 0.9779
-0.0649 5.2226 -2.0016 0.9779
-0.2523 5.2169 -2.0016 0.9779
-0.4393 5.2045 -2.0016 0.9779
-0.6257 5.1854 -2.0016 0.9779
-0.8113 5.1596 -2.0016 0.9779
-0.9959 5.1272 -2.0016 0.9779
-1.1792 5.0882 -2.0016 0.9779
-1.5410 4.9905 -2.0016 0.9779
-1.7191 4.9320 -2.0016 0.9779
-1.8949 4.8672 -2.0016 0.9779
-2.0683 4.7960 -2.0016 0.9779
-2.2391 4.7188 -2.0016 0.9779
-2.5717 4.5461 -2.0016 0.9779
-2.7331 4.4509 -2.0016 0.9779
-3.0452 4.2434 -2.0016 0.9779
-3.3417 4.0141 -2.0016 0.9779
-3.7536 3.6319 -2.0016 0.9779
-4.0044 3.3534 -2.0016 0.9779
-4.1221 3.2075 -2.0016 0.9779
-4.2345 3.0576 -2.0016 0.9779
-4.4429 2.7461 -2.0016 0.9779
-4.5385 2.5849 -2.0016 0.9779
-4.6283 2.4204 -2.0016 0.9779
-4.8616 1.9091 -2.0016 0.9779
-4.9860 1.5556 -2.0016 0.9779
-5.1243 1.0109 -2.0016 0.9779
-5.1573 0.8264 -2.0016 0.9779
-5.1836 0.6408 -2.0016 0.9779
-5.2032 0.4544 -2.0016 0.9779
-5.2162 0.2675 -2.0016 0.9779
-5.2224 0.0802 -2.0016 0.9779
-5.2219 -0.1072 -2.0016 0.9779
-5.2147 -0.2945 -2.0016 0.9779
-5.2008 -0.4814 -2.0016 0.9779
-5.1802 -0.6677 -2.0016 0.9779
-5.0784 -1.2204 -2.0016 0.9779
-4.9179 -1.7590 -2.0016 0.9779
-4.8517 -1.9343 -2.0016 0.9779
-4.2823 -2.2678 -1.8570 0.9795
-4.1982 -2.4200 -1.8570 0.9795
-4.1087 -2.5691 -1.8570 0.9795
-4.0139 -2.7148 -1.8570 0.9795
-3.8089 -2.9956 -1.8570 0.9795
-3.5843 -3.2611 -1.8570 0.9795
-3.4650 -3.3875 -1.8570 0.9795
-3.3412 -3.5097 -1.8570 0.9795
-3.2131 -3.6273 -1.8570 0.9795
-2.5142 -4.1425 -1.8570 0.9795
-2.3640 -4.2300 -1.8570 0.9795
-1.8958 -4.4595 -1.8570 0.9795
-1.5712 -4.5840 -1.8570 0.9795
-1.4057 -4.6374 -1.8570 0.9795
-1.2384 -4.6848 -1.8570 0.9795
-1.0695 -4.7262 -1.8570 0.9795
-0.8993 -4.7616 -1.8570 0.9795
-0.7279 -4.7908 -1.8570 0.9795
-0.5555 -4.8138 -1.8570 0.9795
-0.3825 -4.8306 -1.8570 0.9795
0.3124 -4.8357 -1.8570 0.9795
0.4857 -4.8214 -1.8570 0.9795
0.6584 -4.8008 -1.8570 0.9795
1.0009 -4.7413 -1.8570 0.9795
1.1704 -4.7023 -1.8570 0.9795
1.6689 -4.5493 -1.8570 0.9795
1.8310 -4.4865 -1.8570 0.9795
1.9908 -4.4179 -1.8570 0.9795
2.0048 -4.0542 -1.7332 0.9808
2.3495 -4.0006 -1.7780 0.9803
2.6023 -4.0877 -1.8570 0.9795
2.7472 -3.9917 -1.8570 0.9795
3.0264 -3.7845 -1.8570 0.9795
3.9376 -3.4315 -2.0016 0.9779
4.1735 -3.1403 -2.0016 0.9779
4.2835 -2.9886 -2.0016 0.9779
4.3880 -2.8330 -2.0016 0.9779
4.4868 -2.6737 -2.0016 0.9779
4.5798 -2.5110 -2.0016 0.9779
4.7481 -2.1762 -2.0016 0.9779
4.8231 -2.0044 -2.0016 0.9779
4.8919 -1.8301 -2.0016 0.9779
5.0106 -1.4746 -2.0016 0.9779
5.0602 -1.2939 -2.0016 0.9779
5.1400 -0.9277 -2.0016 0.9779
5.1700 -0.7427 -2.0016 0.9779
5.2099 -0.3701 -2.0016 0.9779
5.2198 -0.1829 -2.0016 0.9779
5.2230 0.0045 -2.0016 0.9779
5.2195 0.1919 -2.0016 0.9779
5.1923 0.5656 -2.0016 0.9779
5.0580 1.3025 -2.0016 0.9779
5.0080 1.4832 -2.0016 0.9779
4.9516 1.6619 -2.0016 0.9779
4.8888 1.8385 -2.0016 0.9779
4.8197 2.0127 -2.0016 0.9779
4.7444 2.1843 -2.0016 0.9779
4.6629 2.3531 -2.0016 0.9779
4.5755 2.5189 -2.0016 0.9779
4.4822 2.6814 -2.0016 0.9779
4.3831 2.8405 -2.0016 0.9779
3.9317 3.4382 -2.0016 0.9779
3.8059 3.5771 -2.0016 0.9779
3.5396 3.8408 -2.0016 0.9779
3.1064 4.1988 -2.0016 0.9779
2.9538 4.3076 -2.0016 0.9779
2.7973 4.4108 -2.0016 0.9779
2.4738 4.6000 -2.0016 0.9779
2.3072 4.6858 -2.0016 0.9779
2.1376 4.7656 -2.0016 0.9779
1.9653 4.8392 -2.0016 0.9779
1.2528 5.0705 -2.0016 0.9779
0.8860 5.1473 -2.0016 0.9779
0.5146 5.1976 -2.0016 0.9779
0.3279 5.2127 -2.0016 0.9779
0.1406 5.2211 -2.0016 0.9779
-0.2341 5.2178 -2.0016 0.9779
-0.4212 5.2060 -2.0016 0.9779
-0.6077 5.1876 -2.0016 0.9779
-0.9781 5.1306 -2.0016 0.9779
-1.1615 5.0922 -2.0016 0.9779
-1.5237 4.9958 -2.0016 0.9779
-1.8780 4.8737 -2.0016 0.9779
-2.2226 4.7265 -2.0016 0.9779
-2.5558 4.5550 -2.0016 0.9779
-2.8759 4.3600 -2.0016 0.9779
-3.0304 4.2540 -2.0016 0.9779
-3.1811 4.1425 -2.0016 0.9779
-3.3277 4.0257 -2.0016 0.9779
-3.6078 3.7768 -2.0016 0.9779
-3.8693 3.5083 -2.0016 0.9779
-3.9927 3.3673 -2.0016 0.9779
-4.2239 3.0723 -2.0016 0.9779
-4.6199 2.4365 -2.0016 0.9779
-4.7827 2.0989 -2.0016 0.9779
-4.9806 1.5729 -2.0016 0.9779
-5.0338 1.3932 -2.0016 0.9779
-5.1207 1.0287 -2.0016 0.9779
-5.1543 0.8443 -2.0016 0.9779
-5.1813 0.6588 -2.0016 0.9779
-2.6133 -3.7090 -1.8570 0.9806
-2.4786 -3.8004 -1.8570 0.9806
-2.1997 -3.9684 -1.8570 0.9806
-1.9095 -4.1159 -1.8570 0.9806
-1.3011 -4.3467 -1.8570 0.9806
-0.8265 -4.4613 -1.8570 0.9806
-0.0171 -4.5372 -1.8570 0.9806
0.7929 -4.4674 -1.8570 0.9806
1.2683 -4.3564 -1.8570 0.9806
1.5774 -4.2542 -1.8570 0.9806
1.7290 -4.1949 -1.8570 0.9806
1.8784 -4.1302 -1.8570 0.9806
2.0115 -4.0322 -1.8442 0.9807
2.4499 -3.8190 -1.8570 0.9806
2.5853 -3.7286 -1.8570 0.9806
2.7174 -3.6335 -1.8570 0.9806
2.8460 -3.5337 -1.8570 0.9806
2.9710 -3.4293 -1.8570 0.9806
3.2092 -3.2074 -1.8570 0.9806
3.3222 -3.0902 -1.8570 0.9806
3.6981 -3.2002 -2.0016 0.9791
4.0205 -2.7843 -2.0016 0.9791
4.4529 -2.0221 -2.0016 0.9791
4.5864 -1.6976 -2.0016 0.9791
4.6963 -1.3644 -2.0016 0.9791
4.7423 -1.1950 -2.0016 0.9791
4.7821 -1.0241 -2.0016 0.9791
4.8157 -0.8519 -2.0016 0.9791
4.8881 -0.1543 -2.0016 0.9791
4.8905 0.0212 -2.0016 0.9791
4.8082 0.8936 -2.0016 0.9791
4.7317 1.2361 -2.0016 0.9791
4.6843 1.4050 -2.0016 0.9791
4.5715 1.7373 -2.0016 0.9791
4.4352 2.0606 -2.0016 0.9791
4.3584 2.2184 -2.0016 0.9791
4.1881 2.5253 -2.0016 0.9791
3.9962 2.8191 -2.0016 0.9791
3.8925 2.9606 -2.0016 0.9791
3.7838 3.0984 -2.0016 0.9791
3.5519 3.3617 -2.0016 0.9791
3.1701 3.7239 -2.0016 0.9791
3.0345 3.8352 -2.0016 0.9791
2.7517 4.0429 -2.0016 0.9791
2.4547 4.2298 -2.0016 0.9791
2.3013 4.3152 -2.0016 0.9791
1.9860 4.4691 -2.0016 0.9791
1.1566 4.7518 -2.0016 0.9791
0.9853 4.7902 -2.0016 0.9791
0.4650 4.8683 -2.0016 0.9791
-0.2362 4.8848 -2.0016 0.9791
-0.5859 4.8553 -2.0016 0.9791
-0.7597 4.8311 -2.0016 0.9791
-1.4429 4.6728 -2.0016 0.9791
-2.2537 4.3403 -2.0016 0.9791
-2.8514 3.9733 -2.0016 0.9791
-2.9921 3.8684 -2.0016 0.9791
-3.1289 3.7586 -2.0016 0.9791
-3.2617 3.6439 -2.0016 0.9791
-3.3904 3.5245 -2.0016 0.9791
-3.5146 3.4006 -2.0016 0.9791
-4.0651 2.7188 -2.0016 0.9791
-4.1600 2.5712 -2.0016 0.9791
-4.4850 1.9497 -2.0016 0.9791
-4.5521 1.7876 -2.0016 0.9791
-4.6133 1.6231 -2.0016 0.9791
-4.7178 1.2881 -2.0016 0.9791
-4.7610 1.1180 -2.0016 0.9791
-4.7980 0.9465 -2.0016 0.9791
-2.0392 0.3268 -0.8453 0.9911
-1.9533 0.2415 -0.8055 0.9915
-1.9417 0.0996 -0.7957 0.9916
-1.9133 0.0294 -0.7832 0.9918
-1.9181 -0.0394 -0.7852 0.9917
-1.9579 -0.1812 -0.8048 0.9915
-4.7551 -1.1427 -2.0016 0.9791
-4.7111 -1.3126 -2.0016 0.9791
-4.6609 -1.4807 -2.0016 0.9791
-4.6048 -1.6470 -2.0016 0.9791
-4.4012 -2.1322 -2.0016 0.9791
-4.2047 -2.2267 -1.9473 0.9796
-3.8471 -2.4055 -1.8570 0.9806
-3.7583 -2.5420 -1.8570 0.9806
-3.6647 -2.6752 -1.8570 0.9806
-3.4634 -2.9311 -1.8570 0.9806
-3.0086 -3.3963 -1.8570 0.9806
-2.8848 -3.5021 -1.8570 0.9806
-2.7573 -3.6033 -1.8570 0.9806
-2.6262 -3.6999 -1.8570 0.9806
-2.0700 -4.0375 -1.8570 0.9806
-1.9238 -4.1092 -1.8570 0.9806
-1.7751 -4.1756 -1.8570 0.9806
-1.6242 -4.2366 -1.8570 0.9806
-1.3162 -4.3421 -1.8570 0.9806
-1.0015 -4.4253 -1.8570 0.9806
-0.6815 -4.4858 -1.8570 0.9806
0.2925 -4.5278 -1.8570 0.9806
0.4548 -4.5144 -1.8570 0.9806
0.7773 -4.4702 -1.8570 0.9806
1.0959 -4.4029 -1.8570 0.9806
1.4088 -4.3130 -1.8570 0.9806
1.5626 -4.2597 -1.8570 0.9806
1.7144 -4.2009 -1.8570 0.9806
1.8640 -4.1367 -1.8570 0.9806
2.1559 -3.9924 -1.8570 0.9806
2.4366 -3.8275 -1.8570 0.9806
2.8337 -3.5435 -1.8570 0.9806
2.9590 -3.4396 -1.8570 0.9806
3.3115 -3.1017 -1.8570 0.9806
3.6869 -3.2130 -2.0016 0.9791
3.7998 -3.0787 -2.0016 0.9791
3.9078 -2.9404 -2.0016 0.9791
4.2882 -2.3512 -2.0016 0.9791
4.5805 -1.7136 -2.0016 0.9791
4.6390 -1.5481 -2.0016 0.9791
4.6916 -1.3807 -2.0016 0.9791
4.8875 -0.1713 -2.0016 0.9791
4.8905 0.0042 -2.0016 0.9791
4.8112 0.8769 -2.0016 0.9791
4.7767 1.0489 -2.0016 0.9791
4.7360 1.2196 -2.0016 0.9791
4.6892 1.3887 -2.0016 0.9791
4.5775 1.7214 -2.0016 0.9791
4.5128 1.8845 -2.0016 0.9791
4.3661 2.2033 -2.0016 0.9791
4.1041 2.6596 -2.0016 0.9791
3.9028 2.9471 -2.0016 0.9791
3.6814 3.2193 -2.0016 0.9791
3.4411 3.4750 -2.0016 0.9791
3.0478 3.8246 -2.0016 0.9791
2.9086 3.9315 -2.0016 0.9791
2.4694 4.2213 -2.0016 0.9791
2.0015 4.4622 -2.0016 0.9791
1.8402 4.5311 -2.0016 0.9791
1.5105 4.6514 -2.0016 0.9791
0.8296 4.8196 -2.0016 0.9791
0.3070 4.8809 -2.0016 0.9791
-0.0438 4.8903 -2.0016 0.9791
-0.2192 4.8856 -2.0016 0.9791
-0.3944 4.8746 -2.0016 0.9791
-0.5690 4.8573 -2.0016 0.9791
-0.9158 4.8040 -2.0016 0.9791
-1.5936 4.6236 -2.0016 0.9791
-1.7584 4.5634 -2.0016 0.9791
-1.9210 4.4974 -2.0016 0.9791
-2.3931 4.2650 -2.0016 0.9791
-2.8375 3.9832 -2.0016 0.9791
-3.1158 3.7694 -2.0016 0.9791
-3.5028 3.4128 -2.0016 0.9791
-3.8492 3.0167 -2.0016 0.9791
-4.0556 2.7329 -2.0016 0.9791
-4.1511 2.5857 -2.0016 0.9791
-4.2411 2.4351 -2.0016 0.9791
-4.4782 1.9653 -2.0016 0.9791
-4.5459 1.8034 -2.0016 0.9791
-4.7133 1.3045 -2.0016 0.9791
-4.7571 1.1346 -2.0016 0.9791
-2.0682 0.3388 -0.8578 0.9910
-1.9521 0.2482 -0.8054 0.9915
-1.9579 0.1779 -0.8046 0.9915
-2.3276 -3.5690 -1.8570 0.9816
-2.1981 -3.6502 -1.8570 0.9816
-1.5114 -3.9838 -1.8570 0.9816
-1.3675 -4.0355 -1.8570 0.9816
-1.2219 -4.0820 -1.8570 0.9816
-0.4738 -4.2345 -1.8570 0.9816
-0.0161 -4.2609 -1.8570 0.9816
0.1368 -4.2587 -1.8570 0.9816
0.2895 -4.2511 -1.8570 0.9816
0.4418 -4.2379 -1.8570 0.9816
1.6237 -3.9394 -1.8570 0.9816
1.7640 -3.8786 -1.8570 0.9816
1.9020 -3.8128 -1.8570 0.9816
2.0376 -3.7422 -1.8570 0.9816
2.3007 -3.5864 -1.8570 0.9816
2.9038 -3.1183 -1.8570 0.9816
3.1199 -2.9020 -1.8570 0.9816
3.4729 -3.0053 -2.0016 0.9802
3.6794 -2.7485 -2.0016 0.9802
3.9534 -2.3373 -2.0016 0.9802
4.1109 -2.0478 -2.0016 0.9802
4.2471 -1.7477 -2.0016 0.9802
4.3071 -1.5943 -2.0016 0.9802
4.3615 -1.4387 -2.0016 0.9802
4.4103 -1.2813 -2.0016 0.9802
4.4534 -1.1223 -2.0016 0.9802
4.5225 -0.8000 -2.0016 0.9802
4.5822 -0.3095 -2.0016 0.9802
4.5926 0.0199 -2.0016 0.9802
4.5425 0.6766 -2.0016 0.9802
4.4823 1.0006 -2.0016 0.9802
4.3991 1.3195 -2.0016 0.9802
4.3489 1.4764 -2.0016 0.9802
4.2931 1.6315 -2.0016 0.9802
4.2318 1.7845 -2.0016 0.9802
4.0930 2.0833 -2.0016 0.9802
4.0156 2.2288 -2.0016 0.9802
3.9330 2.3715 -2.0016 0.9802
3.8454 2.5110 -2.0016 0.9802
3.7529 2.6474 -2.0016 0.9802
3.5534 2.9097 -2.0016 0.9802
3.4467 3.0353 -2.0016 0.9802
3.3356 3.1570 -2.0016 0.9802
3.2202 3.2746 -2.0016 0.9802
3.1006 3.3880 -2.0016 0.9802
2.9771 3.4971 -2.0016 0.9802
2.4462 3.8870 -2.0016 0.9802
2.3052 3.9722 -2.0016 0.9802
2.1612 4.0524 -2.0016 0.9802
2.0144 4.1273 -2.0016 0.9802
1.8650 4.1969 -2.0016 0.9802
1.7133 4.2611 -2.0016 0.9802
1.2455 4.4205 -2.0016 0.9802
1.0861 4.4624 -2.0016 0.9802
0.7634 4.5288 -2.0016 0.9802
-0.3863 4.5764 -2.0016 0.9802
-0.5502 4.5596 -2.0016 0.9802
-0.7134 4.5369 -2.0016 0.9802
-1.0369 4.4741 -2.0016 0.9802
-1.1968 4.4340 -2.0016 0.9802
-1.3551 4.3882 -2.0016 0.9802
-1.5116 4.3368 -2.0016 0.9802
-1.6662 4.2798 -2.0016 0.9802
-1.8187 4.2172 -2.0016 0.9802
-1.9688 4.1493 -2.0016 0.9802
-2.5421 3.8249 -2.0016 0.9802
-2.6777 3.7313 -2.0016 0.9802
-3.0631 3.4220 -2.0016 0.9802
-3.4130 3.0731 -2.0016 0.9802
-3.7235 2.6886 -2.0016 0.9802
-3.8175 2.5532 -2.0016 0.9802
-3.9908 2.2729 -2.0016 0.9802
-4.0698 2.1283 -2.0016 0.9802
-4.2119 1.8310 -2.0016 0.9802
-4.2749 1.6787 -2.0016 0.9802
-1.5935 0.5606 -0.7362 0.9927
-1.5793 0.4927 -0.7210 0.9928
-1.5594 0.4258 -0.7045 0.9930
-1.5090 0.2418 -0.6660 0.9934
-1.5295 0.0784 -0.6674 0.9933
-1.5274 -0.1414 -0.6685 0.9933
-1.5092 -0.3059 -0.6711 0.9933
-1.5384 -0.3697 -0.6896 0.9931
-1.5626 -0.4354 -0.7070 0.9929
-1.5950 -0.5705 -0.7383 0.9926
-3.6128 -2.2590 -1.8570 0.9816
-3.3492 -2.6341 -1.8570 0.9816
-3.2525 -2.7526 -1.8570 0.9816
-3.1517 -2.8675 -1.8570 0.9816
-3.0468 -2.9787 -1.8570 0.9816
-2.7091 -3.2888 -1.8570 0.9816
-2.5894 -3.3839 -1.8570 0.9816
-2.3400 -3.5608 -1.8570 0.9816
-1.9439 -3.7917 -1.8570 0.9816
-1.0890 -4.1194 -1.8570 0.9816
-0.9405 -4.1558 -1.8570 0.9816
-0.7908 -4.1869 -1.8570 0.9816
-0.6400 -4.2126 -1.8570 0.9816
-0.4885 -4.2328 -1.8570 0.9816
-0.1837 -4.2570 -1.8570 0.9816
-0.0309 -4.2608 -1.8570 0.9816
0.5789 -4.2214 -1.8570 0.9816
0.8801 -4.1690 -1.8570 0.9816
1.0291 -4.1348 -1.8570 0.9816
1.3230 -4.0503 -1.8570 0.9816
1.6100 -3.9450 -1.8570 0.9816
1.7505 -3.8847 -1.8570 0.9816
1.8887 -3.8194 -1.8570 0.9816
2.1578 -3.6742 -1.8570 0.9816
2.2882 -3.5944 -1.8570 0.9816
2.5400 -3.4211 -1.8570 0.9816
2.8929 -3.1283 -1.8570 0.9816
4.0271 -2.2080 -2.0016 0.9802
4.1037 -2.0621 -2.0016 0.9802
4.1750 -1.9135 -2.0016 0.9802
4.2410 -1.7625 -2.0016 0.9802
4.3565 -1.4539 -2.0016 0.9802
4.5196 -0.8157 -2.0016 0.9802
4.5460 -0.6531 -2.0016 0.9802
4.5665 -0.4895 -2.0016 0.9802
4.5898 -0.1608 -2.0016 0.9802
4.5927 0.0039 -2.0016 0.9802
4.5896 0.1687 -2.0016 0.9802
4.5806 0.3332 -2.0016 0.9802
4.5449 0.6608 -2.0016 0.9802
4.4476 1.1453 -2.0016 0.9802
4.4036 1.3042 -2.0016 0.9802
4.3540 1.4613 -2.0016 0.9802
4.2988 1.6166 -2.0016 0.9802
4.2380 1.7698 -2.0016 0.9802
4.1718 1.9207 -2.0016 0.9802
4.1002 2.0691 -2.0016 0.9802
3.3465 3.1454 -2.0016 0.9802
2.9892 3.4867 -2.0016 0.9802
2.8622 3.5917 -2.0016 0.9802
2.5973 3.7877 -2.0016 0.9802
2.1753 4.0448 -2.0016 0.9802
2.0288 4.1203 -2.0016 0.9802
1.8796 4.1904 -2.0016 0.9802
1.7281 4.2552 -2.0016 0.9802
1.4185 4.3681 -2.0016 0.9802
0.9410 4.4952 -2.0016 0.9802
0.7791 4.5261 -2.0016 0.9802
0.6162 4.5511 -2.0016 0.9802
0.4525 4.5703 -2.0016 0.9802
0.2883 4.5836 -2.0016 0.9802
-0.0411 4.5925 -2.0016 0.9802
-0.2059 4.5880 -2.0016 0.9802
-0.3703 4.5777 -2.0016 0.9802
-0.8600 4.5114 -2.0016 0.9802
-1.0213 4.4777 -2.0016 0.9802
-1.1813 4.4381 -2.0016 0.9802
-1.6513 4.2855 -2.0016 0.9802
-1.8040 4.2235 -2.0016 0.9802
-1.9544 4.1561 -2.0016 0.9802
-2.3896 3.9220 -2.0016 0.9802
-2.6647 3.7406 -2.0016 0.9802
-2.9261 3.5399 -2.0016 0.9802
-3.1724 3.3209 -2.0016 0.9802
-3.2895 3.2050 -2.0016 0.9802
-3.4023 3.0849 -2.0016 0.9802
-3.5108 2.9609 -2.0016 0.9802
-3.6148 2.8330 -2.0016 0.9802
-3.8086 2.5665 -2.0016 0.9802
-3.8983 2.4282 -2.0016 0.9802
-3.9829 2.2868 -2.0016 0.9802
-4.0623 2.1424 -2.0016 0.9802
-4.1366 1.9953 -2.0016 0.9802
-4.2055 1.8456 -2.0016 0.9802
-1.5809 0.4993 -0.7225 0.9928
-1.5616 0.4322 -0.7061 0.9930
-1.5077 0.3029 -0.6702 0.9933
-1.5076 0.2469 -0.6658 0.9934
-2.1915 -3.3603 -1.8570 0.9825
-2.0696 -3.4367 -1.8570 0.9825
-1.9449 -3.5088 -1.8570 0.9825
-1.8178 -3.5763 -1.8570 0.9825
-1.4230 -3.7509 -1.8570 0.9825
-1.1504 -3.8433 -1.8570 0.9825
-1.0118 -3.8821 -1.8570 0.9825
-0.7308 -3.9446 -1.8570 0.9825
-0.3028 -4.0003 -1.8570 0.9825
-0.1590 -4.0086 -1.8570 0.9825
-0.0151 -4.0117 -1.8570 0.9825
0.1288 -4.0097 -1.8570 0.9825
0.2726 -4.0025 -1.8570 0.9825
0.5589 -3.9726 -1.8570 0.9825
0.9825 -3.8896 -1.8570 0.9825
1.1214 -3.8518 -1.8570 0.9825
1.2589 -3.8091 -1.8570 0.9825
1.3947 -3.7615 -1.8570 0.9825
1.5288 -3.7090 -1.8570 0.9825
1.7908 -3.5899 -1.8570 0.9825
1.9184 -3.5233 -1.8570 0.9825
2.0436 -3.4522 -1.8570 0.9825
2.2859 -3.2968 -1.8570 0.9825
2.6269 -3.0321 -1.8570 0.9825
2.7340 -2.9359 -1.8570 0.9825
2.8375 -2.8359 -1.8570 0.9825
2.9375 -2.7323 -1.8570 0.9825
3.2698 -2.8296 -2.0016 0.9811
3.4643 -2.5878 -2.0016 0.9811
3.6409 -2.3327 -2.0016 0.9811
3.7988 -2.0657 -2.0016 0.9811
3.8705 -1.9280 -2.0016 0.9811
3.9371 -1.7879 -2.0016 0.9811
3.9988 -1.6455 -2.0016 0.9811
4.1065 -1.3546 -2.0016 0.9811
4.1524 -1.2064 -2.0016 0.9811
4.1930 -1.0566 -2.0016 0.9811
4.2282 -0.9055 -2.0016 0.9811
4.2580 -0.7532 -2.0016 0.9811
4.2823 -0.6000 -2.0016 0.9811
4.3010 -0.4460 -2.0016 0.9811
4.3143 -0.2914 -2.0016 0.9811
4.3206 0.1739 -2.0016 0.9811
4.2970 0.4832 -2.0016 0.9811
4.2769 0.6371 -2.0016 0.9811
4.2513 0.7901 -2.0016 0.9811
4.2202 0.9421 -2.0016 0.9811
4.1837 1.0929 -2.0016 0.9811
4.0421 1.5361 -2.0016 0.9811
3.9215 1.8220 -2.0016 0.9811
3.7030 2.2328 -2.0016 0.9811
3.6206 2.3642 -2.0016 0.9811
3.5334 2.4926 -2.0016 0.9811
3.2451 2.8578 -2.0016 0.9811
3.1405 2.9724 -2.0016 0.9811
2.5597 3.4851 -2.0016 0.9811
2.4330 3.5747 -2.0016 0.9811
2.3032 3.6597 -2.0016 0.9811
2.0348 3.8154 -2.0016 0.9811
1.6131 4.0120 -2.0016 0.9811
1.3213 4.1173 -2.0016 0.9811
1.1727 4.1620 -2.0016 0.9811
0.8712 4.2354 -2.0016 0.9811
0.7187 4.2640 -2.0016 0.9811
0.4111 4.3045 -2.0016 0.9811
0.2564 4.3165 -2.0016 0.9811
0.1014 4.3229 -2.0016 0.9811
-0.0538 4.3238 -2.0016 0.9811
-0.8245 4.2448 -2.0016 0.9811
-0.9763 4.2125 -2.0016 0.9811
-1.4232 4.0832 -2.0016 0.9811
-1.5688 4.0295 -2.0016 0.9811
-1.7123 3.9706 -2.0016 0.9811
-2.1291 3.7636 -2.0016 0.9811
-2.2627 3.6848 -2.0016 0.9811
-2.3935 3.6013 -2.0016 0.9811
-2.6455 3.4204 -2.0016 0.9811
-2.7665 3.3233 -2.0016 0.9811
-2.8840 3.2219 -2.0016 0.9811
-2.9977 3.1163 -2.0016 0.9811
-3.1076 3.0068 -2.0016 0.9811
-3.2135 2.8934 -2.0016 0.9811
-3.4127 2.6555 -2.0016 0.9811
-3.5057 2.5313 -2.0016 0.9811
-3.5943 2.4039 -2.0016 0.9811
-3.6782 2.2734 -2.0016 0.9811
-3.8318 2.0038 -2.0016 0.9811
-1.3215 0.5745 -0.6670 0.9937
-1.3336 0.4692 -0.6544 0.9938
-1.3285 0.4145 -0.6442 0.9939
-1.3226 0.2119 -0.6200 0.9941
-1.3320 0.1647 -0.6213 0.9941
-1.3377 0.1168 -0.6215 0.9941
-1.3384 0.0686 -0.6203 0.9941
-1.3356 0.0205 -0.6183 0.9941
-1.3362 -0.0274 -0.6186 0.9941
-1.3385 -0.0756 -0.6206 0.9941
-1.3309 -0.1715 -0.6211 0.9941
-1.3210 -0.2187 -0.6198 0.9941
-1.3075 -0.2650 -0.6175 0.9941
-1.3057 -0.3138 -0.6216 0.9941
-3.8915 -1.8853 -2.0016 0.9811
-3.7463 -2.1595 -2.0016 0.9811
-3.5620 -2.2272 -1.9446 0.9817
-3.3247 -2.2487 -1.8579 0.9825
-3.2403 -2.3653 -1.8570 0.9825
-3.1533 -2.4801 -1.8570 0.9825
-2.9674 -2.6998 -1.8570 0.9825
-2.8686 -2.8045 -1.8570 0.9825
-2.6601 -3.0030 -1.8570 0.9825
-2.5507 -3.0965 -1.8570 0.9825
-2.3221 -3.2714 -1.8570 0.9825
-2.2032 -3.3526 -1.8570 0.9825
-2.0815 -3.4295 -1.8570 0.9825
-1.4361 -3.7459 -1.8570 0.9825
-1.1638 -3.8392 -1.8570 0.9825
-1.0253 -3.8785 -1.8570 0.9825
-0.7445 -3.9421 -1.8570 0.9825
-0.6026 -3.9662 -1.8570 0.9825
-0.4599 -3.9853 -1.8570 0.9825
-0.3167 -3.9992 -1.8570 0.9825
-0.1730 -4.0080 -1.8570 0.9825
-0.0291 -4.0117 -1.8570 0.9825
0.4021 -3.9915 -1.8570 0.9825
0.5451 -3.9746 -1.8570 0.9825
0.8287 -3.9252 -1.8570 0.9825
0.9690 -3.8930 -1.8570 0.9825
1.2456 -3.8135 -1.8570 0.9825
1.7783 -3.5961 -1.8570 0.9825
2.2744 -3.3047 -1.8570 0.9825
2.5055 -3.1331 -1.8570 0.9825
3.2599 -2.8409 -2.0016 0.9811
3.4552 -2.5998 -2.0016 0.9811
3.5463 -2.4742 -2.0016 0.9811
3.6328 -2.3454 -2.0016 0.9811
3.7916 -2.0789 -2.0016 0.9811
3.9309 -1.8016 -2.0016 0.9811
4.0500 -1.5151 -2.0016 0.9811
4.2995 -0.4609 -2.0016 0.9811
4.3241 0.0037 -2.0016 0.9811
4.3127 0.3138 -2.0016 0.9811
4.2987 0.4683 -2.0016 0.9811
4.1875 1.0784 -2.0016 0.9811
4.1461 1.2279 -2.0016 0.9811
4.0474 1.5220 -2.0016 0.9811
3.9278 1.8083 -2.0016 0.9811
3.6288 2.3516 -2.0016 0.9811
3.3551 2.7279 -2.0016 0.9811
2.9304 3.1797 -2.0016 0.9811
2.8144 3.2828 -2.0016 0.9811
2.4454 3.5662 -2.0016 0.9811
2.3159 3.6517 -2.0016 0.9811
2.1834 3.7324 -2.0016 0.9811
2.0481 3.8083 -2.0016 0.9811
1.9101 3.8793 -2.0016 0.9811
1.6270 4.0063 -2.0016 0.9811
1.0372 4.1979 -2.0016 0.9811
0.8859 4.2324 -2.0016 0.9811
0.5802 4.2850 -2.0016 0.9811
0.2714 4.3156 -2.0016 0.9811
-0.0387 4.3239 -2.0016 0.9811
-0.3487 4.3100 -2.0016 0.9811
-0.5031 4.2947 -2.0016 0.9811
-0.6568 4.2739 -2.0016 0.9811
-0.8097 4.2476 -2.0016 0.9811
-0.9616 4.2158 -2.0016 0.9811
-1.2614 4.1360 -2.0016 0.9811
-1.5548 4.0349 -2.0016 0.9811
-1.6985 3.9765 -2.0016 0.9811
-2.6336 3.4296 -2.0016 0.9811
-2.7550 3.3329 -2.0016 0.9811
-2.8728 3.2319 -2.0016 0.9811
-2.9869 3.1267 -2.0016 0.9811
-3.0971 3.0176 -2.0016 0.9811
-3.2034 2.9045 -2.0016 0.9811
-3.3055 2.7877 -2.0016 0.9811
-3.6703 2.2862 -2.0016 0.9811
-1.3204 0.5795 -0.6674 0.9937
-1.3295 0.5274 -0.6621 0.9937
-1.3293 0.4198 -0.6453 0.9939
-1.3191 0.3651 -0.6336 0.9940
-2.0681 -3.1709 -1.8570 0.9833
-1.9530 -3.2431 -1.8570 0.9833
-1.5932 -3.4341 -1.8570 0.9833
-1.4690 -3.4891 -1.8570 0.9833
-1.3428 -3.5395 -1.8570 0.9833
-1.2150 -3.5854 -1.8570 0.9833
-1.0856 -3.6267 -1.8570 0.9833
-0.9548 -3.6633 -1.8570 0.9833
-0.8227 -3.6952 -1.8570 0.9833
-0.6896 -3.7224 -1.8570 0.9833
-0.5556 -3.7447 -1.8570 0.9833
-0.2857 -3.7749 -1.8570 0.9833
-0.1501 -3.7827 -1.8570 0.9833
-0.0143 -3.7857 -1.8570 0.9833
0.1216 -3.7838 -1.8570 0.9833
0.2572 -3.7770 -1.8570 0.9833
0.3926 -3.7653 -1.8570 0.9833
0.6616 -3.7275 -1.8570 0.9833
0.9271 -3.6704 -1.8570 0.9833
1.0582 -3.6348 -1.8570 0.9833
1.1879 -3.5945 -1.8570 0.9833
1.5673 -3.4461 -1.8570 0.9833
1.6899 -3.3876 -1.8570 0.9833
2.0441 -3.1864 -1.8570 0.9833
2.1571 -3.1110 -1.8570 0.9833
2.2673 -3.0317 -1.8570 0.9833
2.3746 -2.9484 -1.8570 0.9833
2.4789 -2.8613 -1.8570 0.9833
2.5799 -2.7705 -1.8570 0.9833
3.0855 -2.6701 -2.0016 0.9820
3.1794 -2.5577 -2.0016 0.9820
3.5125 -2.0766 -2.0016 0.9820
3.5848 -1.9493 -2.0016 0.9820
3.8267 -1.4164 -2.0016 0.9820
3.8751 -1.2782 -2.0016 0.9820
4.0181 -0.7108 -2.0016 0.9820
4.0410 -0.5662 -2.0016 0.9820
4.0712 -0.2750 -2.0016 0.9820
4.0804 0.0177 -2.0016 0.9820
4.0686 0.3102 -2.0016 0.9820
4.0118 0.7456 -2.0016 0.9820
3.9595 0.8839 -1.9900 0.9821
3.8879 1.1661 -1.9910 0.9821
3.8143 1.4496 -2.0016 0.9820
3.7005 1.7193 -2.0016 0.9820
3.6365 1.8510 -2.0016 0.9820
3.5677 1.9803 -2.0016 0.9820
3.4944 2.1070 -2.0016 0.9820
3.4166 2.2310 -2.0016 0.9820
3.3343 2.3521 -2.0016 0.9820
3.0623 2.6968 -2.0016 0.9820
2.8610 2.9094 -2.0016 0.9820
2.7548 3.0102 -2.0016 0.9820
2.6450 3.1071 -2.0016 0.9820
2.5319 3.2000 -2.0016 0.9820
2.4154 3.2887 -2.0016 0.9820
2.2959 3.3733 -2.0016 0.9820
2.1734 3.4535 -2.0016 0.9820
1.6571 3.7289 -2.0016 0.9820
1.5222 3.7859 -2.0016 0.9820
1.3854 3.8381 -2.0016 0.9820
1.1066 3.9275 -2.0016 0.9820
0.8221 3.9968 -2.0016 0.9820
0.6782 4.0237 -2.0016 0.9820
0.5334 4.0454 -2.0016 0.9820
0.2420 4.0733 -2.0016 0.9820
-0.1971 4.0757 -2.0016 0.9820
-0.4888 4.0511 -2.0016 0.9820
-0.6338 4.0309 -2.0016 0.9820
-1.0633 3.9395 -2.0016 0.9820
-2.1352 3.4772 -2.0016 0.9820
-2.3791 3.3151 -2.0016 0.9820
-2.8288 2.9407 -2.0016 0.9820
-2.9325 2.8374 -2.0016 0.9820
-3.0324 2.7303 -2.0016 0.9820
-3.1284 2.6198 -2.0016 0.9820
-3.3082 2.3887 -2.0016 0.9820
-1.1447 0.4976 -0.6122 0.9945
-1.1518 0.4523 -0.6070 0.9945
-1.1565 0.4069 -0.6014 0.9946
-1.1586 0.3164 -0.5891 0.9947
-1.1643 0.2734 -0.5866 0.9947
-1.1750 0.2318 -0.5875 0.9947
-1.1835 0.1896 -0.5880 0.9947
-1.1962 0.0613 -0.5876 0.9947
-1.1961 0.0184 -0.5868 0.9947
-1.1963 -0.0246 -0.5869 0.9947
-1.1961 -0.0676 -0.5876 0.9947
-1.1937 -0.1105 -0.5880 0.9947
-1.1891 -0.1533 -0.5881 0.9947
-1.1736 -0.2378 -0.5874 0.9947
-1.1625 -0.2794 -0.5865 0.9947
-1.1586 -0.3681 -0.5963 0.9946
-1.1434 -0.5041 -0.6130 0.9944
-1.1186 -0.5924 -0.6209 0.9944
-3.5352 -2.0378 -2.0016 0.9820
-3.4598 -2.1633 -2.0016 0.9820
-3.2916 -2.2263 -1.9493 0.9825
-2.8898 -2.4456 -1.8570 0.9833
-2.8002 -2.5477 -1.8570 0.9833
-2.7070 -2.6465 -1.8570 0.9833
-2.6103 -2.7419 -1.8570 0.9833
-2.5102 -2.8338 -1.8570 0.9833
-2.4070 -2.9220 -1.8570 0.9833
-2.3006 -3.0065 -1.8570 0.9833
-2.1912 -3.0871 -1.8570 0.9833
-1.9642 -3.2363 -1.8570 0.9833
-1.6051 -3.4286 -1.8570 0.9833
-1.4811 -3.4840 -1.8570 0.9833
-1.3552 -3.5349 -1.8570 0.9833
-1.2275 -3.5812 -1.8570 0.9833
-1.0982 -3.6229 -1.8570 0.9833
-0.9675 -3.6600 -1.8570 0.9833
-0.8356 -3.6923 -1.8570 0.9833
-0.5687 -3.7428 -1.8570 0.9833
-0.2988 -3.7739 -1.8570 0.9833
-0.0274 -3.7856 -1.8570 0.9833
0.1084 -3.7842 -1.8570 0.9833
0.2441 -3.7778 -1.8570 0.9833
0.3795 -3.7666 -1.8570 0.9833
0.6486 -3.7297 -1.8570 0.9833
0.7820 -3.7041 -1.8570 0.9833
0.9144 -3.6736 -1.8570 0.9833
1.0456 -3.6385 -1.8570 0.9833
1.3038 -3.5541 -1.8570 0.9833
1.5553 -3.4515 -1.8570 0.9833
1.9171 -3.2644 -1.8570 0.9833
2.2568 -3.0395 -1.8570 0.9833
2.3643 -2.9566 -1.8570 0.9833
2.4689 -2.8699 -1.8570 0.9833
2.5703 -2.7794 -1.8570 0.9833
2.6683 -2.6854 -1.8570 0.9833
2.7630 -2.5880 -1.8570 0.9833
3.2606 -2.4534 -2.0016 0.9820
3.3465 -2.3348 -2.0016 0.9820
3.5780 -1.9617 -2.0016 0.9820
3.7680 -1.5659 -2.0016 0.9820
3.8218 -1.4297 -2.0016 0.9820
3.8706 -1.2917 -2.0016 0.9820
3.9145 -1.1520 -2.0016 0.9820
3.9870 -0.8684 -2.0016 0.9820
4.0156 -0.7248 -2.0016 0.9820
4.0565 0.4419 -2.0016 0.9820
4.0380 0.5871 -2.0016 0.9820
3.9300 1.0121 -1.9907 0.9821
3.8950 1.1535 -1.9926 0.9821
3.7653 1.5724 -2.0016 0.9820
3.7065 1.7065 -2.0016 0.9820
3.6429 1.8383 -2.0016 0.9820
3.4243 2.2191 -2.0016 0.9820
3.3425 2.3405 -2.0016 0.9820
3.2564 2.4589 -2.0016 0.9820
3.1660 2.5742 -2.0016 0.9820
2.5430 3.1911 -2.0016 0.9820
2.4269 3.2803 -2.0016 0.9820
2.0604 3.5221 -2.0016 0.9820
1.6700 3.7231 -2.0016 0.9820
1.3987 3.8332 -2.0016 0.9820
1.1203 3.9237 -2.0016 0.9820
0.9788 3.9613 -2.0016 0.9820
0.6922 4.0213 -2.0016 0.9820
0.2561 4.0724 -2.0016 0.9820
0.1099 4.0790 -2.0016 0.9820
-0.0365 4.0803 -2.0016 0.9820
-0.1829 4.0764 -2.0016 0.9820
-0.3290 4.0672 -2.0016 0.9820
-0.4747 4.0527 -2.0016 0.9820
-0.6198 4.0331 -2.0016 0.9820
-0.9074 3.9783 -2.0016 0.9820
-1.1904 3.9030 -2.0016 0.9820
-1.4672 3.8076 -2.0016 0.9820
-1.6028 3.7525 -2.0016 0.9820
-1.8678 3.6279 -2.0016 0.9820
-2.1231 3.4846 -2.0016 0.9820
-2.2468 3.4062 -2.0016 0.9820
-2.3675 3.3234 -2.0016 0.9820
-2.4852 3.2363 -2.0016 0.9820
-2.5997 3.1451 -2.0016 0.9820
-2.7109 3.0498 -2.0016 0.9820
-2.9226 2.8475 -2.0016 0.9820
-1.1195 0.5904 -0.6209 0.9944
-1.1438 0.5020 -0.6127 0.9945
-1.1512 0.4567 -0.6075 0.9945
-1.1561 0.4113 -0.6019 0.9945
-1.1586 0.3659 -0.5960 0.9946
-1.1631 0.2774 -0.5865 0.9947
-1.1828 0.1937 -0.5879 0.9947
-1.1939 0.1085 -0.5880 0.9947
-2.1654 -2.8503 -1.8570 0.9840
-1.9554 -2.9982 -1.8570 0.9840
-1.8466 -3.0664 -1.8570 0.9840
-1.7354 -3.1307 -1.8570 0.9840
-1.6220 -3.1910 -1.8570 0.9840
-1.5064 -3.2471 -1.8570 0.9840
