ply
format ascii 1.0
element vertex 1574
property float32 x
property float32 y
property float32 z
property float32 I
end_header
17.4669 -11.3827 -2.0016 0.9196
17.8642 -10.7485 -2.0016 0.9196
19.2183 -8.0818 -2.0016 0.9196
19.7485 -6.6825 -2.0016 0.9196
20.1770 -5.2488 -2.0016 0.9196
20.3523 -4.5213 -2.0016 0.9196
20.6242 -3.0498 -2.0016 0.9196
20.8326 -0.8155 -2.0016 0.9196
20.5255 3.6554 -2.0016 0.9196
20.3811 4.3897 -2.0016 0.9196
20.0138 5.8402 -2.0016 0.9196
19.7913 6.5547 -2.0016 0.9196
19.2702 7.9574 -2.0016 0.9196
18.6498 9.3192 -2.0016 0.9196
18.3033 9.9824 -2.0016 0.9196
17.1244 11.8918 -2.0016 0.9196
16.2273 13.0895 -2.0016 0.9196
15.7471 13.6634 -2.0016 0.9196
15.2466 14.2197 -2.0016 0.9196
14.7265 14.7577 -2.0016 0.9196
13.6300 15.7760 -2.0016 0.9196
13.0551 16.2550 -2.0016 0.9196
11.8555 17.1495 -2.0016 0.9196
9.9437 18.3244 -2.0016 0.9196
7.3146 17.8204 -1.8494 0.9255
6.0176 18.2991 -1.8494 0.9255
3.3344 13.2847 -1.3150 0.9464
1.8008 12.9440 -1.2547 0.9488
1.2751 12.4167 -1.1983 0.9511
0.3786 12.3893 -1.1900 0.9514
-1.7903 11.9321 -1.1584 0.9527
-2.6870 11.9755 -1.1783 0.9519
-3.1641 12.0585 -1.1969 0.9511
-4.0907 12.0053 -1.2176 0.9503
-5.0703 11.9861 -1.2495 0.9490
-5.5474 11.9041 -1.2609 0.9486
-6.6680 11.9805 -1.3163 0.9464
-16.8249 0.9214 -2.0016 0.9344
-16.8472 0.3170 -2.0016 0.9344
-16.8265 -0.8922 -2.0016 0.9344
-16.7837 -1.4955 -2.0016 0.9344
-16.6332 -2.6955 -2.0016 0.9344
-16.2471 -4.4676 -2.0016 0.9344
-15.4407 -6.7464 -2.0016 0.9344
-15.1886 -7.2961 -2.0016 0.9344
-14.3165 -8.8863 -2.0016 0.9344
-13.6422 -9.8903 -2.0016 0.9344
-12.5002 -11.2992 -2.0016 0.9344
-11.2134 -12.5773 -2.0016 0.9344
-9.7967 -13.7096 -2.0016 0.9344
-8.2664 -14.6831 -2.0016 0.9344
-6.6405 -15.4865 -2.0016 0.9344
-6.0804 -15.7148 -2.0016 0.9344
-5.5041 -15.8984 -1.9985 0.9345
-4.9231 -16.0632 -1.9957 0.9346
-3.7113 -16.1705 -1.9708 0.9354
-1.9165 -16.1771 -1.9351 0.9365
-1.3302 -16.1808 -1.9285 0.9367
0.4200 -16.3630 -1.9443 0.9362
1.6308 -16.6813 -1.9909 0.9347
2.2360 -16.6691 -1.9978 0.9345
2.8381 -16.6094 -2.0016 0.9344
4.0222 -16.3631 -2.0016 0.9344
4.6068 -16.2082 -2.0016 0.9344
6.8786 -15.3822 -2.0016 0.9344
2.2475 -4.1904 -0.5648 0.9810
9.5140 -13.9072 -2.0016 0.9344
10.4870 -13.1890 -2.0016 0.9344
10.9536 -12.8041 -2.0016 0.9344
11.4061 -12.4028 -2.0016 0.9344
11.8438 -11.9855 -2.0016 0.9344
12.2663 -11.5527 -2.0016 0.9344
12.6730 -11.1051 -2.0016 0.9344
13.4369 -10.1674 -2.0016 0.9344
13.7931 -9.6787 -2.0016 0.9344
15.5429 -6.5074 -2.0016 0.9344
16.1523 -4.7992 -2.0016 0.9344
16.3141 -4.2164 -2.0016 0.9344
16.5745 -3.0354 -2.0016 0.9344
16.6728 -2.4386 -2.0016 0.9344
16.7495 -1.8387 -2.0016 0.9344
16.8501 -0.0279 -2.0016 0.9344
16.8087 1.1808 -2.0016 0.9344
16.7555 1.7833 -2.0016 0.9344
16.6807 2.3834 -2.0016 0.9344
16.5845 2.9805 -2.0016 0.9344
16.4668 3.5738 -2.0016 0.9344
16.1681 4.7457 -2.0016 0.9344
15.7860 5.8932 -2.0016 0.9344
15.3226 7.0103 -2.0016 0.9344
14.4804 8.6165 -2.0016 0.9344
13.8251 9.6330 -2.0016 0.9344
13.0985 10.5998 -2.0016 0.9344
12.7097 11.0631 -2.0016 0.9344
10.9959 12.7678 -2.0016 0.9344
10.0518 13.5236 -2.0016 0.9344
9.5600 13.8757 -2.0016 0.9344
9.0559 14.2098 -2.0016 0.9344
5.8891 14.4121 -1.8494 0.9392
5.3681 14.6141 -1.8494 0.9392
4.8402 14.7974 -1.8494 0.9392
4.0171 13.9576 -1.7253 0.9432
1.2428 12.2925 -1.4676 0.9515
0.3444 11.8873 -1.4126 0.9532
-0.0810 11.6953 -1.3893 0.9540
-0.4932 11.5094 -1.3684 0.9547
-1.3143 11.4177 -1.3652 0.9548
-1.7319 11.4204 -1.3721 0.9545
-2.1543 11.4232 -1.3808 0.9543
-2.5826 11.4260 -1.3915 0.9539
-3.4623 11.4318 -1.4188 0.9530
-4.3821 11.4378 -1.4550 0.9519
-5.8663 11.4475 -1.5280 0.9495
-6.3970 11.4510 -1.5581 0.9485
-7.5276 11.4584 -1.6285 0.9463
-9.4468 11.4710 -1.7652 0.9419
-11.8837 10.0582 -1.8494 0.9392
-12.8959 8.7227 -1.8494 0.9392
-14.8789 7.8794 -1.9999 0.9344
-15.6523 6.2398 -2.0016 0.9344
-15.8661 5.6740 -2.0016 0.9344
-16.0595 5.1010 -2.0016 0.9344
-16.2322 4.5213 -2.0016 0.9344
-16.3840 3.9359 -2.0016 0.9344
-16.6241 2.7506 -2.0016 0.9344
-16.7121 2.1522 -2.0016 0.9344
-16.8235 0.9479 -2.0016 0.9344
-16.8467 0.3436 -2.0016 0.9344
-16.8481 -0.2612 -2.0016 0.9344
-16.8279 -0.8657 -2.0016 0.9344
-16.7860 -1.4691 -2.0016 0.9344
-16.7225 -2.0705 -2.0016 0.9344
-16.6374 -2.6693 -2.0016 0.9344
-16.2541 -4.4420 -2.0016 0.9344
-15.6826 -6.1632 -2.0016 0.9344
-15.4513 -6.7220 -2.0016 0.9344
-14.9293 -7.8130 -2.0016 0.9344
-14.6393 -8.3437 -2.0016 0.9344
-14.3305 -8.8637 -2.0016 0.9344
-13.6578 -9.8688 -2.0016 0.9344
-12.9147 -10.8230 -2.0016 0.9344
-12.1051 -11.7215 -2.0016 0.9344
-11.6767 -12.1484 -2.0016 0.9344
-10.7752 -12.9546 -2.0016 0.9344
-10.3034 -13.3330 -2.0016 0.9344
-9.8183 -13.6941 -2.0016 0.9344
-9.3205 -14.0376 -2.0016 0.9344
-8.8107 -14.3631 -2.0016 0.9344
-8.2896 -14.6700 -2.0016 0.9344
-7.7578 -14.9581 -2.0016 0.9344
-7.2160 -15.2268 -2.0016 0.9344
-4.9487 -16.0564 -1.9958 0.9346
-4.3541 -16.1672 -1.9889 0.9348
-3.7381 -16.1704 -1.9715 0.9353
-3.1320 -16.1731 -1.9568 0.9358
-1.9423 -16.1771 -1.9354 0.9365
-0.7736 -16.2040 -1.9270 0.9367
1.6034 -16.6724 -1.9896 0.9348
2.2095 -16.6709 -1.9976 0.9345
2.8119 -16.6139 -2.0016 0.9344
5.1602 -16.0406 -2.0016 0.9344
5.7326 -15.8450 -2.0016 0.9344
7.4023 -15.1371 -2.0016 0.9344
8.4690 -14.5672 -2.0016 0.9344
9.4921 -13.9222 -2.0016 0.9344
10.9334 -12.8214 -2.0016 0.9344
11.3865 -12.4208 -2.0016 0.9344
12.2481 -11.5720 -2.0016 0.9344
12.6555 -11.1250 -2.0016 0.9344
13.7779 -9.7004 -2.0016 0.9344
14.7406 -8.1634 -2.0016 0.9344
15.2882 -7.0851 -2.0016 0.9344
16.4491 -3.6542 -2.0016 0.9344
16.5697 -3.0615 -2.0016 0.9344
16.6689 -2.4649 -2.0016 0.9344
16.7466 -1.8651 -2.0016 0.9344
16.8501 -0.0545 -2.0016 0.9344
16.8412 0.5503 -2.0016 0.9344
16.8106 1.1543 -2.0016 0.9344
16.4724 3.5478 -2.0016 0.9344
15.9957 5.2977 -2.0016 0.9344
15.7953 5.8683 -2.0016 0.9344
15.3337 6.9861 -2.0016 0.9344
15.0731 7.5319 -2.0016 0.9344
14.7931 8.0680 -2.0016 0.9344
14.1763 9.1083 -2.0016 0.9344
13.4864 10.1017 -2.0016 0.9344
13.1152 10.5792 -2.0016 0.9344
12.7271 11.0430 -2.0016 0.9344
11.4665 12.3469 -2.0016 0.9344
11.0160 12.7505 -2.0016 0.9344
10.5514 13.1376 -2.0016 0.9344
10.0731 13.5078 -2.0016 0.9344
9.5819 13.8606 -2.0016 0.9344
9.0783 14.1955 -2.0016 0.9344
8.5630 14.5122 -2.0016 0.9344
4.8635 14.7897 -1.8494 0.9392
3.3206 13.2297 -1.6202 0.9465
1.7414 12.5174 -1.5012 0.9504
0.3635 11.8958 -1.4137 0.9532
-0.0626 11.7036 -1.3902 0.9539
-0.4753 11.5175 -1.3693 0.9546
-0.8823 11.4149 -1.3600 0.9549
-1.2961 11.4176 -1.3650 0.9548
-1.7135 11.4203 -1.3718 0.9545
-2.5637 11.4259 -1.3910 0.9539
-3.4426 11.4317 -1.4182 0.9530
-3.8962 11.4346 -1.4350 0.9525
-5.8434 11.4474 -1.5267 0.9495
-14.1053 0.7725 -2.0016 0.9445
-14.1066 -0.7480 -2.0016 0.9445
-14.0166 -1.7579 -2.0016 0.9445
-13.8544 -2.7588 -2.0016 0.9445
-12.7535 -3.0191 -1.8570 0.9484
-12.6369 -3.4749 -1.8570 0.9484
-12.5041 -3.9261 -1.8570 0.9484
-12.3552 -4.3723 -1.8570 0.9484
-12.1903 -4.8129 -1.8570 0.9484
-12.0097 -5.2473 -1.8570 0.9484
-12.0023 -7.4499 -2.0016 0.9445
-11.7272 -7.8758 -2.0016 0.9445
-11.4370 -8.2916 -2.0016 0.9445
-11.1321 -8.6967 -2.0016 0.9445
-10.8128 -9.0906 -2.0016 0.9445
-10.4796 -9.4728 -2.0016 0.9445
-10.1329 -9.8427 -2.0016 0.9445
-9.4008 -10.5442 -2.0016 0.9445
-9.0163 -10.8748 -2.0016 0.9445
-8.6203 -11.1914 -2.0016 0.9445
-7.7953 -11.7808 -2.0016 0.9445
-7.3675 -12.0530 -2.0016 0.9445
-6.4840 -12.5504 -2.0016 0.9445
-5.5671 -12.9832 -2.0016 0.9445
-5.0975 -13.1746 -2.0016 0.9445
-4.6215 -13.3491 -2.0016 0.9445
-3.1600 -13.7684 -2.0016 0.9445
-2.6639 -13.8730 -2.0016 0.9445
-1.1574 -14.0789 -2.0016 0.9445
-0.6514 -14.1114 -2.0016 0.9445
0.8690 -14.0996 -2.0016 0.9445
1.3744 -14.0594 -2.0016 0.9445
2.3794 -13.9246 -2.0016 0.9445
3.3720 -13.7180 -2.0016 0.9445
3.8622 -13.5882 -2.0016 0.9445
4.3473 -13.4408 -2.0016 0.9445
5.7667 -12.8958 -2.0016 0.9445
8.3894 -11.3654 -2.0016 0.9445
9.1830 -10.7344 -2.0016 0.9445
9.5623 -10.3979 -2.0016 0.9445
9.9293 -10.0481 -2.0016 0.9445
10.2835 -9.6853 -2.0016 0.9445
11.2649 -8.5239 -2.0016 0.9445
11.8473 -7.6940 -2.0016 0.9445
12.1158 -7.2638 -2.0016 0.9445
12.6056 -6.3761 -2.0016 0.9445
13.0305 -5.4555 -2.0016 0.9445
13.2179 -4.9843 -2.0016 0.9445
13.3882 -4.5068 -2.0016 0.9445
13.5413 -4.0234 -2.0016 0.9445
13.6770 -3.5349 -2.0016 0.9445
13.8953 -2.5447 -2.0016 0.9445
13.9777 -2.0444 -2.0016 0.9445
14.0883 -1.0366 -2.0016 0.9445
14.1164 -0.5303 -2.0016 0.9445
14.1264 -0.0234 -2.0016 0.9445
14.1181 0.4836 -2.0016 0.9445
14.0917 0.9899 -2.0016 0.9445
14.0471 1.4950 -2.0016 0.9445
13.9844 1.9982 -2.0016 0.9445
13.8050 2.9961 -2.0016 0.9445
13.6886 3.4896 -2.0016 0.9445
13.2343 4.9406 -2.0016 0.9445
13.0484 5.4123 -2.0016 0.9445
12.8458 5.8771 -2.0016 0.9445
11.5903 8.0759 -2.0016 0.9445
11.2931 8.4866 -2.0016 0.9445
10.9812 8.8864 -2.0016 0.9445
10.6552 9.2748 -2.0016 0.9445
10.3155 9.6512 -2.0016 0.9445
9.9625 10.0152 -2.0016 0.9445
8.8284 11.0279 -2.0016 0.9445
8.4270 11.3376 -2.0016 0.9445
5.7911 11.6972 -1.8494 0.9486
4.9372 12.0824 -1.8494 0.9486
3.1575 12.6645 -1.8494 0.9486
2.2191 12.7328 -1.8313 0.9491
0.7850 12.0860 -1.7161 0.9522
0.3444 11.8873 -1.6850 0.9531
-0.0810 11.6953 -1.6571 0.9538
-0.4932 11.5094 -1.6323 0.9545
-0.9004 11.4150 -1.6224 0.9548
-1.3143 11.4177 -1.6285 0.9546
-1.3244 8.7334 -1.2516 0.9649
-2.5826 11.4260 -1.6598 0.9538
-3.0182 11.4289 -1.6749 0.9534
-3.9164 11.4348 -1.7126 0.9523
-5.3551 11.4442 -1.7903 0.9502
-5.8663 11.4475 -1.8226 0.9494
-6.3656 11.3947 -1.8494 0.9486
-6.7704 11.1590 -1.8494 0.9486
-7.5534 10.6446 -1.8494 0.9486
-8.6537 9.7711 -1.8494 0.9486
-9.6537 8.7845 -1.8494 0.9486
-11.2812 8.2358 -1.9791 0.9451
-11.6889 7.9063 -1.9995 0.9446
-12.2386 7.0549 -2.0016 0.9445
-12.9260 5.6987 -2.0016 0.9445
-13.1221 5.2311 -2.0016 0.9445
-13.3014 4.7568 -2.0016 0.9445
-13.4636 4.2764 -2.0016 0.9445
-13.6084 3.7905 -2.0016 0.9445
-13.7356 3.2997 -2.0016 0.9445
-14.0107 1.8043 -2.0016 0.9445
-14.1040 0.7947 -2.0016 0.9445
-14.1235 0.2880 -2.0016 0.9445
-14.1077 -0.7258 -2.0016 0.9445
-14.0726 -1.2316 -2.0016 0.9445
-14.0194 -1.7358 -2.0016 0.9445
-12.7583 -2.9990 -1.8570 0.9484
-12.6424 -3.4550 -1.8570 0.9484
-12.5103 -3.9064 -1.8570 0.9484
-12.3620 -4.3529 -1.8570 0.9484
-12.5161 -6.5500 -2.0016 0.9445
-12.2729 -6.9950 -2.0016 0.9445
-12.0140 -7.4309 -2.0016 0.9445
-11.7396 -7.8573 -2.0016 0.9445
-11.4501 -8.2735 -2.0016 0.9445
-11.1458 -8.6791 -2.0016 0.9445
-10.8271 -9.0735 -2.0016 0.9445
-10.1484 -9.8268 -2.0016 0.9445
-8.2312 -11.4805 -2.0016 0.9445
-7.8139 -11.7685 -2.0016 0.9445
-6.5038 -12.5402 -2.0016 0.9445
-5.5875 -12.9744 -2.0016 0.9445
-5.1183 -13.1665 -2.0016 0.9445
-4.6425 -13.3417 -2.0016 0.9445
-4.1607 -13.4998 -2.0016 0.9445
-3.6736 -13.6404 -2.0016 0.9445
-2.1863 -13.9562 -2.0016 0.9445
-1.6840 -14.0257 -2.0016 0.9445
-0.6737 -14.1103 -2.0016 0.9445
-0.1669 -14.1254 -2.0016 0.9445
0.3402 -14.1223 -2.0016 0.9445
0.8468 -14.1010 -2.0016 0.9445
1.8560 -14.0039 -2.0016 0.9445
2.8557 -13.8347 -2.0016 0.9445
3.8407 -13.5943 -2.0016 0.9445
5.2795 -13.1027 -2.0016 0.9445
5.7464 -12.9048 -2.0016 0.9445
6.2058 -12.6903 -2.0016 0.9445
7.1000 -12.2125 -2.0016 0.9445
7.5337 -11.9498 -2.0016 0.9445
9.1661 -10.7489 -2.0016 0.9445
9.9134 -10.0637 -2.0016 0.9445
10.6098 -9.3267 -2.0016 0.9445
11.5507 -8.1324 -2.0016 0.9445
12.1043 -7.2829 -2.0016 0.9445
12.5955 -6.3960 -2.0016 0.9445
12.8169 -5.9398 -2.0016 0.9445
13.2100 -5.0052 -2.0016 0.9445
13.3811 -4.5279 -2.0016 0.9445
13.5350 -4.0448 -2.0016 0.9445
14.0867 -1.0588 -2.0016 0.9445
14.1263 -0.0457 -2.0016 0.9445
14.0494 1.4729 -2.0016 0.9445
13.9076 2.4768 -2.0016 0.9445
13.6941 3.4680 -2.0016 0.9445
13.5608 3.9572 -2.0016 0.9445
13.4101 4.4413 -2.0016 0.9445
13.2420 4.9197 -2.0016 0.9445
12.8551 5.8568 -2.0016 0.9445
12.1511 7.2046 -2.0016 0.9445
11.8847 7.6360 -2.0016 0.9445
10.9952 8.8691 -2.0016 0.9445
9.9783 9.9994 -2.0016 0.9445
8.8458 11.0140 -2.0016 0.9445
8.0330 11.6201 -2.0016 0.9445
7.6108 11.9009 -2.0016 0.9445
4.5197 12.2447 -1.8494 0.9486
1.2633 12.3017 -1.7522 0.9513
0.3635 11.8958 -1.6863 0.9531
-0.0626 11.7036 -1.6583 0.9538
-1.3100 8.7310 -1.2509 0.9650
-2.5637 11.4259 -1.6592 0.9538
-3.8962 11.4346 -1.7116 0.9524
-4.8397 11.4408 -1.7601 0.9511
-6.3476 11.4048 -1.8494 0.9486
-12.1328 -0.6434 -2.0016 0.9519
-12.0554 -1.5120 -2.0016 0.9519
-11.9934 -1.9436 -2.0016 0.9519
-11.2377 -2.2377 -1.8876 0.9546
-10.9691 -2.5967 -1.8570 0.9553
-10.8688 -2.9887 -1.8570 0.9553
-10.4846 -4.1395 -1.8570 0.9553
-10.1607 -4.8809 -1.8570 0.9553
-9.9790 -5.2424 -1.8570 0.9553
-9.7845 -5.5971 -1.8570 0.9553
-9.8368 -7.1314 -2.0016 0.9519
-9.5745 -7.4799 -2.0016 0.9519
-9.2999 -7.8186 -2.0016 0.9519
-9.0133 -8.1474 -2.0016 0.9519
-8.7151 -8.4656 -2.0016 0.9519
-7.7548 -9.3532 -2.0016 0.9519
-7.0639 -9.8854 -2.0016 0.9519
-5.9606 -10.5873 -2.0016 0.9519
-4.3843 -11.3312 -2.0016 0.9519
-3.5603 -11.6165 -2.0016 0.9519
-3.1411 -11.7368 -2.0016 0.9519
-2.7179 -11.8420 -2.0016 0.9519
-2.2911 -11.9319 -2.0016 0.9519
-1.4294 -12.0655 -2.0016 0.9519
-0.9955 -12.1090 -2.0016 0.9519
-0.1244 -12.1492 -2.0016 0.9519
0.7474 -12.1269 -2.0016 0.9519
2.0464 -11.9763 -2.0016 0.9519
2.9002 -11.7986 -2.0016 0.9519
3.7390 -11.5602 -2.0016 0.9519
4.1515 -11.4186 -2.0016 0.9519
4.5586 -11.2623 -2.0016 0.9519
4.9598 -11.0914 -2.0016 0.9519
5.3547 -10.9063 -2.0016 0.9519
2.2475 -4.1904 -0.7833 0.9809
6.4958 -10.2676 -2.0016 0.9519
7.2156 -9.7752 -2.0016 0.9519
8.2244 -8.9431 -2.0016 0.9519
8.5400 -8.6422 -2.0016 0.9519
9.1379 -8.0074 -2.0016 0.9519
9.4194 -7.6743 -2.0016 0.9519
9.9456 -6.9789 -2.0016 0.9519
10.4206 -6.2475 -2.0016 0.9519
11.0317 -5.0913 -2.0016 0.9519
11.5150 -3.8762 -2.0016 0.9519
11.6467 -3.4605 -2.0016 0.9519
12.0220 -1.7584 -2.0016 0.9519
12.0773 -1.3258 -2.0016 0.9519
12.1428 0.4159 -2.0016 0.9519
12.1200 0.8514 -2.0016 0.9519
11.9583 2.1491 -2.0016 0.9519
11.6580 3.4219 -2.0016 0.9519
11.3826 4.2493 -2.0016 0.9519
11.2227 4.6551 -2.0016 0.9519
11.0485 5.0548 -2.0016 0.9519
10.8599 5.4481 -2.0016 0.9519
10.6574 5.8343 -2.0016 0.9519
10.2115 6.5837 -2.0016 0.9519
9.7130 7.2992 -2.0016 0.9519
9.4448 7.6430 -2.0016 0.9519
9.1644 7.9771 -2.0016 0.9519
8.8722 8.3008 -2.0016 0.9519
8.5686 8.6139 -2.0016 0.9519
7.2479 9.7513 -2.0016 0.9519
6.8933 10.0051 -2.0016 0.9519
6.1486 10.4580 -1.9985 0.9520
5.5529 10.2716 -1.9236 0.9538
4.9808 10.0605 -1.8494 0.9555
3.8707 10.5376 -1.8494 0.9555
3.1049 10.7881 -1.8494 0.9555
2.3231 10.9830 -1.8494 0.9555
1.9274 11.0593 -1.8494 0.9555
1.5293 11.1213 -1.8494 0.9555
1.1292 11.1691 -1.8494 0.9555
-0.4805 11.2157 -1.8494 0.9555
-0.8827 11.1912 -1.8494 0.9555
-1.2838 11.1523 -1.8494 0.9555
-1.3208 8.7096 -1.4512 0.9649
-2.4750 10.9498 -1.8494 0.9555
-2.8663 10.8539 -1.8494 0.9555
-3.6375 10.6203 -1.8494 0.9555
-4.3899 10.3321 -1.8494 0.9555
-5.4749 9.8004 -1.8494 0.9555
-6.1638 9.3825 -1.8494 0.9555
-6.4965 9.1552 -1.8494 0.9555
-6.8209 8.9162 -1.8494 0.9555
-7.1365 8.6657 -1.8494 0.9555
-7.8569 8.2546 -1.8774 0.9549
-8.4296 8.2426 -1.9422 0.9533
-8.9583 8.1517 -1.9953 0.9521
-9.8131 7.1640 -2.0016 0.9519
-10.0639 6.8072 -2.0016 0.9519
-10.3017 6.4416 -2.0016 0.9519
-10.9343 5.2971 -2.0016 0.9519
-11.4403 4.0913 -2.0016 0.9519
-11.7043 3.2601 -2.0016 0.9519
-11.9869 1.9833 -2.0016 0.9519
-12.0504 1.5519 -2.0016 0.9519
-12.0983 1.1184 -2.0016 0.9519
-12.1484 -0.1884 -2.0016 0.9519
-11.9964 -1.9247 -2.0016 0.9519
-10.8735 -2.9715 -1.8570 0.9553
-10.7599 -3.3598 -1.8570 0.9553
-10.6324 -3.7438 -1.8570 0.9553
-9.9873 -5.2266 -1.8570 0.9553
-9.7933 -5.5817 -1.8570 0.9553
-10.3330 -6.3912 -2.0016 0.9519
-10.0970 -6.7579 -2.0016 0.9519
-9.0262 -8.1331 -2.0016 0.9519
-8.7285 -8.4518 -2.0016 0.9519
-7.4293 -9.6138 -2.0016 0.9519
-7.0795 -9.8742 -2.0016 0.9519
-6.3530 -10.3566 -2.0016 0.9519
-5.9772 -10.5779 -2.0016 0.9519
-5.2031 -10.9794 -2.0016 0.9519
-4.8058 -11.1590 -2.0016 0.9519
-4.4022 -11.3243 -2.0016 0.9519
-3.9930 -11.4750 -2.0016 0.9519
-2.7365 -11.8377 -2.0016 0.9519
-2.3099 -11.9283 -2.0016 0.9519
-1.8804 -12.0035 -2.0016 0.9519
-0.5794 -12.1360 -2.0016 0.9519
0.2926 -12.1463 -2.0016 0.9519
1.5963 -12.0445 -2.0016 0.9519
2.0276 -11.9795 -2.0016 0.9519
3.3033 -11.6922 -2.0016 0.9519
3.7208 -11.5661 -2.0016 0.9519
4.9423 -11.0992 -2.0016 0.9519
5.3375 -10.9147 -2.0016 0.9519
2.2406 -4.1934 -0.7832 0.9809
8.8315 -8.3441 -2.0016 0.9519
9.4073 -7.6891 -2.0016 0.9519
9.6772 -7.3466 -2.0016 0.9519
10.1792 -6.6335 -2.0016 0.9519
10.4107 -6.2639 -2.0016 0.9519
10.8332 -5.5011 -2.0016 0.9519
11.0236 -5.1087 -2.0016 0.9519
11.1999 -4.7098 -2.0016 0.9519
11.7585 -3.0588 -2.0016 0.9519
11.9476 -2.2075 -2.0016 0.9519
12.0192 -1.7773 -2.0016 0.9519
12.1406 -0.4753 -2.0016 0.9519
12.1434 0.3968 -2.0016 0.9519
12.1213 0.8323 -2.0016 0.9519
11.8775 2.5582 -2.0016 0.9519
11.6634 3.4035 -2.0016 0.9519
11.3893 4.2314 -2.0016 0.9519
11.2301 4.6374 -2.0016 0.9519
11.0564 5.0374 -2.0016 0.9519
10.8685 5.4309 -2.0016 0.9519
10.6666 5.8175 -2.0016 0.9519
9.7244 7.2838 -2.0016 0.9519
8.8853 8.2868 -2.0016 0.9519
8.5822 8.6003 -2.0016 0.9519
7.9432 9.1938 -2.0016 0.9519
7.2633 9.7398 -2.0016 0.9519
6.5459 10.2357 -2.0016 0.9519
5.5919 10.3049 -1.9315 0.9536
4.2628 10.3852 -1.8494 0.9555
3.1219 10.7832 -1.8494 0.9555
2.3404 10.9793 -1.8494 0.9555
1.1468 11.1673 -1.8494 0.9555
0.7453 11.2012 -1.8494 0.9555
0.3429 11.2208 -1.8494 0.9555
-0.0600 11.2258 -1.8494 0.9555
-0.4629 11.2164 -1.8494 0.9555
-1.2662 11.1544 -1.8494 0.9555
-2.4577 10.9537 -1.8494 0.9555
-3.2371 10.7492 -1.8494 0.9555
-3.6207 10.6261 -1.8494 0.9555
-4.7418 10.1754 -1.8494 0.9555
-5.4595 9.8090 -1.8494 0.9555
-10.6469 0.2003 -2.0016 0.9576
-10.6473 -0.1819 -2.0016 0.9576
-10.6339 -0.5639 -2.0016 0.9576
-10.5660 -1.3252 -2.0016 0.9576
-10.5117 -1.7035 -2.0016 0.9576
-10.4438 -2.0796 -2.0016 0.9576
-9.6139 -2.2759 -1.8570 0.9606
-9.3136 -3.2960 -1.8570 0.9606
-8.5756 -4.9056 -1.8570 0.9606
-8.2017 -5.5081 -1.8570 0.9606
-8.6215 -6.2504 -2.0016 0.9576
-8.3916 -6.5558 -2.0016 0.9576
-7.6384 -7.4197 -2.0016 0.9576
-6.4982 -8.4363 -2.0016 0.9576
-6.1912 -8.6641 -2.0016 0.9576
-5.8763 -8.8807 -2.0016 0.9576
-4.5451 -9.6301 -2.0016 0.9576
-4.1966 -9.7870 -2.0016 0.9576
-3.4838 -10.0628 -2.0016 0.9576
-3.1204 -10.1814 -2.0016 0.9576
-2.7530 -10.2868 -2.0016 0.9576
-2.3821 -10.3790 -2.0016 0.9576
-1.6315 -10.5231 -2.0016 0.9576
-1.2528 -10.5749 -2.0016 0.9576
0.6551 -10.6286 -2.0016 0.9576
1.0361 -10.5983 -2.0016 0.9576
2.5419 -10.3410 -2.0016 0.9576
3.2771 -10.1320 -2.0016 0.9576
3.9954 -9.8709 -2.0016 0.9576
2.2475 -4.1904 -0.8938 0.9808
5.3667 -9.1976 -2.0016 0.9576
5.6933 -8.9991 -2.0016 0.9576
6.0126 -8.7890 -2.0016 0.9576
6.3241 -8.5675 -2.0016 0.9576
6.6275 -8.3351 -2.0016 0.9576
6.9224 -8.0918 -2.0016 0.9576
7.7520 -7.3010 -2.0016 0.9576
8.2557 -6.7261 -2.0016 0.9576
8.9308 -5.7999 -2.0016 0.9576
9.1331 -5.4757 -2.0016 0.9576
9.5024 -4.8064 -2.0016 0.9576
9.6687 -4.4623 -2.0016 0.9576
9.8227 -4.1125 -2.0016 0.9576
9.9639 -3.7573 -2.0016 0.9576
10.0923 -3.3973 -2.0016 0.9576
10.2078 -3.0330 -2.0016 0.9576
10.3100 -2.6647 -2.0016 0.9576
10.5367 -1.5411 -2.0016 0.9576
10.6488 -0.0176 -2.0016 0.9576
10.6426 0.3645 -2.0016 0.9576
10.5890 1.1270 -2.0016 0.9576
10.4066 2.2585 -2.0016 0.9576
9.9763 3.7243 -2.0016 0.9576
9.3408 5.1135 -2.0016 0.9576
9.1512 5.4454 -2.0016 0.9576
8.7371 6.0878 -2.0016 0.9576
8.5130 6.3974 -2.0016 0.9576
8.2779 6.6988 -2.0016 0.9576
8.0322 6.9915 -2.0016 0.9576
6.9491 8.0689 -2.0016 0.9576
6.6551 8.3131 -2.0016 0.9576
6.3525 8.5466 -2.0016 0.9576
5.7231 8.9802 -2.0016 0.9576
5.3971 9.1798 -2.0016 0.9576
4.7087 9.5109 -1.9948 0.9577
4.1764 9.2572 -1.9089 0.9595
3.7218 9.1080 -1.8494 0.9607
3.0589 9.3515 -1.8494 0.9607
1.6893 9.6930 -1.8494 0.9607
1.3404 9.7473 -1.8494 0.9607
0.9897 9.7892 -1.8494 0.9607
0.6378 9.8184 -1.8494 0.9607
-0.0681 9.8388 -1.8494 0.9607
-0.4212 9.8301 -1.8494 0.9607
-1.0315 8.9608 -1.6954 0.9640
-1.3181 8.6913 -1.6523 0.9649
-2.1692 9.5970 -1.8494 0.9607
-2.5122 9.5129 -1.8494 0.9607
-3.5201 9.1878 -1.8494 0.9607
-3.8475 9.0556 -1.8494 0.9607
-4.4872 8.7563 -1.8494 0.9607
-5.1037 8.4119 -1.8494 0.9607
-5.8543 8.2501 -1.9014 0.9597
-7.3417 7.7134 -2.0016 0.9576
-7.6138 7.4449 -2.0016 0.9576
-7.8761 7.1669 -2.0016 0.9576
-8.3699 6.5835 -2.0016 0.9576
-8.6007 6.2789 -2.0016 0.9576
-8.8205 5.9662 -2.0016 0.9576
-9.4107 4.9836 -2.0016 0.9576
-9.5835 4.6427 -2.0016 0.9576
-9.7439 4.2958 -2.0016 0.9576
-9.8918 3.9433 -2.0016 0.9576
-10.0269 3.5858 -2.0016 0.9576
-10.3542 2.4874 -2.0016 0.9576
-10.4368 2.1142 -2.0016 0.9576
-10.5060 1.7383 -2.0016 0.9576
-10.6466 0.2171 -2.0016 0.9576
-10.6348 -0.5471 -2.0016 0.9576
-10.6083 -0.9284 -2.0016 0.9576
-10.5681 -1.3085 -2.0016 0.9576
-9.5301 -2.6044 -1.8570 0.9606
-9.3188 -3.2813 -1.8570 0.9606
-9.1950 -3.6136 -1.8570 0.9606
-9.0594 -3.9413 -1.8570 0.9606
-8.9121 -4.2638 -1.8570 0.9606
-8.5834 -4.8921 -1.8570 0.9606
-8.4023 -5.1970 -1.8570 0.9606
-8.1617 -6.8398 -2.0016 0.9576
-7.9110 -7.1283 -2.0016 0.9576
-7.6501 -7.4076 -2.0016 0.9576
-7.3793 -7.6774 -2.0016 0.9576
-7.0991 -7.9373 -2.0016 0.9576
-6.2049 -8.6543 -2.0016 0.9576
-5.8903 -8.8714 -2.0016 0.9576
-5.2388 -9.2711 -2.0016 0.9576
-4.2120 -9.7804 -2.0016 0.9576
-3.8583 -9.9252 -2.0016 0.9576
-3.1365 -10.1764 -2.0016 0.9576
-2.7692 -10.2824 -2.0016 0.9576
-1.6481 -10.5205 -2.0016 0.9576
-1.2695 -10.5729 -2.0016 0.9576
1.0194 -10.5999 -2.0016 0.9576
1.3991 -10.5565 -2.0016 0.9576
2.8952 -10.2477 -2.0016 0.9576
3.2611 -10.1372 -2.0016 0.9576
3.6228 -10.0136 -2.0016 0.9576
7.4730 -7.5864 -2.0016 0.9576
7.7404 -7.3132 -2.0016 0.9576
8.4816 -6.4389 -2.0016 0.9576
8.7072 -6.1304 -2.0016 0.9576
8.9216 -5.8140 -2.0016 0.9576
9.3156 -5.1591 -2.0016 0.9576
9.4948 -4.8214 -2.0016 0.9576
9.8162 -4.1280 -2.0016 0.9576
10.0870 -3.4132 -2.0016 0.9576
10.2030 -3.0490 -2.0016 0.9576
10.3058 -2.6809 -2.0016 0.9576
10.3954 -2.3093 -2.0016 0.9576
10.4716 -1.9348 -2.0016 0.9576
10.5343 -1.5578 -2.0016 0.9576
10.5834 -1.1787 -2.0016 0.9576
10.6488 -0.0344 -2.0016 0.9576
10.6238 0.7295 -2.0016 0.9576
10.5441 1.4896 -2.0016 0.9576
10.4839 1.8671 -2.0016 0.9576
10.3229 2.6143 -2.0016 0.9576
10.2225 2.9830 -2.0016 0.9576
10.1088 3.3480 -2.0016 0.9576
9.6904 4.4150 -2.0016 0.9576
9.5258 4.7600 -2.0016 0.9576
9.3488 5.0987 -2.0016 0.9576
8.2885 6.6857 -2.0016 0.9576
8.0432 6.9789 -2.0016 0.9576
7.7875 7.2630 -2.0016 0.9576
6.9618 8.0579 -2.0016 0.9576
6.3659 8.5365 -2.0016 0.9576
6.0555 8.7595 -2.0016 0.9576
5.4116 9.1713 -2.0016 0.9576
5.0765 9.3551 -2.0006 0.9576
4.2000 9.2704 -1.9130 0.9594
3.7361 9.1021 -1.8494 0.9607
2.7362 9.4509 -1.8494 0.9607
2.3953 9.5431 -1.8494 0.9607
2.0513 9.6229 -1.8494 0.9607
1.3557 9.7452 -1.8494 0.9607
0.6533 9.8174 -1.8494 0.9607
0.3005 9.8345 -1.8494 0.9607
-0.0526 9.8389 -1.8494 0.9607
-0.4057 9.8307 -1.8494 0.9607
-1.1098 9.7763 -1.8494 0.9607
-1.3049 8.6972 -1.6530 0.9648
-1.8081 9.6715 -1.8494 0.9607
-2.1541 9.6003 -1.8494 0.9607
-2.8371 9.4212 -1.8494 0.9607
-3.1734 9.3133 -1.8494 0.9607
-4.1560 8.9183 -1.8494 0.9607
-4.4733 8.7634 -1.8494 0.9607
-9.4548 0.5178 -2.0016 0.9620
-9.4557 -0.5014 -2.0016 0.9620
-9.3471 -1.5148 -2.0016 0.9620
-9.2867 -1.8492 -2.0016 0.9620
-8.4706 -2.3292 -1.8570 0.9647
-8.3816 -2.6317 -1.8570 0.9647
-8.1712 -3.2261 -1.8570 0.9647
-7.4641 -4.6330 -1.8570 0.9647
-7.2930 -4.8979 -1.8570 0.9647
-6.7244 -5.6533 -1.8570 0.9647
-7.0245 -6.3497 -2.0016 0.9620
-6.7922 -6.5977 -2.0016 0.9620
-6.5510 -6.8372 -2.0016 0.9620
-6.3014 -7.0678 -2.0016 0.9620
-5.7782 -7.5016 -2.0016 0.9620
-4.6454 -8.2512 -2.0016 0.9620
-3.4169 -8.8310 -2.0016 0.9620
-3.0978 -8.9480 -2.0016 0.9620
-2.7747 -9.0534 -2.0016 0.9620
-1.1140 -9.4033 -2.0016 0.9620
-0.7758 -9.4372 -2.0016 0.9620
-0.0969 -9.4685 -2.0016 0.9620
0.2430 -9.4659 -2.0016 0.9620
0.5825 -9.4511 -2.0016 0.9620
0.9213 -9.4241 -2.0016 0.9620
1.2589 -9.3850 -2.0016 0.9620
1.5949 -9.3337 -2.0016 0.9620
3.5527 -8.7773 -2.0016 0.9620
3.8654 -8.6441 -2.0016 0.9620
2.2474 -4.1903 -1.0051 0.9807
4.7721 -8.1786 -2.0016 0.9620
5.6235 -7.6183 -2.0016 0.9620
5.8932 -7.4116 -2.0016 0.9620
6.6557 -6.7353 -2.0016 0.9620
7.1216 -6.2405 -2.0016 0.9620
7.3410 -5.9809 -2.0016 0.9620
7.5509 -5.7137 -2.0016 0.9620
7.7511 -5.4390 -2.0016 0.9620
7.9413 -5.1573 -2.0016 0.9620
8.1213 -4.8690 -2.0016 0.9620
8.4496 -4.2739 -2.0016 0.9620
8.5975 -3.9679 -2.0016 0.9620
8.8600 -3.3410 -2.0016 0.9620
8.9742 -3.0209 -2.0016 0.9620
9.0768 -2.6969 -2.0016 0.9620
9.2469 -2.0389 -2.0016 0.9620
9.4435 -0.6948 -2.0016 0.9620
9.4623 -0.3555 -2.0016 0.9620
9.2536 2.0083 -2.0016 0.9620
8.9841 2.9912 -2.0016 0.9620
8.7465 3.6279 -2.0016 0.9620
8.4637 4.2459 -2.0016 0.9620
7.9583 5.1310 -2.0016 0.9620
7.7691 5.4133 -2.0016 0.9620
7.3608 5.9566 -2.0016 0.9620
6.9146 6.4693 -2.0016 0.9620
6.6779 6.7132 -2.0016 0.9620
6.4327 6.9485 -2.0016 0.9620
5.9177 7.3921 -2.0016 0.9620
5.6487 7.5997 -2.0016 0.9620
5.3723 7.7975 -2.0016 0.9620
4.7991 8.1628 -2.0016 0.9620
4.2013 8.4860 -2.0016 0.9620
3.8927 8.6283 -2.0009 0.9620
3.2239 8.7767 -1.9764 0.9625
0.8801 8.7046 -1.8494 0.9649
0.2534 8.7453 -1.8494 0.9649
-0.6880 8.7219 -1.8494 0.9649
-1.0005 8.6916 -1.8494 0.9649
-1.3118 8.6501 -1.8494 0.9649
-1.6214 8.5974 -1.8494 0.9649
-1.9289 8.5337 -1.8494 0.9649
-2.2339 8.4590 -1.8494 0.9649
-2.8349 8.2770 -1.8494 0.9649
-3.5058 8.2513 -1.8951 0.9640
-3.8585 8.2459 -1.9244 0.9635
-4.2225 8.2398 -1.9571 0.9629
-5.1937 7.9058 -1.9995 0.9621
-5.4798 7.7224 -2.0016 0.9620
-6.0196 7.3094 -2.0016 0.9620
-6.7703 6.6201 -2.0016 0.9620
-7.0035 6.3729 -2.0016 0.9620
-7.2277 6.1174 -2.0016 0.9620
-7.6479 5.5833 -2.0016 0.9620
-8.3681 4.4315 -2.0016 0.9620
-8.5217 4.1283 -2.0016 0.9620
-8.9160 3.1885 -2.0016 0.9620
-9.2805 1.8800 -2.0016 0.9620
-9.3420 1.5457 -2.0016 0.9620
-9.4670 0.1931 -2.0016 0.9620
-9.4679 -0.1468 -2.0016 0.9620
-9.3495 -1.5000 -2.0016 0.9620
-9.2896 -1.8346 -2.0016 0.9620
-9.2178 -2.1668 -2.0016 0.9620
-8.2863 -2.9178 -1.8570 0.9647
-8.1763 -3.2132 -1.8570 0.9647
-8.0557 -3.5046 -1.8570 0.9647
-7.9248 -3.7914 -1.8570 0.9647
-7.1207 -5.1452 -1.8570 0.9647
-6.9314 -5.3974 -1.8570 0.9647
-6.8025 -6.5869 -2.0016 0.9620
-6.3125 -7.0579 -2.0016 0.9620
-5.7900 -7.4925 -2.0016 0.9620
-5.5174 -7.6955 -2.0016 0.9620
-4.9512 -8.0714 -2.0016 0.9620
-4.6584 -8.2439 -2.0016 0.9620
-2.1327 -9.2257 -2.0016 0.9620
-1.4655 -9.3549 -2.0016 0.9620
-0.4516 -9.4582 -2.0016 0.9620
0.9064 -9.4255 -2.0016 0.9620
2.2458 -9.1988 -2.0016 0.9620
2.5745 -9.1123 -2.0016 0.9620
3.2214 -8.9042 -2.0016 0.9620
2.2405 -4.1934 -1.0050 0.9807
4.7592 -8.1861 -2.0016 0.9620
5.8815 -7.4209 -2.0016 0.9620
6.3987 -6.9799 -2.0016 0.9620
6.6451 -6.7458 -2.0016 0.9620
6.8829 -6.5030 -2.0016 0.9620
7.1118 -6.2518 -2.0016 0.9620
7.5419 -5.7255 -2.0016 0.9620
8.1136 -4.8818 -2.0016 0.9620
8.7286 -3.6706 -2.0016 0.9620
8.8547 -3.3550 -2.0016 0.9620
8.9694 -3.0351 -2.0016 0.9620
9.1640 -2.3839 -2.0016 0.9620
9.4618 -0.3704 -2.0016 0.9620
9.4690 -0.0306 -2.0016 0.9620
9.4640 0.3092 -2.0016 0.9620
9.3223 1.6602 -2.0016 0.9620
9.2568 1.9937 -2.0016 0.9620
9.1792 2.3246 -2.0016 0.9620
8.9889 2.9770 -2.0016 0.9620
8.7522 3.6141 -2.0016 0.9620
8.4704 4.2326 -2.0016 0.9620
7.7776 5.4010 -2.0016 0.9620
7.1521 6.2057 -2.0016 0.9620
6.9248 6.4583 -2.0016 0.9620
6.4437 6.9384 -2.0016 0.9620
6.1905 7.1652 -2.0016 0.9620
5.6606 7.5908 -2.0016 0.9620
5.1016 7.9772 -2.0016 0.9620
4.2147 8.4793 -2.0016 0.9620
3.9066 8.6229 -2.0010 0.9620
3.5873 8.7396 -1.9969 0.9621
2.1299 8.4858 -1.8494 0.9649
1.8240 8.5567 -1.8494 0.9649
1.5157 8.6167 -1.8494 0.9649
1.2055 8.6655 -1.8494 0.9649
0.2672 8.7449 -1.8494 0.9649
-0.0468 8.7489 -1.8494 0.9649
-0.3607 8.7415 -1.8494 0.9649
-0.6742 8.7230 -1.8494 0.9649
-0.9868 8.6932 -1.8494 0.9649
-2.8218 8.2814 -1.8494 0.9649
-4.5825 8.2334 -1.9918 0.9622
-8.5037 0.4657 -2.0016 0.9656
-8.4828 -0.7559 -2.0016 0.9656
-8.4502 -1.0598 -2.0016 0.9656
-8.4068 -1.3624 -2.0016 0.9656
-8.2874 -1.9619 -2.0016 0.9656
-8.0824 -2.2225 -1.9700 0.9661
-7.5384 -2.3670 -1.8570 0.9681
-7.4486 -2.6360 -1.8570 0.9681
-7.3492 -2.9016 -1.8570 0.9681
-7.1222 -3.4213 -1.8570 0.9681
-6.9948 -3.6747 -1.8570 0.9681
-6.5593 -4.4051 -1.8570 0.9681
-6.2265 -4.8643 -1.8570 0.9681
-6.0479 -5.0846 -1.8570 0.9681
-5.8615 -5.2984 -1.8570 0.9681
-5.6676 -5.5053 -1.8570 0.9681
-5.8920 -6.1494 -2.0016 0.9656
-5.6675 -6.3568 -2.0016 0.9656
-5.4357 -6.5561 -2.0016 0.9656
-4.4417 -7.2664 -2.0016 0.9656
-3.9090 -7.5663 -2.0016 0.9656
-3.3562 -7.8272 -2.0016 0.9656
-2.7862 -8.0478 -2.0016 0.9656
-2.4956 -8.1426 -2.0016 0.9656
-2.2018 -8.2269 -2.0016 0.9656
-1.9051 -8.3006 -2.0016 0.9656
-0.3927 -8.5074 -2.0016 0.9656
-0.0872 -8.5160 -2.0016 0.9656
0.5239 -8.5003 -2.0016 0.9656
0.8286 -8.4760 -2.0016 0.9656
2.0329 -8.2703 -2.0016 0.9656
2.6209 -8.1031 -2.0016 0.9656
2.9100 -8.0039 -2.0016 0.9656
3.1953 -7.8943 -2.0016 0.9656
2.2309 -4.1595 -1.1093 0.9808
4.2920 -7.3558 -2.0016 0.9656
4.8086 -7.0290 -2.0016 0.9656
5.0578 -6.8519 -2.0016 0.9656
5.3004 -6.6660 -2.0016 0.9656
5.5362 -6.4715 -2.0016 0.9656
5.9861 -6.0577 -2.0016 0.9656
6.1997 -5.8390 -2.0016 0.9656
6.6025 -5.3793 -2.0016 0.9656
6.9714 -4.8918 -2.0016 0.9656
8.0714 -2.7170 -2.0016 0.9656
8.2455 -2.1311 -2.0016 0.9656
8.3167 -1.8338 -2.0016 0.9656
8.3771 -1.5342 -2.0016 0.9656
8.4268 -1.2325 -2.0016 0.9656
8.4656 -0.9293 -2.0016 0.9656
8.5114 0.2915 -2.0016 0.9656
8.4955 0.5968 -2.0016 0.9656
8.4686 0.9013 -2.0016 0.9656
8.3821 1.5064 -2.0016 0.9656
8.3227 1.8063 -2.0016 0.9656
8.2525 2.1038 -2.0016 0.9656
8.1717 2.3986 -2.0016 0.9656
7.9786 2.9785 -2.0016 0.9656
7.8666 3.2630 -2.0016 0.9656
7.4703 4.0895 -2.0016 0.9656
7.3187 4.3550 -2.0016 0.9656
7.1577 4.6148 -2.0016 0.9656
6.8083 5.1163 -2.0016 0.9656
6.6203 5.3574 -2.0016 0.9656
5.0804 6.8352 -2.0016 0.9656
4.3164 7.3416 -2.0016 0.9656
4.0501 7.4918 -2.0016 0.9656
3.5023 7.7630 -2.0016 0.9656
3.2215 7.8837 -2.0016 0.9656
2.9365 7.9942 -2.0016 0.9656
1.7564 8.3040 -1.9948 0.9657
1.4487 8.3123 -1.9830 0.9659
1.1377 8.2732 -1.9627 0.9663
-0.0571 8.2435 -1.9375 0.9667
-0.3532 8.2432 -1.9391 0.9667
-1.5535 8.2374 -1.9701 0.9661
-2.4614 8.1271 -1.9957 0.9657
-2.7535 8.0395 -1.9972 0.9657
-3.3289 7.8349 -2.0007 0.9656
-3.6095 7.7137 -2.0016 0.9656
-4.4176 7.2811 -2.0016 0.9656
-4.6761 7.1179 -2.0016 0.9656
-4.9285 6.9455 -2.0016 0.9656
-5.1746 6.7641 -2.0016 0.9656
-5.4140 6.5741 -2.0016 0.9656
-6.0892 5.9541 -2.0016 0.9656
-6.2989 5.7318 -2.0016 0.9656
-6.8785 5.0216 -2.0016 0.9656
-7.2210 4.5153 -2.0016 0.9656
-7.3783 4.2532 -2.0016 0.9656
-7.6644 3.7130 -2.0016 0.9656
-7.7927 3.4356 -2.0016 0.9656
-7.9110 3.1537 -2.0016 0.9656
-8.0191 2.8678 -2.0016 0.9656
-8.1168 2.5781 -2.0016 0.9656
-8.3469 1.6908 -2.0016 0.9656
-8.4022 1.3902 -2.0016 0.9656
-8.4467 1.0878 -2.0016 0.9656
-8.4803 0.7839 -2.0016 0.9656
-8.5030 0.4791 -2.0016 0.9656
-8.5154 -0.1320 -2.0016 0.9656
-8.5052 -0.4375 -2.0016 0.9656
-8.4840 -0.7425 -2.0016 0.9656
-8.4519 -1.0465 -2.0016 0.9656
-8.3551 -1.6500 -2.0016 0.9656
-8.2905 -1.9488 -2.0016 0.9656
-8.1259 -2.2207 -1.9798 0.9660
-7.5421 -2.3551 -1.8570 0.9681
-7.4528 -2.6242 -1.8570 0.9681
-7.1275 -3.4100 -1.8570 0.9681
-7.0006 -3.6636 -1.8570 0.9681
-6.5663 -4.3948 -1.8570 0.9681
-6.4043 -4.6276 -1.8570 0.9681
-5.8699 -5.2891 -1.8570 0.9681
-5.6763 -5.4964 -1.8570 0.9681
-5.9017 -6.1400 -2.0016 0.9656
-5.6775 -6.3479 -2.0016 0.9656
-5.2076 -6.7388 -2.0016 0.9656
-4.9624 -6.9213 -2.0016 0.9656
-4.1898 -7.4146 -2.0016 0.9656
-3.9210 -7.5602 -2.0016 0.9656
-3.3686 -7.8219 -2.0016 0.9656
-3.0857 -7.9378 -2.0016 0.9656
-2.7989 -8.0434 -2.0016 0.9656
-2.5084 -8.1387 -2.0016 0.9656
-0.7112 -8.4867 -2.0016 0.9656
-0.4061 -8.5068 -2.0016 0.9656
0.2051 -8.5140 -2.0016 0.9656
1.4212 -8.3970 -2.0016 0.9656
1.7217 -8.3406 -2.0016 0.9656
2.0199 -8.2735 -2.0016 0.9656
2.3155 -8.1956 -2.0016 0.9656
2.6081 -8.1073 -2.0016 0.9656
2.8974 -8.0084 -2.0016 0.9656
2.1458 -4.3879 -1.1480 0.9801
2.2247 -4.1636 -1.1095 0.9808
4.2804 -7.3626 -2.0016 0.9656
4.7975 -7.0366 -2.0016 0.9656
5.0469 -6.8599 -2.0016 0.9656
5.2899 -6.6744 -2.0016 0.9656
5.5260 -6.4802 -2.0016 0.9656
5.7550 -6.2777 -2.0016 0.9656
5.9766 -6.0672 -2.0016 0.9656
6.3964 -5.6228 -2.0016 0.9656
6.7832 -5.1496 -2.0016 0.9656
6.9636 -4.9028 -2.0016 0.9656
7.2974 -4.3907 -2.0016 0.9656
7.5935 -3.8560 -2.0016 0.9656
7.8505 -3.3014 -2.0016 0.9656
7.9640 -3.0175 -2.0016 0.9656
8.0671 -2.7298 -2.0016 0.9656
8.1599 -2.4385 -2.0016 0.9656
8.2421 -2.1441 -2.0016 0.9656
8.3138 -1.8469 -2.0016 0.9656
8.3747 -1.5474 -2.0016 0.9656
8.5164 -0.0275 -2.0016 0.9656
8.5119 0.2781 -2.0016 0.9656
8.4964 0.5834 -2.0016 0.9656
8.4327 1.1913 -2.0016 0.9656
8.2558 2.0908 -2.0016 0.9656
8.1755 2.3857 -2.0016 0.9656
7.4768 4.0777 -2.0016 0.9656
7.1650 4.6035 -2.0016 0.9656
6.9952 4.8577 -2.0016 0.9656
6.6287 5.3469 -2.0016 0.9656
6.4326 5.5814 -2.0016 0.9656
6.0157 6.0284 -2.0016 0.9656
5.7954 6.2404 -2.0016 0.9656
5.5678 6.4444 -2.0016 0.9656
4.5884 7.1747 -2.0016 0.9656
4.3279 7.3348 -2.0016 0.9656
4.0619 7.4854 -2.0016 0.9656
3.7907 7.6263 -2.0016 0.9656
3.5145 7.7574 -2.0016 0.9656
2.9491 7.9895 -2.0016 0.9656
2.6604 8.0902 -2.0016 0.9656
2.0684 8.2409 -1.9969 0.9657
1.7696 8.3015 -1.9949 0.9657
1.1510 8.2738 -1.9633 0.9663
0.5488 8.2479 -1.9427 0.9666
-0.0441 8.2435 -1.9374 0.9667
-0.3402 8.2432 -1.9390 0.9667
-0.6371 8.2425 -1.9429 0.9666
-0.9355 8.2413 -1.9493 0.9665
-1.2363 8.2396 -1.9582 0.9663
-1.5401 8.2375 -1.9696 0.9662
-1.8477 8.2349 -1.9835 0.9659
-2.7408 8.0436 -1.9972 0.9657
-3.0302 7.9466 -1.9988 0.9657
-3.3164 7.8398 -2.0006 0.9656
-7.7294 -0.1320 -2.0016 0.9686
-7.7196 -0.4093 -2.0016 0.9686
-7.6309 -1.2367 -2.0016 0.9686
-7.5226 -1.7808 -2.0016 0.9686
-7.1032 -2.2303 -1.9277 0.9697
-6.6710 -2.6338 -1.8570 0.9708
-6.4649 -3.1055 -1.8570 0.9708
-6.2255 -3.5612 -1.8570 0.9708
-5.9540 -3.9986 -1.8570 0.9708
-5.4897 -4.6154 -1.8570 0.9708
-5.3206 -4.8094 -1.8570 0.9708
-5.1446 -4.9972 -1.8570 0.9708
-4.5777 -5.5212 -1.8570 0.9708
-4.3766 -5.6819 -1.8570 0.9708
-4.4945 -6.2897 -2.0016 0.9686
-4.2659 -6.4469 -2.0016 0.9686
-4.0318 -6.5958 -2.0016 0.9686
-3.7925 -6.7363 -2.0016 0.9686
-3.5483 -6.8680 -2.0016 0.9686
-3.2995 -6.9910 -2.0016 0.9686
-3.0465 -7.1049 -2.0016 0.9686
-2.5290 -7.3051 -2.0016 0.9686
-2.2653 -7.3911 -2.0016 0.9686
-1.9986 -7.4677 -2.0016 0.9686
-1.7293 -7.5346 -2.0016 0.9686
-1.1844 -7.6392 -2.0016 0.9686
-0.6334 -7.7045 -2.0016 0.9686
-0.3565 -7.7223 -2.0016 0.9686
-0.0791 -7.7301 -2.0016 0.9686
0.7521 -7.6938 -2.0016 0.9686
1.0278 -7.6619 -2.0016 0.9686
1.5747 -7.5684 -2.0016 0.9686
1.8453 -7.5070 -2.0016 0.9686
2.1135 -7.4360 -2.0016 0.9686
2.9005 -7.1657 -2.0016 0.9686
3.1557 -7.0570 -2.0016 0.9686
2.1083 -4.2942 -1.2386 0.9804
2.3976 -4.1091 -1.2318 0.9805
4.1330 -6.5329 -2.0016 0.9686
4.3648 -6.3803 -2.0016 0.9686
4.5910 -6.2196 -2.0016 0.9686
4.8112 -6.0508 -2.0016 0.9686
5.2329 -5.6901 -2.0016 0.9686
5.8141 -5.0948 -2.0016 0.9686
5.9932 -4.8828 -2.0016 0.9686
6.1646 -4.6646 -2.0016 0.9686
6.6302 -3.9750 -2.0016 0.9686
6.7686 -3.7345 -2.0016 0.9686
7.2333 -2.7276 -2.0016 0.9686
7.3265 -2.4663 -2.0016 0.9686
7.4103 -2.2018 -2.0016 0.9686
7.6843 -0.8436 -2.0016 0.9686
7.7096 -0.5673 -2.0016 0.9686
7.7305 -0.0128 -2.0016 0.9686
7.7260 0.2646 -2.0016 0.9686
7.7115 0.5417 -2.0016 0.9686
7.6871 0.8181 -2.0016 0.9686
7.6528 1.0935 -2.0016 0.9686
7.6086 1.3674 -2.0016 0.9686
7.2423 2.7037 -2.0016 0.9686
7.0297 3.2162 -2.0016 0.9686
6.6433 3.9531 -2.0016 0.9686
6.1800 4.6442 -2.0016 0.9686
5.8309 5.0755 -2.0016 0.9686
5.6450 5.2815 -2.0016 0.9686
5.2517 5.6728 -2.0016 0.9686
5.0447 5.8576 -2.0016 0.9686
4.8312 6.0349 -2.0016 0.9686
3.6763 6.8004 -2.0016 0.9686
3.4299 6.9279 -2.0016 0.9686
2.9242 7.1561 -2.0016 0.9686
2.6655 7.2564 -2.0016 0.9686
2.4033 7.3474 -2.0016 0.9686
2.1381 7.4289 -2.0016 0.9686
0.5011 7.7142 -2.0016 0.9686
0.2239 7.7272 -2.0016 0.9686
-1.1591 7.6431 -2.0016 0.9686
-1.4326 7.5966 -2.0016 0.9686
-1.9738 7.4743 -2.0016 0.9686
-2.2408 7.3986 -2.0016 0.9686
-2.5049 7.3134 -2.0016 0.9686
-2.7657 7.2188 -2.0016 0.9686
-3.0230 7.1149 -2.0016 0.9686
-3.5255 6.8797 -2.0016 0.9686
-4.4737 6.3045 -2.0016 0.9686
-4.6970 6.1399 -2.0016 0.9686
-4.9143 5.9674 -2.0016 0.9686
-5.1253 5.7872 -2.0016 0.9686
-5.9007 4.9943 -2.0016 0.9686
-6.0761 4.7793 -2.0016 0.9686
-6.2437 4.5581 -2.0016 0.9686
-6.4032 4.3311 -2.0016 0.9686
-6.6974 3.8607 -2.0016 0.9686
-6.9571 3.3704 -2.0016 0.9686
-7.0736 3.1185 -2.0016 0.9686
-7.1809 2.8627 -2.0016 0.9686
-7.2790 2.6031 -2.0016 0.9686
-7.4470 2.0743 -2.0016 0.9686
-7.5766 1.5348 -2.0016 0.9686
-7.6268 1.2619 -2.0016 0.9686
-7.6977 0.7116 -2.0016 0.9686
-7.7182 0.4349 -2.0016 0.9686
-7.6719 -0.9499 -2.0016 0.9686
-7.6329 -1.2246 -2.0016 0.9686
-7.5254 -1.7690 -2.0016 0.9686
-7.1376 -2.2288 -1.9361 0.9696
-6.7650 -2.3820 -1.8570 0.9708
-6.5767 -2.8611 -1.8570 0.9708
-6.4698 -3.0953 -1.8570 0.9708
-6.3545 -3.3255 -1.8570 0.9708
-6.0996 -3.7727 -1.8570 0.9708
-5.9603 -3.9892 -1.8570 0.9708
-5.8133 -4.2005 -1.8570 0.9708
-5.3281 -4.8010 -1.8570 0.9708
-5.1524 -4.9891 -1.8570 0.9708
-4.3855 -5.6750 -1.8570 0.9708
-4.0422 -6.5895 -2.0016 0.9686
-3.8031 -6.7303 -2.0016 0.9686
-3.5591 -6.8624 -2.0016 0.9686
-3.0577 -7.1001 -2.0016 0.9686
-2.8009 -7.2052 -2.0016 0.9686
-2.5406 -7.3011 -2.0016 0.9686
-2.0103 -7.4645 -2.0016 0.9686
-1.4697 -7.5895 -2.0016 0.9686
-0.9216 -7.6754 -2.0016 0.9686
-0.3687 -7.7217 -2.0016 0.9686
0.4634 -7.7166 -2.0016 0.9686
0.7400 -7.6950 -2.0016 0.9686
1.0157 -7.6635 -2.0016 0.9686
1.2901 -7.6221 -2.0016 0.9686
1.5628 -7.5709 -2.0016 0.9686
1.8334 -7.5099 -2.0016 0.9686
2.3674 -7.3591 -2.0016 0.9686
2.6300 -7.2694 -2.0016 0.9686
2.8892 -7.1703 -2.0016 0.9686
2.1078 -4.3102 -1.2423 0.9804
4.8017 -6.0584 -2.0016 0.9686
5.0160 -5.8822 -2.0016 0.9686
5.2239 -5.6984 -2.0016 0.9686
5.6192 -5.3090 -2.0016 0.9686
5.9855 -4.8923 -2.0016 0.9686
6.4766 -4.2206 -2.0016 0.9686
7.0139 -3.2505 -2.0016 0.9686
7.1260 -2.9967 -2.0016 0.9686
7.6473 -1.1309 -2.0016 0.9686
7.6830 -0.8557 -2.0016 0.9686
7.7246 -0.3024 -2.0016 0.9686
7.7304 -0.0250 -2.0016 0.9686
7.7264 0.2525 -2.0016 0.9686
7.6545 1.0814 -2.0016 0.9686
7.5572 1.6277 -2.0016 0.9686
7.4210 2.1655 -2.0016 0.9686
7.1452 2.9506 -2.0016 0.9686
7.0348 3.2051 -2.0016 0.9686
6.9152 3.4555 -2.0016 0.9686
6.3496 4.4094 -2.0016 0.9686
6.1873 4.6344 -2.0016 0.9686
5.8389 5.0663 -2.0016 0.9686
5.6534 5.2726 -2.0016 0.9686
5.4605 5.4721 -2.0016 0.9686
5.2606 5.6645 -2.0016 0.9686
5.0539 5.8496 -2.0016 0.9686
4.8407 6.0272 -2.0016 0.9686
3.6871 6.7946 -2.0016 0.9686
3.1902 7.0415 -2.0016 0.9686
2.4149 7.3436 -2.0016 0.9686
2.1498 7.4255 -2.0016 0.9686
1.6117 7.5606 -2.0016 0.9686
1.3393 7.6136 -2.0016 0.9686
1.0652 7.6567 -2.0016 0.9686
0.5133 7.7134 -2.0016 0.9686
0.2361 7.7269 -2.0016 0.9686
-0.0413 7.7304 -2.0016 0.9686
-0.8719 7.6812 -2.0016 0.9686
-1.4206 7.5988 -2.0016 0.9686
-1.6924 7.5429 -2.0016 0.9686
-2.7543 7.2232 -2.0016 0.9686
-3.0117 7.1197 -2.0016 0.9686
-7.0693 -0.1208 -2.0016 0.9710
-7.0154 -0.8799 -2.0016 0.9710
-6.9342 -1.3808 -2.0016 0.9710
-6.8802 -1.6287 -2.0016 0.9710
-6.7456 -2.1180 -2.0016 0.9710
-6.0109 -2.6263 -1.8570 0.9731
-5.6938 -3.2571 -1.8570 0.9731
-5.4455 -3.6571 -1.8570 0.9731
-5.0209 -4.2212 -1.8570 0.9731
-4.5382 -4.7364 -1.8570 0.9731
-4.1867 -5.0497 -1.8570 0.9731
-3.6198 -5.4704 -1.8570 0.9731
-3.4211 -5.5968 -1.8570 0.9731
-3.4686 -6.1610 -2.0016 0.9710
-3.2453 -6.2815 -2.0016 0.9710
-3.0178 -6.3940 -2.0016 0.9710
-2.7864 -6.4981 -2.0016 0.9710
-1.8279 -6.8300 -2.0016 0.9710
-1.3333 -6.9435 -2.0016 0.9710
-0.5793 -7.0466 -2.0016 0.9710
-0.3260 -7.0628 -2.0016 0.9710
0.1814 -7.0680 -2.0016 0.9710
0.9400 -7.0076 -2.0016 0.9710
1.1909 -6.9693 -2.0016 0.9710
2.1758 -6.7272 -2.0016 0.9710
2.4159 -6.6448 -2.0016 0.9710
2.8863 -6.4544 -2.0016 0.9710
3.7801 -5.9750 -2.0016 0.9710
4.1989 -5.6885 -2.0016 0.9710
4.9697 -5.0291 -2.0016 0.9710
5.1469 -4.8475 -2.0016 0.9710
5.3176 -4.6597 -2.0016 0.9710
5.7876 -4.0612 -2.0016 0.9710
5.9296 -3.8509 -2.0016 0.9710
6.4196 -2.9628 -2.0016 0.9710
6.5218 -2.7305 -2.0016 0.9710
6.7009 -2.2557 -2.0016 0.9710
6.8454 -1.7692 -2.0016 0.9710
6.9547 -1.2737 -2.0016 0.9710
6.9959 -1.0232 -2.0016 0.9710
7.0513 -0.5188 -2.0016 0.9710
7.0703 -0.0117 -2.0016 0.9710
7.0662 0.2420 -2.0016 0.9710
7.0306 0.7483 -2.0016 0.9710
6.9588 1.2506 -2.0016 0.9710
6.9095 1.4996 -2.0016 0.9710
6.7083 2.2335 -2.0016 0.9710
6.6238 2.4728 -2.0016 0.9710
6.5308 2.7089 -2.0016 0.9710
6.2018 3.3951 -2.0016 0.9710
6.0760 3.6155 -2.0016 0.9710
5.8010 4.0420 -2.0016 0.9710
5.4962 4.4477 -2.0016 0.9710
5.3330 4.6421 -2.0016 0.9710
5.1630 4.8305 -2.0016 0.9710
4.9863 5.0126 -2.0016 0.9710
4.8032 5.1883 -2.0016 0.9710
4.6139 5.3574 -2.0016 0.9710
4.0114 5.8222 -2.0016 0.9710
3.7999 5.9624 -2.0016 0.9710
3.5834 6.0950 -2.0016 0.9710
2.4378 6.6368 -2.0016 0.9710
2.1981 6.7200 -2.0016 0.9710
1.7104 6.8603 -2.0016 0.9710
1.4631 6.9173 -2.0016 0.9710
0.7112 7.0345 -2.0016 0.9710
-0.5560 7.0484 -2.0016 0.9710
-0.8086 7.0240 -2.0016 0.9710
-1.3103 6.9479 -2.0016 0.9710
-2.0494 6.7668 -2.0016 0.9710
-2.2909 6.6889 -2.0016 0.9710
-2.5295 6.6024 -2.0016 0.9710
-2.7648 6.5073 -2.0016 0.9710
-2.9966 6.4039 -2.0016 0.9710
-3.6675 6.0448 -2.0016 0.9710
-4.2959 5.6156 -2.0016 0.9710
-4.4947 5.4578 -2.0016 0.9710
-5.2294 4.7585 -2.0016 0.9710
-5.8564 3.9613 -2.0016 0.9710
-6.2483 3.3089 -2.0016 0.9710
-6.3630 3.0825 -2.0016 0.9710
-6.4695 2.8522 -2.0016 0.9710
-6.5677 2.6182 -2.0016 0.9710
-6.8110 1.8972 -2.0016 0.9710
-6.9296 1.4037 -2.0016 0.9710
-7.0124 0.9031 -2.0016 0.9710
-7.0610 -0.3632 -2.0016 0.9710
-6.9810 -1.1200 -2.0016 0.9710
-6.9364 -1.3698 -2.0016 0.9710
-6.8827 -1.6179 -2.0016 0.9710
-6.8202 -1.8638 -2.0016 0.9710
-6.7490 -2.1074 -2.0016 0.9710
-6.1051 -2.3993 -1.8570 0.9731
-5.8119 -3.0415 -1.8570 0.9731
-5.6990 -3.2481 -1.8570 0.9731
-5.5787 -3.4506 -1.8570 0.9731
-5.1756 -4.0302 -1.8570 0.9731
-4.8731 -4.3910 -1.8570 0.9731
-4.7124 -4.5631 -1.8570 0.9731
-4.5456 -4.7292 -1.8570 0.9731
-4.0110 -5.1904 -1.8570 0.9731
-3.8222 -5.3310 -1.8570 0.9731
-3.6284 -5.4647 -1.8570 0.9731
-3.2552 -6.2764 -2.0016 0.9710
-2.7966 -6.4937 -2.0016 0.9710
-2.0825 -6.7567 -2.0016 0.9710
-1.8387 -6.8271 -2.0016 0.9710
0.1703 -7.0683 -2.0016 0.9710
0.6768 -7.0379 -2.0016 0.9710
1.1799 -6.9712 -2.0016 0.9710
1.4293 -6.9243 -2.0016 0.9710
1.6769 -6.8686 -2.0016 0.9710
2.1652 -6.7306 -2.0016 0.9710
2.6424 -6.5580 -2.0016 0.9710
2.1894 -4.0976 -1.3152 0.9809
3.7707 -5.9809 -2.0016 0.9710
3.9829 -5.8418 -2.0016 0.9710
4.1900 -5.6951 -2.0016 0.9710
4.3916 -5.5410 -2.0016 0.9710
4.5877 -5.3799 -2.0016 0.9710
4.7778 -5.2118 -2.0016 0.9710
4.9617 -5.0369 -2.0016 0.9710
5.4743 -4.4745 -2.0016 0.9710
5.7812 -4.0703 -2.0016 0.9710
6.0583 -3.6451 -2.0016 0.9710
6.1852 -3.4254 -2.0016 0.9710
6.5175 -2.7408 -2.0016 0.9710
6.6117 -2.5051 -2.0016 0.9710
6.9021 -1.5333 -2.0016 0.9710
6.9527 -1.2846 -2.0016 0.9710
7.0504 -0.5299 -2.0016 0.9710
7.0649 -0.2766 -2.0016 0.9710
7.0703 -0.0229 -2.0016 0.9710
7.0666 0.2309 -2.0016 0.9710
7.0537 0.4844 -2.0016 0.9710
6.9608 1.2397 -2.0016 0.9710
6.8540 1.7358 -2.0016 0.9710
6.7118 2.2229 -2.0016 0.9710
6.6277 2.4623 -2.0016 0.9710
6.5351 2.6986 -2.0016 0.9710
6.4340 2.9314 -2.0016 0.9710
6.2072 3.3853 -2.0016 0.9710
6.0817 3.6059 -2.0016 0.9710
5.9484 3.8218 -2.0016 0.9710
5.8074 4.0329 -2.0016 0.9710
5.6589 4.2387 -2.0016 0.9710
5.1706 4.8223 -2.0016 0.9710
4.4274 5.5125 -2.0016 0.9710
4.2267 5.6679 -2.0016 0.9710
4.0206 5.8159 -2.0016 0.9710
3.5930 6.0893 -2.0016 0.9710
2.9178 6.4402 -2.0016 0.9710
2.4483 6.6329 -2.0016 0.9710
1.4740 6.9150 -2.0016 0.9710
1.2249 6.9634 -2.0016 0.9710
0.4694 7.0547 -2.0016 0.9710
-0.0378 7.0702 -2.0016 0.9710
-0.5448 7.0493 -2.0016 0.9710
-0.7975 7.0252 -2.0016 0.9710
-1.2993 6.9499 -2.0016 0.9710
-1.5479 6.8988 -2.0016 0.9710
-2.0388 6.7700 -2.0016 0.9710
-2.7546 6.5117 -2.0016 0.9710
-2.9865 6.4086 -2.0016 0.9710
-6.5065 -0.1111 -2.0016 0.9731
-6.4983 -0.3446 -2.0016 0.9731
-6.4569 -0.8098 -2.0016 0.9731
-6.4237 -1.0410 -2.0016 0.9731
-6.3325 -1.4991 -2.0016 0.9731
-6.2746 -1.7254 -2.0016 0.9731
-6.2086 -1.9494 -2.0016 0.9731
-6.1347 -2.1710 -2.0016 0.9731
-5.5324 -2.4172 -1.8570 0.9751
-5.4421 -2.6142 -1.8570 0.9751
-5.1296 -3.1840 -1.8570 0.9751
-4.8880 -3.5437 -1.8570 0.9751
-4.6212 -3.8852 -1.8570 0.9751
-4.1769 -4.3594 -1.8570 0.9751
-4.0178 -4.5064 -1.8570 0.9751
-3.6842 -4.7830 -1.8570 0.9751
-3.5102 -4.9122 -1.8570 0.9751
-3.3316 -5.0350 -1.8570 0.9751
-2.9619 -5.2610 -1.8570 0.9751
-2.7712 -5.3639 -1.8570 0.9751
-2.5769 -5.4599 -1.8570 0.9751
-2.1289 -6.1494 -2.0016 0.9731
-1.6824 -6.2862 -2.0016 0.9731
-0.9970 -6.4307 -2.0016 0.9731
-0.3001 -6.5006 -2.0016 0.9731
0.1670 -6.5053 -2.0016 0.9731
0.6332 -6.4766 -2.0016 0.9731
0.8652 -6.4497 -2.0016 0.9731
1.5534 -6.3194 -2.0016 0.9731
1.7791 -6.2595 -2.0016 0.9731
2.0805 -4.2374 -1.4520 0.9804
2.1900 -4.0832 -1.4251 0.9808
2.3807 -4.0801 -1.4529 0.9804
3.4792 -5.4993 -2.0016 0.9731
3.8647 -5.2356 -2.0016 0.9731
4.2303 -4.9449 -2.0016 0.9731
4.7372 -4.4616 -2.0016 0.9731
4.8943 -4.2887 -2.0016 0.9731
5.3269 -3.7379 -2.0016 0.9731
5.4576 -3.5443 -2.0016 0.9731
5.6977 -3.1437 -2.0016 0.9731
5.8069 -2.9372 -2.0016 0.9731
6.0026 -2.5131 -2.0016 0.9731
6.0889 -2.2961 -2.0016 0.9731
6.1674 -2.0761 -2.0016 0.9731
6.4010 -1.1723 -2.0016 0.9731
6.4390 -0.9418 -2.0016 0.9731
6.4686 -0.7101 -2.0016 0.9731
6.4899 -0.4775 -2.0016 0.9731
6.5029 -0.2443 -2.0016 0.9731
6.5075 -0.0108 -2.0016 0.9731
6.4915 0.4560 -2.0016 0.9731
6.4709 0.6887 -2.0016 0.9731
6.4049 1.1511 -2.0016 0.9731
6.3594 1.3802 -2.0016 0.9731
6.3058 1.6075 -2.0016 0.9731
6.0965 2.2759 -2.0016 0.9731
6.0109 2.4932 -2.0016 0.9731
5.9176 2.7074 -2.0016 0.9731
5.3392 3.7202 -2.0016 0.9731
5.2023 3.9094 -2.0016 0.9731
4.5893 4.6136 -2.0016 0.9731
4.4208 4.7753 -2.0016 0.9731
4.0669 5.0801 -2.0016 0.9731
3.8820 5.2228 -2.0016 0.9731
3.4974 5.4878 -2.0016 0.9731
3.2982 5.6098 -2.0016 0.9731
3.0947 5.7245 -2.0016 0.9731
2.6761 5.9317 -2.0016 0.9731
2.2438 6.1084 -2.0016 0.9731
2.0231 6.1850 -2.0016 0.9731
1.7998 6.2536 -2.0016 0.9731
0.6546 6.4745 -2.0016 0.9731
0.1885 6.5048 -2.0016 0.9731
-0.5117 6.4873 -2.0016 0.9731
-0.7442 6.4648 -2.0016 0.9731
-0.9757 6.4339 -2.0016 0.9731
-1.2060 6.3948 -2.0016 0.9731
-1.8863 6.2281 -2.0016 0.9731
-2.1086 6.1564 -2.0016 0.9731
-2.5447 5.9893 -2.0016 0.9731
-3.3755 5.5635 -2.0016 0.9731
-3.5730 5.4388 -2.0016 0.9731
-3.7659 5.3071 -2.0016 0.9731
-4.1369 5.0233 -2.0016 0.9731
-4.9671 4.2041 -2.0016 0.9731
-5.3902 3.6459 -2.0016 0.9731
-5.6379 3.2499 -2.0016 0.9731
-5.8564 2.8371 -2.0016 0.9731
-5.9545 2.6251 -2.0016 0.9731
-6.0449 2.4098 -2.0016 0.9731
-6.2021 1.9700 -2.0016 0.9731
-6.3275 1.5200 -2.0016 0.9731
-6.3779 1.2920 -2.0016 0.9731
-6.4202 1.0623 -2.0016 0.9731
-6.4542 0.8312 -2.0016 0.9731
-6.4798 0.5990 -2.0016 0.9731
-6.4972 0.3661 -2.0016 0.9731
-6.5067 -0.1009 -2.0016 0.9731
-6.4989 -0.3343 -2.0016 0.9731
-6.4827 -0.5673 -2.0016 0.9731
-6.4253 -1.0309 -2.0016 0.9731
-6.3842 -1.2608 -2.0016 0.9731
-6.3348 -1.4891 -2.0016 0.9731
-6.2117 -1.9396 -2.0016 0.9731
-6.1381 -2.1613 -2.0016 0.9731
-5.6965 -2.2387 -1.8826 0.9747
-5.3492 -2.7994 -1.8570 0.9751
-5.2453 -2.9896 -1.8570 0.9751
-4.8936 -3.5360 -1.8570 0.9751
-4.7635 -3.7093 -1.8570 0.9751
-4.6274 -3.8779 -1.8570 0.9751
-4.4852 -4.0415 -1.8570 0.9751
-4.1838 -4.3528 -1.8570 0.9751
-4.0249 -4.5001 -1.8570 0.9751
-3.8608 -4.6416 -1.8570 0.9751
-3.5179 -4.9066 -1.8570 0.9751
-3.1569 -5.1463 -1.8570 0.9751
-2.7796 -5.3595 -1.8570 0.9751
-2.3885 -5.5461 -1.8573 0.9750
-2.1875 -5.6272 -1.8570 0.9751
-1.9167 -6.2188 -2.0016 0.9731
-1.6923 -6.2836 -2.0016 0.9731
-1.4657 -6.3403 -2.0016 0.9731
-1.2372 -6.3888 -2.0016 0.9731
-1.0071 -6.4291 -2.0016 0.9731
-0.7758 -6.4611 -2.0016 0.9731
-0.3103 -6.5001 -2.0016 0.9731
-0.0769 -6.5070 -2.0016 0.9731
0.1567 -6.5056 -2.0016 0.9731
0.6229 -6.4776 -2.0016 0.9731
1.3155 -6.3731 -2.0016 0.9731
1.5434 -6.3218 -2.0016 0.9731
1.9929 -6.1948 -2.0016 0.9731
2.2139 -6.1193 -2.0016 0.9731
2.4559 -5.5153 -1.8570 0.9751
2.1818 -4.0833 -1.4240 0.9808
2.3721 -4.0802 -1.4517 0.9804
3.4705 -5.5048 -2.0016 0.9731
3.6658 -5.3767 -2.0016 0.9731
3.8564 -5.2417 -2.0016 0.9731
4.0420 -5.0999 -2.0016 0.9731
4.5667 -4.6360 -2.0016 0.9731
4.7302 -4.4691 -2.0016 0.9731
5.0385 -4.1183 -2.0016 0.9731
5.4520 -3.5529 -2.0016 0.9731
5.5760 -3.3550 -2.0016 0.9731
5.8023 -2.9464 -2.0016 0.9731
5.9043 -2.7362 -2.0016 0.9731
