ply
format ascii 1.0
element vertex 1595
property float32 x
property float32 y
property float32 z
property float32 I
end_header
1.6746 6.8692 -2.0016 0.9710
0.1656 7.0684 -2.0016 0.9710
-0.0886 7.0698 -2.0016 0.9710
-0.5962 7.0451 -2.0016 0.9710
-1.1008 6.9841 -2.0016 0.9710
-1.8462 6.8251 -2.0016 0.9710
-2.0903 6.7543 -2.0016 0.9710
-3.0366 6.3850 -2.0016 0.9710
-3.4874 6.1504 -2.0016 0.9710
-3.7063 6.0211 -2.0016 0.9710
-4.1292 5.7393 -2.0016 0.9710
-4.5308 5.4278 -2.0016 0.9710
-4.9090 5.0883 -2.0016 0.9710
-5.0888 4.9086 -2.0016 0.9710
-5.2619 4.7225 -2.0016 0.9710
-5.4282 4.5303 -2.0016 0.9710
-5.7396 4.1287 -2.0016 0.9710
-6.0214 3.7057 -2.0016 0.9710
-6.1507 3.4869 -2.0016 0.9710
-6.3853 3.0360 -2.0016 0.9710
-6.5869 2.5695 -2.0016 0.9710
-6.6750 2.3311 -2.0016 0.9710
-6.7545 2.0896 -2.0016 0.9710
-6.8871 1.5990 -2.0016 0.9710
-7.0192 0.8484 -2.0016 0.9710
-7.0452 0.5956 -2.0016 0.9710
-7.0621 0.3420 -2.0016 0.9710
-7.0698 0.0879 -2.0016 0.9710
-7.0684 -0.1662 -2.0016 0.9710
-7.0578 -0.4202 -2.0016 0.9710
-7.0094 -0.9261 -2.0016 0.9710
-6.8690 -1.6752 -2.0016 0.9710
-6.7309 -2.1644 -2.0016 0.9710
-5.9923 -2.6685 -1.8570 0.9731
-5.8925 -2.8822 -1.8570 0.9731
-5.6702 -3.2980 -1.8570 0.9731
-5.5480 -3.4997 -1.8570 0.9731
-5.4187 -3.6969 -1.8570 0.9731
-4.9892 -4.2586 -1.8570 0.9731
-4.3275 -4.9297 -1.8570 0.9731
-3.9622 -5.2278 -1.8570 0.9731
-2.9657 -6.4183 -2.0016 0.9710
-2.7331 -6.5207 -2.0016 0.9710
-2.0153 -6.7770 -2.0016 0.9710
-1.5232 -6.9043 -2.0016 0.9710
-1.2741 -6.9546 -2.0016 0.9710
-0.7712 -7.0281 -2.0016 0.9710
-0.5181 -7.0513 -2.0016 0.9710
-0.2643 -7.0654 -2.0016 0.9710
0.2439 -7.0661 -2.0016 0.9710
0.4977 -7.0528 -2.0016 0.9710
0.7509 -7.0303 -2.0016 0.9710
1.0031 -6.9988 -2.0016 0.9710
1.7506 -6.8502 -2.0016 0.9710
1.9957 -6.7828 -2.0016 0.9710
2.2382 -6.7067 -2.0016 0.9710
2.7142 -6.5286 -2.0016 0.9710
2.9471 -6.4268 -2.0016 0.9710
2.0977 -4.1719 -1.3219 0.9808
2.2479 -4.0968 -1.3229 0.9808
2.4527 -4.1123 -1.3555 0.9803
4.4545 -5.4906 -2.0016 0.9710
5.0197 -4.9792 -2.0016 0.9710
5.8290 -4.0016 -2.0016 0.9710
5.9690 -3.7895 -2.0016 0.9710
6.2258 -3.3509 -2.0016 0.9710
6.3423 -3.1249 -2.0016 0.9710
6.4505 -2.8950 -2.0016 0.9710
6.6418 -2.4241 -2.0016 0.9710
6.7246 -2.1838 -2.0016 0.9710
6.7988 -1.9407 -2.0016 0.9710
6.9206 -1.4473 -2.0016 0.9710
6.9682 -1.1976 -2.0016 0.9710
7.0362 -0.6939 -2.0016 0.9710
7.0700 0.0675 -2.0016 0.9710
7.0630 0.3215 -2.0016 0.9710
7.0469 0.5752 -2.0016 0.9710
7.0217 0.8281 -2.0016 0.9710
6.9440 1.3304 -2.0016 0.9710
6.5943 2.5504 -2.0016 0.9710
6.3941 3.0175 -2.0016 0.9710
6.2815 3.2454 -2.0016 0.9710
6.0321 3.6883 -2.0016 0.9710
5.4413 4.5146 -2.0016 0.9710
5.1029 4.8938 -2.0016 0.9710
4.7382 5.2478 -2.0016 0.9710
4.1458 5.7273 -2.0016 0.9710
3.9373 5.8726 -2.0016 0.9710
3.7237 6.0103 -2.0016 0.9710
3.5052 6.1403 -2.0016 0.9710
3.0551 6.3762 -2.0016 0.9710
2.5891 6.5792 -2.0016 0.9710
2.1098 6.7482 -2.0016 0.9710
1.6196 6.8823 -2.0016 0.9710
1.3712 6.9361 -2.0016 0.9710
1.1210 6.9809 -2.0016 0.9710
0.6166 7.0434 -2.0016 0.9710
0.1090 7.0695 -2.0016 0.9710
-0.6526 7.0401 -2.0016 0.9710
-0.9052 7.0122 -2.0016 0.9710
-1.1566 6.9751 -2.0016 0.9710
-3.7581 5.3126 -2.0016 0.9731
-3.9466 5.1741 -2.0016 0.9731
-5.1107 4.0284 -2.0016 0.9731
-5.2522 3.8421 -2.0016 0.9731
-5.5146 3.4549 -2.0016 0.9731
-5.6352 3.2545 -2.0016 0.9731
-5.7485 3.0498 -2.0016 0.9731
-5.8544 2.8412 -2.0016 0.9731
-5.9528 2.6290 -2.0016 0.9731
-6.0434 2.4133 -2.0016 0.9731
-6.1263 2.1946 -2.0016 0.9731
-6.2681 1.7488 -2.0016 0.9731
-6.3775 1.2940 -2.0016 0.9731
-6.4540 0.8325 -2.0016 0.9731
-6.4971 0.3667 -2.0016 0.9731
-6.5061 0.1330 -2.0016 0.9731
-6.5067 -0.1010 -2.0016 0.9731
-6.4580 -0.8007 -2.0016 0.9731
-6.4251 -1.0323 -2.0016 0.9731
-6.3838 -1.2626 -2.0016 0.9731
-6.2766 -1.7179 -2.0016 0.9731
-6.2108 -1.9424 -2.0016 0.9731
-6.1370 -2.1644 -2.0016 0.9731
-5.5347 -2.4119 -1.8570 0.9751
-5.4445 -2.6093 -1.8570 0.9751
-5.3472 -2.8033 -1.8570 0.9751
-5.2430 -2.9936 -1.8570 0.9751
-4.8903 -3.5406 -1.8570 0.9751
-4.7598 -3.7141 -1.8570 0.9751
-4.6233 -3.8827 -1.8570 0.9751
-4.3324 -4.2048 -1.8570 0.9751
-2.7708 -5.3641 -1.8570 0.9751
-2.5762 -5.4602 -1.8570 0.9751
-2.1773 -5.6312 -1.8570 0.9751
-1.9047 -6.2225 -2.0016 0.9731
-0.9933 -6.4312 -2.0016 0.9731
-0.5288 -6.4860 -2.0016 0.9731
0.1724 -6.5052 -2.0016 0.9731
0.4061 -6.4948 -2.0016 0.9731
0.6393 -6.4760 -2.0016 0.9731
1.1029 -6.4133 -2.0016 0.9731
1.7868 -6.2574 -2.0016 0.9731
2.2730 -5.5932 -1.8570 0.9751
2.4726 -5.5079 -1.8570 0.9751
2.0810 -4.2226 -1.4479 0.9805
2.3894 -4.0799 -1.4543 0.9804
4.0594 -5.0861 -2.0016 0.9731
4.4143 -4.7814 -2.0016 0.9731
4.5833 -4.6196 -2.0016 0.9731
4.7463 -4.4519 -2.0016 0.9731
4.9033 -4.2785 -2.0016 0.9731
5.1980 -3.9152 -2.0016 0.9731
5.3353 -3.7258 -2.0016 0.9731
5.4658 -3.5316 -2.0016 0.9731
5.5892 -3.3329 -2.0016 0.9731
5.7054 -3.1299 -2.0016 0.9731
6.0091 -2.4976 -2.0016 0.9731
6.0950 -2.2800 -2.0016 0.9731
6.1730 -2.0594 -2.0016 0.9731
6.2430 -1.8362 -2.0016 0.9731
6.3588 -1.3830 -2.0016 0.9731
6.4044 -1.1536 -2.0016 0.9731
6.4417 -0.9226 -2.0016 0.9731
6.4707 -0.6905 -2.0016 0.9731
6.5036 -0.2239 -2.0016 0.9731
6.5075 0.0100 -2.0016 0.9731
6.4686 0.7104 -2.0016 0.9731
6.4389 0.9425 -2.0016 0.9731
6.4008 1.1733 -2.0016 0.9731
6.3545 1.4026 -2.0016 0.9731
6.3000 1.6301 -2.0016 0.9731
6.2374 1.8554 -2.0016 0.9731
6.1666 2.0784 -2.0016 0.9731
6.0880 2.2987 -2.0016 0.9731
6.0014 2.5161 -2.0016 0.9731
5.9071 2.7301 -2.0016 0.9731
5.5789 3.3501 -2.0016 0.9731
5.1859 3.9312 -2.0016 0.9731
4.8901 4.2935 -2.0016 0.9731
4.5690 4.6337 -2.0016 0.9731
4.3995 4.7950 -2.0016 0.9731
3.8578 5.2407 -2.0016 0.9731
3.2713 5.6255 -2.0016 0.9731
3.0670 5.7394 -2.0016 0.9731
2.6468 5.9449 -2.0016 0.9731
2.2129 6.1197 -2.0016 0.9731
1.9915 6.1953 -2.0016 0.9731
1.3130 6.3736 -2.0016 0.9731
1.0831 6.4167 -2.0016 0.9731
0.8518 6.4515 -2.0016 0.9731
0.1524 6.5057 -2.0016 0.9731
-0.0815 6.5070 -2.0016 0.9731
-0.3154 6.4998 -2.0016 0.9731
-0.5488 6.4843 -2.0016 0.9731
-1.4723 6.3387 -2.0016 0.9731
-1.6992 6.2817 -2.0016 0.9731
-1.9239 6.2166 -2.0016 0.9731
-2.3655 6.0623 -2.0016 0.9731
-3.0043 5.7725 -2.0016 0.9731
-3.4112 5.5417 -2.0016 0.9731
-3.8005 5.2824 -2.0016 0.9731
-4.9961 4.1697 -2.0016 0.9731
-5.4159 3.6077 -2.0016 0.9731
-5.5421 3.4107 -2.0016 0.9731
-5.7728 3.0037 -2.0016 0.9731
-6.1436 2.1455 -2.0016 0.9731
-6.2819 1.6986 -2.0016 0.9731
-6.3877 1.2429 -2.0016 0.9731
-6.4999 0.3147 -2.0016 0.9731
-6.5070 0.0809 -2.0016 0.9731
-6.4514 -0.8524 -2.0016 0.9731
-6.3222 -1.5419 -2.0016 0.9731
-6.1951 -1.9921 -2.0016 0.9731
-6.1195 -2.2134 -2.0016 0.9731
-5.6000 -2.2563 -1.8570 0.9751
-5.5153 -2.4561 -1.8570 0.9751
-4.8618 -3.5796 -1.8570 0.9751
-4.7300 -3.7520 -1.8570 0.9751
-4.5921 -3.9196 -1.8570 0.9751
-4.1435 -4.3911 -1.8570 0.9751
-3.9830 -4.5372 -1.8570 0.9751
-3.8173 -4.6774 -1.8570 0.9751
-3.6467 -4.8116 -1.8570 0.9751
-3.2917 -5.0612 -1.8570 0.9751
-3.1076 -5.1762 -1.8570 0.9751
-2.9196 -5.2846 -1.8570 0.9751
-2.3338 -5.5681 -1.8570 0.9751
-2.1322 -5.6484 -1.8570 0.9751
-2.0778 -6.1668 -2.0016 0.9731
-1.8549 -6.2375 -2.0016 0.9731
-1.4020 -6.3547 -2.0016 0.9731
-1.1727 -6.4009 -2.0016 0.9731
-0.9419 -6.4390 -2.0016 0.9731
-0.7098 -6.4687 -2.0016 0.9731
-0.4769 -6.4900 -2.0016 0.9731
-0.2433 -6.5029 -2.0016 0.9731
-0.0094 -6.5075 -2.0016 0.9731
0.6911 -6.4707 -2.0016 0.9731
1.1542 -6.4043 -2.0016 0.9731
2.0600 -6.1728 -2.0016 0.9731
2.3177 -5.5748 -1.8570 0.9751
2.5165 -5.4879 -1.8570 0.9751
2.2400 -4.0824 -1.4323 0.9807
2.4348 -4.0823 -1.4620 0.9803
3.7263 -5.3350 -2.0016 0.9731
4.0999 -5.0535 -2.0016 0.9731
4.2789 -4.9029 -2.0016 0.9731
4.7818 -4.4138 -2.0016 0.9731
5.0865 -4.0589 -2.0016 0.9731
5.4939 -3.4878 -2.0016 0.9731
5.6157 -3.2881 -2.0016 0.9731
5.8374 -2.8762 -2.0016 0.9731
5.9370 -2.6645 -2.0016 0.9731
6.0289 -2.4494 -2.0016 0.9731
6.1130 -2.2311 -2.0016 0.9731
6.1893 -2.0100 -2.0016 0.9731
6.3177 -1.5602 -2.0016 0.9731
6.3697 -1.3321 -2.0016 0.9731
6.4761 -0.6387 -2.0016 0.9731
6.5052 -0.1718 -2.0016 0.9731
6.5072 0.0621 -2.0016 0.9731
6.4859 0.5294 -2.0016 0.9731
6.3431 1.4534 -2.0016 0.9731
6.2868 1.6804 -2.0016 0.9731
6.2223 1.9053 -2.0016 0.9731
6.0694 2.3474 -2.0016 0.9731
5.9811 2.5640 -2.0016 0.9731
5.4263 3.5920 -2.0016 0.9731
5.0081 4.1552 -2.0016 0.9731
4.5318 4.6701 -2.0016 0.9731
4.1846 4.9836 -2.0016 0.9731
3.8158 5.2714 -2.0016 0.9731
3.6238 5.4051 -2.0016 0.9731
3.2262 5.6515 -2.0016 0.9731
3.0210 5.7638 -2.0016 0.9731
2.5991 5.9659 -2.0016 0.9731
2.1638 6.1372 -2.0016 0.9731
1.9419 6.2110 -2.0016 0.9731
1.2620 6.3839 -2.0016 0.9731
0.3342 6.4989 -2.0016 0.9731
0.1003 6.5067 -2.0016 0.9731
-0.1336 6.5061 -2.0016 0.9731
-0.6006 6.4797 -2.0016 0.9731
-0.8331 6.4539 -2.0016 0.9731
-3.2985 5.0376 -2.0016 0.9749
-3.4774 4.9158 -2.0016 0.9749
-3.6519 4.7877 -2.0016 0.9749
-3.8216 4.6533 -2.0016 0.9749
-3.9864 4.5130 -2.0016 0.9749
-4.1460 4.3668 -2.0016 0.9749
-4.5919 3.8951 -2.0016 0.9749
-4.8599 3.5552 -2.0016 0.9749
-5.2143 3.0114 -2.0016 0.9749
-5.4172 2.6290 -2.0016 0.9749
-5.5082 2.4326 -2.0016 0.9749
-5.6687 2.0307 -2.0016 0.9749
-5.7380 1.8256 -2.0016 0.9749
-5.8543 1.4087 -2.0016 0.9749
-5.9404 0.9845 -2.0016 0.9749
-6.0207 -0.0934 -2.0016 0.9749
-5.9070 -1.1683 -2.0016 0.9749
-5.8078 -1.5896 -2.0016 0.9749
-5.7469 -1.7974 -2.0016 0.9749
-5.6786 -2.0027 -2.0016 0.9749
-5.6030 -2.2055 -2.0016 0.9749
-5.0378 -2.4144 -1.8570 0.9767
-4.5250 -3.2761 -1.8570 0.9767
-4.4043 -3.4367 -1.8570 0.9767
-4.1461 -3.7442 -1.8570 0.9767
-3.8664 -4.0324 -1.8570 0.9767
-3.7190 -4.1687 -1.8570 0.9767
-3.5667 -4.2997 -1.8570 0.9767
-2.5638 -4.9634 -1.8570 0.9767
-2.3838 -5.0524 -1.8570 0.9767
-2.2006 -5.1348 -1.8570 0.9767
-2.0147 -5.2106 -1.8570 0.9767
-1.8261 -5.2796 -1.8570 0.9767
-1.4421 -5.3972 -1.8570 0.9767
-1.2472 -5.4455 -1.8570 0.9767
-1.0506 -5.4868 -1.8570 0.9767
-0.6538 -5.5481 -1.8570 0.9767
-0.4539 -5.5680 -1.8570 0.9767
-0.2535 -5.5807 -1.8570 0.9767
0.1480 -5.5845 -1.8570 0.9767
0.3487 -5.5756 -1.8570 0.9767
0.5488 -5.5595 -1.8570 0.9767
0.7493 -5.5438 -1.8596 0.9767
1.1441 -5.4681 -1.8570 0.9767
1.7260 -5.3132 -1.8570 0.9767
1.9159 -5.2477 -1.8570 0.9767
2.1032 -5.1755 -1.8570 0.9767
2.2879 -5.0965 -1.8570 0.9767
2.1903 -4.0686 -1.5360 0.9807
2.3808 -4.0652 -1.5660 0.9803
2.9946 -4.7161 -1.8570 0.9767
3.3280 -4.4920 -1.8583 0.9767
3.4848 -4.3663 -1.8570 0.9767
4.2409 -4.2746 -2.0016 0.9749
4.6764 -3.7933 -2.0016 0.9749
5.0575 -3.2679 -2.0016 0.9749
5.1717 -3.0840 -2.0016 0.9749
5.3799 -2.7045 -2.0016 0.9749
5.5603 -2.3110 -2.0016 0.9749
5.6398 -2.1097 -2.0016 0.9749
5.7120 -1.9056 -2.0016 0.9749
5.7768 -1.6991 -2.0016 0.9749
5.9261 -1.0674 -2.0016 0.9749
5.9606 -0.8537 -2.0016 0.9749
5.9875 -0.6389 -2.0016 0.9749
6.0179 -0.2072 -2.0016 0.9749
6.0052 0.4418 -2.0016 0.9749
5.9854 0.6574 -2.0016 0.9749
5.9228 1.0857 -2.0016 0.9749
5.6332 2.1270 -2.0016 0.9749
5.4659 2.5262 -2.0016 0.9749
5.1622 3.0999 -2.0016 0.9749
4.9262 3.4627 -2.0016 0.9749
4.5248 3.9729 -2.0016 0.9749
4.2278 4.2876 -2.0016 0.9749
3.9088 4.5803 -2.0016 0.9749
3.2121 5.0932 -2.0016 0.9749
3.0270 5.2053 -2.0016 0.9749
2.8379 5.3107 -2.0016 0.9749
2.6452 5.4093 -2.0016 0.9749
2.4491 5.5009 -2.0016 0.9749
2.2498 5.5854 -2.0016 0.9749
2.0476 5.6626 -2.0016 0.9749
1.8427 5.7325 -2.0016 0.9749
1.6355 5.7951 -2.0016 0.9749
1.0022 5.9374 -2.0016 0.9749
0.5731 5.9941 -2.0016 0.9749
-0.5078 6.0000 -2.0016 0.9749
-0.7231 5.9779 -2.0016 0.9749
-0.9375 5.9480 -2.0016 0.9749
-1.1507 5.9105 -2.0016 0.9749
-1.3623 5.8653 -2.0016 0.9749
-1.5723 5.8125 -2.0016 0.9749
-1.7802 5.7523 -2.0016 0.9749
-1.9858 5.6846 -2.0016 0.9749
-2.1888 5.6095 -2.0016 0.9749
-2.9701 5.2380 -2.0016 0.9749
-3.1564 5.1278 -2.0016 0.9749
-3.3387 5.0111 -2.0016 0.9749
-3.8587 4.6226 -2.0016 0.9749
-4.0223 4.4809 -2.0016 0.9749
-4.4813 4.0219 -2.0016 0.9749
-4.6229 3.8582 -2.0016 0.9749
-4.7586 3.6896 -2.0016 0.9749
-4.8882 3.5162 -2.0016 0.9749
-5.1281 3.1559 -2.0016 0.9749
-5.3416 2.7794 -2.0016 0.9749
-5.4380 2.5856 -2.0016 0.9749
-5.5275 2.3885 -2.0016 0.9749
-5.6097 2.1883 -2.0016 0.9749
-5.6848 1.9852 -2.0016 0.9749
-5.7524 1.7796 -2.0016 0.9749
-5.8127 1.5717 -2.0016 0.9749
-5.9106 1.1501 -2.0016 0.9749
-5.9481 0.9369 -2.0016 0.9749
-6.0000 0.5072 -2.0016 0.9749
-6.0210 0.0749 -2.0016 0.9749
-6.0198 -0.1416 -2.0016 0.9749
-5.9941 -0.5737 -2.0016 0.9749
-5.9374 -1.0028 -2.0016 0.9749
-5.7949 -1.6361 -2.0016 0.9749
-5.7324 -1.8433 -2.0016 0.9749
-5.6624 -2.0481 -2.0016 0.9749
-5.5134 -2.2214 -1.9759 0.9753
-5.1033 -2.2727 -1.8570 0.9767
-4.9269 -2.6334 -1.8570 0.9767
-4.7250 -2.9805 -1.8570 0.9767
-4.3767 -3.4718 -1.8570 0.9767
-4.2491 -3.6269 -1.8570 0.9767
-4.1160 -3.7772 -1.8570 0.9767
-3.9776 -3.9227 -1.8570 0.9767
-3.6855 -4.1983 -1.8570 0.9767
-3.3744 -4.4522 -1.8570 0.9767
-3.2122 -4.5706 -1.8570 0.9767
-3.0458 -4.6831 -1.8570 0.9767
-2.7015 -4.8899 -1.8570 0.9767
-1.9729 -5.2265 -1.8570 0.9767
-1.3989 -5.4085 -1.8570 0.9767
-1.2036 -5.4553 -1.8570 0.9767
-0.6094 -5.5532 -1.8570 0.9767
-0.4094 -5.5715 -1.8570 0.9767
-0.0081 -5.5865 -1.8570 0.9767
0.5933 -5.5549 -1.8570 0.9767
0.7926 -5.5300 -1.8570 0.9767
0.9908 -5.4979 -1.8570 0.9767
1.1878 -5.4588 -1.8570 0.9767
1.3832 -5.4125 -1.8570 0.9767
2.0525 -4.4759 -1.6368 0.9795
3.0323 -4.6919 -1.8570 0.9767
3.3615 -4.4620 -1.8570 0.9767
3.9593 -4.5367 -2.0016 0.9749
4.5686 -3.9225 -2.0016 0.9749
4.8386 -3.5841 -2.0016 0.9749
4.9643 -3.4079 -2.0016 0.9749
5.1963 -3.0425 -2.0016 0.9749
5.3022 -2.8538 -2.0016 0.9749
5.4014 -2.6613 -2.0016 0.9749
5.5786 -2.2665 -2.0016 0.9749
5.6565 -2.0645 -2.0016 0.9749
5.7270 -1.8598 -2.0016 0.9749
5.8458 -1.4436 -2.0016 0.9749
5.8939 -1.2326 -2.0016 0.9749
5.9344 -1.0200 -2.0016 0.9749
5.9673 -0.8060 -2.0016 0.9749
6.0097 -0.3752 -2.0016 0.9749
6.0193 -0.1590 -2.0016 0.9749
6.0212 0.0574 -2.0016 0.9749
5.9800 0.7052 -2.0016 0.9749
5.8693 1.3448 -2.0016 0.9749
5.6160 2.1720 -2.0016 0.9749
5.5344 2.3725 -2.0016 0.9749
5.4455 2.5699 -2.0016 0.9749
5.2468 2.9544 -2.0016 0.9749
5.1372 3.1411 -2.0016 0.9749
5.0210 3.3237 -2.0016 0.9749
4.8983 3.5020 -2.0016 0.9749
4.6341 3.8449 -2.0016 0.9749
4.3459 4.1678 -2.0016 0.9749
4.0353 4.4693 -2.0016 0.9749
3.8720 4.6114 -2.0016 0.9749
3.7038 4.7476 -2.0016 0.9749
3.5308 4.8776 -2.0016 0.9749
2.6018 5.4303 -2.0016 0.9749
2.4050 5.5203 -2.0016 0.9749
2.2050 5.6032 -2.0016 0.9749
1.7968 5.7471 -2.0016 0.9749
1.1677 5.9071 -2.0016 0.9749
0.9547 5.9453 -2.0016 0.9749
0.0929 6.0207 -2.0016 0.9749
-0.3399 6.0118 -2.0016 0.9749
-0.5558 5.9957 -2.0016 0.9749
-0.7709 5.9719 -2.0016 0.9749
-2.8958 4.7898 -2.0016 0.9765
-3.0660 4.6826 -2.0016 0.9765
-3.2323 4.5694 -2.0016 0.9765
-3.5522 4.3254 -2.0016 0.9765
-3.7054 4.1949 -2.0016 0.9765
-3.8538 4.0590 -2.0016 0.9765
-4.1354 3.7717 -2.0016 0.9765
-4.2683 3.6206 -2.0016 0.9765
-4.3957 3.4649 -2.0016 0.9765
-4.5174 3.3046 -2.0016 0.9765
-4.6332 3.1401 -2.0016 0.9765
-4.7431 2.9716 -2.0016 0.9765
-5.0354 2.4438 -2.0016 0.9765
-5.1200 2.2612 -2.0016 0.9765
-5.1980 2.0757 -2.0016 0.9765
-5.3912 1.5042 -2.0016 0.9765
-5.4853 1.1130 -2.0016 0.9765
-5.5218 0.9151 -2.0016 0.9765
-5.5882 0.3154 -2.0016 0.9765
-5.5959 0.1144 -2.0016 0.9765
-5.5964 -0.0868 -2.0016 0.9765
-5.5897 -0.2879 -2.0016 0.9765
-5.5546 -0.6887 -2.0016 0.9765
-5.4907 -1.0860 -2.0016 0.9765
-5.3985 -1.4776 -2.0016 0.9765
-5.3419 -1.6707 -2.0016 0.9765
-5.2784 -1.8616 -2.0016 0.9765
-5.2081 -2.0501 -2.0016 0.9765
-4.6890 -2.2472 -1.8594 0.9782
-4.4140 -2.7352 -1.8570 0.9782
-4.3129 -2.8921 -1.8570 0.9782
-4.2061 -3.0453 -1.8570 0.9782
-3.9765 -3.3396 -1.8570 0.9782
-3.8539 -3.4803 -1.8570 0.9782
-3.7263 -3.6166 -1.8570 0.9782
-3.5939 -3.7482 -1.8570 0.9782
-3.4569 -3.8749 -1.8570 0.9782
-3.1696 -4.1133 -1.8570 0.9782
-3.0197 -4.2245 -1.8570 0.9782
-2.8659 -4.3303 -1.8570 0.9782
-2.7084 -4.4305 -1.8570 0.9782
-2.5474 -4.5250 -1.8570 0.9782
-2.2158 -4.6963 -1.8570 0.9782
-1.6974 -4.9075 -1.8570 0.9782
-1.5199 -4.9654 -1.8570 0.9782
-1.3405 -5.0168 -1.8570 0.9782
-0.7927 -5.1319 -1.8570 0.9782
-0.6077 -5.1571 -1.8570 0.9782
-0.4220 -5.1756 -1.8570 0.9782
0.5102 -5.1677 -1.8570 0.9782
1.4258 -4.9932 -1.8570 0.9782
1.9550 -4.8107 -1.8570 0.9782
2.0004 -4.4561 -1.7467 0.9795
2.1825 -4.0541 -1.6465 0.9806
2.7836 -4.3837 -1.8570 0.9782
2.9393 -4.2808 -1.8570 0.9782
3.0913 -4.1724 -1.8570 0.9782
3.9421 -3.9734 -2.0016 0.9765
4.0823 -3.8291 -2.0016 0.9765
4.5889 -3.2046 -2.0016 0.9765
4.8073 -2.8666 -2.0016 0.9765
5.2423 -1.9610 -2.0016 0.9765
5.3094 -1.7713 -2.0016 0.9765
5.4229 -1.3853 -2.0016 0.9765
5.4692 -1.1895 -2.0016 0.9765
5.5085 -0.9922 -2.0016 0.9765
5.5938 -0.1926 -2.0016 0.9765
5.5971 0.0086 -2.0016 0.9765
5.5820 0.4107 -2.0016 0.9765
5.5636 0.6110 -2.0016 0.9765
5.5381 0.8106 -2.0016 0.9765
5.1618 2.1641 -2.0016 0.9765
5.0807 2.3482 -2.0016 0.9765
4.8989 2.7071 -2.0016 0.9765
4.7984 2.8814 -2.0016 0.9765
4.5790 3.2187 -2.0016 0.9765
4.4604 3.3812 -2.0016 0.9765
4.3360 3.5393 -2.0016 0.9765
4.2060 3.6929 -2.0016 0.9765
4.0705 3.8417 -2.0016 0.9765
3.9298 3.9855 -2.0016 0.9765
3.4780 4.3853 -2.0016 0.9765
3.3181 4.5075 -2.0016 0.9765
2.2765 5.1132 -2.0016 0.9765
1.9033 5.2635 -2.0016 0.9765
1.5203 5.3867 -2.0016 0.9765
1.3257 5.4378 -2.0016 0.9765
1.1294 5.4820 -2.0016 0.9765
0.7326 5.5489 -2.0016 0.9765
0.5327 5.5717 -2.0016 0.9765
0.3321 5.5872 -2.0016 0.9765
0.1311 5.5956 -2.0016 0.9765
-0.4720 5.5772 -2.0016 0.9765
-0.8714 5.5288 -2.0016 0.9765
-1.0696 5.4939 -2.0016 0.9765
-1.2663 5.4520 -2.0016 0.9765
-1.6547 5.3469 -2.0016 0.9765
-1.8458 5.2840 -2.0016 0.9765
-2.7608 4.8688 -2.0016 0.9765
-3.1034 4.6579 -2.0016 0.9765
-3.4300 4.4230 -2.0016 0.9765
-3.7389 4.1651 -2.0016 0.9765
-4.0284 3.8858 -2.0016 0.9765
-4.5437 3.2684 -2.0016 0.9765
-4.7667 2.9335 -2.0016 0.9765
-4.8691 2.7603 -2.0016 0.9765
-4.9652 2.5835 -2.0016 0.9765
-5.1379 2.2202 -2.0016 0.9765
-5.4031 1.4610 -2.0016 0.9765
-5.4521 1.2658 -2.0016 0.9765
-5.4940 1.0691 -2.0016 0.9765
-5.5567 0.6716 -2.0016 0.9765
-5.5872 -0.3326 -2.0016 0.9765
-5.5716 -0.5332 -2.0016 0.9765
-5.5489 -0.7331 -2.0016 0.9765
-5.4819 -1.1299 -2.0016 0.9765
-5.4377 -1.3262 -2.0016 0.9765
-5.3284 -1.7134 -2.0016 0.9765
-4.9965 -2.2251 -1.9560 0.9770
-4.6647 -2.2816 -1.8570 0.9782
-4.2896 -2.9265 -1.8570 0.9782
-4.0683 -3.2271 -1.8570 0.9782
-3.8259 -3.5110 -1.8570 0.9782
-3.6973 -3.6463 -1.8570 0.9782
-3.5638 -3.7768 -1.8570 0.9782
-3.4258 -3.9025 -1.8570 0.9782
-3.1366 -4.1385 -1.8570 0.9782
-2.9858 -4.2485 -1.8570 0.9782
-2.8312 -4.3531 -1.8570 0.9782
-2.6729 -4.4521 -1.8570 0.9782
-2.5111 -4.5452 -1.8570 0.9782
-2.1781 -4.7139 -1.8570 0.9782
-2.0073 -4.7891 -1.8570 0.9782
-1.8339 -4.8582 -1.8570 0.9782
-1.3003 -5.0274 -1.8570 0.9782
-1.1187 -5.0708 -1.8570 0.9782
-0.7516 -5.1381 -1.8570 0.9782
-0.5664 -5.1618 -1.8570 0.9782
-0.3805 -5.1788 -1.8570 0.9782
-0.1941 -5.1892 -1.8570 0.9782
0.1791 -5.1897 -1.8570 0.9782
0.5515 -5.1634 -1.8570 0.9782
1.1041 -5.0741 -1.8570 0.9782
1.2857 -5.0311 -1.8570 0.9782
1.4657 -4.9816 -1.8570 0.9782
1.6438 -4.9257 -1.8570 0.9782
1.8198 -4.8635 -1.8570 0.9782
2.0007 -4.3629 -1.7164 0.9798
2.0536 -4.0841 -1.6347 0.9808
2.2241 -4.0533 -1.6534 0.9806
2.4097 -4.0402 -1.6823 0.9802
2.9735 -4.2572 -1.8570 0.9782
3.1246 -4.1475 -1.8570 0.9782
3.2716 -4.0326 -1.8570 0.9782
3.9737 -3.9417 -2.0016 0.9765
4.2466 -3.6460 -2.0016 0.9765
4.3749 -3.4911 -2.0016 0.9765
4.6144 -3.1678 -2.0016 0.9765
4.9286 -2.6527 -2.0016 0.9765
5.1064 -2.2917 -2.0016 0.9765
5.1855 -2.1067 -2.0016 0.9765
5.2578 -1.9190 -2.0016 0.9765
5.3234 -1.7288 -2.0016 0.9765
5.3821 -1.5363 -2.0016 0.9765
5.5162 -0.9481 -2.0016 0.9765
5.5701 -0.5493 -2.0016 0.9765
5.5862 -0.3488 -2.0016 0.9765
5.5951 -0.1478 -2.0016 0.9765
5.5913 0.2545 -2.0016 0.9765
5.5586 0.6555 -2.0016 0.9765
5.4971 1.0532 -2.0016 0.9765
5.4073 1.4453 -2.0016 0.9765
5.3518 1.6387 -2.0016 0.9765
5.2203 2.0190 -2.0016 0.9765
5.1443 2.2053 -2.0016 0.9765
4.9726 2.5692 -2.0016 0.9765
4.8771 2.7462 -2.0016 0.9765
4.6672 3.0895 -2.0016 0.9765
4.4332 3.4168 -2.0016 0.9765
4.3075 3.5739 -2.0016 0.9765
4.1763 3.7264 -2.0016 0.9765
3.8978 4.0168 -2.0016 0.9765
3.7509 4.1543 -2.0016 0.9765
3.2819 4.5339 -2.0016 0.9765
3.1169 4.6489 -2.0016 0.9765
2.9478 4.7580 -2.0016 0.9765
2.7748 4.8608 -2.0016 0.9765
2.5983 4.9574 -2.0016 0.9765
2.4185 5.0476 -2.0016 0.9765
2.0496 5.2083 -2.0016 0.9765
1.6702 5.3421 -2.0016 0.9765
1.4771 5.3987 -2.0016 0.9765
1.2821 5.4483 -2.0016 0.9765
0.8874 5.5263 -2.0016 0.9765
0.6882 5.5546 -2.0016 0.9765
-0.9156 5.5217 -2.0016 0.9765
-2.7022 4.4697 -2.0016 0.9779
-2.8611 4.3697 -2.0016 0.9779
-3.0163 4.2640 -2.0016 0.9779
-3.1676 4.1528 -2.0016 0.9779
-3.4578 3.9146 -2.0016 0.9779
-3.5962 3.7877 -2.0016 0.9779
-3.7301 3.6560 -2.0016 0.9779
-3.8591 3.5196 -2.0016 0.9779
-3.9831 3.3786 -2.0016 0.9779
-4.1019 3.2333 -2.0016 0.9779
-4.3236 2.9303 -2.0016 0.9779
-4.4261 2.7730 -2.0016 0.9779
-4.5229 2.6121 -2.0016 0.9779
-4.7778 2.1101 -2.0016 0.9779
-4.9171 1.7614 -2.0016 0.9779
-4.9772 1.5835 -2.0016 0.9779
-5.0309 1.4036 -2.0016 0.9779
-5.0781 1.2219 -2.0016 0.9779
-5.2147 0.2943 -2.0016 0.9779
-5.2219 0.1067 -2.0016 0.9779
-5.2161 -0.2687 -2.0016 0.9779
-5.1833 -0.6427 -2.0016 0.9779
-5.1238 -1.0134 -2.0016 0.9779
-5.0840 -1.1969 -2.0016 0.9779
-4.9849 -1.5590 -2.0016 0.9779
-4.9257 -1.7372 -2.0016 0.9779
-4.8601 -1.9131 -2.0016 0.9779
-4.6372 -2.2224 -1.9706 0.9782
-4.2917 -2.2500 -1.8570 0.9795
-4.1190 -2.5524 -1.8570 0.9795
-4.0246 -2.6988 -1.8570 0.9795
-3.8203 -2.9810 -1.8570 0.9795
-3.5963 -3.2477 -1.8570 0.9795
-3.4773 -3.3749 -1.8570 0.9795
-3.0938 -3.7296 -1.8570 0.9795
-2.8179 -3.9422 -1.8570 0.9795
-2.6744 -4.0409 -1.8570 0.9795
-2.5274 -4.1344 -1.8570 0.9795
-2.2239 -4.3053 -1.8570 0.9795
-1.9088 -4.4539 -1.8570 0.9795
-1.7475 -4.5197 -1.8570 0.9795
-1.4183 -4.6335 -1.8570 0.9795
-1.0818 -4.7235 -1.8570 0.9795
-0.9113 -4.7593 -1.8570 0.9795
-0.3938 -4.8297 -1.8570 0.9795
-0.0458 -4.8455 -1.8570 0.9795
0.1284 -4.8441 -1.8570 0.9795
0.3024 -4.8363 -1.8570 0.9795
0.4761 -4.8223 -1.8570 0.9795
0.8213 -4.7757 -1.8570 0.9795
0.9924 -4.7430 -1.8570 0.9795
1.1622 -4.7043 -1.8570 0.9795
1.3305 -4.6595 -1.8570 0.9795
1.6618 -4.5519 -1.8570 0.9795
1.8244 -4.4892 -1.8570 0.9795
1.9845 -4.4207 -1.8570 0.9795
2.3429 -4.0006 -1.7767 0.9803
2.5975 -4.0907 -1.8570 0.9795
2.7429 -3.9947 -1.8570 0.9795
2.8847 -3.8936 -1.8570 0.9795
3.1570 -3.6763 -1.8570 0.9795
3.2870 -3.5604 -1.8570 0.9795
3.8095 -3.5732 -2.0016 0.9779
4.4860 -2.6751 -2.0016 0.9779
4.7479 -2.1766 -2.0016 0.9779
4.8230 -2.0046 -2.0016 0.9779
4.8920 -1.8299 -2.0016 0.9779
4.9546 -1.6529 -2.0016 0.9779
5.0605 -1.2927 -2.0016 0.9779
5.1037 -1.1100 -2.0016 0.9779
5.1703 -0.7405 -2.0016 0.9779
5.1935 -0.5542 -2.0016 0.9779
5.2101 -0.3672 -2.0016 0.9779
5.2199 -0.1797 -2.0016 0.9779
5.2230 0.0080 -2.0016 0.9779
5.2090 0.3832 -2.0016 0.9779
5.1918 0.5702 -2.0016 0.9779
5.1374 0.9417 -2.0016 0.9779
5.1003 1.1257 -2.0016 0.9779
4.8863 1.8450 -2.0016 0.9779
4.3782 2.8481 -2.0016 0.9779
4.1623 3.1552 -2.0016 0.9779
4.0462 3.3028 -2.0016 0.9779
3.7985 3.5849 -2.0016 0.9779
3.6672 3.7191 -2.0016 0.9779
3.5311 3.8485 -2.0016 0.9779
3.3905 3.9730 -2.0016 0.9779
3.2455 4.0923 -2.0016 0.9779
3.0964 4.2063 -2.0016 0.9779
2.9432 4.3148 -2.0016 0.9779
2.4616 4.6066 -2.0016 0.9779
2.2945 4.6921 -2.0016 0.9779
1.9515 4.8448 -2.0016 0.9779
1.4187 5.0267 -2.0016 0.9779
1.2371 5.0744 -2.0016 0.9779
1.0539 5.1156 -2.0016 0.9779
0.8693 5.1502 -2.0016 0.9779
0.3099 5.2138 -2.0016 0.9779
-0.4404 5.2044 -2.0016 0.9779
-0.6272 5.1852 -2.0016 0.9779
-0.9981 5.1268 -2.0016 0.9779
-1.1817 5.0876 -2.0016 0.9779
-1.5441 4.9896 -2.0016 0.9779
-1.7225 4.9308 -2.0016 0.9779
-1.8986 4.8657 -2.0016 0.9779
-2.0722 4.7944 -2.0016 0.9779
-2.2432 4.7168 -2.0016 0.9779
-2.4113 4.6331 -2.0016 0.9779
-2.5763 4.5434 -2.0016 0.9779
-2.8960 4.3466 -2.0016 0.9779
-3.0503 4.2397 -2.0016 0.9779
-3.2008 4.1274 -2.0016 0.9779
-3.4890 3.8868 -2.0016 0.9779
-3.6264 3.7589 -2.0016 0.9779
-3.7592 3.6261 -2.0016 0.9779
-4.0100 3.3467 -2.0016 0.9779
-4.1277 3.2004 -2.0016 0.9779
-4.4482 2.7375 -2.0016 0.9779
-4.6333 2.4109 -2.0016 0.9779
-4.7946 2.0718 -2.0016 0.9779
-4.9897 1.5437 -2.0016 0.9779
-5.0877 1.1812 -2.0016 0.9779
-5.1594 0.8127 -2.0016 0.9779
-5.1853 0.6267 -2.0016 0.9779
-5.2045 0.4400 -2.0016 0.9779
-5.2169 0.2526 -2.0016 0.9779
-5.2216 -0.1228 -2.0016 0.9779
-5.2138 -0.3104 -2.0016 0.9779
-5.1501 -0.8698 -2.0016 0.9779
-5.1155 -1.0544 -2.0016 0.9779
-5.0743 -1.2375 -2.0016 0.9779
-4.9723 -1.5989 -2.0016 0.9779
-4.9116 -1.7765 -2.0016 0.9779
-4.8446 -1.9519 -2.0016 0.9779
-4.7713 -2.1248 -2.0016 0.9779
-4.5541 -2.2275 -1.9428 0.9785
-4.1887 -2.4363 -1.8570 0.9795
-3.9022 -2.8731 -1.8570 0.9795
-3.6857 -3.1460 -1.8570 0.9795
-3.5702 -3.2764 -1.8570 0.9795
-2.9269 -3.8619 -1.8570 0.9795
-2.4942 -4.1545 -1.8570 0.9795
-2.1893 -4.3230 -1.8570 0.9795
-1.8731 -4.4691 -1.8570 0.9795
-1.5473 -4.5921 -1.8570 0.9795
-1.2134 -4.6914 -1.8570 0.9795
-0.8732 -4.7664 -1.8570 0.9795
-0.7013 -4.7947 -1.8570 0.9795
-0.0070 -4.8457 -1.8570 0.9795
0.3411 -4.8337 -1.8570 0.9795
0.6875 -4.7967 -1.8570 0.9795
0.8594 -4.7689 -1.8570 0.9795
1.1998 -4.6949 -1.8570 0.9795
1.5340 -4.5965 -1.8570 0.9795
1.6982 -4.5384 -1.8570 0.9795
2.0221 -4.0216 -1.7250 0.9809
2.3862 -4.0007 -1.7852 0.9802
3.0530 -3.7631 -1.8570 0.9795
3.1863 -3.6509 -1.8570 0.9795
3.3154 -3.5340 -1.8570 0.9795
3.9628 -3.4024 -2.0016 0.9779
4.1970 -3.1089 -2.0016 0.9779
4.3060 -2.9560 -2.0016 0.9779
4.5073 -2.6391 -2.0016 0.9779
4.7651 -2.1386 -2.0016 0.9779
4.9065 -1.7907 -2.0016 0.9779
4.9676 -1.6132 -2.0016 0.9779
5.0224 -1.4336 -2.0016 0.9779
5.0707 -1.2522 -2.0016 0.9779
5.2129 -0.3255 -2.0016 0.9779
5.2212 -0.1379 -2.0016 0.9779
5.2176 0.2375 -2.0016 0.9779
5.2057 0.4249 -2.0016 0.9779
5.1297 0.9828 -2.0016 0.9779
5.0459 1.3487 -2.0016 0.9779
4.9942 1.5292 -2.0016 0.9779
4.8714 1.8840 -2.0016 0.9779
4.8005 2.0579 -2.0016 0.9779
4.7235 2.2291 -2.0016 0.9779
4.4561 2.7246 -2.0016 0.9779
4.3553 2.8830 -2.0016 0.9779
4.1369 3.1884 -2.0016 0.9779
4.0196 3.3351 -2.0016 0.9779
3.8972 3.4774 -2.0016 0.9779
3.7697 3.6152 -2.0016 0.9779
3.5002 3.8767 -2.0016 0.9779
3.3586 4.0000 -2.0016 0.9779
3.2127 4.1181 -2.0016 0.9779
3.0626 4.2309 -2.0016 0.9779
2.7508 4.4400 -2.0016 0.9779
2.5894 4.5360 -2.0016 0.9779
1.5586 4.9851 -2.0016 0.9779
1.3784 5.0379 -2.0016 0.9779
1.0129 5.1239 -2.0016 0.9779
0.4555 5.2031 -2.0016 0.9779
0.2682 5.2161 -2.0016 0.9779
0.0805 5.2224 -2.0016 0.9779
-0.1072 5.2219 -2.0016 0.9779
-2.5302 4.1851 -2.0016 0.9791
-2.6790 4.0915 -2.0016 0.9791
-3.2376 3.6653 -2.0016 0.9791
-3.6134 3.2955 -2.0016 0.9791
-3.8408 3.0275 -2.0016 0.9791
-4.1443 2.5964 -2.0016 0.9791
-4.2350 2.4458 -2.0016 0.9791
-4.5418 1.8137 -2.0016 0.9791
-4.7548 1.1441 -2.0016 0.9791
-4.7928 0.9725 -2.0016 0.9791
-2.0841 0.3454 -0.8646 0.9909
-1.9448 0.1098 -0.7972 0.9916
-1.9180 0.0392 -0.7852 0.9917
-1.9135 -0.0297 -0.7832 0.9918
-1.9578 -0.1716 -0.8043 0.9915
-4.6121 -1.6266 -2.0016 0.9791
-4.4102 -2.1136 -2.0016 0.9791
-3.8678 -2.3967 -1.8623 0.9805
-3.7684 -2.5270 -1.8570 0.9806
-3.5771 -2.7912 -1.8570 0.9806
-3.4745 -2.9180 -1.8570 0.9806
-2.8968 -3.4921 -1.8570 0.9806
-2.7694 -3.5940 -1.8570 0.9806
-2.6385 -3.6912 -1.8570 0.9806
-1.9360 -4.1034 -1.8570 0.9806
-1.7873 -4.1704 -1.8570 0.9806
-1.6363 -4.2319 -1.8570 0.9806
-1.4831 -4.2880 -1.8570 0.9806
-1.3280 -4.3385 -1.8570 0.9806
-0.5310 -4.5061 -1.8570 0.9806
-0.3687 -4.5222 -1.8570 0.9806
-0.2059 -4.5326 -1.8570 0.9806
0.9292 -4.4411 -1.8570 0.9806
1.0882 -4.4048 -1.8570 0.9806
1.2458 -4.3629 -1.8570 0.9806
1.4018 -4.3153 -1.8570 0.9806
1.8582 -4.1393 -1.8570 0.9806
2.0024 -4.0631 -1.8539 0.9806
2.2929 -3.9152 -1.8570 0.9806
2.7010 -3.6457 -1.8570 0.9806
2.9560 -3.4422 -1.8570 0.9806
3.0778 -3.3338 -1.8570 0.9806
3.3093 -3.1040 -1.8570 0.9806
3.6849 -3.2153 -2.0016 0.9791
3.7981 -3.0808 -2.0016 0.9791
3.9064 -2.9423 -2.0016 0.9791
4.0096 -2.8000 -2.0016 0.9791
4.3695 -2.1965 -2.0016 0.9791
4.6918 -1.3800 -2.0016 0.9791
4.8629 -0.5189 -2.0016 0.9791
4.8876 -0.1682 -2.0016 0.9791
4.8905 0.0075 -2.0016 0.9791
4.8773 0.3588 -2.0016 0.9791
4.8613 0.5339 -2.0016 0.9791
4.8389 0.7083 -2.0016 0.9791
4.7346 1.2250 -2.0016 0.9791
4.6875 1.3944 -2.0016 0.9791
4.5752 1.7275 -2.0016 0.9791
4.3627 2.2100 -2.0016 0.9791
4.2804 2.3654 -2.0016 0.9791
4.0010 2.8124 -2.0016 0.9791
3.3063 3.6035 -2.0016 0.9791
3.0389 3.8317 -2.0016 0.9791
2.7558 4.0401 -2.0016 0.9791
2.6088 4.1366 -2.0016 0.9791
1.9891 4.4677 -2.0016 0.9791
1.8272 4.5363 -2.0016 0.9791
1.6630 4.5991 -2.0016 0.9791
1.4966 4.6559 -2.0016 0.9791
1.1583 4.7514 -2.0016 0.9791
0.9868 4.7899 -2.0016 0.9791
0.4655 4.8683 -2.0016 0.9791
0.2902 4.8819 -2.0016 0.9791
-0.0613 4.8901 -2.0016 0.9791
-0.2370 4.8848 -2.0016 0.9791
-0.4124 4.8731 -2.0016 0.9791
-0.5873 4.8551 -2.0016 0.9791
-0.7614 4.8309 -2.0016 0.9791
-0.9345 4.8004 -2.0016 0.9791
-1.4458 4.6719 -2.0016 0.9791
-1.6128 4.6169 -2.0016 0.9791
-1.9403 4.4891 -2.0016 0.9791
-2.2578 4.3381 -2.0016 0.9791
-2.4122 4.2542 -2.0016 0.9791
-2.9970 3.8646 -2.0016 0.9791
-3.2669 3.6393 -2.0016 0.9791
-3.3956 3.5195 -2.0016 0.9791
-3.5199 3.3952 -2.0016 0.9791
-3.6396 3.2665 -2.0016 0.9791
-3.9701 2.8558 -2.0016 0.9791
-4.2544 2.4118 -2.0016 0.9791
-4.4167 2.1000 -2.0016 0.9791
-4.6171 1.6124 -2.0016 0.9791
-4.6720 1.4454 -2.0016 0.9791
-4.7638 1.1060 -2.0016 0.9791
-4.8005 0.9341 -2.0016 0.9791
-2.0175 0.3178 -0.8359 0.9912
-1.9399 0.0939 -0.7949 0.9916
-1.9208 -0.0452 -0.7863 0.9917
-1.9465 -0.1159 -0.7981 0.9916
-1.9579 -0.1874 -0.8050 0.9915
-1.9502 -0.2577 -0.8051 0.9915
-4.7898 -0.9872 -2.0016 0.9791
-4.7065 -1.3288 -2.0016 0.9791
-4.5361 -1.8277 -2.0016 0.9791
-4.4675 -1.9895 -2.0016 0.9791
-4.3931 -2.1488 -2.0016 0.9791
-4.1702 -2.2289 -1.9352 0.9798
-3.9221 -2.2812 -1.8570 0.9806
-3.8375 -2.4207 -1.8570 0.9806
-3.6537 -2.6901 -1.8570 0.9806
-3.5547 -2.8197 -1.8570 0.9806
-3.4510 -2.9457 -1.8570 0.9806
-3.3429 -3.0678 -1.8570 0.9806
-3.2305 -3.1860 -1.8570 0.9806
-3.1139 -3.3000 -1.8570 0.9806
-2.8688 -3.5152 -1.8570 0.9806
-2.7406 -3.6160 -1.8570 0.9806
-2.3354 -3.8900 -1.8570 0.9806
-1.9032 -4.1188 -1.8570 0.9806
-1.4488 -4.2997 -1.8570 0.9806
-1.2933 -4.3490 -1.8570 0.9806
-0.9775 -4.4307 -1.8570 0.9806
-0.8176 -4.4630 -1.8570 0.9806
-0.4949 -4.5102 -1.8570 0.9806
-0.3325 -4.5250 -1.8570 0.9806
-0.1696 -4.5341 -1.8570 0.9806
0.3194 -4.5260 -1.8570 0.9806
0.4819 -4.5116 -1.8570 0.9806
0.6437 -4.4914 -1.8570 0.9806
0.9647 -4.4335 -1.8570 0.9806
1.2807 -4.3527 -1.8570 0.9806
1.4363 -4.3039 -1.8570 0.9806
1.7418 -4.1896 -1.8570 0.9806
2.1826 -3.9778 -1.8570 0.9806
2.3242 -3.8968 -1.8570 0.9806
2.4627 -3.8107 -1.8570 0.9806
2.7301 -3.6239 -1.8570 0.9806
3.1044 -3.3090 -1.8570 0.9806
3.3340 -3.0775 -1.8570 0.9806
3.8226 -3.0503 -2.0016 0.9791
4.0319 -2.7678 -2.0016 0.9791
4.2203 -2.4711 -2.0016 0.9791
4.3869 -2.1615 -2.0016 0.9791
4.5308 -1.8408 -2.0016 0.9791
4.8465 -0.6546 -2.0016 0.9791
4.8669 -0.4800 -2.0016 0.9791
4.8810 -0.3048 -2.0016 0.9791
4.8854 0.2224 -2.0016 0.9791
4.8331 0.7470 -2.0016 0.9791
4.8031 0.9202 -2.0016 0.9791
4.7670 1.0922 -2.0016 0.9791
4.7246 1.2629 -2.0016 0.9791
4.6762 1.4319 -2.0016 0.9791
4.6217 1.5990 -2.0016 0.9791
4.5612 1.7641 -2.0016 0.9791
4.4949 1.9269 -2.0016 0.9791
4.4227 2.0872 -2.0016 0.9791
4.1724 2.5511 -2.0016 0.9791
3.8735 2.9854 -2.0016 0.9791
3.7637 3.1227 -2.0016 0.9791
3.6491 3.2560 -2.0016 0.9791
3.4057 3.5097 -2.0016 0.9791
3.0082 3.8559 -2.0016 0.9791
2.8676 3.9615 -2.0016 0.9791
2.7234 4.0620 -2.0016 0.9791
2.5756 4.1573 -2.0016 0.9791
2.4245 4.2472 -2.0016 0.9791
2.1132 4.4104 -2.0016 0.9791
1.9533 4.4835 -2.0016 0.9791
1.6262 4.6122 -2.0016 0.9791
1.1202 4.7605 -2.0016 0.9791
0.6013 4.8534 -2.0016 0.9791
0.4265 4.8719 -2.0016 0.9791
0.0754 4.8899 -2.0016 0.9791
-0.2761 4.8827 -2.0016 0.9791
-0.8000 4.8246 -2.0016 0.9791
-2.6523 3.7494 -2.0016 0.9802
-3.1622 3.3306 -2.0016 0.9802
-3.2799 3.2148 -2.0016 0.9802
-3.6069 2.8431 -2.0016 0.9802
-3.7067 2.7116 -2.0016 0.9802
-3.8018 2.5766 -2.0016 0.9802
-3.9771 2.2969 -2.0016 0.9802
-4.0570 2.1524 -2.0016 0.9802
-4.1318 2.0052 -2.0016 0.9802
-4.2012 1.8554 -2.0016 0.9802
-1.5952 0.5714 -0.7385 0.9926
-1.5819 0.5033 -0.7235 0.9928
-1.5628 0.4360 -0.7071 0.9929
-1.5094 0.3063 -0.6712 0.9933
-1.5274 0.1414 -0.6685 0.9933
-1.5264 0.0312 -0.6654 0.9934
-1.5255 -0.0237 -0.6649 0.9934
-1.5211 -0.1886 -0.6680 0.9933
-1.5088 -0.2424 -0.6660 0.9934
-1.5051 -0.2977 -0.6686 0.9933
-1.5598 -0.4269 -0.7048 0.9930
-1.5796 -0.4940 -0.7213 0.9928
-1.5937 -0.5621 -0.7365 0.9927
-4.2735 -1.6822 -2.0016 0.9802
-4.2103 -1.8347 -2.0016 0.9802
-4.0676 -2.1324 -2.0016 0.9802
-3.6265 -2.2473 -1.8594 0.9816
-3.4513 -2.4988 -1.8570 0.9816
-3.2629 -2.7403 -1.8570 0.9816
-3.1623 -2.8558 -1.8570 0.9816
-2.9490 -3.0756 -1.8570 0.9816
-2.8365 -3.1796 -1.8570 0.9816
-2.6008 -3.3751 -1.8570 0.9816
-2.3516 -3.5532 -1.8570 0.9816
-2.2224 -3.6354 -1.8570 0.9816
-2.0903 -3.7130 -1.8570 0.9816
-1.8181 -3.8535 -1.8570 0.9816
-1.6785 -3.9164 -1.8570 0.9816
-1.5366 -3.9742 -1.8570 0.9816
-1.3928 -4.0269 -1.8570 0.9816
-1.2471 -4.0743 -1.8570 0.9816
-1.0999 -4.1165 -1.8570 0.9816
-0.8013 -4.1849 -1.8570 0.9816
-0.6504 -4.2110 -1.8570 0.9816
-0.3462 -4.2468 -1.8570 0.9816
-0.1934 -4.2565 -1.8570 0.9816
0.2659 -4.2526 -1.8570 0.9816
0.4186 -4.2403 -1.8570 0.9816
0.7221 -4.1993 -1.8570 0.9816
1.3165 -4.0525 -1.8570 0.9816
1.7450 -3.8872 -1.8570 0.9816
1.8836 -3.8220 -1.8570 0.9816
2.1533 -3.6768 -1.8570 0.9816
2.4119 -3.5126 -1.8570 0.9816
2.6580 -3.3303 -1.8570 0.9816
2.7759 -3.2326 -1.8570 0.9816
3.0010 -3.0248 -1.8570 0.9816
3.7654 -2.6295 -2.0016 0.9802
4.0266 -2.2089 -2.0016 0.9802
4.1749 -1.9139 -2.0016 0.9802
4.4060 -1.2959 -2.0016 0.9802
4.4498 -1.1367 -2.0016 0.9802
4.4877 -0.9761 -2.0016 0.9802
4.5199 -0.8141 -2.0016 0.9802
4.5667 -0.4873 -2.0016 0.9802
4.5813 -0.3229 -2.0016 0.9802
4.5899 -0.1580 -2.0016 0.9802
4.5652 0.5014 -2.0016 0.9802
4.5174 0.8280 -2.0016 0.9802
4.4462 1.1504 -2.0016 0.9802
4.1689 1.9268 -2.0016 0.9802
4.0970 2.0754 -2.0016 0.9802
4.0197 2.2213 -2.0016 0.9802
3.9373 2.3643 -2.0016 0.9802
3.7573 2.6411 -2.0016 0.9802
3.5579 2.9042 -2.0016 0.9802
3.3400 3.1523 -2.0016 0.9802
2.9813 3.4935 -2.0016 0.9802
2.8538 3.5984 -2.0016 0.9802
2.7227 3.6986 -2.0016 0.9802
2.4499 3.8846 -2.0016 0.9802
2.1645 4.0506 -2.0016 0.9802
1.8680 4.1956 -2.0016 0.9802
1.7160 4.2601 -2.0016 0.9802
1.2474 4.4200 -2.0016 0.9802
0.9267 4.4982 -2.0016 0.9802
0.7644 4.5286 -2.0016 0.9802
0.2725 4.5846 -2.0016 0.9802
-0.0575 4.5923 -2.0016 0.9802
-0.2226 4.5873 -2.0016 0.9802
-0.5515 4.5594 -2.0016 0.9802
-0.7150 4.5367 -2.0016 0.9802
-0.8776 4.5080 -2.0016 0.9802
-1.1992 4.4333 -2.0016 0.9802
-1.5146 4.3357 -2.0016 0.9802
-1.6694 4.2785 -2.0016 0.9802
-2.1203 4.0739 -2.0016 0.9802
-2.4075 3.9111 -2.0016 0.9802
-2.6822 3.7280 -2.0016 0.9802
-2.8145 3.6292 -2.0016 0.9802
-3.5260 2.9428 -2.0016 0.9802
-3.6295 2.8141 -2.0016 0.9802
-3.7283 2.6819 -2.0016 0.9802
-3.8223 2.5461 -2.0016 0.9802
-4.1477 1.9721 -2.0016 0.9802
-4.2786 1.6690 -2.0016 0.9802
-1.5782 0.4882 -0.7200 0.9928
-1.5023 0.2923 -0.6670 0.9933
-1.5283 0.1292 -0.6684 0.9933
-1.5249 0.0190 -0.6646 0.9934
-1.5269 -0.0359 -0.6656 0.9934
-1.5409 -0.3758 -0.6912 0.9931
-1.5647 -0.4417 -0.7086 0.9929
-4.1955 -1.8684 -2.0016 0.9802
-4.0504 -2.1649 -2.0016 0.9802
-3.8330 -2.2294 -1.9325 0.9808
-3.5198 -2.4014 -1.8570 0.9816
-3.4312 -2.5263 -1.8570 0.9816
-3.1393 -2.8810 -1.8570 0.9816
-2.9243 -3.0990 -1.8570 0.9816
-2.3231 -3.5719 -1.8570 0.9816
-1.7873 -3.8680 -1.8570 0.9816
-1.6471 -3.9297 -1.8570 0.9816
-0.9180 -4.1609 -1.8570 0.9816
-0.4648 -4.2355 -1.8570 0.9816
-0.3122 -4.2495 -1.8570 0.9816
-0.1593 -4.2579 -1.8570 0.9816
0.1470 -4.2584 -1.8570 0.9816
0.2999 -4.2503 -1.8570 0.9816
0.4525 -4.2368 -1.8570 0.9816
0.9059 -4.1635 -1.8570 0.9816
1.0550 -4.1282 -1.8570 0.9816
1.2027 -4.0877 -1.8570 0.9816
1.3488 -4.0418 -1.8570 0.9816
1.7761 -3.8731 -1.8570 0.9816
2.0497 -3.7355 -1.8570 0.9816
2.3128 -3.5786 -1.8570 0.9816
2.5639 -3.4032 -1.8570 0.9816
2.8017 -3.2103 -1.8570 0.9816
2.9153 -3.1075 -1.8570 0.9816
3.0251 -3.0007 -1.8570 0.9816
3.1310 -2.8900 -1.8570 0.9816
3.6905 -2.7337 -2.0016 0.9802
3.7863 -2.5993 -2.0016 0.9802
3.8773 -2.4615 -2.0016 0.9802
3.9633 -2.3206 -2.0016 0.9802
4.1197 -2.0299 -2.0016 0.9802
4.2549 -1.7287 -2.0016 0.9802
4.3681 -1.4185 -2.0016 0.9802
4.5925 0.0438 -2.0016 0.9802
4.5774 0.3736 -2.0016 0.9802
4.5388 0.7015 -2.0016 0.9802
4.5106 0.8642 -2.0016 0.9802
4.4767 1.0257 -2.0016 0.9802
4.2835 1.6567 -2.0016 0.9802
4.1534 1.9601 -2.0016 0.9802
4.0803 2.1081 -2.0016 0.9802
3.8296 2.5351 -2.0016 0.9802
3.7360 2.6711 -2.0016 0.9802
3.6376 2.8036 -2.0016 0.9802
3.5345 2.9325 -2.0016 0.9802
3.1983 3.2960 -2.0016 0.9802
2.9533 3.5172 -2.0016 0.9802
2.6930 3.7203 -2.0016 0.9802
2.5575 3.8147 -2.0016 0.9802
2.4188 3.9041 -2.0016 0.9802
2.2769 3.9885 -2.0016 0.9802
1.9845 4.1418 -2.0016 0.9802
1.8343 4.2104 -2.0016 0.9802
1.5271 4.3313 -2.0016 0.9802
0.5647 4.5578 -2.0016 0.9802
0.4005 4.5752 -2.0016 0.9802
-0.2592 4.5853 -2.0016 0.9802
-0.4239 4.5731 -2.0016 0.9802
-0.7513 4.5308 -2.0016 0.9802
-2.3687 3.6176 -2.0016 0.9811
-2.9773 3.1358 -2.0016 0.9811
-3.0881 3.0268 -2.0016 0.9811
-3.6643 2.2957 -2.0016 0.9811
-3.7445 2.1625 -2.0016 0.9811
-1.3362 0.0273 -0.6186 0.9941
-1.3356 -0.0207 -0.6183 0.9941
-1.3377 -0.1172 -0.6216 0.9941
-1.3320 -0.1652 -0.6213 0.9941
-1.3095 -0.2590 -0.6179 0.9941
-1.3287 -0.4155 -0.6444 0.9939
-1.3335 -0.4703 -0.6545 0.9938
-1.3300 -0.5235 -0.6616 0.9937
-1.3212 -0.5757 -0.6671 0.9937
-3.8994 -1.8688 -2.0016 0.9811
-3.8297 -2.0077 -2.0016 0.9811
-3.3444 -2.2427 -1.8639 0.9824
-3.1628 -2.4679 -1.8570 0.9825
-3.0721 -2.5800 -1.8570 0.9825
-2.9774 -2.6888 -1.8570 0.9825
-2.7765 -2.8957 -1.8570 0.9825
-2.6707 -2.9936 -1.8570 0.9825
-2.4487 -3.1777 -1.8570 0.9825
-2.2141 -3.3454 -1.8570 0.9825
-1.9680 -3.4959 -1.8570 0.9825
-1.8411 -3.5643 -1.8570 0.9825
-1.7118 -3.6282 -1.8570 0.9825
-1.5803 -3.6874 -1.8570 0.9825
-1.1742 -3.8361 -1.8570 0.9825
-1.0356 -3.8758 -1.8570 0.9825
-0.8956 -3.9105 -1.8570 0.9825
-0.7545 -3.9402 -1.8570 0.9825
-0.6124 -3.9647 -1.8570 0.9825
-0.0379 -4.0116 -1.8570 0.9825
0.1063 -4.0103 -1.8570 0.9825
0.6799 -3.9537 -1.8570 0.9825
1.2395 -3.8155 -1.8570 0.9825
1.3758 -3.7685 -1.8570 0.9825
1.9016 -3.5324 -1.8570 0.9825
2.2708 -3.3072 -1.8570 0.9825
2.6136 -3.0436 -1.8570 0.9825
2.7213 -2.9476 -1.8570 0.9825
2.8255 -2.8479 -1.8570 0.9825
3.4539 -2.6016 -2.0016 0.9811
3.7139 -2.2147 -2.0016 0.9811
3.7911 -2.0797 -2.0016 0.9811
3.9307 -1.8020 -2.0016 0.9811
3.9929 -1.6596 -2.0016 0.9811
4.0500 -1.5150 -2.0016 0.9811
4.1019 -1.3684 -2.0016 0.9811
4.1484 -1.2201 -2.0016 0.9811
4.2556 -0.7665 -2.0016 0.9811
4.2804 -0.6131 -2.0016 0.9811
4.3215 -0.1488 -2.0016 0.9811
4.3241 0.0067 -2.0016 0.9811
4.3211 0.1621 -2.0016 0.9811
4.2983 0.4721 -2.0016 0.9811
4.2785 0.6262 -2.0016 0.9811
4.2532 0.7796 -2.0016 0.9811
4.1446 1.2329 -2.0016 0.9811
3.8574 1.9540 -2.0016 0.9811
3.7847 2.0914 -2.0016 0.9811
3.7071 2.2261 -2.0016 0.9811
3.6247 2.3579 -2.0016 0.9811
3.5376 2.4866 -2.0016 0.9811
3.4459 2.6122 -2.0016 0.9811
3.3498 2.7343 -2.0016 0.9811
3.1447 2.9679 -2.0016 0.9811
2.9234 3.1862 -2.0016 0.9811
2.8070 3.2892 -2.0016 0.9811
2.6870 3.3879 -2.0016 0.9811
1.7587 3.9503 -2.0016 0.9811
1.6156 4.0109 -2.0016 0.9811
1.3233 4.1166 -2.0016 0.9811
1.1745 4.1615 -2.0016 0.9811
0.7197 4.2638 -2.0016 0.9811
0.5660 4.2869 -2.0016 0.9811
0.4116 4.3045 -2.0016 0.9811
0.1013 4.3229 -2.0016 0.9811
-0.2095 4.3190 -2.0016 0.9811
-0.6732 4.2714 -2.0016 0.9811
-0.8263 4.2444 -2.0016 0.9811
-0.9783 4.2120 -2.0016 0.9811
-1.8571 3.9050 -2.0016 0.9811
-2.3976 3.5985 -2.0016 0.9811
-2.5254 3.5100 -2.0016 0.9811
-2.6499 3.4170 -2.0016 0.9811
-2.7710 3.3196 -2.0016 0.9811
-3.1122 3.0020 -2.0016 0.9811
-3.2181 2.8882 -2.0016 0.9811
-3.3198 2.7707 -2.0016 0.9811
-3.5988 2.3972 -2.0016 0.9811
-3.6826 2.2663 -2.0016 0.9811
-3.8359 1.9959 -2.0016 0.9811
-3.9052 1.8568 -2.0016 0.9811
-1.3221 0.5713 -0.6667 0.9937
-1.3336 0.4657 -0.6539 0.9938
-1.3170 0.3561 -0.6315 0.9940
-1.3022 0.3023 -0.6188 0.9941
-1.3234 0.2085 -0.6202 0.9941
-1.3379 0.1131 -0.6215 0.9941
-1.3352 0.0166 -0.6181 0.9941
-1.3385 -0.0797 -0.6207 0.9941
-1.3199 -0.2229 -0.6196 0.9941
-1.3208 -0.3729 -0.6353 0.9940
-1.3185 -0.5872 -0.6681 0.9937
-3.2306 -2.3786 -1.8570 0.9825
-3.1430 -2.4932 -1.8570 0.9825
-3.0513 -2.6045 -1.8570 0.9825
-2.9558 -2.7125 -1.8570 0.9825
-2.7533 -2.9178 -1.8570 0.9825
-2.3067 -3.2823 -1.8570 0.9825
-2.1872 -3.3630 -1.8570 0.9825
-2.0650 -3.4395 -1.8570 0.9825
-1.8125 -3.5789 -1.8570 0.9825
-1.2810 -3.8018 -1.8570 0.9825
-0.5806 -3.9695 -1.8570 0.9825
-0.4376 -3.9878 -1.8570 0.9825
-0.2940 -4.0010 -1.8570 0.9825
0.1384 -4.0094 -1.8570 0.9825
0.4261 -3.9891 -1.8570 0.9825
0.5692 -3.9712 -1.8570 0.9825
0.7115 -3.9482 -1.8570 0.9825
0.9933 -3.8868 -1.8570 0.9825
1.1324 -3.8486 -1.8570 0.9825
1.2700 -3.8054 -1.8570 0.9825
2.0550 -3.4454 -1.8570 0.9825
2.1775 -3.3694 -1.8570 0.9825
2.4139 -3.2042 -1.8570 0.9825
2.6379 -3.0225 -1.8570 0.9825
3.2808 -2.8168 -2.0016 0.9811
3.5649 -2.4473 -2.0016 0.9811
3.6506 -2.3176 -2.0016 0.9811
3.8076 -2.0493 -2.0016 0.9811
3.8788 -1.9112 -2.0016 0.9811
3.9450 -1.7705 -2.0016 0.9811
4.0061 -1.6276 -2.0016 0.9811
4.0620 -1.4825 -2.0016 0.9811
4.1127 -1.3356 -2.0016 0.9811
4.1580 -1.1869 -2.0016 0.9811
4.3032 -0.4244 -2.0016 0.9811
4.3157 -0.2695 -2.0016 0.9811
4.3226 -0.1142 -2.0016 0.9811
4.3239 0.0413 -2.0016 0.9811
4.3196 0.1966 -2.0016 0.9811
4.3098 0.3518 -2.0016 0.9811
4.2734 0.6605 -2.0016 0.9811
4.2149 0.9657 -2.0016 0.9811
4.1774 1.1166 -2.0016 0.9811
4.1346 1.2660 -2.0016 0.9811
4.0330 1.5598 -2.0016 0.9811
3.9105 1.8455 -2.0016 0.9811
3.8417 1.9848 -2.0016 0.9811
3.6891 2.2557 -2.0016 0.9811
3.6057 2.3868 -2.0016 0.9811
3.5176 2.5149 -2.0016 0.9811
2.2773 3.6758 -2.0016 0.9811
2.0074 3.8299 -2.0016 0.9811
1.8684 3.8996 -2.0016 0.9811
1.7271 3.9642 -2.0016 0.9811
1.5835 4.0237 -2.0016 0.9811
1.2903 4.1271 -2.0016 0.9811
1.1412 4.1708 -2.0016 0.9811
0.6856 4.2694 -2.0016 0.9811
0.5317 4.2913 -2.0016 0.9811
0.3771 4.3076 -2.0016 0.9811
0.2220 4.3184 -2.0016 0.9811
0.0667 4.3236 -2.0016 0.9811
-0.0888 4.3232 -2.0016 0.9811
-0.2441 4.3172 -2.0016 0.9811
-0.3991 4.3056 -2.0016 0.9811
-0.5536 4.2885 -2.0016 0.9811
-0.7074 4.2659 -2.0016 0.9811
-2.1111 3.4919 -2.0016 0.9820
-2.2352 3.4138 -2.0016 0.9820
-2.3565 3.3312 -2.0016 0.9820
-2.4747 3.2444 -2.0016 0.9820
-2.7014 3.0582 -2.0016 0.9820
-3.1117 2.6395 -2.0016 0.9820
-3.3778 2.2893 -2.0016 0.9820
-3.4579 2.1664 -2.0016 0.9820
-1.1182 0.5932 -0.6209 0.9944
-1.1332 0.5499 -0.6178 0.9944
-1.1433 0.5049 -0.6131 0.9944
-1.1585 0.3686 -0.5964 0.9946
-1.1824 0.1960 -0.5879 0.9947
-1.1891 0.1534 -0.5881 0.9947
-1.1963 0.0245 -0.5869 0.9947
-1.1961 -0.0186 -0.5868 0.9947
-1.1962 -0.0616 -0.5876 0.9947
-1.1834 -0.1901 -0.5879 0.9947
-1.1587 -0.3171 -0.5893 0.9947
-1.1587 -0.3624 -0.5955 0.9946
-1.1564 -0.4078 -0.6015 0.9946
-1.1444 -0.4987 -0.6124 0.9945
-1.1209 -0.5876 -0.6208 0.9944
-3.0943 -2.2403 -1.8739 0.9831
-2.9846 -2.3289 -1.8570 0.9833
-2.7166 -2.6366 -1.8570 0.9833
-2.5202 -2.8250 -1.8570 0.9833
-2.3107 -2.9987 -1.8570 0.9833
-1.9745 -3.2300 -1.8570 0.9833
-1.8571 -3.2989 -1.8570 0.9833
-1.6154 -3.4238 -1.8570 0.9833
-1.4913 -3.4796 -1.8570 0.9833
-1.3652 -3.5310 -1.8570 0.9833
-1.1081 -3.6199 -1.8570 0.9833
-0.7120 -3.7182 -1.8570 0.9833
-0.3076 -3.7732 -1.8570 0.9833
-0.1718 -3.7818 -1.8570 0.9833
0.1003 -3.7844 -1.8570 0.9833
0.2363 -3.7783 -1.8570 0.9833
0.3719 -3.7674 -1.8570 0.9833
0.5071 -3.7516 -1.8570 0.9833
0.7753 -3.7055 -1.8570 0.9833
1.1696 -3.6005 -1.8570 0.9833
1.4253 -3.5072 -1.8570 0.9833
1.6735 -3.3957 -1.8570 0.9833
2.3615 -2.9589 -1.8570 0.9833
2.4664 -2.8721 -1.8570 0.9833
2.6663 -2.6875 -1.8570 0.9833
3.0095 -2.6260 -1.9592 0.9824
3.1690 -2.5705 -2.0016 0.9820
3.2593 -2.4550 -2.0016 0.9820
3.5047 -2.0899 -2.0016 0.9820
3.6457 -1.8327 -2.0016 0.9820
3.7092 -1.7005 -2.0016 0.9820
3.7680 -1.5661 -2.0016 0.9820
3.8707 -1.2913 -2.0016 0.9820
3.9535 -1.0099 -2.0016 0.9820
4.0158 -0.7233 -2.0016 0.9820
4.0392 -0.5785 -2.0016 0.9820
4.0574 -0.4330 -2.0016 0.9820
4.0704 -0.2869 -2.0016 0.9820
4.0780 -0.1404 -2.0016 0.9820
4.0776 0.1529 -2.0016 0.9820
4.0561 0.4455 -2.0016 0.9820
3.9631 0.8748 -1.9908 0.9821
3.8925 1.1579 -1.9921 0.9821
3.7040 1.7119 -2.0016 0.9820
3.4982 2.1007 -2.0016 0.9820
3.4204 2.2250 -2.0016 0.9820
3.2518 2.4650 -2.0016 0.9820
3.1611 2.5803 -2.0016 0.9820
3.0663 2.6922 -2.0016 0.9820
2.9675 2.8007 -2.0016 0.9820
2.8650 2.9055 -2.0016 0.9820
2.7587 3.0066 -2.0016 0.9820
2.0512 3.5274 -2.0016 0.9820
1.9231 3.5989 -2.0016 0.9820
1.7925 3.6656 -2.0016 0.9820
1.6596 3.7277 -2.0016 0.9820
1.2487 3.8847 -2.0016 0.9820
1.1083 3.9271 -2.0016 0.9820
0.8233 3.9965 -2.0016 0.9820
0.5341 4.0454 -2.0016 0.9820
0.2421 4.0733 -2.0016 0.9820
-0.3441 4.0659 -2.0016 0.9820
-0.9232 3.9747 -2.0016 0.9820
-1.3457 3.8522 -2.0016 0.9820
-1.7525 3.6850 -2.0016 0.9820
-1.8838 3.6196 -2.0016 0.9820
-2.0127 3.5495 -2.0016 0.9820
-2.2625 3.3958 -2.0016 0.9820
-2.6149 3.1325 -2.0016 0.9820
-2.8331 2.9366 -2.0016 0.9820
-2.9369 2.8329 -2.0016 0.9820
-3.0368 2.7255 -2.0016 0.9820
-1.1226 0.5841 -0.6207 0.9944
-1.1586 0.3133 -0.5887 0.9947
-1.1651 0.2705 -0.5867 0.9947
-1.1757 0.2288 -0.5875 0.9947
-1.1841 0.1865 -0.5880 0.9947
-1.1944 0.1010 -0.5880 0.9947
-1.1963 -0.0281 -0.5870 0.9947
-1.1960 -0.0712 -0.5877 0.9947
-1.1817 -0.1996 -0.5879 0.9947
-1.1726 -0.2417 -0.5873 0.9947
-1.1613 -0.2832 -0.5864 0.9947
-1.1589 -0.3272 -0.5907 0.9946
-1.1584 -0.3725 -0.5969 0.9946
-1.1556 -0.4180 -0.6028 0.9945
-1.1425 -0.5088 -0.6135 0.9944
-3.4512 -2.1770 -2.0016 0.9820
-3.2659 -2.2282 -1.9393 0.9825
-3.0523 -2.2473 -1.8593 0.9833
-2.9659 -2.3527 -1.8570 0.9833
-2.8794 -2.4578 -1.8570 0.9833
-2.7892 -2.5597 -1.8570 0.9833
-2.6954 -2.6583 -1.8570 0.9833
-2.5981 -2.7534 -1.8570 0.9833
-2.4975 -2.8450 -1.8570 0.9833
-2.2867 -3.0171 -1.8570 0.9833
-1.5879 -3.4366 -1.8570 0.9833
-1.3370 -3.5418 -1.8570 0.9833
-1.2088 -3.5875 -1.8570 0.9833
-1.0791 -3.6287 -1.8570 0.9833
-0.9479 -3.6651 -1.8570 0.9833
-0.8156 -3.6968 -1.8570 0.9833
-0.6822 -3.7237 -1.8570 0.9833
-0.5479 -3.7458 -1.8570 0.9833
-0.2774 -3.7755 -1.8570 0.9833
-0.1415 -3.7831 -1.8570 0.9833
0.1306 -3.7835 -1.8570 0.9833
0.4021 -3.7643 -1.8570 0.9833
0.5371 -3.7474 -1.8570 0.9833
0.8049 -3.6992 -1.8570 0.9833
0.9373 -3.6678 -1.8570 0.9833
1.1984 -3.5910 -1.8570 0.9833
1.3267 -3.5456 -1.8570 0.9833
1.7006 -3.3822 -1.8570 0.9833
1.8211 -3.3189 -1.8570 0.9833
1.9392 -3.2513 -1.8570 0.9833
2.0548 -3.1795 -1.8570 0.9833
2.1678 -3.1036 -1.8570 0.9833
2.2779 -3.0237 -1.8570 0.9833
2.3851 -2.9399 -1.8570 0.9833
2.4892 -2.8522 -1.8570 0.9833
2.7818 -2.5677 -1.8570 0.9833
3.1895 -2.5451 -2.0016 0.9820
3.2789 -2.4288 -2.0016 0.9820
3.3640 -2.3094 -2.0016 0.9820
3.5213 -2.0618 -2.0016 0.9820
3.8809 -1.2603 -2.0016 0.9820
4.0215 -0.6912 -2.0016 0.9820
4.0608 -0.4005 -2.0016 0.9820
4.0790 -0.1077 -2.0016 0.9820
4.0669 0.3319 -2.0016 0.9820
4.0524 0.4779 -2.0016 0.9820
4.0076 0.7678 -2.0016 0.9820
3.9509 0.9053 -1.9882 0.9821
3.8759 1.1868 -1.9884 0.9821
3.8562 1.3342 -2.0016 0.9820
3.7504 1.6077 -2.0016 0.9820
3.6902 1.7415 -2.0016 0.9820
3.4025 2.2523 -2.0016 0.9820
3.2319 2.4909 -2.0016 0.9820
3.0446 2.7167 -2.0016 0.9820
2.9450 2.8243 -2.0016 0.9820
2.7345 3.0286 -2.0016 0.9820
2.6239 3.1249 -2.0016 0.9820
2.5099 3.2172 -2.0016 0.9820
2.0229 3.5437 -2.0016 0.9820
1.7631 3.6799 -2.0016 0.9820
1.6298 3.7409 -2.0016 0.9820
1.4942 3.7970 -2.0016 0.9820
1.0769 3.9358 -2.0016 0.9820
0.7913 4.0030 -2.0016 0.9820
0.5017 4.0495 -2.0016 0.9820
0.3559 4.0649 -2.0016 0.9820
0.2095 4.0751 -2.0016 0.9820
-0.6675 4.0255 -2.0016 0.9820
-1.9961 3.3017 -2.0016 0.9828
-2.2281 3.1498 -2.0016 0.9828
-2.3399 3.0677 -2.0016 0.9828
-2.4487 2.9816 -2.0016 0.9828
-2.5542 2.8917 -2.0016 0.9828
-2.6565 2.7980 -2.0016 0.9828
-2.9423 2.4958 -2.0016 0.9828
-0.9985 0.5767 -0.5982 0.9948
-1.0462 0.4620 -0.5933 0.9949
-1.0594 0.3795 -0.5838 0.9949
-1.0626 0.3381 -0.5785 0.9950
-1.0638 0.2968 -0.5730 0.9950
-1.0748 0.2586 -0.5735 0.9950
-1.1065 0.0226 -0.5741 0.9950
-1.1064 -0.0570 -0.5747 0.9950
-1.1044 -0.0968 -0.5751 0.9950
-1.1004 -0.1364 -0.5752 0.9950
-1.0644 -0.2913 -0.5725 0.9950
-1.0599 -0.3738 -0.5831 0.9949
-1.0548 -0.4152 -0.5881 0.9949
