ply
format ascii 1.0
element vertex 1541
property float32 x
property float32 y
property float32 z
property float32 I
end_header
-24.2637 -22.5329 5.0727 0.8746
-19.3511 -22.3042 4.5236 0.8874
-17.8695 -22.1561 4.3606 0.8912
-16.7589 -22.3782 4.2830 0.8930
-11.1849 -22.3937 3.8347 0.9037
-9.2664 -22.4540 3.7212 0.9064
-7.4120 -22.3991 3.6144 0.9089
-6.5463 -22.4565 3.5834 0.9097
-5.6667 -22.4040 3.5403 0.9107
-4.0142 -22.5842 3.5140 0.9114
-0.7232 -22.4178 3.4361 0.9132
0.0822 -22.4200 3.4346 0.9133
0.8949 -22.5978 3.4646 0.9125
2.3295 -4.1993 0.7356 0.9808
32.8497 -34.7101 7.3212 0.8242
32.5554 -29.7917 6.7604 0.8365
32.5435 -25.7441 6.3568 0.8454
34.9897 -25.6919 6.6500 0.8389
40.8782 -25.7157 7.3984 0.8225
32.8331 -7.9756 5.1761 0.8722
31.0920 -6.3799 4.8624 0.8795
32.1947 -5.4095 5.0012 0.8762
34.2417 0.4487 5.2461 0.8706
37.6824 13.1743 6.1154 0.8508
35.0370 15.1516 5.8479 0.8569
30.1687 14.3533 5.1181 0.8735
26.4421 14.9963 4.6569 0.8843
26.1817 17.4442 4.8196 0.8805
25.7752 18.5434 4.8643 0.8794
28.9691 22.4627 5.6157 0.8621
24.9340 25.8390 5.5009 0.8648
31.6034 37.8463 7.5534 0.8191
9.9649 36.7517 5.8334 0.8572
1.2699 14.8686 2.2861 0.9414
0.1996 14.9214 2.2861 0.9414
-0.3363 14.9190 2.2861 0.9414
-1.9387 14.7963 2.2861 0.9414
-2.9956 14.6190 2.2861 0.9414
-4.5502 14.2121 2.2861 0.9414
-5.0576 14.0396 2.2861 0.9414
-6.1879 13.9462 2.3373 0.9401
-6.7981 13.9479 2.3770 0.9391
-7.5689 13.0572 2.3121 0.9408
-9.5134 13.9905 2.5918 0.9338
-10.2570 13.9770 2.6559 0.9322
-11.0646 13.9948 2.7330 0.9304
-11.9076 13.9971 2.8152 0.9283
-12.8041 13.9996 2.9064 0.9261
-14.7847 13.9999 3.1192 0.9209
-17.0715 13.9842 3.3807 0.9146
-21.0891 16.0452 4.0595 0.8983
-25.7785 -22.3531 5.2270 0.8710
-24.1748 -22.5332 5.0628 0.8748
-19.2875 -22.3135 4.5183 0.8875
-13.9390 -21.7885 3.9625 0.9006
-8.2699 -22.4018 3.6582 0.9079
-7.3812 -22.4440 3.6195 0.9088
-4.8129 -22.5820 3.5371 0.9108
-3.1161 -22.4111 3.4663 0.9125
-1.4926 -22.4706 3.4500 0.9129
-0.6820 -22.4179 3.4359 0.9132
0.9364 -22.5979 3.4648 0.9125
1.7375 -22.4246 3.4456 0.9130
2.1853 -4.2767 0.7357 0.9808
2.3456 -4.2101 0.7383 0.9807
32.5482 -25.6509 6.3485 0.8456
35.1252 -25.6923 6.6668 0.8385
32.8416 -7.9139 5.1752 0.8722
31.1363 13.5327 5.2010 0.8716
27.1170 14.1803 4.6879 0.8835
26.3989 15.0359 4.6541 0.8843
25.9268 25.0972 5.5279 0.8641
24.9373 25.9375 5.5121 0.8645
31.8117 35.5594 7.3092 0.8244
2.3067 14.7434 2.2861 0.9414
0.7079 14.9060 2.2861 0.9414
-0.3637 14.9183 2.2861 0.9414
-1.4334 14.8538 2.2861 0.9414
-1.1753 8.8442 1.3668 0.9645
-2.4957 14.7126 2.2861 0.9414
-3.0224 14.6135 2.2861 0.9414
-3.5452 14.4955 2.2861 0.9414
-5.6274 13.9465 2.3039 0.9410
-6.8299 13.9480 2.3792 0.9391
-7.4633 13.9498 2.4237 0.9380
-7.6028 13.0603 2.3151 0.9407
-9.5511 13.9906 2.5951 0.9337
-10.2822 13.9576 2.6558 0.9323
-11.9521 13.9972 2.8197 0.9282
-12.8516 13.9997 2.9113 0.9260
-13.7730 13.9622 3.0045 0.9237
-14.8393 14.0000 3.1253 0.9208
-15.9134 13.9681 3.2437 0.9179
-17.1200 13.9715 3.3852 0.9145
-21.1699 16.0455 4.0694 0.8981
-30.2692 -4.3137 4.6839 0.8836
-27.6205 -22.3480 5.4429 0.8661
-25.6834 -22.3534 5.2161 0.8713
-23.8992 -22.3583 5.0136 0.8760
-22.0334 -22.1490 4.7861 0.8812
-15.1947 -22.0579 4.1033 0.8973
-13.0523 -22.2064 3.9460 0.9010
-12.1956 -22.5665 3.9296 0.9014
-11.0825 -22.3940 3.8278 0.9038
-8.2233 -22.4019 3.6558 0.9079
-7.3389 -22.4543 3.6189 0.9088
-6.4413 -22.4019 3.5709 0.9100
-4.7696 -22.5821 3.5358 0.9108
-3.8983 -22.4089 3.4845 0.9121
-3.0742 -22.4112 3.4654 0.9125
-2.2636 -22.4684 3.4595 0.9127
0.9780 -22.5980 3.4651 0.9125
1.7790 -22.4247 3.4461 0.9130
-3.1659 15.5960 2.0723 0.9378
-3.7541 15.5976 2.0891 0.9373
-4.3526 15.5993 2.1089 0.9368
-4.9634 15.6010 2.1319 0.9361
-5.6877 15.8801 2.1966 0.9342
-7.3974 13.9496 2.0561 0.9383
-8.8386 13.0496 2.0524 0.9384
-9.5411 13.0516 2.1053 0.9369
-10.2816 13.0536 2.1638 0.9352
-13.6720 13.9619 2.5447 0.9242
-17.0344 14.0061 2.8718 0.9149
-19.7338 13.9787 3.1491 0.9071
-21.3774 14.0182 3.3289 0.9020
-27.6667 -22.2179 4.6207 0.8666
-25.8740 -22.3529 4.4526 0.8712
-24.0752 -22.3579 4.2785 0.8759
-22.4097 -22.3625 4.1226 0.8801
-19.5609 -22.5460 3.8869 0.8866
-17.6337 -21.8638 3.6577 0.8929
-15.6530 -22.5454 3.5741 0.8952
-14.1703 -22.0607 3.4143 0.8996
-11.1849 -22.3937 3.2596 0.9040
-10.1986 -22.3964 3.2046 0.9055
-9.3161 -22.5745 3.1802 0.9062
-7.4120 -22.3991 3.0724 0.9092
-6.5463 -22.4565 3.0460 0.9100
-4.0142 -22.5842 2.9870 0.9116
-3.1513 -22.3632 2.9409 0.9129
-2.3469 -22.4682 2.9417 0.9129
-1.5341 -22.4705 2.9329 0.9132
-0.7232 -22.4178 2.9208 0.9135
0.8949 -22.5978 2.9450 0.9128
2.1892 -4.3038 0.6288 0.9807
2.3294 -4.1992 0.6253 0.9808
32.9503 -34.8165 6.2423 0.8242
32.5305 -31.9896 5.9412 0.8319
32.9659 -28.0603 5.6374 0.8398
41.0276 -25.8097 6.3119 0.8224
35.3548 -8.5882 4.7378 0.8635
30.7607 -6.3119 4.0891 0.8810
25.1000 -4.2174 3.3144 0.9024
29.2853 -2.7799 3.8307 0.8881
30.9995 -1.8226 4.0438 0.8823
47.4512 12.8521 6.4018 0.8201
35.0329 13.6786 4.8974 0.8592
30.4906 13.1855 4.3259 0.8746
27.5975 15.6515 4.1315 0.8799
26.4984 16.3127 4.0521 0.8820
26.9766 17.9739 4.2212 0.8774
27.7800 21.5406 4.5776 0.8678
28.5121 23.7957 4.8360 0.8609
27.6822 24.8427 4.8436 0.8607
26.2598 29.2452 5.1183 0.8534
2.1211 17.4268 2.2861 0.9316
1.4940 17.4918 2.2861 0.9316
0.7825 15.8621 2.0681 0.9379
-0.9102 15.5530 2.0288 0.9391
-1.4740 15.5733 2.0370 0.9388
-2.0431 15.5929 2.0479 0.9385
-3.1958 15.5961 2.0731 0.9378
-3.7844 15.5977 2.0901 0.9373
-5.7207 15.8802 2.1980 0.9342
-6.0467 15.0654 2.1139 0.9366
-7.4198 13.9300 2.0553 0.9383
-8.8737 13.0497 2.0550 0.9383
-11.1069 13.0559 2.2321 0.9332
-13.7224 13.9620 2.5493 0.9241
-15.8544 13.9680 2.7515 0.9183
-17.0715 13.9842 2.8737 0.9148
-18.3680 13.9749 3.0055 0.9111
-33.4314 -23.1974 5.2989 0.8486
-27.5693 -22.2230 4.6112 0.8669
-25.7785 -22.3531 4.4432 0.8714
-23.9870 -22.3581 4.2701 0.8761
-22.3278 -22.3627 4.1151 0.8803
-20.7829 -22.3670 3.9759 0.8841
-17.5677 -21.8639 3.6524 0.8930
-16.6950 -22.3784 3.6357 0.8935
-14.1133 -22.0609 3.4104 0.8997
-11.1337 -22.3938 3.2567 0.9040
-9.2678 -22.5746 3.1778 0.9063
-8.2699 -22.4018 3.1096 0.9082
-7.3812 -22.4440 3.0767 0.9091
-5.6230 -22.4041 3.0080 0.9110
-4.8129 -22.5820 3.0067 0.9111
-3.1161 -22.4111 2.9465 0.9128
-2.3053 -22.4683 2.9412 0.9129
-0.6820 -22.4179 2.9206 0.9135
0.1240 -22.5516 2.9367 0.9130
2.1853 -4.2767 0.6254 0.9808
32.6323 -36.9230 6.4168 0.8197
32.5309 -31.8727 5.9306 0.8322
32.4443 -25.5690 5.3792 0.8465
38.0520 -25.7881 5.9859 0.8308
41.1959 -25.8102 6.3305 0.8219
25.2947 -4.2024 3.3390 0.9017
31.3301 -4.0552 4.1139 0.8804
32.0625 -0.6727 4.1761 0.8787
32.6003 6.4223 4.3268 0.8746
42.0313 13.1056 5.7333 0.8373
37.4633 13.1749 5.1714 0.8520
35.0331 13.7528 4.9010 0.8591
32.8694 14.2859 4.6671 0.8654
27.5697 15.7027 4.1316 0.8799
26.7017 16.5055 4.0878 0.8811
26.9279 18.0129 4.2188 0.8775
27.5957 19.9301 4.4327 0.8717
27.7157 21.5724 4.5736 0.8679
27.5909 24.8523 4.8355 0.8609
27.0436 26.1782 4.9013 0.8591
26.6206 27.6882 5.0017 0.8565
26.3311 29.4332 5.1427 0.8527
2.7136 17.3444 2.2861 0.9316
2.0891 17.4307 2.2861 0.9316
0.7533 15.8622 2.0679 0.9380
-0.3788 15.5392 2.0241 0.9392
-1.5030 15.5745 2.0375 0.9388
-4.4144 15.5995 2.1111 0.9367
-5.0266 15.6012 2.1344 0.9360
-6.0470 14.9863 2.1044 0.9369
-7.4200 13.8689 2.0482 0.9385
-7.5946 13.0462 1.9658 0.9409
-8.9088 13.0498 2.0576 0.9383
-9.6149 13.0518 2.1110 0.9367
-13.7730 13.9622 2.5539 0.9239
-15.9134 13.9681 2.7573 0.9181
-27.5219 -22.2683 4.6101 0.8669
-25.6835 -22.3534 4.4338 0.8717
-20.7066 -22.3672 3.9692 0.8843
-17.5019 -21.8641 3.6470 0.8932
-16.6314 -22.3785 3.6308 0.8936
-13.9373 -21.8740 3.3775 0.9007
-13.1236 -22.3278 3.3726 0.9008
-10.0996 -22.3967 3.1993 0.9056
-9.2194 -22.5747 3.1754 0.9063
-8.2233 -22.4019 3.1075 0.9082
-5.5793 -22.4043 3.0066 0.9111
-4.7696 -22.5821 3.0055 0.9111
-3.8983 -22.4089 2.9619 0.9123
-3.0742 -22.4112 2.9457 0.9128
-1.4477 -22.4157 2.9251 0.9134
-0.6409 -22.4180 2.9205 0.9135
0.1658 -22.5958 2.9425 0.9129
2.1881 -4.2628 0.6240 0.9809
-2.9865 14.7120 1.6120 0.9414
-3.5680 14.8247 1.6374 0.9405
-4.1461 14.8592 1.6566 0.9398
-4.7469 14.9206 1.6813 0.9390
-5.3244 14.8657 1.6956 0.9385
-6.0465 15.1452 1.7511 0.9365
-6.7664 13.9479 1.6647 0.9395
-7.5305 13.0460 1.6175 0.9412
-8.1698 13.0478 1.6531 0.9399
-9.5411 13.0516 1.7361 0.9370
-11.0656 13.0558 1.8378 0.9335
-11.8991 13.0581 1.8971 0.9314
-15.4316 14.6663 2.2861 0.9179
-15.9483 14.1027 2.2861 0.9179
-18.2980 13.9747 2.4724 0.9115
-19.7338 13.9787 2.5968 0.9073
-23.1577 14.0231 2.9071 0.8968
-34.9127 17.8515 4.2106 0.8541
-33.5354 -23.1785 4.3775 0.8487
-25.8740 -22.3529 3.6716 0.8715
-16.7589 -22.3782 3.0022 0.8936
-15.6530 -22.5454 2.9473 0.8955
-12.3027 -22.5662 2.7599 0.9018
-11.1849 -22.3937 2.6879 0.9042
-10.1986 -22.3964 2.6426 0.9057
-9.3161 -22.5745 2.6224 0.9064
-7.4120 -22.3991 2.5335 0.9094
-5.6667 -22.4040 2.4815 0.9112
-4.8467 -22.5378 2.4755 0.9114
-4.0064 -22.5401 2.4583 0.9120
-2.3549 -22.5447 2.4341 0.9128
-1.5423 -22.5911 2.4315 0.9129
0.8949 -22.5978 2.4285 0.9130
7.0025 -47.1877 5.1226 0.8254
2.1891 -4.3037 0.5185 0.9808
2.3294 -4.1992 0.5156 0.9809
32.4270 -36.8267 5.2691 0.8209
32.9580 -30.1602 4.7973 0.8355
33.0252 -28.1108 4.6571 0.8399
35.1767 -25.8292 4.6863 0.8390
41.0268 -25.8092 5.2048 0.8228
31.5474 -6.4733 3.4582 0.8785
31.2782 -5.2555 3.4058 0.8802
32.7995 -3.1135 3.5379 0.8759
35.2913 -2.0749 3.7962 0.8674
47.6831 12.9150 5.3048 0.8198
37.6824 13.1743 4.2866 0.8516
35.0370 15.1516 4.0991 0.8576
30.0144 14.2799 3.5692 0.8748
27.8238 14.4850 3.3684 0.8814
27.3970 15.5378 3.3821 0.8810
27.5470 16.9582 3.4736 0.8780
25.9873 17.3147 3.3532 0.8819
27.9661 20.1197 3.6995 0.8706
27.6506 23.0768 3.8674 0.8651
28.0205 25.1463 4.0429 0.8594
26.7643 25.8129 3.9929 0.8611
27.0253 28.0061 4.1792 0.8551
31.8544 35.4759 5.1198 0.8255
0.7825 15.8622 1.7054 0.9381
-0.3298 14.6279 1.5712 0.9428
-0.8564 14.6351 1.5742 0.9427
-1.3880 14.6647 1.5818 0.9425
-3.0158 14.7178 1.6133 0.9414
-3.5971 14.8257 1.6382 0.9405
-4.1763 14.8621 1.6577 0.9398
-4.7782 14.9240 1.6827 0.9389
-5.3511 14.8541 1.6954 0.9385
-6.0467 15.0654 1.7432 0.9368
-6.1879 13.9462 1.6384 0.9405
-6.7981 13.9479 1.6662 0.9395
-7.4198 13.9300 1.6948 0.9385
-8.2032 13.0479 1.6550 0.9399
-11.1069 13.0559 1.8407 0.9334
-11.9432 13.0582 1.9003 0.9313
-17.0428 13.9607 2.3657 0.9152
-18.3680 13.9749 2.4784 0.9113
-21.4636 14.0184 2.7528 0.9020
-35.0354 17.8331 4.2215 0.8537
-33.4296 -23.1961 4.3693 0.8490
-27.7240 -22.3477 3.8238 0.8665
-22.3762 -22.4112 3.4007 0.8804
-19.4887 -22.5462 3.2002 0.8870
-15.5997 -22.5570 2.9450 0.8955
-12.8750 -21.8130 2.7199 0.9031
-12.2491 -22.5663 2.7572 0.9019
-11.1337 -22.3938 2.6855 0.9043
-10.1491 -22.3966 2.6404 0.9058
-8.2699 -22.4018 2.5642 0.9084
-6.5017 -22.4567 2.5105 0.9102
-4.8129 -22.5820 2.4794 0.9113
-1.4977 -22.5470 2.4265 0.9131
-0.6820 -22.4179 2.4084 0.9137
0.1240 -22.5516 2.4217 0.9133
1.7375 -22.4246 2.4152 0.9135
2.1852 -4.2766 0.5157 0.9809
2.3455 -4.2100 0.5175 0.9808
32.9583 -30.0495 4.7893 0.8357
32.6288 -25.7144 4.4611 0.8461
35.3337 -25.8447 4.7008 0.8385
32.7143 -5.4351 3.5611 0.8751
32.6366 -4.2244 3.5338 0.8760
32.7987 -3.0527 3.5372 0.8759
45.3357 8.9312 4.9618 0.8304
41.9986 13.0954 4.7240 0.8378
37.4633 13.1749 4.2644 0.8523
27.3627 15.5848 3.3814 0.8810
25.9534 17.3611 3.3530 0.8820
28.0061 20.2265 3.7097 0.8702
26.7038 25.8493 3.9909 0.8611
31.8265 35.5760 5.1258 0.8253
31.4760 37.8347 5.2849 0.8204
1.7728 21.2154 2.2861 0.9179
0.1685 14.6016 1.5681 0.9429
-0.3566 14.6275 1.5712 0.9428
-1.4153 14.6664 1.5822 0.9424
-1.1750 8.8414 0.9577 0.9648
-2.4955 14.7115 1.6023 0.9417
-4.2066 14.8651 1.6589 0.9397
-4.8095 14.9274 1.6841 0.9389
-5.3777 14.8425 1.6952 0.9385
-6.0470 14.9864 1.7353 0.9371
-6.2186 13.9463 1.6397 0.9404
-6.8299 13.9480 1.6677 0.9394
-7.4200 13.8689 1.6890 0.9387
-7.5946 13.0462 1.6210 0.9411
-8.9088 13.0498 1.6967 0.9384
-9.6149 13.0518 1.7408 0.9369
-11.1484 13.0560 1.8436 0.9333
-11.9874 13.0584 1.9035 0.9312
-15.9999 14.0441 2.2861 0.9179
-17.1070 13.9609 2.3711 0.9150
-18.4383 13.9751 2.4844 0.9111
-19.9386 14.0142 2.6170 0.9066
-20.7066 -22.3672 3.2730 0.8846
-16.6314 -22.3785 2.9940 0.8939
-13.8678 -21.7649 2.7713 0.9014
-12.8729 -21.9012 2.7279 0.9028
-12.1956 -22.5665 2.7545 0.9020
-10.0996 -22.3967 2.6382 0.9059
-8.2233 -22.4019 2.5625 0.9085
-6.4413 -22.4019 2.5030 0.9105
-5.5793 -22.4043 2.4793 0.9113
-2.2713 -22.5449 2.4332 0.9129
0.1658 -22.5958 2.4264 0.9131
0.9780 -22.5980 2.4289 0.9130
2.1880 -4.2628 0.5145 0.9809
-2.7794 13.6919 1.1827 0.9455
-3.2986 13.7053 1.1933 0.9450
-3.8278 13.7183 1.2057 0.9444
-4.9486 13.8163 1.2423 0.9428
-6.0465 15.1453 1.3805 0.9366
-6.7664 13.9479 1.3123 0.9397
-7.3974 13.9496 1.3366 0.9386
-10.5317 14.4067 1.5107 0.9309
-12.0199 13.1906 1.5107 0.9309
-12.8342 13.1063 1.5528 0.9290
-17.6564 15.6132 1.9952 0.9097
-22.0368 15.6101 2.2861 0.8973
-22.5831 14.8087 2.2861 0.8973
-34.8674 17.8283 3.3151 0.8545
-27.8280 -22.3474 3.0213 0.8665
-25.8740 -22.3529 2.8945 0.8717
-24.2637 -22.5329 2.8031 0.8755
-22.4097 -22.3625 2.6800 0.8807
-19.5609 -22.5460 2.5268 0.8871
-17.6337 -21.8638 2.3778 0.8934
-16.3349 -21.8120 2.3068 0.8964
-12.3027 -22.5662 2.1757 0.9020
-7.4120 -22.3991 1.9973 0.9096
-6.5303 -22.4016 1.9753 0.9106
-4.8184 -22.4064 1.9401 0.9121
-3.9830 -22.4087 1.9267 0.9127
-2.3412 -22.4133 1.9077 0.9135
-1.5303 -22.4155 1.9020 0.9138
0.0822 -22.4200 1.8979 0.9139
0.8879 -22.4222 1.8996 0.9139
2.3294 -4.1991 0.4065 0.9809
32.6144 -32.0721 3.8722 0.8323
33.1199 -30.3083 3.8005 0.8351
32.6286 -25.8114 3.5218 0.8462
37.9205 -25.8007 3.8827 0.8318
32.6147 -4.2824 2.7846 0.8763
37.6824 13.1743 3.3793 0.8519
26.9045 17.9258 2.7368 0.8783
27.9387 20.0999 2.9136 0.8710
30.5884 23.7183 3.2766 0.8561
2.7783 22.8265 1.9466 0.9118
1.9498 22.8288 1.9396 0.9121
0.7825 15.8622 1.3444 0.9382
0.1815 13.5687 1.1487 0.9470
-0.3059 13.5701 1.1490 0.9470
-0.7942 13.5714 1.1508 0.9469
-1.2847 13.5728 1.1541 0.9467
-2.2876 13.6374 1.1706 0.9460
-2.8062 13.6950 1.1834 0.9454
-3.8551 13.7191 1.2063 0.9444
-4.9783 13.8194 1.2434 0.9427
-6.0468 15.0654 1.3742 0.9369
-6.1879 13.9463 1.2916 0.9406
-9.4984 15.1080 1.5107 0.9309
-10.0347 14.7572 1.5107 0.9309
-10.5581 14.3873 1.5107 0.9309
-11.0679 13.9990 1.5107 0.9309
-17.7332 15.6232 2.0007 0.9095
-19.2129 15.7383 2.1024 0.9051
-35.0863 17.8590 3.3328 0.8538
-33.4277 -23.1948 3.4442 0.8493
-25.7785 -22.3531 2.8884 0.8720
-24.1748 -22.5332 2.7976 0.8758
-22.3762 -22.4112 2.6809 0.8806
-20.7829 -22.3670 2.5846 0.8846
-19.4886 -22.5462 2.5228 0.8872
-17.5678 -21.8639 2.3743 0.8935
-13.9649 -21.8289 2.1937 0.9012
-12.2491 -22.5663 2.1736 0.9021
-11.1337 -22.3938 2.1171 0.9045
-9.1957 -22.3992 2.0497 0.9074
-3.1161 -22.4111 1.9154 0.9132
-1.4890 -22.4156 1.9017 0.9138
-0.6820 -22.4179 1.8986 0.9139
0.1233 -22.4201 1.8980 0.9139
0.9291 -22.4224 1.8997 0.9139
2.1852 -4.2766 0.4066 0.9809
2.3455 -4.2100 0.4079 0.9808
32.6115 -31.9517 3.8649 0.8325
37.9805 -25.7397 3.8839 0.8318
42.0146 -26.3231 4.1971 0.8195
32.9504 8.9895 2.8913 0.8719
35.0191 15.2202 3.2324 0.8579
29.8775 14.2820 2.8033 0.8755
27.8274 14.5518 2.6583 0.8816
27.1523 15.4650 2.6452 0.8821
26.9393 18.0205 2.7437 0.8780
30.5148 23.7511 3.2734 0.8562
2.7358 22.8266 1.9462 0.9118
0.7533 15.8623 1.3443 0.9382
0.1566 13.5688 1.1487 0.9470
-0.8192 13.5715 1.1510 0.9469
-1.3098 13.5728 1.1543 0.9467
-3.3522 13.7064 1.1945 0.9449
-3.8826 13.7199 1.2070 0.9444
-4.4353 13.7662 1.2243 0.9436
-5.0081 13.8224 1.2445 0.9427
-9.5261 15.0905 1.5107 0.9309
-11.0936 13.9786 1.5107 0.9309
-11.5884 13.5713 1.5107 0.9309
-12.0682 13.1464 1.5107 0.9309
-12.9240 13.1016 1.5579 0.9288
-16.3740 15.4479 1.9056 0.9136
-20.7703 15.7426 2.2062 0.9007
-22.0939 15.5291 2.2861 0.8973
-23.2756 13.9780 2.2984 0.8967
-27.6205 -22.3480 3.0076 0.8671
-25.6834 -22.3534 2.8823 0.8722
-19.3981 -22.5248 2.5165 0.8875
-17.5019 -21.8641 2.3708 0.8937
-13.1236 -22.3278 2.1924 0.9013
-11.0825 -22.3940 2.1152 0.9046
-7.3210 -22.3994 1.9949 0.9097
-6.4413 -22.4019 1.9732 0.9107
-3.0742 -22.4112 1.9149 0.9132
0.9704 -22.4225 1.8999 0.9138
-2.7561 13.5768 0.8591 0.9460
-3.7891 13.5797 0.8742 0.9451
-6.7664 13.9479 0.9613 0.9398
-7.3974 13.9496 0.9791 0.9387
-10.1709 17.6203 1.2616 0.9217
-11.1040 17.7339 1.2975 0.9196
-12.8469 17.5738 1.3499 0.9165
-13.2086 16.7697 1.3237 0.9180
-12.9260 14.1850 1.1900 0.9260
-13.6719 13.9619 1.2118 0.9247
-16.7178 15.8887 1.4302 0.9117
-16.0562 14.1981 1.3291 0.9177
-17.5290 14.4127 1.4072 0.9131
-20.9119 14.8133 1.5891 0.9024
-24.0752 -22.3579 2.0374 0.8766
-14.8963 -19.8911 1.5410 0.9052
-15.2340 -21.9420 1.6564 0.8985
-14.1703 -22.0607 1.6259 0.9003
-12.2071 -22.3908 1.5814 0.9028
-11.1849 -22.3937 1.5522 0.9045
-10.1986 -22.3964 1.5260 0.9061
-9.2438 -22.3991 1.5026 0.9075
-8.3166 -22.4016 1.4818 0.9087
-7.4120 -22.3991 1.4630 0.9098
-3.9764 -22.3714 1.4090 0.9130
-3.1469 -22.3318 1.3985 0.9136
-1.5303 -22.4155 1.3932 0.9139
0.8879 -22.4222 1.3915 0.9140
1.6961 -22.4245 1.3945 0.9138
2.3294 -4.1991 0.2977 0.9809
32.6007 -37.0239 3.0590 0.8206
32.6286 -25.8114 2.5798 0.8464
34.9088 -25.6325 2.6856 0.8407
32.6121 -4.2821 2.0396 0.8765
36.2942 12.6890 2.3842 0.8572
34.6624 13.5339 2.3075 0.8615
35.0412 16.6715 2.4063 0.8560
30.2732 17.1690 2.1581 0.8698
35.0548 21.5801 2.5526 0.8479
2.7783 22.8265 1.4259 0.9120
0.1815 13.5687 0.8415 0.9471
-0.3059 13.5701 0.8417 0.9471
-0.7942 13.5714 0.8430 0.9470
-2.2772 13.5755 0.8536 0.9463
-2.7820 13.5769 0.8594 0.9460
-3.2945 13.5783 0.8664 0.9455
-3.8160 13.5798 0.8747 0.9450
-4.3483 13.5813 0.8843 0.9445
-4.8931 13.5828 0.8953 0.9438
-6.0468 15.0654 1.0067 0.9370
-6.7981 13.9479 0.9622 0.9397
-7.4304 13.9497 0.9801 0.9386
-10.1828 17.5664 1.2591 0.9218
-11.1494 17.7341 1.2990 0.9195
-12.0607 17.7366 1.3300 0.9176
-13.2088 16.7067 1.3207 0.9182
-13.2120 15.5304 1.2644 0.9215
-16.7795 15.8888 1.4330 0.9115
-16.1251 14.2065 1.3326 0.9175
-17.6121 14.4270 1.4118 0.9128
-33.4258 -23.1935 2.5223 0.8495
-27.7240 -22.3477 2.2082 0.8670
-22.3277 -22.3627 1.9596 0.8810
-20.7829 -22.3670 1.8933 0.8848
-16.3846 -18.9551 1.5537 0.9045
-15.2043 -18.9226 1.5052 0.9073
-14.9129 -19.9895 1.5465 0.9049
-15.1745 -21.9421 1.6543 0.8986
-14.1133 -22.0609 1.6240 0.9004
-13.1567 -22.2903 1.6050 0.9015
-12.1539 -22.3910 1.5798 0.9029
-11.1337 -22.3938 1.5508 0.9046
-8.2699 -22.4018 1.4808 0.9087
-5.6230 -22.4041 1.4324 0.9116
-4.7675 -22.3692 1.4183 0.9124
-3.1051 -22.3319 1.3981 0.9136
-2.2996 -22.4134 1.3972 0.9137
1.7375 -22.4246 1.3947 0.9138
2.1852 -4.2766 0.2978 0.9809
2.3455 -4.2099 0.2988 0.9809
32.6288 -25.7144 2.5762 0.8466
45.3289 8.9298 2.8649 0.8310
41.5443 12.9538 2.6985 0.8400
34.6602 13.6064 2.3090 0.8614
35.0414 16.7505 2.4084 0.8559
35.0551 21.6691 2.5556 0.8478
34.8657 25.1806 2.6669 0.8417
1.9076 22.8289 1.4206 0.9123
0.7533 15.8623 0.9847 0.9383
0.1566 13.5688 0.8415 0.9471
-0.3308 13.5701 0.8417 0.9471
-0.8192 13.5715 0.8431 0.9470
-1.3098 13.5728 0.8456 0.9468
-1.1746 8.8385 0.5529 0.9649
-2.3029 13.5756 0.8539 0.9463
-2.8080 13.5770 0.8597 0.9460
-3.8429 13.5799 0.8752 0.9450
-4.3758 13.5813 0.8848 0.9444
-4.9213 13.5829 0.8959 0.9437
-6.0470 14.9864 1.0021 0.9373
-6.2186 13.9463 0.9469 0.9406
-7.4633 13.9498 0.9811 0.9386
-11.1950 17.7342 1.3005 0.9194
-12.9167 17.5337 1.3505 0.9164
-13.2089 16.6440 1.3176 0.9184
-12.9263 14.0811 1.1853 0.9263
-13.7730 13.9622 1.2162 0.9244
-16.8415 15.8890 1.4358 0.9114
-16.1941 14.2145 1.3362 0.9173
-17.6958 14.4414 1.4164 0.9125
-19.3391 14.6579 1.5048 0.9073
-21.0218 14.7755 1.5934 0.9021
-25.6835 -22.3534 2.1114 0.8724
-22.2462 -22.3629 1.9560 0.8812
-15.1474 -18.9227 1.5030 0.9074
-13.1236 -22.3278 1.6060 0.9014
-11.0825 -22.3940 1.5494 0.9047
-10.0996 -22.3967 1.5235 0.9062
-8.2233 -22.4019 1.4798 0.9088
-5.5793 -22.4043 1.4317 0.9116
-4.7246 -22.3693 1.4177 0.9124
-3.0742 -22.4112 1.4027 0.9133
-2.2581 -22.4135 1.3969 0.9137
-1.4477 -22.4157 1.3929 0.9139
0.9704 -22.4225 1.3917 0.9140
-3.2222 15.8733 0.6387 0.9372
-3.8208 15.8750 0.6438 0.9367
-5.6878 15.8801 0.6651 0.9347
-6.0465 15.1453 0.6430 0.9368
-7.3974 13.9496 0.6226 0.9387
-12.9260 14.1850 0.7567 0.9261
-13.6719 13.9619 0.7705 0.9248
-16.4865 13.5556 0.8416 0.9181
-17.7538 13.5592 0.8809 0.9145
-19.1469 13.5630 0.9252 0.9103
-25.8740 -22.3529 1.3482 0.8721
-20.8593 -22.3668 1.2060 0.8848
-16.4143 -18.9192 0.9876 0.9046
-15.2614 -18.9224 0.9586 0.9073
-13.9647 -21.7407 1.0189 0.9017
-13.1733 -22.2251 1.0187 0.9017
-10.1986 -22.3964 0.9704 0.9062
-6.5463 -22.4565 0.9223 0.9106
-5.6667 -22.4040 0.9112 0.9116
-3.9648 -22.3064 0.8934 0.9133
-1.5423 -22.5911 0.8929 0.9133
2.3293 -4.1990 0.1893 0.9810
32.6006 -37.0239 1.9452 0.8208
32.6144 -32.0721 1.8037 0.8327
37.8285 -25.7381 1.8042 0.8326
45.3681 8.8511 1.8226 0.8311
32.9980 8.9375 1.3479 0.8721
37.6824 13.1743 1.5740 0.8523
35.0329 13.6786 1.4829 0.8602
35.0370 15.1516 1.5052 0.8583
35.0412 16.6715 1.5301 0.8561
35.1768 18.3129 1.5638 0.8532
35.4429 31.8073 1.8778 0.8264
2.7783 22.8265 0.9067 0.9121
1.9498 22.8288 0.9034 0.9124
0.2122 15.8638 0.6256 0.9385
-0.3577 15.8654 0.6257 0.9384
-1.5020 15.8685 0.6285 0.9382
-2.0794 15.8701 0.6311 0.9379
-5.7207 15.8802 0.6656 0.9347
-6.0468 15.0654 0.6401 0.9371
-6.1879 13.9463 0.6016 0.9408
-10.1828 17.5664 0.8006 0.9219
-11.1494 17.7341 0.8260 0.9196
-12.8966 17.5739 0.8595 0.9164
-13.2088 16.7067 0.8398 0.9183
-13.7224 13.9620 0.7719 0.9246
-16.5485 13.5558 0.8435 0.9179
-17.8218 13.5594 0.8830 0.9143
-19.2219 13.5632 0.9276 0.9101
-27.7241 -22.3477 1.4041 0.8671
-25.7785 -22.3531 1.3454 0.8723
-24.1276 -22.4892 1.3006 0.8763
-16.3537 -18.9194 0.9861 0.9047
-15.2043 -18.9226 0.9572 0.9074
-13.9604 -20.1866 0.9678 0.9064
-10.1491 -22.3966 0.9696 0.9063
-9.2183 -22.4541 0.9571 0.9074
-8.2699 -22.4018 0.9416 0.9088
-7.3812 -22.4440 0.9316 0.9098
-6.5017 -22.4567 0.9219 0.9107
-4.7977 -22.5107 0.9076 0.9120
-3.9232 -22.3097 0.8932 0.9133
-3.1051 -22.3319 0.8890 0.9137
-2.3176 -22.5890 0.8954 0.9131
-0.6820 -22.4179 0.8844 0.9141
0.1240 -22.5516 0.8892 0.9137
2.1852 -4.2765 0.1894 0.9810
32.7114 -37.0125 1.9477 0.8206
32.6115 -31.9517 1.8002 0.8330
32.8965 -29.9931 1.7554 0.8368
32.6145 -4.2215 1.2967 0.8766
42.2113 13.1617 1.7435 0.8378
37.4633 13.1749 1.5659 0.8530
35.0331 13.7528 1.4840 0.8601
35.0372 15.2281 1.5064 0.8582
35.1815 20.0381 1.5965 0.8504
35.1863 21.7502 1.6311 0.8474
2.7358 22.8266 0.9065 0.9121
1.9076 22.8289 0.9033 0.9124
0.1831 15.8639 0.6256 0.9385
-0.3868 15.8654 0.6258 0.9384
-1.5313 15.8686 0.6286 0.9382
-1.1744 8.8371 0.3515 0.9649
-2.6924 15.8718 0.6348 0.9376
-5.1159 15.8786 0.6578 0.9354
-6.0470 14.9864 0.6372 0.9374
-7.4633 13.9498 0.6238 0.9386
-11.1950 17.7342 0.8270 0.9195
-12.1085 17.7367 0.8468 0.9176
-12.9167 17.5337 0.8587 0.9165
-13.2089 16.6440 0.8379 0.9185
-13.2122 15.4730 0.8023 0.9218
-12.9263 14.0811 0.7537 0.9263
-16.8416 15.8890 0.9130 0.9115
-15.4401 13.5527 0.8101 0.9210
-17.8900 13.5595 0.8851 0.9141
-20.8572 13.5678 0.9811 0.9052
-27.6205 -22.3480 1.4010 0.8674
-25.6834 -22.3534 1.3426 0.8726
-14.0653 -18.9257 0.9298 0.9099
-13.9606 -20.2664 0.9704 0.9062
-13.0921 -22.2741 1.0188 0.9017
-10.0996 -22.3967 0.9688 0.9063
-9.1702 -22.4542 0.9564 0.9075
-5.5793 -22.4043 0.9104 0.9117
-3.8918 -22.3716 0.8954 0.9131
-2.2758 -22.5891 0.8952 0.9131
0.1658 -22.5958 0.8910 0.9135
0.9780 -22.5980 0.8919 0.9134
1.7789 -22.4247 0.8870 0.9139
2.1880 -4.2627 0.1889 0.9810
-2.9149 12.1111 0.2104 0.9514
-4.4300 15.8767 0.2784 0.9362
-4.4203 12.3415 0.2214 0.9489
-6.0465 15.1453 0.2755 0.9368
-6.5270 12.3082 0.2353 0.9458
-10.1709 17.6203 0.3437 0.9218
-11.1040 17.7339 0.3534 0.9197
-8.3110 12.2707 0.2503 0.9424
-12.8469 17.5738 0.3677 0.9166
-13.2086 16.7697 0.3606 0.9181
-12.9260 14.1850 0.3242 0.9261
-12.1228 12.3799 0.2927 0.9330
-17.9719 15.8922 0.4052 0.9085
-20.8189 15.9001 0.4425 0.9005
-33.2659 21.8139 0.6720 0.8529
-33.4912 -23.1480 0.6877 0.8497
-17.7037 -21.9505 0.4763 0.8933
-16.5993 -22.1651 0.4678 0.8951
-15.6609 -22.5568 0.4639 0.8960
-11.1849 -22.3937 0.4228 0.9047
-10.1986 -22.3964 0.4157 0.9062
-9.2664 -22.4540 0.4103 0.9074
-4.8409 -22.5106 0.3889 0.9120
-3.1469 -22.3318 0.3810 0.9137
-2.3549 -22.5447 0.3829 0.9133
-1.5423 -22.5911 0.3825 0.9134
0.0822 -22.4200 0.3787 0.9142
1.6961 -22.4245 0.3799 0.9140
2.1890 -4.3034 0.0816 0.9809
32.6006 -37.0239 0.8333 0.8209
34.0856 -36.0160 0.8376 0.8201
32.6286 -25.8114 0.7028 0.8467
37.8238 -25.7349 0.7728 0.8328
43.2828 13.4087 0.7654 0.8342
38.3809 13.4185 0.6868 0.8499
35.1457 18.2967 0.6693 0.8534
35.3520 27.4120 0.7557 0.8361
35.4429 31.8073 0.8044 0.8265
2.6685 13.6580 0.2351 0.9458
0.7825 15.8622 0.2683 0.9384
0.1679 12.5539 0.2121 0.9510
-0.9285 15.8669 0.2685 0.9384
-1.5020 15.8685 0.2692 0.9382
-1.1621 8.8689 0.1511 0.9648
-3.2526 15.8734 0.2737 0.9372
-3.8517 15.8750 0.2759 0.9367
-6.0798 12.4741 0.2344 0.9460
-7.4304 13.9497 0.2670 0.9387
-11.1494 17.7341 0.3538 0.9196
-8.3308 12.2513 0.2503 0.9425
-9.8800 12.4964 0.2691 0.9383
-12.9261 14.1329 0.3235 0.9262
-12.1434 12.3555 0.2926 0.9330
-16.7795 15.8888 0.3903 0.9117
-33.2613 23.4696 0.6876 0.8497
-33.4200 -23.1895 0.6871 0.8498
-25.7785 -22.3531 0.5764 0.8724
-24.1748 -22.5332 0.5582 0.8762
-19.4887 -22.5462 0.5034 0.8876
-15.5997 -22.5570 0.4633 0.8961
-13.1383 -22.2590 0.4366 0.9018
-11.1337 -22.3938 0.4224 0.9048
-9.2183 -22.4541 0.4100 0.9075
-8.2699 -22.4018 0.4034 0.9089
-7.3812 -22.4440 0.3991 0.9098
-6.5366 -22.5772 0.3970 0.9103
-5.6230 -22.4041 0.3902 0.9117
-4.7977 -22.5107 0.3888 0.9120
-3.9232 -22.3097 0.3826 0.9134
1.7375 -22.4246 0.3799 0.9139
32.7114 -37.0125 0.8344 0.8207
32.6115 -31.9517 0.7712 0.8331
32.8986 -29.9950 0.7520 0.8369
32.6288 -25.7144 0.7017 0.8469
45.3190 8.9279 0.7802 0.8313
32.9457 8.9883 0.5769 0.8723
43.0059 13.4095 0.7609 0.8351
36.0482 15.6675 0.6639 0.8545
35.1460 18.3789 0.6700 0.8533
35.1815 20.0381 0.6839 0.8505
35.3866 21.8740 0.7027 0.8467
35.1965 25.4196 0.7334 0.8406
4.6322 17.2090 0.3010 0.9312
2.6471 13.6819 0.2354 0.9458
1.0587 12.6698 0.2148 0.9504
-0.3868 15.8654 0.2681 0.9385
-0.9578 15.8670 0.2685 0.9384
-2.1133 12.4580 0.2134 0.9507
-3.8826 15.8751 0.2761 0.9367
-4.4929 15.8768 0.2787 0.9361
-4.0143 12.4593 0.2211 0.9490
-4.4584 12.3052 0.2211 0.9490
-6.0470 14.9864 0.2730 0.9374
-6.2186 13.9463 0.2579 0.9407
-12.9167 17.5337 0.3679 0.9166
-13.2089 16.6440 0.3589 0.9185
-10.5382 12.3414 0.2741 0.9371
-12.9263 14.0811 0.3228 0.9264
-13.7730 13.9622 0.3313 0.9245
-18.1058 15.8925 0.4069 0.9081
-19.4787 15.8963 0.4247 0.9043
-20.9786 15.9005 0.4447 0.9000
-25.6834 -22.3534 0.5751 0.8727
-23.8992 -22.3583 0.5528 0.8773
-22.3007 -22.4178 0.5341 0.8812
-19.3981 -22.5248 0.5021 0.8879
-17.5019 -21.8641 0.4731 0.8940
-15.5387 -22.5572 0.4627 0.8962
-13.0921 -22.2741 0.4364 0.9018
-12.1956 -22.5665 0.4333 0.9025
-11.0825 -22.3940 0.4221 0.9049
-9.1702 -22.4542 0.4097 0.9075
-7.3639 -22.5307 0.4004 0.9095
-6.4413 -22.4019 0.3937 0.9110
-5.5793 -22.4043 0.3900 0.9118
-3.8918 -22.3716 0.3836 0.9132
-3.0742 -22.4112 0.3821 0.9135
0.1657 -22.5958 0.3817 0.9136
0.9780 -22.5980 0.3821 0.9135
-2.9448 12.2353 -0.0709 0.9509
-3.9047 12.2732 -0.0725 0.9498
-4.3802 12.2294 -0.0731 0.9494
-4.8496 12.1472 -0.0736 0.9490
-5.3238 12.0585 -0.0742 0.9486
-9.5104 12.0745 -0.0865 0.9404
-10.2735 12.1212 -0.0895 0.9384
-10.8341 11.8893 -0.0906 0.9377
-11.7466 11.9957 -0.0945 0.9350
-13.7570 12.1651 -0.1034 0.9292
-14.4945 11.9177 -0.1057 0.9277
-33.4827 -23.1421 -0.2292 0.8498
-27.8280 -22.3474 -0.2009 0.8670
-22.4097 -22.3625 -0.1782 0.8811
-16.5993 -22.1651 -0.1559 0.8951
-15.6609 -22.5568 -0.1546 0.8960
-14.1703 -22.0607 -0.1476 0.9004
-13.1733 -22.2251 -0.1455 0.9018
-12.3027 -22.5662 -0.1447 0.9023
-10.1986 -22.3964 -0.1386 0.9063
-8.3166 -22.4016 -0.1345 0.9088
-7.4120 -22.3991 -0.1328 0.9099
-6.5815 -22.5771 -0.1324 0.9102
-3.9648 -22.3064 -0.1276 0.9134
-2.3549 -22.5447 -0.1276 0.9133
1.6961 -22.4245 -0.1266 0.9140
34.0874 -36.0179 -0.2792 0.8201
32.6144 -32.0721 -0.2575 0.8328
32.6101 -4.2818 -0.1852 0.8767
38.2439 13.3706 -0.2281 0.8504
34.1381 17.7722 -0.2167 0.8573
34.4720 21.2212 -0.2279 0.8505
35.1962 25.3212 -0.2441 0.8408
30.0606 26.9771 -0.2274 0.8508
3.1575 13.5548 -0.0784 0.9458
2.5561 13.0828 -0.0751 0.9481
2.0485 12.9378 -0.0737 0.9490
0.5991 12.1448 -0.0685 0.9525
-0.7223 12.3433 -0.0696 0.9517
-1.1571 12.2255 -0.0691 0.9521
-2.4490 11.9516 -0.0687 0.9524
-3.9252 12.2597 -0.0725 0.9498
-4.8582 12.1041 -0.0734 0.9492
-5.3488 12.0552 -0.0743 0.9486
-5.9798 12.2689 -0.0768 0.9469
-6.9465 11.9835 -0.0780 0.9461
-8.2810 12.1781 -0.0829 0.9428
-8.7353 11.9034 -0.0831 0.9427
-10.2933 12.0995 -0.0894 0.9384
-11.0489 12.0804 -0.0922 0.9366
-19.7680 11.9210 -0.1300 0.9118
-21.7006 12.0457 -0.1397 0.9055
-25.8670 12.0172 -0.1606 0.8922
-25.7785 -22.3531 -0.1921 0.8724
-24.1748 -22.5332 -0.1861 0.8762
-22.3762 -22.4112 -0.1783 0.8810
-20.7829 -22.3670 -0.1719 0.8850
-17.5678 -21.8639 -0.1579 0.8939
-16.5882 -22.2351 -0.1562 0.8950
-15.5997 -22.5570 -0.1544 0.8961
-13.1382 -22.2590 -0.1455 0.9018
-12.2491 -22.5663 -0.1446 0.9024
-11.1337 -22.3938 -0.1408 0.9048
-9.2678 -22.5746 -0.1374 0.9070
-8.2699 -22.4018 -0.1344 0.9089
-6.5366 -22.5772 -0.1323 0.9103
-4.7977 -22.5107 -0.1296 0.9120
-3.1051 -22.3319 -0.1269 0.9138
-1.4977 -22.5470 -0.1272 0.9136
-0.6820 -22.4179 -0.1263 0.9142
37.9739 -25.7352 -0.2583 0.8324
32.6141 -4.2214 -0.1852 0.8767
45.3124 8.9266 -0.2600 0.8313
32.9135 8.9795 -0.1921 0.8724
35.2872 13.8526 -0.2134 0.8593
34.1376 17.8516 -0.2169 0.8572
35.1815 20.0381 -0.2280 0.8505
34.4720 21.3087 -0.2282 0.8503
35.1913 23.5406 -0.2384 0.8442
35.1965 25.4196 -0.2444 0.8406
30.0666 27.0823 -0.2278 0.8506
3.8193 14.1889 -0.0827 0.9429
2.5251 13.0512 -0.0748 0.9482
1.0519 12.5886 -0.0711 0.9507
0.1390 12.0428 -0.0678 0.9530
-1.1788 12.2149 -0.0691 0.9521
-1.1740 8.8343 -0.0502 0.9650
-2.0508 12.0896 -0.0690 0.9521
-2.4731 11.9577 -0.0687 0.9523
-3.4464 12.1786 -0.0713 0.9506
-4.8667 12.0614 -0.0732 0.9493
-5.3739 12.0519 -0.0743 0.9486
-8.2997 12.1576 -0.0829 0.9428
-10.3131 12.0778 -0.0894 0.9384
-11.0561 12.0439 -0.0920 0.9367
-12.0408 12.2062 -0.0965 0.9337
-13.8387 12.1470 -0.1037 0.9290
-14.5635 11.8851 -0.1058 0.9276
-15.9675 12.1024 -0.1128 0.9230
-16.8950 11.8749 -0.1163 0.9207
-18.2918 11.8990 -0.1229 0.9164
-19.8577 11.9254 -0.1304 0.9115
-21.6073 11.9421 -0.1390 0.9060
-26.7925 12.3875 -0.1662 0.8886
-27.6205 -22.3480 -0.2000 0.8675
-23.8992 -22.3583 -0.1843 0.8773
-22.3764 -22.4938 -0.1786 0.8808
-20.7066 -22.3672 -0.1716 0.8852
-17.5019 -21.8641 -0.1577 0.8940
-12.1956 -22.5665 -0.1444 0.9025
-11.0825 -22.3940 -0.1407 0.9049
-10.0996 -22.3967 -0.1383 0.9064
-8.2233 -22.4019 -0.1344 0.9090
-7.3639 -22.5307 -0.1334 0.9095
-6.4413 -22.4019 -0.1312 0.9110
-5.5793 -22.4043 -0.1300 0.9118
-4.7545 -22.5109 -0.1295 0.9121
-2.2758 -22.5891 -0.1278 0.9132
0.1658 -22.5958 -0.1272 0.9136
-2.8930 12.0199 -0.3481 0.9517
-3.3872 12.1395 -0.3549 0.9508
-5.3282 12.0685 -0.3715 0.9486
-6.3050 11.8895 -0.3789 0.9476
-7.4599 11.9140 -0.3958 0.9453
-8.0808 11.9308 -0.4057 0.9440
-9.4029 11.9380 -0.4279 0.9410
-10.0992 11.9156 -0.4398 0.9394
-12.4214 11.8054 -0.4825 0.9337
-13.4811 11.9210 -0.5067 0.9305
-16.7118 11.8380 -0.5767 0.9213
-18.1724 11.9165 -0.6119 0.9167
-19.5964 11.8666 -0.6451 0.9124
-21.1314 11.7806 -0.6812 0.9077
-23.3709 11.9499 -0.7391 0.9003
-25.6355 11.9669 -0.7966 0.8930
-33.4661 -23.1307 -1.1455 0.8498
-27.8008 -22.3255 -1.0040 0.8670
-25.8150 -22.3018 -0.9606 0.8724
-23.9924 -22.2809 -0.9220 0.8772
-20.7466 -22.2460 -0.8565 0.8854
-16.5993 -22.1651 -0.7797 0.8951
-13.1704 -22.2202 -0.7273 0.9018
-12.1156 -22.2231 -0.7127 0.9037
-10.1358 -22.2586 -0.6887 0.9068
-8.2801 -22.3031 -0.6699 0.9092
-6.5106 -22.3341 -0.6551 0.9111
-4.8409 -22.5106 -0.6483 0.9120
-4.0015 -22.5130 -0.6438 0.9126
0.0821 -22.4032 -0.6308 0.9143
0.8872 -22.4044 -0.6314 0.9142
1.6946 -22.4039 -0.6326 0.9140
6.9815 -47.0459 -1.3392 0.8267
34.0383 -35.9660 -1.3944 0.8202
32.2205 -31.6847 -1.2724 0.8346
32.6286 -25.8114 -1.1715 0.8466
37.7271 -25.6692 -1.2849 0.8331
39.1231 -24.6116 -1.3015 0.8311
46.0501 -2.7075 -1.2989 0.8314
35.0367 13.6801 -1.0591 0.8603
35.6726 16.9719 -1.1123 0.8538
33.6587 20.7206 -1.1129 0.8537
34.3062 22.8574 -1.1608 0.8479
1.5618 12.8316 -0.3640 0.9496
0.6051 12.2657 -0.3458 0.9520
-1.1518 12.1693 -0.3442 0.9523
-2.4291 11.8543 -0.3407 0.9527
-2.9200 12.0349 -0.3487 0.9517
-3.4003 12.1003 -0.3539 0.9509
-4.3110 11.9668 -0.3582 0.9504
-5.8195 11.9400 -0.3740 0.9482
-6.8226 11.7696 -0.3831 0.9470
-7.4731 11.8866 -0.3954 0.9454
-8.1043 11.9182 -0.4058 0.9440
-8.6627 11.8045 -0.4123 0.9431
-9.4214 11.9164 -0.4277 0.9410
-10.1214 11.8975 -0.4398 0.9394
-10.9193 11.9388 -0.4556 0.9373
-12.5460 11.8801 -0.4865 0.9332
-13.4799 11.8760 -0.5059 0.9306
-15.5641 11.8417 -0.5507 0.9247
-19.6202 11.8318 -0.6451 0.9124
-21.2864 11.8158 -0.6855 0.9072
-23.3791 11.9000 -0.7387 0.9003
-25.6501 11.9165 -0.7964 0.8930
-33.4066 -23.1802 -1.1449 0.8498
-27.6949 -22.3242 -1.0016 0.8673
-23.9031 -22.2799 -0.9201 0.8774
-22.2267 -22.2615 -0.8858 0.8817
-20.6696 -22.2452 -0.8550 0.8856
-19.2159 -22.2306 -0.8274 0.8891
-17.5677 -21.8639 -0.7898 0.8938
-16.5882 -22.2351 -0.7811 0.8949
-13.1154 -22.2203 -0.7265 0.9019
-7.3398 -22.3182 -0.6615 0.9103
-3.9344 -22.3736 -0.6397 0.9131
-1.4877 -22.3964 -0.6320 0.9141
0.1232 -22.4033 -0.6308 0.9143
0.9284 -22.4044 -0.6314 0.9142
1.7359 -22.4038 -0.6327 0.9140
2.1851 -4.2764 -0.1353 0.9810
32.7114 -37.0125 -1.3909 0.8206
32.8382 -29.9400 -1.2513 0.8371
37.8807 -25.6721 -1.2885 0.8327
32.6139 -4.2214 -0.9260 0.8767
45.2334 8.9110 -1.2982 0.8315
35.6248 17.0294 -1.1118 0.8538
33.6589 20.8060 -1.1142 0.8536
34.1914 22.8717 -1.1583 0.8482
34.2020 24.7013 -1.1882 0.8447
3.6742 13.6501 -0.3980 0.9450
2.0519 13.1148 -0.3738 0.9483
1.5100 12.5991 -0.3573 0.9505
0.1386 12.0123 -0.3383 0.9531
-0.2921 11.9809 -0.3375 0.9532
-0.7251 12.0128 -0.3389 0.9530
-1.1752 12.1779 -0.3445 0.9522
-2.4478 11.8352 -0.3403 0.9528
-2.9445 12.0393 -0.3490 0.9516
-3.4132 12.0614 -0.3530 0.9511
-3.8225 11.8639 -0.3510 0.9513
-4.3282 11.9460 -0.3578 0.9504
-4.8852 12.1072 -0.3676 0.9491
-6.3495 11.8680 -0.3790 0.9476
-7.4651 11.8257 -0.3938 0.9456
-8.7954 11.9394 -0.4176 0.9424
-10.1436 11.8793 -0.4398 0.9394
-10.9404 11.9178 -0.4555 0.9373
-11.8028 11.9650 -0.4732 0.9350
-12.6017 11.8889 -0.4878 0.9330
-15.6324 11.8484 -0.5523 0.9245
-23.3873 11.8502 -0.7382 0.9004
-33.3891 -23.2590 -1.1458 0.8497
-27.5895 -22.3230 -0.9993 0.8676
-20.5929 -22.2444 -0.8535 0.8858
-15.5387 -22.5572 -0.7713 0.8962
-13.0606 -22.2205 -0.7258 0.9020
-9.1008 -22.2843 -0.6778 0.9082
-8.1878 -22.3052 -0.6690 0.9093
-7.2947 -22.3191 -0.6612 0.9103
-6.4223 -22.3357 -0.6544 0.9112
-3.8922 -22.3741 -0.6395 0.9131
-2.2558 -22.3908 -0.6337 0.9139
-1.4464 -22.3966 -0.6320 0.9141
0.1643 -22.4034 -0.6308 0.9142
-3.7518 11.7928 -0.6276 0.9516
-5.7781 11.9106 -0.6714 0.9484
-7.3824 11.7904 -0.7055 0.9458
-8.0505 11.8860 -0.7280 0.9441
-8.7009 11.9023 -0.7477 0.9427
-9.3393 11.8572 -0.7655 0.9413
-10.8963 11.9576 -0.8204 0.9373
-12.4738 11.8552 -0.8727 0.9334
-14.4462 11.8780 -0.9485 0.9278
-21.1553 11.7938 -1.2283 0.9075
-23.0861 11.8043 -1.3150 0.9014
-24.7885 11.5716 -1.3874 0.8962
-33.5758 14.2286 -1.8494 0.8641
-37.3506 12.7519 -2.0016 0.8538
-38.1694 10.0385 -2.0016 0.8538
-38.5053 8.6615 -2.0016 0.8538
-39.2134 4.4706 -2.0016 0.8538
-39.3486 3.0597 -2.0016 0.8538
-39.3813 -2.6052 -2.0016 0.8538
-39.2624 -4.0175 -2.0016 0.8538
-30.0829 -4.1745 -1.5403 0.8855
-38.8728 -6.8249 -2.0016 0.8538
-38.6027 -8.2163 -2.0016 0.8538
-37.0288 -13.6582 -2.0016 0.8538
-35.9531 -16.2804 -2.0016 0.8538
-30.7234 -19.6433 -1.8494 0.8641
-22.4097 -22.3625 -1.6055 0.8809
-19.4089 -22.3708 -1.5020 0.8881
-17.7036 -21.9505 -1.4302 0.8932
-13.1733 -22.2251 -1.3102 0.9017
-12.2071 -22.3908 -1.2933 0.9029
-8.3166 -22.4016 -1.2118 0.9087
-5.6667 -22.4040 -1.1720 0.9116
-4.0015 -22.5130 -1.1596 0.9125
-3.1513 -22.3632 -1.1453 0.9135
-2.3412 -22.4133 -1.1429 0.9137
0.0822 -22.4200 -1.1370 0.9141
0.8536 -21.5568 -1.0941 0.9172
5.3529 -36.0713 -1.8494 0.8641
7.9278 -35.5941 -1.8494 0.8641
11.3229 -37.8083 -2.0016 0.8538
14.0070 -36.8982 -2.0016 0.8538
15.3229 -36.3715 -2.0016 0.8538
16.6190 -35.7978 -2.0016 0.8538
2.1888 -4.3031 -0.2448 0.9808
23.8890 -31.4164 -2.0016 0.8538
25.0017 -30.5384 -2.0016 0.8538
26.9490 -28.4752 -1.9883 0.8547
26.9728 -26.5243 -1.9185 0.8594
26.9956 -24.7039 -1.8558 0.8637
27.7687 -23.6365 -1.8494 0.8641
29.3935 -21.5827 -1.8494 0.8641
31.5439 -18.2968 -1.8494 0.8641
32.1806 -17.1523 -1.8494 0.8641
35.9908 -15.9807 -1.9971 0.8541
37.1279 -13.3865 -2.0016 0.8538
37.9928 -10.6874 -2.0016 0.8538
38.3521 -9.3163 -2.0016 0.8538
38.9218 -6.5398 -2.0016 0.8538
34.0781 -3.2348 -1.7360 0.8719
37.9357 -2.2304 -1.9272 0.8588
39.4571 -0.9002 -2.0016 0.8538
39.4640 0.5171 -2.0016 0.8538
39.3251 3.3480 -2.0016 0.8538
39.1796 4.7579 -2.0016 0.8538
38.9835 6.1616 -2.0016 0.8538
38.7371 7.5574 -2.0016 0.8538
35.5269 8.2655 -1.8498 0.8641
33.9688 13.2631 -1.8494 0.8641
32.9294 15.6667 -1.8494 0.8641
32.3456 16.8390 -1.8494 0.8641
31.0537 19.1169 -1.8494 0.8641
29.6017 21.2963 -1.8494 0.8641
27.2677 26.2984 -1.9212 0.8592
27.2779 28.2679 -1.9922 0.8544
26.3685 29.3663 -2.0016 0.8538
25.2970 30.2942 -2.0016 0.8538
23.0577 32.0315 -2.0016 0.8538
18.2344 35.0026 -2.0016 0.8538
16.9658 35.6348 -2.0016 0.8538
15.6753 36.2210 -2.0016 0.8538
14.3646 36.7605 -2.0016 0.8538
13.0354 37.2526 -2.0016 0.8538
11.6894 37.6966 -2.0016 0.8538
3.6516 13.4675 -0.7077 0.9456
2.0579 12.9972 -0.6674 0.9487
-0.7123 12.1713 -0.6183 0.9523
-1.1249 11.8851 -0.6054 0.9533
-1.1608 8.8596 -0.4531 0.9648
-2.0146 12.0101 -0.6176 0.9524
-2.4198 11.8091 -0.6113 0.9529
-2.9155 12.0165 -0.6271 0.9517
-3.7679 11.7684 -0.6267 0.9517
-4.2650 11.8393 -0.6382 0.9508
-4.7073 11.7282 -0.6409 0.9506
-6.8664 11.8452 -0.6944 0.9466
-7.3909 11.7558 -0.7042 0.9459
-8.0624 11.8567 -0.7272 0.9442
-10.9399 11.9612 -0.8221 0.9371
-11.8004 12.0065 -0.8538 0.9348
-14.4908 11.8702 -0.9500 0.9277
-15.5740 11.8492 -0.9924 0.9246
-18.2355 11.9100 -1.1046 0.9165
-19.6109 11.8262 -1.1614 0.9124
-21.1615 11.7464 -1.2274 0.9076
-33.6019 14.1669 -1.8494 0.8641
-36.8944 14.0171 -2.0016 0.8538
-39.0383 5.8041 -2.0016 0.8538
-39.3765 -2.6775 -2.0016 0.8538
-30.0912 -4.2319 -1.5411 0.8854
-38.8602 -6.8963 -2.0016 0.8538
-38.2651 -9.6674 -2.0016 0.8538
-37.8933 -11.0351 -2.0016 0.8538
-37.0036 -13.7261 -2.0016 0.8538
-36.4869 -15.0459 -2.0016 0.8538
-35.9232 -16.3464 -2.0016 0.8538
-35.3130 -17.6257 -2.0016 0.8538
-34.6574 -18.8823 -2.0016 0.8538
-30.6874 -19.6997 -1.8494 0.8641
-29.9602 -20.7888 -1.8494 0.8641
-27.7241 -22.3477 -1.8059 0.8671
-25.7785 -22.3531 -1.7304 0.8723
-23.9870 -22.3581 -1.6630 0.8769
-20.7829 -22.3670 -1.5484 0.8849
-17.5677 -21.8639 -1.4224 0.8937
-15.5997 -22.5570 -1.3909 0.8960
-13.1567 -22.2903 -1.3127 0.9015
-12.1539 -22.3910 -1.2920 0.9030
-11.1337 -22.3938 -1.2683 0.9047
-10.1491 -22.3966 -1.2470 0.9062
-6.4858 -22.4018 -1.1827 0.9108
-4.7977 -22.5107 -1.1673 0.9119
-3.9406 -22.4088 -1.1539 0.9129
-3.1161 -22.4111 -1.1475 0.9134
-2.2996 -22.4134 -1.1426 0.9137
-1.4890 -22.4156 -1.1393 0.9140
-0.6820 -22.4179 -1.1374 0.9141
0.1233 -22.4201 -1.1370 0.9141
1.7375 -22.4246 -1.1407 0.9139
4.1207 -36.2327 -1.8494 0.8641
6.7104 -35.8435 -1.8494 0.8641
8.6510 -38.5076 -2.0016 0.8538
10.0281 -38.1722 -2.0016 0.8538
11.3922 -37.7875 -2.0016 0.8538
15.3896 -36.3433 -2.0016 0.8538
16.6847 -35.7673 -2.0016 0.8538
2.1851 -4.2764 -0.2435 0.9809
2.3453 -4.2097 -0.2444 0.9809
20.4342 -33.7657 -2.0016 0.8538
21.6334 -33.0102 -2.0016 0.8538
22.8047 -32.2121 -2.0016 0.8538
25.0577 -30.4924 -2.0016 0.8538
26.9740 -26.4282 -1.9151 0.8596
26.9990 -24.6161 -1.8529 0.8639
28.6411 -22.5717 -1.8494 0.8641
30.1870 -20.4580 -1.8494 0.8641
31.5774 -18.2388 -1.8494 0.8641
33.6303 -16.3262 -1.8959 0.8609
36.6502 -14.6437 -2.0016 0.8538
37.1524 -13.3183 -2.0016 0.8538
38.3691 -9.2459 -2.0016 0.8538
38.6764 -7.8622 -2.0016 0.8538
32.4745 -4.2034 -1.6607 0.8771
39.4587 -0.8279 -2.0016 0.8538
39.4630 0.5895 -2.0016 0.8538
39.3189 3.4201 -2.0016 0.8538
38.9721 6.2332 -2.0016 0.8538
34.4010 12.0980 -1.8494 0.8641
32.3146 16.8983 -1.8494 0.8641
29.7689 16.9553 -1.7374 0.8718
31.0186 19.1739 -1.8494 0.8641
30.3101 20.2754 -1.8494 0.8641
29.5625 21.3506 -1.8494 0.8641
27.9540 23.4171 -1.8494 0.8641
27.2691 24.5625 -1.8612 0.8633
27.2676 26.3951 -1.9246 0.8590
27.2556 28.3487 -1.9944 0.8543
25.2414 30.3405 -2.0016 0.8538
24.1357 31.2273 -2.0016 0.8538
22.9989 32.0738 -2.0016 0.8538
20.6377 33.6416 -2.0016 0.8538
16.9004 35.6659 -2.0016 0.8538
15.6088 36.2497 -2.0016 0.8538
5.2437 17.0204 -0.9032 0.9312
3.6302 13.4864 -0.7083 0.9456
3.1175 13.4951 -0.7024 0.9460
2.0081 12.8348 -0.6588 0.9493
1.0243 12.2584 -0.6238 0.9519
0.5667 11.9324 -0.6058 0.9533
0.1371 11.8832 -0.6027 0.9535
-1.1417 11.8304 -0.6028 0.9535
-1.1736 8.8314 -0.4518 0.9649
-2.4266 11.7326 -0.6076 0.9531
-4.2766 11.8035 -0.6367 0.9510
-4.7419 11.7521 -0.6427 0.9505
-5.2572 11.7903 -0.6547 0.9496
-6.3447 11.8591 -0.6821 0.9476
-6.8847 11.8267 -0.6940 0.9467
-7.3993 11.7213 -0.7030 0.9460
-14.5355 11.8623 -0.9515 0.9276
-16.8834 11.8668 -1.0466 0.9207
-21.3724 11.8122 -1.2384 0.9068
-25.0312 11.5731 -1.3986 0.8954
-33.6279 14.1052 -1.8494 0.8641
-36.9201 13.9494 -2.0016 0.8538
-37.8260 11.2638 -2.0016 0.8538
-38.5368 8.5201 -2.0016 0.8538
-38.8179 7.1309 -2.0016 0.8538
-39.0489 5.7325 -2.0016 0.8538
-39.3596 2.9152 -2.0016 0.8538
-39.4389 1.5001 -2.0016 0.8538
-39.4673 0.0829 -2.0016 0.8538
-39.4448 -1.3342 -2.0016 0.8538
-39.2474 -4.1616 -2.0016 0.8538
-39.0726 -5.5683 -2.0016 0.8538
-38.8475 -6.9675 -2.0016 0.8538
-38.5723 -8.3580 -2.0016 0.8538
-38.2473 -9.7375 -2.0016 0.8538
-37.8730 -11.1047 -2.0016 0.8538
-35.8931 -16.4123 -2.0016 0.8538
-35.2806 -17.6905 -2.0016 0.8538
-33.9200 -20.1769 -2.0016 0.8538
-29.9220 -20.8438 -1.8494 0.8641
-29.1543 -21.9047 -1.8494 0.8641
-23.8992 -22.3583 -1.6597 0.8772
-20.7066 -22.3672 -1.5458 0.8851
-13.9373 -21.8740 -1.3154 0.9013
-12.1009 -22.3911 -1.2908 0.9031
-9.1478 -22.3993 -1.2270 0.9076
-6.4413 -22.4019 -1.1821 0.9109
-5.5793 -22.4043 -1.1709 0.9117
-4.7545 -22.5109 -1.1668 0.9120
-1.4477 -22.4157 -1.1392 0.9140
-0.6409 -22.4180 -1.1374 0.9141
0.1645 -22.4202 -1.1371 0.9141
5.4852 -36.0514 -1.8494 0.8641
6.7762 -35.8312 -1.8494 0.8641
11.4616 -37.7665 -2.0016 0.8538
12.8102 -37.3306 -2.0016 0.8538
2.1879 -4.2625 -0.2430 0.9810
-2.4227 11.9348 -0.8929 0.9523
-2.8803 11.9674 -0.9025 0.9518
-3.3203 11.8996 -0.9058 0.9517
-3.7803 11.8823 -0.9143 0.9512
-4.2555 11.8813 -0.9254 0.9506
-5.2690 11.9344 -0.9565 0.9490
-5.7490 11.8505 -0.9658 0.9485
-6.2442 11.7750 -0.9773 0.9479
-6.8913 11.9387 -1.0107 0.9462
-8.0315 11.8579 -1.0501 0.9442
-8.6428 11.8228 -1.0738 0.9430
-9.3344 11.8509 -1.1061 0.9413
-10.8885 11.9491 -1.1853 0.9372
-11.6920 11.9399 -1.2253 0.9352
-16.2566 11.5156 -1.4607 0.9232
-19.0471 11.5339 -1.6327 0.9146
-20.7086 11.5448 -1.7384 0.9093
-22.8549 10.6689 -1.8494 0.9038
-23.2232 9.8414 -1.8494 0.9038
-23.5616 9.0012 -1.8494 0.9038
-26.1137 7.8806 -2.0000 0.8964
-26.4004 6.9433 -2.0016 0.8963
-26.8306 5.0307 -2.0016 0.8963
-27.2160 2.1163 -2.0016 0.8963
-27.2745 1.1377 -2.0016 0.8963
-25.1948 -2.5781 -1.8570 0.9034
-26.4788 -6.6380 -2.0016 0.8963
-26.2234 -7.5845 -2.0016 0.8963
-22.9992 -14.7047 -2.0016 0.8963
-21.6845 -16.1682 -1.9833 0.8972
-20.1537 -16.1845 -1.8952 0.9015
-18.4819 -17.1636 -1.8494 0.9038
-14.3845 -20.7185 -1.8494 0.9038
-13.6313 -21.2216 -1.8494 0.9038
-12.8605 -21.6974 -1.8494 0.9038
-12.0732 -22.1452 -1.8494 0.9038
-11.1849 -22.3937 -1.8354 0.9045
-10.1986 -22.3964 -1.8044 0.9060
-9.2438 -22.3991 -1.7767 0.9074
-5.4759 -16.5482 -1.2781 0.9325
-4.7464 -22.0714 -1.6553 0.9134
-3.9663 -22.3146 -1.6618 0.9131
-3.1513 -22.3632 -1.6559 0.9134
-1.5303 -22.4155 -1.6474 0.9138
-0.7232 -22.4178 -1.6446 0.9140
1.6961 -22.4245 -1.6489 0.9138
2.8042 -25.0660 -1.8494 0.9038
3.7027 -24.9491 -1.8494 0.9038
4.5960 -24.8001 -1.8494 0.9038
5.4835 -24.6191 -1.8494 0.9038
6.3638 -24.4064 -1.8494 0.9038
8.7655 -25.8526 -2.0016 0.8963
9.6882 -25.5212 -2.0016 0.8963
10.5983 -25.1568 -2.0016 0.8963
11.4947 -24.7601 -2.0016 0.8963
14.0907 -23.3804 -2.0016 0.8963
15.7323 -22.3089 -2.0016 0.8963
17.2928 -21.1223 -2.0016 0.8963
18.0400 -20.4877 -2.0016 0.8963
18.7641 -19.8268 -2.0016 0.8963
19.4639 -19.1402 -2.0016 0.8963
20.1386 -18.4290 -2.0016 0.8963
20.7873 -17.6940 -2.0016 0.8963
22.0036 -16.1565 -2.0016 0.8963
22.5695 -15.3561 -2.0016 0.8963
24.0899 -12.8400 -2.0016 0.8963
25.3310 -10.1750 -2.0016 0.8963
25.9959 -8.3309 -2.0016 0.8963
26.5268 -6.4437 -2.0016 0.8963
26.7410 -5.4871 -2.0016 0.8963
26.9208 -4.5234 -2.0016 0.8963
27.2511 -1.6022 -2.0016 0.8963
27.2958 0.3577 -2.0016 0.8963
27.1998 2.3157 -2.0016 0.8963
26.0756 8.0780 -2.0016 0.8963
25.0557 10.8352 -2.0016 0.8963
24.6505 11.7279 -2.0016 0.8963
23.2464 14.3107 -2.0016 0.8963
21.5727 16.7275 -2.0016 0.8963
20.3166 18.2326 -2.0016 0.8963
18.9557 19.6436 -2.0016 0.8963
18.2381 20.3116 -2.0016 0.8963
17.4970 20.9534 -2.0016 0.8963
16.7334 21.5681 -2.0016 0.8963
15.9481 22.1551 -2.0016 0.8963
13.4732 23.7416 -2.0016 0.8963
12.6121 24.2100 -2.0016 0.8963
11.7346 24.6473 -2.0016 0.8963
10.8421 25.0527 -2.0016 0.8963
9.9355 25.4259 -2.0016 0.8963
9.0161 25.7662 -2.0016 0.8963
3.7138 13.6969 -1.0405 0.9447
2.0128 12.7120 -0.9437 0.9497
1.5378 12.6344 -0.9332 0.9502
1.0603 12.4144 -0.9136 0.9513
0.6020 12.2037 -0.8959 0.9522
-0.2681 11.8913 -0.8721 0.9534
-0.6966 11.9043 -0.8743 0.9533
-1.1243 11.8784 -0.8748 0.9533
-1.1604 8.8564 -0.6549 0.9648
-1.9803 11.8053 -0.8777 0.9531
-3.3372 11.8761 -0.9045 0.9517
-3.7902 11.8382 -0.9114 0.9514
-4.7953 11.9473 -0.9439 0.9497
-5.2557 11.8453 -0.9502 0.9494
-6.2646 11.7612 -0.9771 0.9480
-7.3827 11.7428 -1.0170 0.9459
-10.1627 11.9459 -1.1500 0.9390
-10.9100 11.9286 -1.1853 0.9372
-11.7312 11.9361 -1.2271 0.9351
-13.6450 12.0215 -1.3334 0.9297
-14.0402 11.5011 -1.3308 0.9298
-16.3206 11.5161 -1.4646 0.9230
-22.4781 11.4414 -1.8494 0.9038
-22.8744 10.6269 -1.8494 0.9038
-21.0479 8.8740 -1.6748 0.9125
-24.3207 8.2535 -1.8831 0.9021
-26.4131 6.8948 -2.0016 0.8963
-27.2199 2.0663 -2.0016 0.8963
-27.2353 -1.8519 -2.0016 0.8963
-25.1900 -2.6243 -1.8570 0.9034
-24.9367 -4.4254 -1.8570 0.9034
-25.2824 -5.4297 -1.8960 0.9015
-26.4666 -6.6866 -2.0016 0.8963
-25.5941 -9.4939 -2.0016 0.8963
-24.8467 -11.3060 -2.0016 0.8963
-24.4247 -12.1911 -2.0016 0.8963
-23.4868 -13.9125 -2.0016 0.8963
-21.6028 -16.1691 -1.9785 0.8974
-20.0791 -16.1853 -1.8910 0.9017
-19.0560 -16.5239 -1.8494 0.9038
-17.8210 -17.8489 -1.8494 0.9038
-17.1686 -18.4773 -1.8494 0.9038
-16.4941 -19.0818 -1.8494 0.9038
-15.7983 -19.6617 -1.8494 0.9038
-15.0821 -20.2163 -1.8494 0.9038
-14.3465 -20.7448 -1.8494 0.9038
-13.5924 -21.2466 -1.8494 0.9038
-9.1958 -22.3992 -1.7754 0.9075
-5.4425 -16.5490 -1.2773 0.9325
-5.6230 -22.4041 -1.6937 0.9115
-4.7041 -22.0715 -1.6547 0.9135
-2.2996 -22.4134 -1.6520 0.9136
-1.4890 -22.4156 -1.6472 0.9138
-0.6820 -22.4179 -1.6445 0.9140
0.8940 -21.5741 -1.5832 0.9170
8.8130 -25.8364 -2.0016 0.8963
10.6445 -25.1373 -2.0016 0.8963
2.1851 -4.2763 -0.3521 0.9809
2.3453 -4.2096 -0.3533 0.9809
14.9630 -22.8319 -2.0016 0.8963
15.7732 -22.2800 -2.0016 0.8963
16.5630 -21.6992 -2.0016 0.8963
17.3315 -21.0905 -2.0016 0.8963
20.1724 -18.3920 -2.0016 0.8963
20.8198 -17.6558 -2.0016 0.8963
21.4403 -16.8969 -2.0016 0.8963
22.0332 -16.1161 -2.0016 0.8963
23.6384 -13.6533 -2.0016 0.8963
24.1135 -12.7958 -2.0016 0.8963
24.9696 -11.0322 -2.0016 0.8963
25.3496 -10.1285 -2.0016 0.8963
25.6970 -9.2118 -2.0016 0.8963
26.0111 -8.2831 -2.0016 0.8963
27.0723 -3.5041 -2.0016 0.8963
27.1807 -2.5298 -2.0016 0.8963
27.2922 -0.5726 -2.0016 0.8963
27.2951 0.4077 -2.0016 0.8963
27.2629 1.3876 -2.0016 0.8963
26.7834 5.2764 -2.0016 0.8963
26.5767 6.2347 -2.0016 0.8963
26.3357 7.1849 -2.0016 0.8963
25.4103 9.9752 -2.0016 0.8963
24.1903 12.6499 -2.0016 0.8963
22.6897 15.1779 -2.0016 0.8963
22.1301 15.9828 -2.0016 0.8963
21.5419 16.7671 -2.0016 0.8963
20.2831 18.2699 -2.0016 0.8963
19.6140 18.9864 -2.0016 0.8963
18.2008 20.3450 -2.0016 0.8963
16.6938 21.5988 -2.0016 0.8963
