ply
format ascii 1.0
element vertex 1570
property float32 x
property float32 y
property float32 z
property float32 I
end_header
-20.2875 -4.8037 -2.0016 0.9196
-19.6527 -6.9593 -2.0016 0.9196
-19.3899 -7.6611 -2.0016 0.9196
-18.7895 -9.0340 -2.0016 0.9196
-18.4527 -9.7034 -2.0016 0.9196
-17.3012 -11.6331 -2.0016 0.9196
-16.4209 -12.8457 -2.0016 0.9196
-15.4558 -13.9921 -2.0016 0.9196
-14.9430 -14.5385 -2.0016 0.9196
-14.4109 -15.0661 -2.0016 0.9196
-13.8601 -15.5742 -2.0016 0.9196
-13.2572 -16.0209 -1.9964 0.9198
-12.4314 -16.1728 -1.9584 0.9213
-11.5378 -16.1821 -1.9080 0.9232
-10.0276 -16.4474 -1.8494 0.9255
-7.5674 -17.7145 -1.8494 0.9255
-6.9259 -17.9750 -1.8494 0.9255
-6.2755 -18.2123 -1.8494 0.9255
-5.6169 -18.4261 -1.8494 0.9255
-4.9511 -18.6160 -1.8494 0.9255
-2.9188 -19.0408 -1.8494 0.9255
-2.2326 -19.1333 -1.8494 0.9255
-0.8525 -19.2443 -1.8494 0.9255
-0.1604 -19.2625 -1.8494 0.9255
0.4747 -17.1825 -1.6502 0.9333
1.2237 -19.2243 -1.8494 0.9255
1.9137 -19.1679 -1.8494 0.9255
2.6013 -19.0867 -1.8494 0.9255
3.2856 -18.9809 -1.8494 0.9255
3.9656 -18.8506 -1.8494 0.9255
4.6405 -18.6959 -1.8494 0.9255
5.5397 -19.3204 -1.9296 0.9224
6.4599 -19.8124 -2.0006 0.9197
7.1710 -19.5764 -2.0016 0.9196
7.8699 -19.3061 -2.0016 0.9196
8.5586 -19.0108 -2.0016 0.9196
10.5550 -17.9792 -2.0016 0.9196
11.8191 -17.1746 -2.0016 0.9196
12.4287 -16.7388 -2.0016 0.9196
13.0222 -16.2813 -2.0016 0.9196
13.5989 -15.8028 -2.0016 0.9196
14.1580 -15.3039 -2.0016 0.9196
16.2048 -13.1173 -2.0016 0.9196
17.9171 -10.6601 -2.0016 0.9196
18.2886 -10.0093 -2.0016 0.9196
18.9603 -8.6698 -2.0016 0.9196
19.5341 -7.2855 -2.0016 0.9196
19.7833 -6.5788 -2.0016 0.9196
20.0070 -5.8636 -2.0016 0.9196
20.5218 -3.6763 -2.0016 0.9196
20.7983 -1.4462 -2.0016 0.9196
20.8484 0.0514 -2.0016 0.9196
20.7909 1.5488 -2.0016 0.9196
20.6259 3.0382 -2.0016 0.9196
19.7506 6.6763 -2.0016 0.9196
19.2200 8.0777 -2.0016 0.9196
18.9173 8.7633 -2.0016 0.9196
18.5902 9.4374 -2.0016 0.9196
18.2390 10.0994 -2.0016 0.9196
17.8643 10.7484 -2.0016 0.9196
16.6037 12.6086 -2.0016 0.9196
15.6552 13.7686 -2.0016 0.9196
15.1502 14.3224 -2.0016 0.9196
14.0824 15.3736 -2.0016 0.9196
12.3460 16.7999 -2.0016 0.9196
11.1074 17.6433 -2.0016 0.9196
9.1439 18.7363 -2.0016 0.9196
7.4519 16.7731 -1.7621 0.9289
7.1833 17.8737 -1.8494 0.9255
6.5364 18.1203 -1.8494 0.9255
3.7812 13.4375 -1.3402 0.9455
2.7289 13.2972 -1.3032 0.9469
1.1947 12.5948 -1.2146 0.9504
0.7358 12.5352 -1.2055 0.9508
-0.1579 11.9096 -1.1435 0.9533
-0.5998 12.1807 -1.1708 0.9522
-1.4386 11.8220 -1.1433 0.9533
-1.8891 11.9304 -1.1597 0.9526
-2.2997 11.7681 -1.1512 0.9530
-2.7855 11.9543 -1.1784 0.9519
-10.6540 11.3526 -1.8494 0.9392
-11.0551 10.9624 -1.8494 0.9392
-11.8140 10.1400 -1.8494 0.9392
-12.5118 9.2652 -1.8494 0.9392
-12.8367 8.8096 -1.8494 0.9392
-13.1450 8.3426 -1.8494 0.9392
-14.0829 8.2433 -1.9384 0.9364
-15.1159 7.4456 -2.0016 0.9344
-15.3737 6.8975 -2.0016 0.9344
-15.6117 6.3406 -2.0016 0.9344
-15.8295 5.7754 -2.0016 0.9344
-16.2034 4.6235 -2.0016 0.9344
-16.8175 1.0488 -2.0016 0.9344
-16.8327 -0.7673 -2.0016 0.9344
-16.7341 -1.9744 -2.0016 0.9344
-16.6523 -2.5745 -2.0016 0.9344
-16.5490 -3.1713 -2.0016 0.9344
-16.4244 -3.7639 -2.0016 0.9344
-16.2785 -4.3518 -2.0016 0.9344
-16.1116 -4.9339 -2.0016 0.9344
-15.9239 -5.5098 -2.0016 0.9344
-15.2384 -7.1916 -2.0016 0.9344
-14.9701 -7.7346 -2.0016 0.9344
-14.6825 -8.2676 -2.0016 0.9344
-14.3759 -8.7899 -2.0016 0.9344
-14.0507 -9.3008 -2.0016 0.9344
-13.7074 -9.7998 -2.0016 0.9344
-13.3463 -10.2861 -2.0016 0.9344
-12.5730 -11.2181 -2.0016 0.9344
-12.1618 -11.6627 -2.0016 0.9344
-11.7348 -12.0923 -2.0016 0.9344
-11.2926 -12.5062 -2.0016 0.9344
-10.8359 -12.9039 -2.0016 0.9344
-10.3652 -13.2850 -2.0016 0.9344
-9.3842 -13.9952 -2.0016 0.9344
-8.8751 -14.3234 -2.0016 0.9344
-8.3546 -14.6331 -2.0016 0.9344
-7.2820 -15.1954 -2.0016 0.9344
-6.7312 -15.4473 -2.0016 0.9344
-5.0159 -16.0382 -1.9961 0.9346
-4.4249 -16.1668 -1.9910 0.9347
-3.8069 -16.1700 -1.9733 0.9353
-3.1989 -16.1728 -1.9583 0.9357
-2.5992 -16.1751 -1.9460 0.9361
-0.8349 -16.1989 -1.9268 0.9368
0.3335 -16.3464 -1.9421 0.9363
1.5413 -16.6534 -1.9866 0.9349
2.1501 -16.6749 -1.9971 0.9345
2.7540 -16.6236 -2.0016 0.9344
3.9410 -16.3828 -2.0016 0.9344
4.5272 -16.2306 -2.0016 0.9344
6.8061 -15.4144 -2.0016 0.9344
7.3556 -15.1599 -2.0016 0.9344
2.2285 -4.2015 -0.5649 0.9810
8.9445 -14.2802 -2.0016 0.9344
9.9471 -13.6008 -2.0016 0.9344
10.4295 -13.2346 -2.0016 0.9344
10.8984 -12.8512 -2.0016 0.9344
12.6273 -11.1570 -2.0016 0.9344
13.0201 -10.6960 -2.0016 0.9344
13.3961 -10.2212 -2.0016 0.9344
14.4183 -8.7200 -2.0016 0.9344
15.0074 -7.6619 -2.0016 0.9344
15.2731 -7.1176 -2.0016 0.9344
15.5190 -6.5641 -2.0016 0.9344
15.7449 -6.0022 -2.0016 0.9344
15.9504 -5.4325 -2.0016 0.9344
16.1353 -4.8557 -2.0016 0.9344
16.4425 -3.6842 -2.0016 0.9344
16.5642 -3.0909 -2.0016 0.9344
16.6646 -2.4937 -2.0016 0.9344
16.7435 -1.8932 -2.0016 0.9344
16.8500 -0.0801 -2.0016 0.9344
16.8420 0.5255 -2.0016 0.9344
16.6876 2.3351 -2.0016 0.9344
16.5929 2.9333 -2.0016 0.9344
16.4767 3.5277 -2.0016 0.9344
16.3393 4.1175 -2.0016 0.9344
16.1808 4.7021 -2.0016 0.9344
15.8013 5.8522 -2.0016 0.9344
15.3401 6.9720 -2.0016 0.9344
13.1212 10.5717 -2.0016 0.9344
12.7328 11.0364 -2.0016 0.9344
12.3280 11.4869 -2.0016 0.9344
11.4711 12.3427 -2.0016 0.9344
11.0201 12.7470 -2.0016 0.9344
10.5549 13.1348 -2.0016 0.9344
10.0760 13.5056 -2.0016 0.9344
8.5639 14.5116 -2.0016 0.9344
6.4237 14.1819 -1.8494 0.9392
5.9099 14.4036 -1.8494 0.9392
4.0969 14.1659 -1.7517 0.9423
2.7610 12.9773 -1.5760 0.9480
1.7347 12.5144 -1.5007 0.9504
1.2563 12.2986 -1.4685 0.9514
0.3558 11.8924 -1.4133 0.9532
-0.0706 11.7000 -1.3898 0.9540
-0.8913 11.4149 -1.3601 0.9549
-1.7239 11.4204 -1.3720 0.9545
-2.1468 11.4232 -1.3807 0.9543
-2.5756 11.4260 -1.3913 0.9539
-3.0116 11.4288 -1.4039 0.9535
-3.4562 11.4317 -1.4186 0.9530
-3.9108 11.4347 -1.4355 0.9525
-4.8565 11.4409 -1.4764 0.9512
-5.8629 11.4475 -1.5278 0.9495
-6.3942 11.4510 -1.5579 0.9485
-6.9477 11.4546 -1.5914 0.9475
-8.1331 11.4624 -1.6695 0.9450
-8.7723 11.4666 -1.7149 0.9435
-9.4481 11.4710 -1.7653 0.9419
-10.7357 11.2754 -1.8494 0.9392
-11.5179 10.4751 -1.8494 0.9392
-11.8869 10.0544 -1.8494 0.9392
-12.2405 9.6207 -1.8494 0.9392
-12.5784 9.1746 -1.8494 0.9392
-12.9000 8.7167 -1.8494 0.9392
-14.3116 8.2390 -1.9616 0.9356
-15.1693 7.3362 -2.0016 0.9344
-15.4232 6.7863 -2.0016 0.9344
-15.6571 6.2277 -2.0016 0.9344
-16.0639 5.0870 -2.0016 0.9344
-16.2364 4.5064 -2.0016 0.9344
-16.5181 3.3285 -2.0016 0.9344
-16.6271 2.7327 -2.0016 0.9344
-16.7146 2.1334 -2.0016 0.9344
-16.8246 0.9273 -2.0016 0.9344
-16.8478 -0.2836 -2.0016 0.9344
-16.7839 -1.4930 -2.0016 0.9344
-16.7194 -2.0952 -2.0016 0.9344
-16.6333 -2.6947 -2.0016 0.9344
-16.5257 -3.2907 -2.0016 0.9344
-16.3968 -3.8825 -2.0016 0.9344
-16.0756 -5.0502 -2.0016 0.9344
-15.8837 -5.6246 -2.0016 0.9344
-15.6713 -6.1918 -2.0016 0.9344
-15.1861 -7.3015 -2.0016 0.9344
-14.9138 -7.8425 -2.0016 0.9344
-14.6224 -8.3734 -2.0016 0.9344
-14.3120 -8.8935 -2.0016 0.9344
-13.9832 -9.4021 -2.0016 0.9344
-13.6362 -9.8985 -2.0016 0.9344
-12.8900 -10.8524 -2.0016 0.9344
-12.4917 -11.3086 -2.0016 0.9344
-12.0772 -11.7503 -2.0016 0.9344
-11.6472 -12.1767 -2.0016 0.9344
-11.2020 -12.5874 -2.0016 0.9344
-9.2828 -14.0626 -2.0016 0.9344
-7.7154 -14.9800 -2.0016 0.9344
-6.6195 -15.4955 -2.0016 0.9344
-6.0580 -15.7226 -2.0015 0.9344
-3.0778 -16.1733 -1.9556 0.9358
-1.8876 -16.1772 -1.9347 0.9365
-0.1355 -16.2705 -1.9328 0.9366
0.4522 -16.3692 -1.9452 0.9362
2.2715 -16.6667 -1.9981 0.9345
2.8740 -16.6032 -2.0016 0.9344
3.4688 -16.4892 -2.0016 0.9344
5.7957 -15.8221 -2.0016 0.9344
6.9172 -15.3649 -2.0016 0.9344
7.4649 -15.1064 -2.0016 0.9344
8.5307 -14.5312 -2.0016 0.9344
9.0474 -14.2152 -2.0016 0.9344
9.5524 -13.8809 -2.0016 0.9344
10.0451 -13.5286 -2.0016 0.9344
10.5248 -13.1589 -2.0016 0.9344
10.9909 -12.7722 -2.0016 0.9344
11.4428 -12.3689 -2.0016 0.9344
11.8799 -11.9497 -2.0016 0.9344
12.3017 -11.5150 -2.0016 0.9344
12.7075 -11.0655 -2.0016 0.9344
13.0970 -10.6017 -2.0016 0.9344
13.4695 -10.1242 -2.0016 0.9344
13.8247 -9.6336 -2.0016 0.9344
14.4809 -8.6157 -2.0016 0.9344
14.7812 -8.0897 -2.0016 0.9344
15.0624 -7.5533 -2.0016 0.9344
15.3241 -7.0071 -2.0016 0.9344
15.7878 -5.8883 -2.0016 0.9344
15.9892 -5.3171 -2.0016 0.9344
16.3299 -4.1549 -2.0016 0.9344
16.5861 -2.9712 -2.0016 0.9344
16.7567 -1.7722 -2.0016 0.9344
16.8501 0.0416 -2.0016 0.9344
16.8036 1.2518 -2.0016 0.9344
15.9628 5.3959 -2.0016 0.9344
15.7586 5.9661 -2.0016 0.9344
15.2893 7.0826 -2.0016 0.9344
15.0249 7.6275 -2.0016 0.9344
14.4383 8.6870 -2.0016 0.9344
14.1167 9.2003 -2.0016 0.9344
13.7770 9.7017 -2.0016 0.9344
13.4194 10.1905 -2.0016 0.9344
13.0445 10.6662 -2.0016 0.9344
11.8208 12.0082 -2.0016 0.9344
10.9278 12.8262 -2.0016 0.9344
10.4597 13.2107 -2.0016 0.9344
9.9782 13.5780 -2.0016 0.9344
8.4549 14.5662 -2.0006 0.9344
6.8283 13.9915 -1.8494 0.9392
5.8057 14.4459 -1.8494 0.9392
3.7812 13.4375 -1.6582 0.9453
1.6369 12.4703 -1.4940 0.9506
1.1626 12.2563 -1.4624 0.9516
0.7074 12.0509 -1.4339 0.9525
0.2689 11.8532 -1.4084 0.9534
-0.1547 11.6621 -1.3854 0.9541
-1.3895 11.4182 -1.3663 0.9547
-2.2324 11.4237 -1.3826 0.9542
-2.6626 11.4265 -1.3937 0.9538
-9.2681 9.1904 -1.8494 0.9486
-10.3481 8.2549 -1.8756 0.9479
-11.1259 8.2390 -1.9616 0.9456
-11.6279 7.9801 -1.9982 0.9446
-12.1914 7.1361 -2.0016 0.9445
-12.4400 6.6934 -2.0016 0.9445
-12.6725 6.2420 -2.0016 0.9445
-13.0881 5.3157 -2.0016 0.9445
-13.2707 4.8419 -2.0016 0.9445
-13.5842 3.8761 -2.0016 0.9445
-13.7147 3.3855 -2.0016 0.9445
-13.9225 2.3916 -2.0016 0.9445
-14.0583 1.3854 -2.0016 0.9445
-14.0990 0.8793 -2.0016 0.9445
-14.0795 -1.1500 -2.0016 0.9445
-14.0291 -1.6552 -2.0016 0.9445
-13.9605 -2.1583 -2.0016 0.9445
-13.8740 -2.6586 -2.0016 0.9445
-12.6614 -3.3848 -1.8570 0.9484
-12.3856 -4.2855 -1.8570 0.9484
-12.2235 -4.7279 -1.8570 0.9484
-11.8524 -5.5936 -1.8570 0.9484
-12.0521 -7.3690 -2.0016 0.9445
-11.7795 -7.7974 -2.0016 0.9445
-11.4916 -8.2157 -2.0016 0.9445
-11.1890 -8.6234 -2.0016 0.9445
-10.5407 -9.4048 -2.0016 0.9445
-10.1959 -9.7775 -2.0016 0.9445
-9.8379 -10.1376 -2.0016 0.9445
-9.4672 -10.4846 -2.0016 0.9445
-9.0843 -10.8181 -2.0016 0.9445
-8.2838 -11.4426 -2.0016 0.9445
-7.0042 -12.2677 -2.0016 0.9445
-6.1049 -12.7391 -2.0016 0.9445
-5.6431 -12.9503 -2.0016 0.9445
-5.1741 -13.1447 -2.0016 0.9445
-4.2166 -13.4824 -2.0016 0.9445
-3.2373 -13.7505 -2.0016 0.9445
-2.2412 -13.9475 -2.0016 0.9445
-1.7385 -14.0190 -2.0016 0.9445
-0.7271 -14.1077 -2.0016 0.9445
-0.2196 -14.1247 -2.0016 0.9445
0.7955 -14.1040 -2.0016 0.9445
1.3019 -14.0663 -2.0016 0.9445
2.3088 -13.9364 -2.0016 0.9445
4.2819 -13.4618 -2.0016 0.9445
4.7629 -13.2992 -2.0016 0.9445
5.7059 -12.9228 -2.0016 0.9445
6.1666 -12.7094 -2.0016 0.9445
7.0636 -12.2336 -2.0016 0.9445
7.4987 -11.9718 -2.0016 0.9445
7.9241 -11.6946 -2.0016 0.9445
9.1367 -10.7739 -2.0016 0.9445
10.5862 -9.3535 -2.0016 0.9445
10.9155 -8.9670 -2.0016 0.9445
11.2307 -8.5690 -2.0016 0.9445
12.0877 -7.3105 -2.0016 0.9445
12.3426 -6.8714 -2.0016 0.9445
12.5816 -6.4234 -2.0016 0.9445
12.8043 -5.9671 -2.0016 0.9445
13.0104 -5.5030 -2.0016 0.9445
13.3721 -4.5543 -2.0016 0.9445
13.5271 -4.0708 -2.0016 0.9445
14.0946 0.9477 -2.0016 0.9445
14.0514 1.4536 -2.0016 0.9445
13.9901 1.9576 -2.0016 0.9445
13.9107 2.4591 -2.0016 0.9445
13.6981 3.4520 -2.0016 0.9445
13.5652 3.9420 -2.0016 0.9445
13.0622 5.3791 -2.0016 0.9445
12.4074 6.7537 -2.0016 0.9445
11.8902 7.6274 -2.0016 0.9445
11.6084 8.0498 -2.0016 0.9445
11.0003 8.8628 -2.0016 0.9445
9.9825 9.9953 -2.0016 0.9445
9.2387 10.6865 -2.0016 0.9445
8.8487 11.0116 -2.0016 0.9445
8.0350 11.6187 -2.0016 0.9445
6.2254 11.4719 -1.8494 0.9486
5.8091 11.6882 -1.8494 0.9486
5.3853 11.8894 -1.8494 0.9486
4.5174 12.2455 -1.8494 0.9486
4.0744 12.4000 -1.8494 0.9486
3.6262 12.5384 -1.8494 0.9486
3.1732 12.6606 -1.8494 0.9486
2.7162 12.7665 -1.8494 0.9486
2.2353 12.7402 -1.8327 0.9491
1.2563 12.2986 -1.7516 0.9513
0.3558 11.8924 -1.6858 0.9531
-0.0706 11.7000 -1.6578 0.9538
-0.4837 11.5137 -1.6328 0.9545
-0.8913 11.4149 -1.6223 0.9548
-3.0116 11.4288 -1.6746 0.9534
-4.3770 11.4378 -1.7352 0.9517
-4.8565 11.4409 -1.7611 0.9510
-5.3511 11.4442 -1.7900 0.9502
-7.1656 10.9094 -1.8494 0.9486
-8.2981 10.0748 -1.8494 0.9486
-9.0003 9.4528 -1.8494 0.9486
-9.3342 9.1232 -1.8494 0.9486
-11.6931 7.9012 -1.9996 0.9446
-11.9815 7.4833 -2.0016 0.9445
-12.2426 7.0479 -2.0016 0.9445
-12.4880 6.6034 -2.0016 0.9445
-12.7173 6.1504 -2.0016 0.9445
-13.3053 4.7459 -2.0016 0.9445
-13.8481 2.7905 -2.0016 0.9445
-13.9394 2.2910 -2.0016 0.9445
-14.0127 1.7886 -2.0016 0.9445
-14.0168 -1.7565 -2.0016 0.9445
-12.7534 -3.0198 -1.8570 0.9484
-12.6366 -3.4761 -1.8570 0.9484
-12.5035 -3.9280 -1.8570 0.9484
-10.8064 -9.0982 -2.0016 0.9445
-10.4725 -9.4806 -2.0016 0.9445
-10.1250 -9.8509 -2.0016 0.9445
-9.7644 -10.2084 -2.0016 0.9445
-9.3913 -10.5527 -2.0016 0.9445
-8.6090 -11.2000 -2.0016 0.9445
-7.7823 -11.7894 -2.0016 0.9445
-6.9154 -12.3180 -2.0016 0.9445
-6.4682 -12.5585 -2.0016 0.9445
-6.0127 -12.7829 -2.0016 0.9445
-4.6020 -13.3558 -2.0016 0.9445
-4.1191 -13.5125 -2.0016 0.9445
-3.6308 -13.6518 -2.0016 0.9445
-3.1379 -13.7735 -2.0016 0.9445
-2.1404 -13.9633 -2.0016 0.9445
1.4034 -14.0565 -2.0016 0.9445
3.8935 -13.5792 -2.0016 0.9445
4.3790 -13.4305 -2.0016 0.9445
4.8589 -13.2645 -2.0016 0.9445
6.2582 -12.6645 -2.0016 0.9445
2.2602 -4.1879 -0.6743 0.9810
7.1518 -12.1823 -2.0016 0.9445
7.5849 -11.9174 -2.0016 0.9445
8.0083 -11.6371 -2.0016 0.9445
8.4213 -11.3418 -2.0016 0.9445
9.2143 -10.7076 -2.0016 0.9445
9.5931 -10.3695 -2.0016 0.9445
10.6534 -9.2768 -2.0016 0.9445
10.9800 -8.8880 -2.0016 0.9445
11.2923 -8.4877 -2.0016 0.9445
11.5900 -8.0764 -2.0016 0.9445
11.8727 -7.6546 -2.0016 0.9445
12.8470 -5.8744 -2.0016 0.9445
13.4046 -4.4577 -2.0016 0.9445
13.8066 -2.9890 -2.0016 0.9445
13.9050 -2.4910 -2.0016 0.9445
14.0481 -1.4857 -2.0016 0.9445
14.0924 -0.9799 -2.0016 0.9445
14.1185 -0.4728 -2.0016 0.9445
14.1264 0.0349 -2.0016 0.9445
14.0406 1.5550 -2.0016 0.9445
13.8926 2.5595 -2.0016 0.9445
13.6729 3.5508 -2.0016 0.9445
13.5364 4.0399 -2.0016 0.9445
13.3825 4.5237 -2.0016 0.9445
13.0230 5.4733 -2.0016 0.9445
12.8179 5.9378 -2.0016 0.9445
12.5962 6.3946 -2.0016 0.9445
12.1044 7.2828 -2.0016 0.9445
11.8348 7.7131 -2.0016 0.9445
11.2502 8.5433 -2.0016 0.9445
10.9360 8.9420 -2.0016 0.9445
10.6075 9.3293 -2.0016 0.9445
9.5419 10.4167 -2.0016 0.9445
9.1613 10.7529 -2.0016 0.9445
8.7690 11.0752 -2.0016 0.9445
7.9508 11.6765 -2.0016 0.9445
6.1424 11.5166 -1.8494 0.9486
5.7246 11.7299 -1.8494 0.9486
4.8672 12.1108 -1.8494 0.9486
4.4289 12.2779 -1.8494 0.9486
3.9848 12.4291 -1.8494 0.9486
3.5355 12.5642 -1.8494 0.9486
2.6239 12.7857 -1.8494 0.9486
2.1328 12.6939 -1.8238 0.9493
1.6369 12.4703 -1.7821 0.9505
0.7074 12.0509 -1.7104 0.9524
-0.5620 11.4128 -1.6190 0.9549
-0.9744 11.4155 -1.6233 0.9548
-2.2324 11.4237 -1.6492 0.9541
-7.7487 8.2568 -1.8654 0.9551
-8.8970 8.2097 -1.9943 0.9521
-9.7641 7.2306 -2.0016 0.9519
-10.0177 6.8750 -2.0016 0.9519
-10.6994 5.7569 -2.0016 0.9519
-10.8994 5.3687 -2.0016 0.9519
-11.4139 4.1644 -2.0016 0.9519
-11.5562 3.7515 -2.0016 0.9519
-11.6835 3.3338 -2.0016 0.9519
-11.7958 2.9118 -2.0016 0.9519
-11.9745 2.0570 -2.0016 0.9519
-12.0913 1.1916 -2.0016 0.9519
-12.1263 0.7563 -2.0016 0.9519
-12.1457 0.3200 -2.0016 0.9519
-12.1493 -0.1167 -2.0016 0.9519
-10.9874 -2.5180 -1.8570 0.9553
-10.8898 -2.9112 -1.8570 0.9553
-10.6526 -3.6859 -1.8570 0.9553
-10.5133 -4.0663 -1.8570 0.9553
-10.3603 -4.4415 -1.8570 0.9553
-10.1940 -4.8110 -1.8570 0.9553
-10.0145 -5.1742 -1.8570 0.9553
-10.3658 -6.3379 -2.0016 0.9519
-10.1313 -6.7064 -2.0016 0.9519
-9.8838 -7.0662 -2.0016 0.9519
-9.6234 -7.4168 -2.0016 0.9519
-8.4614 -8.7192 -2.0016 0.9519
-8.1426 -9.0176 -2.0016 0.9519
-7.8133 -9.3044 -2.0016 0.9519
-7.1248 -9.8416 -2.0016 0.9519
-4.0410 -11.4582 -2.0016 0.9519
-3.2075 -11.7188 -2.0016 0.9519
-2.3575 -11.9190 -2.0016 0.9519
-1.9276 -11.9960 -2.0016 0.9519
-0.6253 -12.1338 -2.0016 0.9519
-0.1889 -12.1484 -2.0016 0.9519
0.2478 -12.1473 -2.0016 0.9519
0.6842 -12.1306 -2.0016 0.9519
2.8417 -11.8129 -2.0016 0.9519
3.6828 -11.5783 -2.0016 0.9519
4.0965 -11.4384 -2.0016 0.9519
4.5049 -11.2838 -2.0016 0.9519
4.9075 -11.1147 -2.0016 0.9519
5.3038 -10.9311 -2.0016 0.9519
6.0753 -10.5219 -2.0016 0.9519
6.4495 -10.2968 -2.0016 0.9519
6.8154 -10.0583 -2.0016 0.9519
7.1724 -9.8069 -2.0016 0.9519
7.5202 -9.5428 -2.0016 0.9519
7.8583 -9.2664 -2.0016 0.9519
8.1862 -8.9780 -2.0016 0.9519
8.5036 -8.6780 -2.0016 0.9519
8.8100 -8.3668 -2.0016 0.9519
9.1050 -8.0448 -2.0016 0.9519
9.6593 -7.3700 -2.0016 0.9519
10.1637 -6.6572 -2.0016 0.9519
10.3964 -6.2876 -2.0016 0.9519
10.6157 -5.9099 -2.0016 0.9519
10.8212 -5.5246 -2.0016 0.9519
11.1901 -4.7331 -2.0016 0.9519
11.6345 -3.5013 -2.0016 0.9519
11.8559 -2.6565 -2.0016 0.9519
11.9437 -2.2287 -2.0016 0.9519
12.0161 -1.7981 -2.0016 0.9519
12.0729 -1.3651 -2.0016 0.9519
12.1398 -0.4944 -2.0016 0.9519
12.0854 1.2502 -2.0016 0.9519
12.0327 1.6837 -2.0016 0.9519
11.9644 2.1150 -2.0016 0.9519
11.5379 3.8075 -2.0016 0.9519
11.3936 4.2197 -2.0016 0.9519
11.2346 4.6265 -2.0016 0.9519
11.0610 5.0272 -2.0016 0.9519
10.8732 5.4215 -2.0016 0.9519
10.6714 5.8087 -2.0016 0.9519
10.2266 6.5602 -2.0016 0.9519
9.9842 6.9235 -2.0016 0.9519
9.7289 7.2778 -2.0016 0.9519
9.1811 7.9579 -2.0016 0.9519
8.2713 8.8997 -2.0016 0.9519
7.2654 9.7383 -2.0016 0.9519
6.9107 9.9931 -2.0016 0.9519
6.5471 10.2350 -2.0016 0.9519
3.8854 10.5322 -1.8494 0.9555
3.5044 10.6650 -1.8494 0.9555
2.7293 10.8892 -1.8494 0.9555
2.3362 10.9802 -1.8494 0.9555
1.9400 11.0571 -1.8494 0.9555
1.1408 11.1679 -1.8494 0.9555
0.3357 11.2210 -1.8494 0.9555
-0.4711 11.2161 -1.8494 0.9555
-1.2756 11.1533 -1.8494 0.9555
-1.3149 8.7110 -1.4513 0.9649
-2.8605 10.8554 -1.8494 0.9555
-3.2488 10.7456 -1.8494 0.9555
-4.0122 10.4845 -1.8494 0.9555
-4.3864 10.3335 -1.8494 0.9555
-5.1173 9.9918 -1.8494 0.9555
-6.4962 9.1554 -1.8494 0.9555
-7.4438 8.4031 -1.8494 0.9555
-7.8595 8.2545 -1.8777 0.9548
-9.2718 7.8425 -2.0006 0.9520
-9.5525 7.5080 -2.0016 0.9519
-9.8161 7.1599 -2.0016 0.9519
-10.0671 6.8025 -2.0016 0.9519
-10.5297 6.0618 -2.0016 0.9519
-10.7407 5.6795 -2.0016 0.9519
-10.9379 5.2898 -2.0016 0.9519
-11.1209 4.8933 -2.0016 0.9519
-11.2896 4.4905 -2.0016 0.9519
-11.4437 4.0819 -2.0016 0.9519
-11.7073 3.2493 -2.0016 0.9519
-12.1477 0.2323 -2.0016 0.9519
-12.1330 -0.6409 -2.0016 0.9519
-10.6257 -3.7627 -1.8570 0.9553
-10.4836 -4.1421 -1.8570 0.9553
-10.3280 -4.5162 -1.8570 0.9553
-10.1590 -4.8845 -1.8570 0.9553
-10.3197 -6.4126 -2.0016 0.9519
-9.5696 -7.4861 -2.0016 0.9519
-9.2944 -7.8252 -2.0016 0.9519
-9.0072 -8.1541 -2.0016 0.9519
-8.3982 -8.7800 -2.0016 0.9519
-8.0773 -9.0762 -2.0016 0.9519
-7.7459 -9.3606 -2.0016 0.9519
-7.4045 -9.6329 -2.0016 0.9519
-7.0535 -9.8928 -2.0016 0.9519
-6.3247 -10.3739 -2.0016 0.9519
-5.9478 -10.5945 -2.0016 0.9519
-5.1714 -10.9943 -2.0016 0.9519
-4.7730 -11.1731 -2.0016 0.9519
-3.9581 -11.4871 -2.0016 0.9519
-3.5428 -11.6219 -2.0016 0.9519
-3.1228 -11.7417 -2.0016 0.9519
-1.8409 -12.0096 -2.0016 0.9519
-0.5377 -12.1380 -2.0016 0.9519
-0.1012 -12.1495 -2.0016 0.9519
0.3355 -12.1452 -2.0016 0.9519
0.7718 -12.1253 -2.0016 0.9519
1.2070 -12.0898 -2.0016 0.9519
1.6407 -12.0386 -2.0016 0.9519
2.9269 -11.7921 -2.0016 0.9519
3.3488 -11.6793 -2.0016 0.9519
3.7663 -11.5514 -2.0016 0.9519
4.9877 -11.0789 -2.0016 0.9519
5.3826 -10.8925 -2.0016 0.9519
6.1511 -10.4777 -2.0016 0.9519
7.2431 -9.7549 -2.0016 0.9519
8.2509 -8.9187 -2.0016 0.9519
8.5661 -8.6164 -2.0016 0.9519
8.8702 -8.3030 -2.0016 0.9519
9.1628 -7.9788 -2.0016 0.9519
9.4437 -7.6444 -2.0016 0.9519
10.2115 -6.5836 -2.0016 0.9519
10.4415 -6.2124 -2.0016 0.9519
10.6581 -5.8331 -2.0016 0.9519
11.0495 -5.0525 -2.0016 0.9519
11.2239 -4.6522 -2.0016 0.9519
11.3839 -4.2458 -2.0016 0.9519
11.5291 -3.8339 -2.0016 0.9519
11.7747 -2.9959 -2.0016 0.9519
11.8748 -2.5708 -2.0016 0.9519
11.9595 -2.1424 -2.0016 0.9519
12.0288 -1.7112 -2.0016 0.9519
12.0825 -1.2779 -2.0016 0.9519
12.1206 -0.8428 -2.0016 0.9519
12.1431 -0.4067 -2.0016 0.9519
12.1409 0.4666 -2.0016 0.9519
12.0760 1.3374 -2.0016 0.9519
11.8619 2.6294 -2.0016 0.9519
11.6424 3.4746 -2.0016 0.9519
11.5101 3.8908 -2.0016 0.9519
11.2009 4.7075 -2.0016 0.9519
10.8338 5.4998 -2.0016 0.9519
10.6291 5.8856 -2.0016 0.9519
10.4108 6.2638 -2.0016 0.9519
10.1789 6.6339 -2.0016 0.9519
9.6761 7.3479 -2.0016 0.9519
9.4058 7.6909 -2.0016 0.9519
8.8291 8.3466 -2.0016 0.9519
7.8795 9.2484 -2.0016 0.9519
7.1949 9.7905 -2.0016 0.9519
4.5579 10.2591 -1.8494 0.9555
3.8092 10.5600 -1.8494 0.9555
3.4272 10.6900 -1.8494 0.9555
3.0409 10.8063 -1.8494 0.9555
2.2568 10.9968 -1.8494 0.9555
1.0601 11.1758 -1.8494 0.9555
-0.1488 11.2250 -1.8494 0.9555
-0.5521 11.2124 -1.8494 0.9555
-1.0634 8.7384 -1.4502 0.9649
-1.3845 8.7436 -1.4584 0.9647
-2.1530 11.0176 -1.8494 0.9555
-7.2871 7.7650 -2.0016 0.9576
-7.5615 7.4981 -2.0016 0.9576
-8.0805 6.9356 -2.0016 0.9576
-8.5578 6.3373 -2.0016 0.9576
-9.1902 5.3794 -2.0016 0.9576
-9.7158 4.3590 -2.0016 0.9576
-10.0038 3.6499 -2.0016 0.9576
-10.1285 3.2880 -2.0016 0.9576
-10.3385 2.5520 -2.0016 0.9576
-10.4951 1.8029 -2.0016 0.9576
-10.5531 1.4245 -2.0016 0.9576
-10.6282 0.6628 -2.0016 0.9576
-10.6483 -0.1023 -2.0016 0.9576
-10.6378 -0.4849 -2.0016 0.9576
-10.6135 -0.8669 -2.0016 0.9576
-10.5755 -1.2477 -2.0016 0.9576
-10.5238 -1.6270 -2.0016 0.9576
-9.4466 -2.8929 -1.8570 0.9606
-9.3365 -3.2305 -1.8570 0.9606
-9.0804 -3.8928 -1.8570 0.9606
-8.9346 -4.2166 -1.8570 0.9606
-8.6087 -4.8475 -1.8570 0.9606
-8.4289 -5.1537 -1.8570 0.9606
-8.6627 -6.1932 -2.0016 0.9576
-4.2539 -9.7622 -2.0016 0.9576
-3.9004 -9.9088 -2.0016 0.9576
-2.8113 -10.2710 -2.0016 0.9576
-2.0662 -10.4464 -2.0016 0.9576
-1.3106 -10.5679 -2.0016 0.9576
-0.1656 -10.6475 -2.0016 0.9576
3.5904 -10.0253 -2.0016 0.9576
3.9484 -9.8898 -2.0016 0.9576
4.3012 -9.7415 -2.0016 0.9576
4.6485 -9.5806 -2.0016 0.9576
2.2285 -4.2014 -0.8939 0.9808
5.3247 -9.2220 -2.0016 0.9576
5.9733 -8.8157 -2.0016 0.9576
6.2863 -8.5953 -2.0016 0.9576
6.5911 -8.3639 -2.0016 0.9576
7.1749 -7.8688 -2.0016 0.9576
8.2283 -6.7596 -2.0016 0.9576
8.4659 -6.4595 -2.0016 0.9576
8.6926 -6.1511 -2.0016 0.9576
9.1120 -5.5108 -2.0016 0.9576
9.8076 -4.1483 -2.0016 0.9576
9.9503 -3.7932 -2.0016 0.9576
10.0802 -3.4332 -2.0016 0.9576
10.3912 -2.3283 -2.0016 0.9576
10.4681 -1.9534 -2.0016 0.9576
10.6176 -0.8154 -2.0016 0.9576
10.6487 -0.0506 -2.0016 0.9576
10.6436 0.3321 -2.0016 0.9576
10.6248 0.7144 -2.0016 0.9576
10.4862 1.8537 -2.0016 0.9576
10.4128 2.2294 -2.0016 0.9576
10.2258 2.9716 -2.0016 0.9576
9.8466 4.0549 -2.0016 0.9576
9.6945 4.4061 -2.0016 0.9576
8.9631 5.7497 -2.0016 0.9576
8.2923 6.6810 -2.0016 0.9576
6.6704 8.3008 -2.0016 0.9576
6.3678 8.5352 -2.0016 0.9576
5.4122 9.1709 -2.0016 0.9576
5.0767 9.3550 -2.0006 0.9576
3.7349 9.1026 -1.8494 0.9607
3.4053 9.2310 -1.8494 0.9607
2.7335 9.4517 -1.8494 0.9607
2.3921 9.5439 -1.8494 0.9607
1.3510 9.7459 -1.8494 0.9607
-0.7659 9.8092 -1.8494 0.9607
-1.3123 8.6936 -1.6526 0.9648
-1.8172 9.6698 -1.8494 0.9607
-3.1840 9.3096 -1.8494 0.9607
-3.5165 9.1892 -1.8494 0.9607
-4.7969 8.5905 -1.8494 0.9607
-5.4243 8.2583 -1.8571 0.9606
-6.3047 8.2411 -1.9503 0.9586
-7.0506 7.9592 -1.9986 0.9576
-7.3430 7.7121 -2.0016 0.9576
-8.3723 6.5804 -2.0016 0.9576
-8.6034 6.2753 -2.0016 0.9576
-9.7470 4.2888 -2.0016 0.9576
-9.8948 3.9357 -2.0016 0.9576
-10.0299 3.5776 -2.0016 0.9576
-10.1520 3.2148 -2.0016 0.9576
-10.3567 2.4773 -2.0016 0.9576
-10.4390 2.1035 -2.0016 0.9576
-10.5631 1.3483 -2.0016 0.9576
-10.6048 0.9678 -2.0016 0.9576
-10.6327 0.5860 -2.0016 0.9576
-10.6473 -0.1792 -2.0016 0.9576
-10.6340 -0.5617 -2.0016 0.9576
-10.6069 -0.9435 -2.0016 0.9576
-10.4438 -2.0796 -2.0016 0.9576
-9.5258 -2.6204 -1.8570 0.9606
-9.4254 -2.9610 -1.8570 0.9606
-8.1986 -5.5126 -1.8570 0.9606
-8.3873 -6.5612 -2.0016 0.9576
-8.1461 -6.8584 -2.0016 0.9576
-7.3607 -7.6953 -2.0016 0.9576
-7.0794 -7.9549 -2.0016 0.9576
-6.4897 -8.4428 -2.0016 0.9576
-6.1821 -8.6706 -2.0016 0.9576
-5.8665 -8.8872 -2.0016 0.9576
-4.5325 -9.6361 -2.0016 0.9576
-4.1833 -9.7927 -2.0016 0.9576
-3.8287 -9.9367 -2.0016 0.9576
-3.4691 -10.0679 -2.0016 0.9576
-2.3654 -10.3828 -2.0016 0.9576
-1.9907 -10.4611 -2.0016 0.9576
-0.0886 -10.6484 -2.0016 0.9576
0.2941 -10.6448 -2.0016 0.9576
0.6764 -10.6273 -2.0016 0.9576
1.0579 -10.5961 -2.0016 0.9576
2.1922 -10.4207 -2.0016 0.9576
4.0197 -9.8610 -2.0016 0.9576
4.7176 -9.5468 -2.0016 0.9576
6.0369 -8.7723 -2.0016 0.9576
6.3482 -8.5497 -2.0016 0.9576
7.2315 -7.8168 -2.0016 0.9576
7.5078 -7.5519 -2.0016 0.9576
8.9500 -5.7702 -2.0016 0.9576
9.3413 -5.1125 -2.0016 0.9576
9.5190 -4.7734 -2.0016 0.9576
9.9775 -3.7212 -2.0016 0.9576
10.1047 -3.3603 -2.0016 0.9576
10.2190 -2.9950 -2.0016 0.9576
10.3200 -2.6258 -2.0016 0.9576
10.5898 -1.1200 -2.0016 0.9576
10.6232 -0.7387 -2.0016 0.9576
10.6488 0.0263 -2.0016 0.9576
10.6410 0.4089 -2.0016 0.9576
10.5841 1.1722 -2.0016 0.9576
10.5351 1.5518 -2.0016 0.9576
10.4726 1.9294 -2.0016 0.9576
10.3965 2.3045 -2.0016 0.9576
10.3069 2.6767 -2.0016 0.9576
10.2041 3.0454 -2.0016 0.9576
9.9590 3.7704 -2.0016 0.9576
9.8170 4.1259 -2.0016 0.9576
8.7067 6.1312 -2.0016 0.9576
8.2438 6.7407 -2.0016 0.9576
7.7383 7.3155 -2.0016 0.9576
6.9060 8.1058 -2.0016 0.9576
6.3060 8.5809 -2.0016 0.9576
5.6733 9.0117 -2.0016 0.9576
5.0061 9.3861 -1.9995 0.9576
3.6690 9.1294 -1.8494 0.9607
3.3386 9.2553 -1.8494 0.9607
2.6652 9.4712 -1.8494 0.9607
1.9780 9.6382 -1.8494 0.9607
1.6303 9.7031 -1.8494 0.9607
1.2806 9.7554 -1.8494 0.9607
0.5766 9.8222 -1.8494 0.9607
0.2232 9.8365 -1.8494 0.9607
-0.4839 9.8272 -1.8494 0.9607
-0.8368 9.8034 -1.8494 0.9607
-1.3767 8.6942 -1.6545 0.9648
-1.8870 9.6564 -1.8494 0.9607
-2.2328 9.5824 -1.8494 0.9607
-6.4798 6.9047 -2.0016 0.9620
-7.8073 5.3580 -2.0016 0.9620
-7.9948 5.0740 -2.0016 0.9620
-8.1720 4.7834 -2.0016 0.9620
-8.3386 4.4866 -2.0016 0.9620
-8.6393 3.8761 -2.0016 0.9620
-8.7731 3.5631 -2.0016 0.9620
-8.8954 3.2455 -2.0016 0.9620
-9.1056 2.5982 -2.0016 0.9620
-9.1931 2.2693 -2.0016 0.9620
-9.2687 1.9375 -2.0016 0.9620
-9.3323 1.6031 -2.0016 0.9620
-9.4686 -0.0910 -2.0016 0.9620
-9.4592 -0.4312 -2.0016 0.9620
-9.4376 -0.7708 -2.0016 0.9620
-9.3579 -1.4467 -2.0016 0.9620
-9.2998 -1.7821 -2.0016 0.9620
-8.4870 -2.2688 -1.8570 0.9647
-7.9447 -3.7494 -1.8570 0.9647
-7.6549 -4.3104 -1.8570 0.9647
-7.1465 -5.1092 -1.8570 0.9647
-6.9583 -5.3628 -1.8570 0.9647
-7.0655 -6.3041 -2.0016 0.9620
-6.8344 -6.5539 -2.0016 0.9620
-6.5944 -6.7953 -2.0016 0.9620
-6.3459 -7.0279 -2.0016 0.9620
-5.8247 -7.4656 -2.0016 0.9620
-4.9874 -8.0491 -2.0016 0.9620
-3.7826 -8.6807 -2.0016 0.9620
-2.8264 -9.0374 -2.0016 0.9620
-2.4998 -9.1331 -2.0016 0.9620
-2.1700 -9.2170 -2.0016 0.9620
-1.8373 -9.2891 -2.0016 0.9620
-1.1654 -9.3970 -2.0016 0.9620
-0.8269 -9.4328 -2.0016 0.9620
1.2109 -9.3913 -2.0016 0.9620
1.5476 -9.3417 -2.0016 0.9620
1.8824 -9.2800 -2.0016 0.9620
2.2146 -9.2064 -2.0016 0.9620
2.8702 -9.0235 -2.0016 0.9620
3.1926 -8.9146 -2.0016 0.9620
2.2285 -4.2014 -1.0053 0.9807
6.1244 -7.2218 -2.0016 0.9620
6.6273 -6.7632 -2.0016 0.9620
7.7295 -5.4696 -2.0016 0.9620
7.9211 -5.1883 -2.0016 0.9620
8.1024 -4.9003 -2.0016 0.9620
8.2733 -4.6059 -2.0016 0.9620
8.4335 -4.3056 -2.0016 0.9620
8.5828 -3.9998 -2.0016 0.9620
8.9634 -3.0528 -2.0016 0.9620
9.0673 -2.7287 -2.0016 0.9620
9.3083 -1.7370 -2.0016 0.9620
9.4412 -0.7251 -2.0016 0.9620
9.4612 -0.3853 -2.0016 0.9620
9.4689 -0.0450 -2.0016 0.9620
9.4477 0.6352 -2.0016 0.9620
9.0929 2.6423 -2.0016 0.9620
8.8796 3.2886 -2.0016 0.9620
8.1487 4.8230 -2.0016 0.9620
7.5823 5.6720 -2.0016 0.9620
7.3735 5.9408 -2.0016 0.9620
7.1553 6.2020 -2.0016 0.9620
6.4462 6.9360 -2.0016 0.9620
6.1928 7.1632 -2.0016 0.9620
5.9314 7.3811 -2.0016 0.9620
5.6623 7.5895 -2.0016 0.9620
4.8125 8.1549 -2.0016 0.9620
4.5164 8.3225 -2.0016 0.9620
4.2144 8.4795 -2.0016 0.9620
2.8425 8.6508 -1.9248 0.9635
2.1271 8.4865 -1.8494 0.9649
0.5757 8.7300 -1.8494 0.9649
0.2616 8.7451 -1.8494 0.9649
-1.3058 8.6510 -1.8494 0.9649
-2.2293 8.4602 -1.8494 0.9649
-2.8313 8.2782 -1.8494 0.9649
-3.5026 8.2514 -1.8948 0.9640
-5.1930 7.9062 -1.9995 0.9621
-6.0200 7.3090 -2.0016 0.9620
-6.7717 6.6186 -2.0016 0.9620
-7.0052 6.3710 -2.0016 0.9620
-7.2296 6.1151 -2.0016 0.9620
-7.4447 5.8514 -2.0016 0.9620
-7.8458 5.3015 -2.0016 0.9620
-8.2063 4.7243 -2.0016 0.9620
-8.3708 4.4263 -2.0016 0.9620
-8.5245 4.1226 -2.0016 0.9620
-8.6671 3.8136 -2.0016 0.9620
-8.7986 3.4997 -2.0016 0.9620
-9.1241 2.5324 -2.0016 0.9620
-9.2092 2.2029 -2.0016 0.9620
-9.2824 1.8705 -2.0016 0.9620
-9.3928 1.1989 -2.0016 0.9620
-9.4298 0.8606 -2.0016 0.9620
-9.4547 0.5211 -2.0016 0.9620
-9.4673 0.1810 -2.0016 0.9620
-9.4558 -0.4995 -2.0016 0.9620
-9.4318 -0.8390 -2.0016 0.9620
-9.3955 -1.1774 -2.0016 0.9620
-9.2867 -1.8492 -2.0016 0.9620
-9.2142 -2.1818 -2.0016 0.9620
-8.1704 -3.2282 -1.8570 0.9647
-7.7755 -4.0888 -1.8570 0.9647
-7.2903 -4.9019 -1.8570 0.9647
-7.1094 -5.1607 -1.8570 0.9647
-6.9194 -5.4129 -1.8570 0.9647
-7.0198 -6.3549 -2.0016 0.9620
-6.7868 -6.6031 -2.0016 0.9620
-6.2950 -7.0735 -2.0016 0.9620
-5.7707 -7.5074 -2.0016 0.9620
-4.6354 -8.2568 -2.0016 0.9620
-4.3357 -8.4181 -2.0016 0.9620
-4.0304 -8.5685 -2.0016 0.9620
-3.7198 -8.7078 -2.0016 0.9620
-3.0848 -8.9525 -2.0016 0.9620
-2.4338 -9.1509 -2.0016 0.9620
-1.7702 -9.3021 -2.0016 0.9620
-1.0975 -9.4052 -2.0016 0.9620
-0.7587 -9.4386 -2.0016 0.9620
-0.4191 -9.4597 -2.0016 0.9620
0.2615 -9.4654 -2.0016 0.9620
0.6015 -9.4499 -2.0016 0.9620
1.2787 -9.3823 -2.0016 0.9620
1.6151 -9.3303 -2.0016 0.9620
1.9493 -9.2662 -2.0016 0.9620
5.0842 -7.9883 -2.0016 0.9620
5.9145 -7.3947 -2.0016 0.9620
6.1764 -7.1774 -2.0016 0.9620
6.6760 -6.7152 -2.0016 0.9620
7.5693 -5.6893 -2.0016 0.9620
7.9584 -5.1309 -2.0016 0.9620
8.1376 -4.8416 -2.0016 0.9620
8.3064 -4.5461 -2.0016 0.9620
8.6115 -3.9377 -2.0016 0.9620
8.9852 -2.9880 -2.0016 0.9620
9.0868 -2.6631 -2.0016 0.9620
9.2546 -2.0036 -2.0016 0.9620
9.3206 -1.6697 -2.0016 0.9620
9.4462 -0.6568 -2.0016 0.9620
9.4429 0.7034 -2.0016 0.9620
9.3679 1.3799 -2.0016 0.9620
9.2446 2.0492 -2.0016 0.9620
8.9704 3.0323 -2.0016 0.9620
8.8556 3.3527 -2.0016 0.9620
8.7294 3.6688 -2.0016 0.9620
8.4433 4.2863 -2.0016 0.9620
7.5411 5.7266 -2.0016 0.9620
7.3304 5.9939 -2.0016 0.9620
7.1103 6.2535 -2.0016 0.9620
6.6428 6.7480 -2.0016 0.9620
5.8779 7.4238 -2.0016 0.9620
5.6073 7.6302 -2.0016 0.9620
5.0448 8.0133 -2.0016 0.9620
4.7535 8.1894 -2.0016 0.9620
4.4562 8.3549 -2.0016 0.9620
3.5214 8.7621 -1.9961 0.9621
3.1581 8.7550 -1.9674 0.9627
2.7653 8.6252 -1.9146 0.9636
2.3989 8.5250 -1.8720 0.9644
1.7588 8.5704 -1.8494 0.9649
0.5127 8.7340 -1.8494 0.9649
0.1985 8.7467 -1.8494 0.9649
-0.7441 8.7173 -1.8494 0.9649
-1.6780 8.5866 -1.8494 0.9649
-5.8279 6.2101 -2.0016 0.9656
-6.0473 5.9966 -2.0016 0.9656
-6.2589 5.7754 -2.0016 0.9656
-6.4624 5.5468 -2.0016 0.9656
-7.0219 4.8190 -2.0016 0.9656
-7.7702 3.4862 -2.0016 0.9656
-7.8905 3.2047 -2.0016 0.9656
-8.1003 2.6296 -2.0016 0.9656
-8.1896 2.3368 -2.0016 0.9656
-8.2683 2.0410 -2.0016 0.9656
-8.3935 1.4418 -2.0016 0.9656
-8.4754 0.8352 -2.0016 0.9656
-8.4999 0.5301 -2.0016 0.9656
-8.4882 -0.6933 -2.0016 0.9656
-8.4165 -1.3012 -2.0016 0.9656
-8.3013 -1.9024 -2.0016 0.9656
-8.2275 -2.1995 -2.0016 0.9656
-7.5550 -2.3136 -1.8570 0.9681
-7.4669 -2.5836 -1.8570 0.9681
-7.3693 -2.8503 -1.8570 0.9681
-7.2621 -3.1133 -1.8570 0.9681
-7.1455 -3.3722 -1.8570 0.9681
-7.0197 -3.6269 -1.8570 0.9681
-6.7410 -4.1217 -1.8570 0.9681
-6.5886 -4.3613 -1.8570 0.9681
-6.2583 -4.8233 -1.8570 0.9681
-5.7075 -6.3209 -2.0016 0.9656
-5.4767 -6.5219 -2.0016 0.9656
-4.4857 -7.2394 -2.0016 0.9656
-2.8325 -8.0316 -2.0016 0.9656
-2.5421 -8.1282 -2.0016 0.9656
-2.2483 -8.2143 -2.0016 0.9656
-1.0481 -8.4517 -2.0016 0.9656
-0.4383 -8.5052 -2.0016 0.9656
0.1737 -8.5147 -2.0016 0.9656
1.0891 -8.4465 -2.0016 0.9656
1.6930 -8.3465 -2.0016 0.9656
2.2881 -8.2033 -2.0016 0.9656
2.5815 -8.1158 -2.0016 0.9656
2.8715 -8.0178 -2.0016 0.9656
3.4399 -7.7908 -2.0016 0.9656
2.2126 -4.1715 -1.1098 0.9808
2.3944 -4.1469 -1.1254 0.9805
4.7772 -7.0504 -2.0016 0.9656
5.0275 -6.8742 -2.0016 0.9656
5.5083 -6.4953 -2.0016 0.9656
5.7381 -6.2931 -2.0016 0.9656
5.9606 -6.0829 -2.0016 0.9656
6.1754 -5.8647 -2.0016 0.9656
6.3821 -5.6390 -2.0016 0.9656
6.5806 -5.4060 -2.0016 0.9656
6.9520 -4.9194 -2.0016 0.9656
7.1243 -4.6664 -2.0016 0.9656
7.2873 -4.4073 -2.0016 0.9656
7.4410 -4.1425 -2.0016 0.9656
7.7194 -3.5974 -2.0016 0.9656
7.8437 -3.3176 -2.0016 0.9656
8.2381 -2.1595 -2.0016 0.9656
8.3719 -1.5622 -2.0016 0.9656
8.4227 -1.2604 -2.0016 0.9656
8.4914 -0.6521 -2.0016 0.9656
8.4712 0.8763 -2.0016 0.9656
8.4343 1.1802 -2.0016 0.9656
8.3277 1.7830 -2.0016 0.9656
8.2583 2.0811 -2.0016 0.9656
8.0875 2.6689 -2.0016 0.9656
7.9863 2.9578 -2.0016 0.9656
7.6216 3.8002 -2.0016 0.9656
7.4801 4.0716 -2.0016 0.9656
7.1683 4.5984 -2.0016 0.9656
6.6318 5.3432 -2.0016 0.9656
6.4355 5.5781 -2.0016 0.9656
6.0182 6.0259 -2.0016 0.9656
5.7977 6.2383 -2.0016 0.9656
5.3347 6.6386 -2.0016 0.9656
5.0926 6.8260 -2.0016 0.9656
4.8441 7.0046 -2.0016 0.9656
4.0620 7.4853 -2.0016 0.9656
3.7904 7.6264 -2.0016 0.9656
3.5139 7.7577 -2.0016 0.9656
3.2328 7.8790 -2.0016 0.9656
2.3633 8.1716 -1.9992 0.9657
2.0656 8.2415 -1.9969 0.9657
1.7664 8.3021 -1.9949 0.9657
1.4587 8.3136 -1.9837 0.9659
0.8439 8.2608 -1.9516 0.9665
0.5439 8.2477 -1.9426 0.9666
0.2466 8.2433 -1.9382 0.9667
-0.0498 8.2435 -1.9374 0.9667
-0.3463 8.2432 -1.9390 0.9667
-0.6436 8.2424 -1.9431 0.9666
-0.9425 8.2412 -1.9495 0.9665
-1.5481 8.2375 -1.9699 0.9661
-1.8562 8.2349 -1.9839 0.9659
-2.1623 8.2059 -1.9944 0.9657
-2.4574 8.1282 -1.9957 0.9657
-2.7500 8.0406 -1.9972 0.9657
-3.3262 7.8359 -2.0007 0.9656
-3.6073 7.7148 -2.0016 0.9656
-3.8822 7.5801 -2.0016 0.9656
-4.1521 7.4357 -2.0016 0.9656
-4.4166 7.2817 -2.0016 0.9656
-5.1747 6.7641 -2.0016 0.9656
-5.4144 6.5737 -2.0016 0.9656
-5.8726 6.1678 -2.0016 0.9656
-6.0905 5.9528 -2.0016 0.9656
-6.3005 5.7301 -2.0016 0.9656
-6.5023 5.5000 -2.0016 0.9656
-6.6958 5.2627 -2.0016 0.9656
-7.0565 4.7682 -2.0016 0.9656
-7.2233 4.5115 -2.0016 0.9656
-7.3808 4.2490 -2.0016 0.9656
-7.9134 3.1476 -2.0016 0.9656
-8.1191 2.5711 -2.0016 0.9656
-8.2828 1.9812 -2.0016 0.9656
-8.3486 1.6823 -2.0016 0.9656
-8.4479 1.0783 -2.0016 0.9656
-8.5035 0.4687 -2.0016 0.9656
-8.5149 0.1628 -2.0016 0.9656
-8.4829 -0.7546 -2.0016 0.9656
-8.4504 -1.0589 -2.0016 0.9656
-8.4068 -1.3619 -2.0016 0.9656
-8.2873 -1.9623 -2.0016 0.9656
-7.5380 -2.3681 -1.8570 0.9681
-7.4481 -2.6375 -1.8570 0.9681
-7.3485 -2.9034 -1.8570 0.9681
-6.9933 -3.6775 -1.8570 0.9681
-6.8566 -3.9264 -1.8570 0.9681
-6.7111 -4.1703 -1.8570 0.9681
-6.2233 -4.8683 -1.8570 0.9681
-6.0443 -5.0889 -1.8570 0.9681
-5.8575 -5.3028 -1.8570 0.9681
-5.6632 -5.5099 -1.8570 0.9681
-5.8867 -6.1544 -2.0016 0.9656
-5.6617 -6.3620 -2.0016 0.9656
-5.4295 -6.5613 -2.0016 0.9656
-5.1902 -6.7522 -2.0016 0.9656
-4.9442 -6.9343 -2.0016 0.9656
-4.6918 -7.1076 -2.0016 0.9656
-4.4333 -7.2716 -2.0016 0.9656
-3.8995 -7.5712 -2.0016 0.9656
-3.6249 -7.7065 -2.0016 0.9656
-3.3456 -7.8318 -2.0016 0.9656
-2.1889 -8.2303 -2.0016 0.9656
-0.9871 -8.4591 -2.0016 0.9656
-0.6824 -8.4891 -2.0016 0.9656
-0.3769 -8.5081 -2.0016 0.9656
-0.0709 -8.5161 -2.0016 0.9656
0.2352 -8.5132 -2.0016 0.9656
0.5410 -8.4992 -2.0016 0.9656
0.8461 -8.4743 -2.0016 0.9656
1.1501 -8.4384 -2.0016 0.9656
2.6400 -8.0969 -2.0016 0.9656
3.2148 -7.8864 -2.0016 0.9656
2.1610 -4.3732 -1.1464 0.9802
5.7835 -6.2515 -2.0016 0.9656
6.4227 -5.5928 -2.0016 0.9656
6.8078 -5.1170 -2.0016 0.9656
6.9873 -4.8690 -2.0016 0.9656
7.1578 -4.6148 -2.0016 0.9656
7.3190 -4.3546 -2.0016 0.9656
7.4708 -4.0887 -2.0016 0.9656
7.9795 -2.9761 -2.0016 0.9656
8.1727 -2.3952 -2.0016 0.9656
8.2535 -2.1000 -2.0016 0.9656
8.3830 -1.5017 -2.0016 0.9656
8.4316 -1.1995 -2.0016 0.9656
8.4692 -0.8957 -2.0016 0.9656
8.4959 -0.5908 -2.0016 0.9656
8.5102 0.3270 -2.0016 0.9656
8.4647 0.9375 -2.0016 0.9656
8.2430 2.1407 -2.0016 0.9656
8.1608 2.4355 -2.0016 0.9656
7.7276 3.5797 -2.0016 0.9656
7.5939 3.8551 -2.0016 0.9656
7.4505 4.1255 -2.0016 0.9656
7.2974 4.3906 -2.0016 0.9656
7.1349 4.6500 -2.0016 0.9656
5.7525 6.2800 -2.0016 0.9656
5.5231 6.4827 -2.0016 0.9656
5.2866 6.6770 -2.0016 0.9656
5.0432 6.8626 -2.0016 0.9656
4.7933 7.0394 -2.0016 0.9656
4.2753 7.3656 -2.0016 0.9656
3.7352 7.6536 -2.0016 0.9656
3.4578 7.7829 -2.0016 0.9656
3.1758 7.9022 -2.0016 0.9656
2.5996 8.1085 -2.0012 0.9656
1.7061 8.3133 -1.9945 0.9657
1.0857 8.2710 -1.9606 0.9663
0.7834 8.2582 -1.9496 0.9665
0.4840 8.2450 -1.9411 0.9666
-0.1093 8.2435 -1.9376 0.9667
-0.4059 8.2431 -1.9397 0.9667
-1.3046 8.2392 -1.9605 0.9663
-1.6097 8.2370 -1.9725 0.9661
-5.2901 5.6370 -2.0016 0.9686
-5.4893 5.4432 -2.0016 0.9686
-5.6813 5.2424 -2.0016 0.9686
-5.8660 5.0349 -2.0016 0.9686
-6.0432 4.8208 -2.0016 0.9686
-6.2125 4.6005 -2.0016 0.9686
-6.5269 4.1424 -2.0016 0.9686
-6.6716 3.9052 -2.0016 0.9686
-6.9349 3.4159 -2.0016 0.9686
-7.0531 3.1644 -2.0016 0.9686
-7.1623 2.9089 -2.0016 0.9686
-7.3527 2.3870 -2.0016 0.9686
-7.4338 2.1212 -2.0016 0.9686
-7.6189 1.3088 -2.0016 0.9686
-7.6932 0.7581 -2.0016 0.9686
-7.7155 0.4812 -2.0016 0.9686
-7.7278 0.2036 -2.0016 0.9686
-7.6772 -0.9058 -2.0016 0.9686
-7.6397 -1.1811 -2.0016 0.9686
-7.2599 -2.2232 -1.9659 0.9691
-6.5919 -2.8260 -1.8570 0.9708
-6.4861 -3.0610 -1.8570 0.9708
-6.2494 -3.5190 -1.8570 0.9708
-5.9805 -3.9588 -1.8570 0.9708
-5.6807 -4.3781 -1.8570 0.9708
-5.5197 -4.5795 -1.8570 0.9708
-5.1765 -4.9641 -1.8570 0.9708
-4.9948 -5.1469 -1.8570 0.9708
-4.8066 -5.3231 -1.8570 0.9708
-4.5332 -6.2618 -2.0016 0.9686
-4.3052 -6.4207 -2.0016 0.9686
-3.8329 -6.7134 -2.0016 0.9686
-3.3408 -6.9713 -2.0016 0.9686
-2.8315 -7.1933 -2.0016 0.9686
-2.3075 -7.3781 -2.0016 0.9686
-0.6751 -7.7010 -2.0016 0.9686
1.5368 -7.5762 -2.0016 0.9686
1.8080 -7.5161 -2.0016 0.9686
2.8663 -7.1795 -2.0016 0.9686
2.1067 -4.3420 -1.2496 0.9803
2.3728 -4.1095 -1.2286 0.9806
4.3363 -6.3997 -2.0016 0.9686
4.9999 -5.8959 -2.0016 0.9686
5.2086 -5.7124 -2.0016 0.9686
5.6054 -5.3235 -2.0016 0.9686
6.3104 -4.4654 -2.0016 0.9686
6.4668 -4.2357 -2.0016 0.9686
6.6148 -4.0006 -2.0016 0.9686
6.7543 -3.7603 -2.0016 0.9686
7.0070 -3.2654 -2.0016 0.9686
7.1198 -3.0115 -2.0016 0.9686
7.2234 -2.7537 -2.0016 0.9686
7.3177 -2.4923 -2.0016 0.9686
7.5993 -1.4181 -2.0016 0.9686
7.7078 -0.5919 -2.0016 0.9686
7.7241 -0.3145 -2.0016 0.9686
7.7304 -0.0368 -2.0016 0.9686
7.7267 0.2411 -2.0016 0.9686
7.7131 0.5186 -2.0016 0.9686
7.6895 0.7955 -2.0016 0.9686
7.6559 1.0713 -2.0016 0.9686
7.6125 1.3457 -2.0016 0.9686
7.4961 1.8890 -2.0016 0.9686
7.4234 2.1572 -2.0016 0.9686
7.2493 2.6848 -2.0016 0.9686
6.7898 3.6959 -2.0016 0.9686
6.5068 4.1740 -2.0016 0.9686
6.3526 4.4051 -2.0016 0.9686
6.1901 4.6306 -2.0016 0.9686
5.2627 5.6626 -2.0016 0.9686
5.0558 5.8480 -2.0016 0.9686
4.1657 6.5121 -2.0016 0.9686
3.9290 6.6576 -2.0016 0.9686
2.9345 7.1519 -2.0016 0.9686
2.6755 7.2527 -2.0016 0.9686
2.4132 7.3442 -2.0016 0.9686
1.8794 7.4985 -2.0016 0.9686
1.6087 7.5612 -2.0016 0.9686
1.0615 7.6573 -2.0016 0.9686
0.5087 7.7137 -2.0016 0.9686
0.2312 7.7270 -2.0016 0.9686
-0.0467 7.7303 -2.0016 0.9686
-0.6018 7.7070 -2.0016 0.9686
-0.8784 7.6804 -2.0016 0.9686
-1.4278 7.5975 -2.0016 0.9686
-1.6999 7.5413 -2.0016 0.9686
-2.7629 7.2199 -2.0016 0.9686
-3.5239 6.8806 -2.0016 0.9686
-3.7689 6.7495 -2.0016 0.9686
-4.0090 6.6097 -2.0016 0.9686
-4.6971 6.1398 -2.0016 0.9686
-5.3307 5.5986 -2.0016 0.9686
-5.9022 4.9924 -2.0016 0.9686
-6.0779 4.7770 -2.0016 0.9686
-6.4053 4.3281 -2.0016 0.9686
-6.8339 3.6136 -2.0016 0.9686
-6.9593 3.3657 -2.0016 0.9686
-7.0758 3.1134 -2.0016 0.9686
-7.1831 2.8571 -2.0016 0.9686
-7.3698 2.3338 -2.0016 0.9686
-7.5184 1.7984 -2.0016 0.9686
-7.6281 1.2537 -2.0016 0.9686
-7.6683 0.9788 -2.0016 0.9686
-7.6985 0.7026 -2.0016 0.9686
-7.7188 0.4254 -2.0016 0.9686
-7.7294 -0.1301 -2.0016 0.9686
-7.7197 -0.4078 -2.0016 0.9686
-7.5816 -1.5097 -2.0016 0.9686
-7.5225 -1.7812 -2.0016 0.9686
-6.7734 -2.3985 -1.8605 0.9707
-6.6703 -2.6355 -1.8570 0.9708
-6.4638 -3.1078 -1.8570 0.9708
-6.2239 -3.5641 -1.8570 0.9708
-6.0917 -3.7854 -1.8570 0.9708
-5.6490 -4.4191 -1.8570 0.9708
-5.3170 -4.8134 -1.8570 0.9708
-4.9575 -5.1829 -1.8570 0.9708
-4.7112 -6.1291 -2.0016 0.9686
-4.4879 -6.2944 -2.0016 0.9686
-4.0242 -6.6005 -2.0016 0.9686
-3.2904 -6.9953 -2.0016 0.9686
-1.9869 -7.4708 -2.0016 0.9686
-1.1713 -7.6412 -2.0016 0.9686
-0.6194 -7.7056 -2.0016 0.9686
-0.0644 -7.7302 -2.0016 0.9686
0.2135 -7.7275 -2.0016 0.9686
0.4911 -7.7149 -2.0016 0.9686
1.0439 -7.6597 -2.0016 0.9686
1.3185 -7.6172 -2.0016 0.9686
1.8623 -7.5028 -2.0016 0.9686
2.1307 -7.4311 -2.0016 0.9686
2.3964 -7.3497 -2.0016 0.9686
2.6589 -7.2588 -2.0016 0.9686
2.9181 -7.1586 -2.0016 0.9686
2.2190 -4.1115 -1.2097 0.9809
2.4141 -4.1121 -1.2346 0.9805
4.1508 -6.5216 -2.0016 0.9686
4.3824 -6.3682 -2.0016 0.9686
4.8285 -6.0370 -2.0016 0.9686
5.0424 -5.8596 -2.0016 0.9686
5.4502 -5.4823 -2.0016 0.9686
5.8299 -5.0766 -2.0016 0.9686
6.0086 -4.8638 -2.0016 0.9686
6.1795 -4.6448 -2.0016 0.9686
6.3425 -4.4197 -2.0016 0.9686
6.7813 -3.7114 -2.0016 0.9686
7.0304 -3.2147 -2.0016 0.9686
7.6094 -1.3631 -2.0016 0.9686
7.6534 -1.0888 -2.0016 0.9686
7.6876 -0.8131 -2.0016 0.9686
7.7305 0.0191 -2.0016 0.9686
7.6835 0.8510 -2.0016 0.9686
7.6025 1.4007 -2.0016 0.9686
7.4076 2.2108 -2.0016 0.9686
6.8931 3.4993 -2.0016 0.9686
6.4764 4.2209 -2.0016 0.9686
6.3206 4.4509 -2.0016 0.9686
5.9846 4.8934 -2.0016 0.9686
5.8048 5.1053 -2.0016 0.9686
5.6176 5.3106 -2.0016 0.9686
5.2217 5.7004 -2.0016 0.9686
5.0134 5.8844 -2.0016 0.9686
4.7987 6.0608 -2.0016 0.9686
4.3510 6.3898 -2.0016 0.9686
4.1185 6.5420 -2.0016 0.9686
3.3905 6.9473 -2.0016 0.9686
2.3601 7.3614 -2.0016 0.9686
1.8252 7.5119 -2.0016 0.9686
1.5541 7.5727 -2.0016 0.9686
1.2809 7.6236 -2.0016 0.9686
0.7300 7.6959 -2.0016 0.9686
0.1754 7.7285 -2.0016 0.9686
-0.9338 7.6739 -2.0016 0.9686
-1.2090 7.6354 -2.0016 0.9686
-1.4826 7.5870 -2.0016 0.9686
-1.7543 7.5288 -2.0016 0.9686
-4.8383 5.1556 -2.0016 0.9710
-5.0205 4.9784 -2.0016 0.9710
-5.1961 4.7947 -2.0016 0.9710
-5.5271 4.4091 -2.0016 0.9710
-5.8296 4.0007 -2.0016 0.9710
-6.2263 3.3501 -2.0016 0.9710
-6.4508 2.8942 -2.0016 0.9710
-6.5507 2.6605 -2.0016 0.9710
-6.6421 2.4234 -2.0016 0.9710
-6.9208 1.4467 -2.0016 0.9710
-6.9683 1.1970 -2.0016 0.9710
-7.0362 0.6934 -2.0016 0.9710
-7.0216 -0.8284 -2.0016 0.9710
-6.9873 -1.0803 -2.0016 0.9710
-6.8305 -1.8260 -2.0016 0.9710
-6.1179 -2.3663 -1.8570 0.9731
-5.8277 -3.0110 -1.8570 0.9731
-5.7158 -3.2185 -1.8570 0.9731
-5.4698 -3.6207 -1.8570 0.9731
-5.0484 -4.1884 -1.8570 0.9731
-4.8946 -4.3671 -1.8570 0.9731
-4.5682 -4.7074 -1.8570 0.9731
-4.3961 -4.8685 -1.8570 0.9731
-4.2183 -5.0234 -1.8570 0.9731
-4.0351 -5.1717 -1.8570 0.9731
-3.6532 -5.4482 -1.8570 0.9731
-3.5056 -6.1400 -2.0016 0.9710
-3.2827 -6.2621 -2.0016 0.9710
-3.0555 -6.3760 -2.0016 0.9710
-2.8244 -6.4817 -2.0016 0.9710
-2.3516 -6.6678 -2.0016 0.9710
-2.1104 -6.7480 -2.0016 0.9710
-1.3719 -6.9360 -2.0016 0.9710
-1.1217 -6.9808 -2.0016 0.9710
-0.6174 -7.0433 -2.0016 0.9710
0.3982 -7.0591 -2.0016 0.9710
0.6516 -7.0402 -2.0016 0.9710
0.9042 -7.0123 -2.0016 0.9710
1.1556 -6.9753 -2.0016 0.9710
1.4055 -6.9292 -2.0016 0.9710
1.8996 -6.8104 -2.0016 0.9710
2.3839 -6.6563 -2.0016 0.9710
2.3644 -4.0950 -1.3386 0.9805
3.7531 -5.9920 -2.0016 0.9710
4.1738 -5.7069 -2.0016 0.9710
4.3762 -5.5532 -2.0016 0.9710
4.5730 -5.3924 -2.0016 0.9710
4.7638 -5.2245 -2.0016 0.9710
5.1268 -4.8689 -2.0016 0.9710
5.2984 -4.6815 -2.0016 0.9710
5.6210 -4.2888 -2.0016 0.9710
6.0499 -3.6589 -2.0016 0.9710
6.1775 -3.4391 -2.0016 0.9710
6.2971 -3.2149 -2.0016 0.9710
6.6066 -2.5185 -2.0016 0.9710
6.7704 -2.0375 -2.0016 0.9710
6.8993 -1.5459 -2.0016 0.9710
6.9504 -1.2970 -2.0016 0.9710
6.9925 -1.0463 -2.0016 0.9710
7.0328 0.7275 -2.0016 0.9710
7.0021 0.9798 -2.0016 0.9710
6.9624 1.2308 -2.0016 0.9710
6.8560 1.7277 -2.0016 0.9710
5.8101 4.0290 -2.0016 0.9710
5.6615 4.2352 -2.0016 0.9710
5.5057 4.4359 -2.0016 0.9710
5.3427 4.6309 -2.0016 0.9710
5.1728 4.8199 -2.0016 0.9710
4.9963 5.0027 -2.0016 0.9710
4.4288 5.5114 -2.0016 0.9710
3.8099 5.9560 -2.0016 0.9710
3.5934 6.0891 -2.0016 0.9710
3.1468 6.3315 -2.0016 0.9710
2.9172 6.4405 -2.0016 0.9710
1.9643 6.7920 -2.0016 0.9710
1.4714 6.9155 -2.0016 0.9710
1.2219 6.9639 -2.0016 0.9710
0.9708 7.0034 -2.0016 0.9710
-0.0427 7.0702 -2.0016 0.9710
-0.2967 7.0641 -2.0016 0.9710
-0.5504 7.0489 -2.0016 0.9710
-1.5547 6.8973 -2.0016 0.9710
-1.8016 6.8369 -2.0016 0.9710
-2.0461 6.7678 -2.0016 0.9710
-2.7627 6.5082 -2.0016 0.9710
-4.0914 5.7663 -2.0016 0.9710
-4.2960 5.6155 -2.0016 0.9710
-4.8754 5.1205 -2.0016 0.9710
-5.2306 4.7571 -2.0016 0.9710
-5.3982 4.5660 -2.0016 0.9710
-5.5588 4.3691 -2.0016 0.9710
-5.7122 4.1665 -2.0016 0.9710
-5.8583 3.9585 -2.0016 0.9710
-6.1275 3.5275 -2.0016 0.9710
-6.3650 3.0783 -2.0016 0.9710
-6.5697 2.6131 -2.0016 0.9710
-6.6594 2.3753 -2.0016 0.9710
-6.8128 1.8909 -2.0016 0.9710
-6.8763 1.6448 -2.0016 0.9710
-6.9310 1.3966 -2.0016 0.9710
-6.9767 1.1467 -2.0016 0.9710
-7.0134 0.8952 -2.0016 0.9710
-7.0605 -0.3730 -2.0016 0.9710
-7.0425 -0.6265 -2.0016 0.9710
-6.9793 -1.1307 -2.0016 0.9710
-6.9342 -1.3808 -2.0016 0.9710
-6.8171 -1.8753 -2.0016 0.9710
-6.7453 -2.1191 -2.0016 0.9710
-6.3147 -2.2361 -1.8964 0.9725
-5.9118 -2.8424 -1.8570 0.9731
-5.8058 -3.0530 -1.8570 0.9731
-5.6924 -3.2597 -1.8570 0.9731
-5.3085 -3.8534 -1.8570 0.9731
-5.1666 -4.0417 -1.8570 0.9731
-5.0180 -4.2247 -1.8570 0.9731
-4.8629 -4.4024 -1.8570 0.9731
-4.5341 -4.7403 -1.8570 0.9731
-4.3608 -4.9002 -1.8570 0.9731
-3.8081 -5.3410 -1.8570 0.9731
-3.4146 -5.6008 -1.8570 0.9731
-3.2374 -6.2856 -2.0016 0.9710
-2.5421 -6.5975 -2.0016 0.9710
-2.3033 -6.6846 -2.0016 0.9710
-2.0616 -6.7631 -2.0016 0.9710
-1.8172 -6.8328 -2.0016 0.9710
-1.3218 -6.9457 -2.0016 0.9710
-1.0713 -6.9887 -2.0016 0.9710
-0.5665 -7.0476 -2.0016 0.9710
-0.3129 -7.0634 -2.0016 0.9710
0.1953 -7.0676 -2.0016 0.9710
0.7024 -7.0354 -2.0016 0.9710
0.9548 -7.0056 -2.0016 0.9710
1.2059 -6.9667 -2.0016 0.9710
1.4555 -6.9189 -2.0016 0.9710
1.7032 -6.8621 -2.0016 0.9710
1.9487 -6.7965 -2.0016 0.9710
2.1917 -6.7220 -2.0016 0.9710
2.2113 -4.0973 -1.3181 0.9808
3.7963 -5.9647 -2.0016 0.9710
4.2149 -5.6766 -2.0016 0.9710
4.6118 -5.3592 -2.0016 0.9710
4.9848 -5.0141 -2.0016 0.9710
5.1618 -4.8317 -2.0016 0.9710
5.3321 -4.6431 -2.0016 0.9710
5.4955 -4.4485 -2.0016 0.9710
5.9424 -3.8312 -2.0016 0.9710
6.0762 -3.6151 -2.0016 0.9710
6.2022 -3.3944 -2.0016 0.9710
6.3202 -3.1694 -2.0016 0.9710
6.4300 -2.9402 -2.0016 0.9710
6.5315 -2.7072 -2.0016 0.9710
6.6246 -2.4707 -2.0016 0.9710
6.7091 -2.2311 -2.0016 0.9710
6.7849 -1.9885 -2.0016 0.9710
6.8520 -1.7434 -2.0016 0.9710
6.9102 -1.4960 -2.0016 0.9710
6.9999 -0.9958 -2.0016 0.9710
7.0703 0.0174 -2.0016 0.9710
7.0508 0.5252 -2.0016 0.9710
7.0274 0.7783 -2.0016 0.9710
6.9028 1.5301 -2.0016 0.9710
6.8433 1.7772 -2.0016 0.9710
6.6980 2.2641 -2.0016 0.9710
6.4154 2.9719 -2.0016 0.9710
6.3045 3.2005 -2.0016 0.9710
5.9234 3.8604 -2.0016 0.9710
5.6308 4.2759 -2.0016 0.9710
5.4735 4.4755 -2.0016 0.9710
5.1379 4.8571 -2.0016 0.9710
4.9600 5.0386 -2.0016 0.9710
4.5853 5.3819 -2.0016 0.9710
3.5494 6.1149 -2.0016 0.9710
3.3273 6.2385 -2.0016 0.9710
3.1010 6.3540 -2.0016 0.9710
2.8706 6.4613 -2.0016 0.9710
2.6366 6.5603 -2.0016 0.9710
2.3991 6.6509 -2.0016 0.9710
2.1585 6.7328 -2.0016 0.9710
1.9152 6.8060 -2.0016 0.9710
1.1715 6.9726 -2.0016 0.9710
0.9202 7.0102 -2.0016 0.9710
0.6677 7.0387 -2.0016 0.9710
0.1604 7.0685 -2.0016 0.9710
-0.3478 7.0618 -2.0016 0.9710
-0.6013 7.0447 -2.0016 0.9710
-1.1058 6.9833 -2.0016 0.9710
-1.3560 6.9391 -2.0016 0.9710
-1.6045 6.8859 -2.0016 0.9710
-4.9380 4.2383 -2.0016 0.9731
-5.2297 3.8727 -2.0016 0.9731
-5.9373 2.6638 -2.0016 0.9731
-6.0292 2.4487 -2.0016 0.9731
-6.1133 2.2305 -2.0016 0.9731
-6.1895 2.0093 -2.0016 0.9731
-6.2577 1.7856 -2.0016 0.9731
-6.3178 1.5596 -2.0016 0.9731
-6.4490 0.8705 -2.0016 0.9731
-6.4949 0.4050 -2.0016 0.9731
-6.5052 0.1714 -2.0016 0.9731
-6.4859 -0.5298 -2.0016 0.9731
-6.4311 -0.9943 -2.0016 0.9731
-6.3912 -1.2247 -2.0016 0.9731
-6.3430 -1.4536 -2.0016 0.9731
-6.2223 -1.9055 -2.0016 0.9731
-5.7771 -2.2345 -1.9052 0.9744
-5.5490 -2.3789 -1.8570 0.9751
-5.3638 -2.7713 -1.8570 0.9751
