ply
format ascii 1.0
element vertex 1591
property float32 x
property float32 y
property float32 z
property float32 I
end_header
6.4470 -0.8854 -2.0016 0.9731
6.4939 -0.4203 -2.0016 0.9731
6.5073 0.0470 -2.0016 0.9731
6.5014 0.2807 -2.0016 0.9731
6.4871 0.5141 -2.0016 0.9731
6.4645 0.7467 -2.0016 0.9731
6.2909 1.6648 -2.0016 0.9731
6.2271 1.8897 -2.0016 0.9731
6.1552 2.1121 -2.0016 0.9731
6.0754 2.3318 -2.0016 0.9731
5.7893 2.9718 -2.0016 0.9731
5.5610 3.3797 -2.0016 0.9731
5.4360 3.5773 -2.0016 0.9731
5.3040 3.7702 -2.0016 0.9731
5.1652 3.9583 -2.0016 0.9731
5.0197 4.1413 -2.0016 0.9731
4.8677 4.3189 -2.0016 0.9731
4.7094 4.4910 -2.0016 0.9731
4.5451 4.6572 -2.0016 0.9731
4.3749 4.8174 -2.0016 0.9731
4.0177 5.1191 -2.0016 0.9731
3.8313 5.2601 -2.0016 0.9731
3.6399 5.3943 -2.0016 0.9731
3.4438 5.5216 -2.0016 0.9731
3.0385 5.7545 -2.0016 0.9731
2.8299 5.8600 -2.0016 0.9731
2.6176 5.9578 -2.0016 0.9731
1.7374 6.2713 -2.0016 0.9731
1.0527 6.4218 -2.0016 0.9731
0.8214 6.4554 -2.0016 0.9731
0.5890 6.4808 -2.0016 0.9731
0.3558 6.4977 -2.0016 0.9731
0.1222 6.5063 -2.0016 0.9731
-0.1116 6.5065 -2.0016 0.9731
-0.8108 6.4568 -2.0016 0.9731
-1.0422 6.4235 -2.0016 0.9731
-1.2722 6.3819 -2.0016 0.9731
-1.5006 6.3321 -2.0016 0.9731
-2.8202 5.8646 -2.0016 0.9731
-3.2340 5.6470 -2.0016 0.9731
-3.8227 5.2664 -2.0016 0.9731
-4.0093 5.1257 -2.0016 0.9731
-4.1909 4.9784 -2.0016 0.9731
-4.3670 4.8246 -2.0016 0.9731
-4.5374 4.6647 -2.0016 0.9731
-5.0129 4.1495 -2.0016 0.9731
-5.1587 3.9668 -2.0016 0.9731
-5.2978 3.7789 -2.0016 0.9731
-5.7844 2.9813 -2.0016 0.9731
-6.0715 2.3418 -2.0016 0.9731
-6.2882 1.6751 -2.0016 0.9731
-6.4319 0.9890 -2.0016 0.9731
-6.4633 0.7573 -2.0016 0.9731
-6.4863 0.5247 -2.0016 0.9731
-6.5072 0.0577 -2.0016 0.9731
-6.4946 -0.4096 -2.0016 0.9731
-6.4757 -0.6426 -2.0016 0.9731
-6.4128 -1.1058 -2.0016 0.9731
-6.3169 -1.5634 -2.0016 0.9731
-5.5925 -2.2748 -1.8570 0.9751
-5.5072 -2.4742 -1.8570 0.9751
-5.4148 -2.6704 -1.8570 0.9751
-5.3154 -2.8631 -1.8570 0.9751
-5.2091 -3.0522 -1.8570 0.9751
-4.8505 -3.5948 -1.8570 0.9751
-4.2857 -4.2524 -1.8570 0.9751
-4.1302 -4.4036 -1.8570 0.9751
-3.9694 -4.5491 -1.8570 0.9751
-3.8035 -4.6887 -1.8570 0.9751
-3.6326 -4.8223 -1.8570 0.9751
-3.4571 -4.9497 -1.8570 0.9751
-3.2770 -5.0706 -1.8570 0.9751
-2.9046 -5.2928 -1.8570 0.9751
-2.7126 -5.3937 -1.8570 0.9751
-2.3184 -5.5745 -1.8570 0.9751
-2.0611 -6.1725 -2.0016 0.9731
-1.6127 -6.3045 -2.0016 0.9731
-1.3852 -6.3583 -2.0016 0.9731
-1.1559 -6.4040 -2.0016 0.9731
-0.9251 -6.4414 -2.0016 0.9731
0.2406 -6.5030 -2.0016 0.9731
0.7068 -6.4690 -2.0016 0.9731
0.9387 -6.4394 -2.0016 0.9731
1.3986 -6.3554 -2.0016 0.9731
1.8512 -6.2386 -2.0016 0.9731
2.0741 -6.1681 -2.0016 0.9731
2.0878 -4.1298 -1.4233 0.9808
2.4486 -4.0855 -1.4650 0.9803
3.5437 -5.4580 -2.0016 0.9731
4.1102 -5.0451 -2.0016 0.9731
4.2888 -4.8943 -2.0016 0.9731
4.4618 -4.7371 -2.0016 0.9731
4.7903 -4.4045 -2.0016 0.9731
5.2363 -3.8637 -2.0016 0.9731
5.5002 -3.4778 -2.0016 0.9731
5.7357 -3.0740 -2.0016 0.9731
5.8424 -2.8660 -2.0016 0.9731
5.9415 -2.6543 -2.0016 0.9731
6.0331 -2.4392 -2.0016 0.9731
6.1168 -2.2209 -2.0016 0.9731
6.2604 -1.7761 -2.0016 0.9731
6.3202 -1.5501 -2.0016 0.9731
6.4151 -1.0923 -2.0016 0.9731
6.4502 -0.8612 -2.0016 0.9731
6.4954 -0.3959 -2.0016 0.9731
6.5055 -0.1624 -2.0016 0.9731
6.5003 0.3051 -2.0016 0.9731
6.4852 0.5383 -2.0016 0.9731
6.2847 1.6883 -2.0016 0.9731
6.2200 1.9130 -2.0016 0.9731
6.1472 2.1351 -2.0016 0.9731
5.9781 2.5709 -2.0016 0.9731
5.8819 2.7840 -2.0016 0.9731
5.4226 3.5976 -2.0016 0.9731
5.2899 3.7901 -2.0016 0.9731
4.8515 4.3371 -2.0016 0.9731
-1.5764 5.8114 -2.0016 0.9749
-2.3923 5.5258 -2.0016 0.9749
-2.7829 5.3398 -2.0016 0.9749
-3.1590 5.1262 -2.0016 0.9749
-3.5189 4.8862 -2.0016 0.9749
-3.8606 4.6210 -2.0016 0.9749
-4.3352 4.1789 -2.0016 0.9749
-4.4825 4.0205 -2.0016 0.9749
-4.6241 3.8569 -2.0016 0.9749
-5.1287 3.1550 -2.0016 0.9749
-5.2387 2.9687 -2.0016 0.9749
-5.4384 2.5850 -2.0016 0.9749
-5.5277 2.3880 -2.0016 0.9749
-5.6099 2.1879 -2.0016 0.9749
-5.6848 1.9850 -2.0016 0.9749
-5.7525 1.7795 -2.0016 0.9749
-5.9779 0.7231 -2.0016 0.9749
-6.0000 0.5080 -2.0016 0.9749
-6.0144 0.2921 -2.0016 0.9749
-5.9942 -0.5722 -2.0016 0.9749
-5.9377 -1.0010 -2.0016 0.9749
-5.8979 -1.2136 -2.0016 0.9749
-5.6633 -2.0457 -2.0016 0.9749
-5.5196 -2.2211 -1.9777 0.9752
-4.9282 -2.6308 -1.8570 0.9767
-4.8306 -2.8062 -1.8570 0.9767
-4.6166 -3.1457 -1.8570 0.9767
-4.5007 -3.3095 -1.8570 0.9767
-4.2515 -3.6241 -1.8570 0.9767
-4.1186 -3.7744 -1.8570 0.9767
-3.9804 -3.9199 -1.8570 0.9767
-3.8370 -4.0603 -1.8570 0.9767
-3.5356 -4.3253 -1.8570 0.9767
-3.2160 -4.5680 -1.8570 0.9767
-3.0498 -4.6805 -1.8570 0.9767
-2.7059 -4.8874 -1.8570 0.9767
-2.5287 -4.9814 -1.8570 0.9767
-1.7892 -5.2922 -1.8570 0.9767
-1.5980 -5.3531 -1.8570 0.9767
-1.2096 -5.4540 -1.8570 0.9767
-1.0129 -5.4939 -1.8570 0.9767
-0.0150 -5.5865 -1.8570 0.9767
0.3860 -5.5731 -1.8570 0.9767
0.5860 -5.5557 -1.8570 0.9767
1.3755 -5.4145 -1.8570 0.9767
1.5691 -5.3616 -1.8570 0.9767
1.7607 -5.3018 -1.8570 0.9767
2.1368 -5.1617 -1.8570 0.9767
2.0697 -4.1322 -1.5362 0.9807
2.4154 -4.0646 -1.5716 0.9803
3.0246 -4.6969 -1.8570 0.9767
3.1913 -4.5852 -1.8570 0.9767
3.7857 -4.6825 -2.0016 0.9749
3.9515 -4.5435 -2.0016 0.9749
4.2674 -4.2481 -2.0016 0.9749
4.4173 -4.0921 -2.0016 0.9749
4.5614 -3.9308 -2.0016 0.9749
4.6996 -3.7644 -2.0016 0.9749
4.8318 -3.5932 -2.0016 0.9749
5.1903 -3.0526 -2.0016 0.9749
5.2966 -2.8642 -2.0016 0.9749
5.3961 -2.6721 -2.0016 0.9749
5.4885 -2.4766 -2.0016 0.9749
5.5740 -2.2779 -2.0016 0.9749
5.7866 -1.6651 -2.0016 0.9749
5.8912 -1.2454 -2.0016 0.9749
6.0089 -0.3889 -2.0016 0.9749
6.0190 -0.1728 -2.0016 0.9749
6.0213 0.0435 -2.0016 0.9749
5.9166 1.1186 -2.0016 0.9749
5.6955 1.9544 -2.0016 0.9749
5.6216 2.1577 -2.0016 0.9749
5.5405 2.3582 -2.0016 0.9749
5.4522 2.5557 -2.0016 0.9749
5.3569 2.7498 -2.0016 0.9749
5.2547 2.9405 -2.0016 0.9749
5.1456 3.1273 -2.0016 0.9749
5.0300 3.3101 -2.0016 0.9749
4.7794 3.6627 -2.0016 0.9749
4.3577 4.1555 -2.0016 0.9749
3.8854 4.6002 -2.0016 0.9749
3.7177 4.7367 -2.0016 0.9749
3.5451 4.8672 -2.0016 0.9749
3.1866 5.1092 -2.0016 0.9749
2.8116 5.3247 -2.0016 0.9749
2.2225 5.5963 -2.0016 0.9749
1.8150 5.7414 -2.0016 0.9749
0.9741 5.9421 -2.0016 0.9749
0.5450 5.9967 -2.0016 0.9749
0.1131 6.0204 -2.0016 0.9749
-0.3194 6.0130 -2.0016 0.9749
-0.5352 5.9976 -2.0016 0.9749
-0.7502 5.9745 -2.0016 0.9749
-0.9643 5.9437 -2.0016 0.9749
-1.1772 5.9052 -2.0016 0.9749
-2.2133 5.5999 -2.0016 0.9749
-2.6096 5.4266 -2.0016 0.9749
-2.8028 5.3293 -2.0016 0.9749
-3.3598 4.9969 -2.0016 0.9749
-3.5371 4.8730 -2.0016 0.9749
-4.1985 4.3163 -2.0016 0.9749
-4.4976 4.0037 -2.0016 0.9749
-4.9021 3.4966 -2.0016 0.9749
-5.0246 3.3184 -2.0016 0.9749
-5.5366 2.3673 -2.0016 0.9749
-5.6922 1.9637 -2.0016 0.9749
-5.7591 1.7580 -2.0016 0.9749
-5.8185 1.5500 -2.0016 0.9749
-5.9148 1.1283 -2.0016 0.9749
-5.9515 0.9151 -2.0016 0.9749
-6.0154 0.2696 -2.0016 0.9749
-6.0095 -0.3790 -2.0016 0.9749
-5.9920 -0.5946 -2.0016 0.9749
-5.9339 -1.0232 -2.0016 0.9749
-5.8933 -1.2357 -2.0016 0.9749
-5.8451 -1.4466 -2.0016 0.9749
-5.0958 -2.2894 -1.8570 0.9767
-5.0103 -2.4709 -1.8570 0.9767
-4.9183 -2.6493 -1.8570 0.9767
-4.8200 -2.8242 -1.8570 0.9767
-4.7155 -2.9955 -1.8570 0.9767
-4.4883 -3.3263 -1.8570 0.9767
-4.3659 -3.4854 -1.8570 0.9767
-4.1044 -3.7898 -1.8570 0.9767
-3.9656 -3.9348 -1.8570 0.9767
-3.5194 -4.3385 -1.8570 0.9767
-3.3613 -4.4621 -1.8570 0.9767
-3.1988 -4.5800 -1.8570 0.9767
-2.6876 -4.8975 -1.8570 0.9767
-2.5100 -4.9909 -1.8570 0.9767
-1.7694 -5.2989 -1.8570 0.9767
-1.5779 -5.3590 -1.8570 0.9767
-1.3844 -5.4122 -1.8570 0.9767
-1.1891 -5.4585 -1.8570 0.9767
-0.9923 -5.4977 -1.8570 0.9767
-0.5951 -5.5547 -1.8570 0.9767
-0.1948 -5.5831 -1.8570 0.9767
0.4069 -5.5716 -1.8570 0.9767
0.6068 -5.5534 -1.8570 0.9767
1.2006 -5.4559 -1.8570 0.9767
2.4361 -4.0646 -1.5752 0.9802
3.0422 -4.6855 -1.8570 0.9767
3.2085 -4.5732 -1.8570 0.9767
3.3707 -4.4551 -1.8570 0.9767
3.9684 -4.5287 -2.0016 0.9749
4.1285 -4.3832 -2.0016 0.9749
4.2833 -4.2321 -2.0016 0.9749
4.4326 -4.0756 -2.0016 0.9749
4.9705 -3.3988 -2.0016 0.9749
5.0894 -3.2181 -2.0016 0.9749
5.5825 -2.2570 -2.0016 0.9749
5.6599 -2.0550 -2.0016 0.9749
5.7301 -1.8504 -2.0016 0.9749
5.8481 -1.4343 -2.0016 0.9749
5.8959 -1.2233 -2.0016 0.9749
5.9932 -0.5820 -2.0016 0.9749
6.0211 0.0660 -2.0016 0.9749
6.0008 0.4981 -2.0016 0.9749
5.9790 0.7133 -2.0016 0.9749
5.9124 1.1407 -2.0016 0.9749
5.8676 1.3524 -2.0016 0.9749
5.8153 1.5622 -2.0016 0.9749
5.7554 1.7701 -2.0016 0.9749
5.6135 2.1787 -2.0016 0.9749
5.4426 2.5761 -2.0016 0.9749
5.0176 3.3289 -2.0016 0.9749
4.6304 3.8493 -2.0016 0.9749
-1.6583 5.3458 -2.0016 0.9765
-1.8493 5.2828 -2.0016 0.9765
-2.4068 5.0532 -2.0016 0.9765
-2.5867 4.9635 -2.0016 0.9765
-3.1056 4.6564 -2.0016 0.9765
-3.2709 4.5419 -2.0016 0.9765
-3.4319 4.4215 -2.0016 0.9765
-3.7405 4.1637 -2.0016 0.9765
-3.8876 4.0267 -2.0016 0.9765
-4.0297 3.8844 -2.0016 0.9765
-4.4242 3.4284 -2.0016 0.9765
-4.8696 2.7595 -2.0016 0.9765
-5.0551 2.4028 -2.0016 0.9765
-5.2842 1.8451 -2.0016 0.9765
-5.3471 1.6541 -2.0016 0.9765
-5.4030 1.4610 -2.0016 0.9765
-5.5289 0.8713 -2.0016 0.9765
-5.5566 0.6722 -2.0016 0.9765
-5.5905 0.2716 -2.0016 0.9765
-5.5967 0.0706 -2.0016 0.9765
-5.5956 -0.1305 -2.0016 0.9765
-5.5491 -0.7316 -2.0016 0.9765
-5.4822 -1.1281 -2.0016 0.9765
-5.2642 -1.9016 -2.0016 0.9765
-5.0021 -2.2248 -1.9577 0.9770
-4.4901 -2.6084 -1.8570 0.9782
-4.2913 -2.9240 -1.8570 0.9782
-4.1835 -3.0763 -1.8570 0.9782
-4.0703 -3.2245 -1.8570 0.9782
-3.9519 -3.3686 -1.8570 0.9782
-3.8283 -3.5084 -1.8570 0.9782
-3.6998 -3.6437 -1.8570 0.9782
-3.5666 -3.7742 -1.8570 0.9782
-3.4287 -3.8999 -1.8570 0.9782
-2.5152 -4.5430 -1.8570 0.9782
-2.3504 -4.6304 -1.8570 0.9782
-2.1826 -4.7118 -1.8570 0.9782
-2.0120 -4.7872 -1.8570 0.9782
-1.6631 -4.9193 -1.8570 0.9782
-1.4854 -4.9758 -1.8570 0.9782
-1.3057 -5.0260 -1.8570 0.9782
-0.9415 -5.1067 -1.8570 0.9782
-0.7575 -5.1372 -1.8570 0.9782
-0.5725 -5.1611 -1.8570 0.9782
-0.2005 -5.1889 -1.8570 0.9782
-0.0140 -5.1928 -1.8570 0.9782
0.1725 -5.1899 -1.8570 0.9782
0.3588 -5.1804 -1.8570 0.9782
0.7298 -5.1413 -1.8570 0.9782
0.9140 -5.1117 -1.8570 0.9782
1.6366 -4.9281 -1.8570 0.9782
1.8126 -4.8662 -1.8570 0.9782
1.9862 -4.7979 -1.8570 0.9782
2.0006 -4.3806 -1.7222 0.9798
2.8114 -4.3659 -1.8570 0.9782
3.1176 -4.1528 -1.8570 0.9782
3.2647 -4.0381 -1.8570 0.9782
4.1060 -3.8037 -2.0016 0.9765
4.3684 -3.4992 -2.0016 0.9765
4.4913 -3.3400 -2.0016 0.9765
4.7195 -3.0090 -2.0016 0.9765
4.9233 -2.6624 -2.0016 0.9765
5.1811 -2.1173 -2.0016 0.9765
5.3788 -1.5477 -2.0016 0.9765
5.5450 -0.7615 -2.0016 0.9765
5.5688 -0.5618 -2.0016 0.9765
5.5854 -0.3615 -2.0016 0.9765
5.5948 -0.1606 -2.0016 0.9765
5.5969 0.0404 -2.0016 0.9765
5.5919 0.2414 -2.0016 0.9765
5.2941 1.8166 -2.0016 0.9765
5.2254 2.0056 -2.0016 0.9765
4.8843 2.7332 -2.0016 0.9765
4.7830 2.9069 -2.0016 0.9765
4.6755 3.0768 -2.0016 0.9765
4.5620 3.2428 -2.0016 0.9765
4.4426 3.4045 -2.0016 0.9765
4.1867 3.7147 -2.0016 0.9765
3.9092 4.0057 -2.0016 0.9765
3.4557 4.4029 -2.0016 0.9765
3.2953 4.5242 -2.0016 0.9765
2.7895 4.8524 -2.0016 0.9765
2.4340 5.0402 -2.0016 0.9765
2.0659 5.2019 -2.0016 0.9765
1.8777 5.2727 -2.0016 0.9765
1.6871 5.3368 -2.0016 0.9765
1.4943 5.3939 -2.0016 0.9765
0.9054 5.5234 -2.0016 0.9765
0.5066 5.5741 -2.0016 0.9765
0.3061 5.5887 -2.0016 0.9765
-1.0942 5.4891 -2.0016 0.9765
-1.4855 5.3964 -2.0016 0.9765
-1.8690 5.2758 -2.0016 0.9765
-2.0573 5.2053 -2.0016 0.9765
-2.2430 5.1280 -2.0016 0.9765
-2.7816 4.8570 -2.0016 0.9765
-2.9542 4.7540 -2.0016 0.9765
-3.1231 4.6448 -2.0016 0.9765
-3.2879 4.5296 -2.0016 0.9765
-3.7560 4.1497 -2.0016 0.9765
-3.9026 4.0121 -2.0016 0.9765
-4.1806 3.7216 -2.0016 0.9765
-4.4370 3.4118 -2.0016 0.9765
-4.5567 3.2503 -2.0016 0.9765
-4.8798 2.7413 -2.0016 0.9765
-4.9752 2.5642 -2.0016 0.9765
-5.0641 2.3839 -2.0016 0.9765
-5.1464 2.2004 -2.0016 0.9765
-5.3532 1.6341 -2.0016 0.9765
-5.4567 1.2456 -2.0016 0.9765
-5.4980 1.0488 -2.0016 0.9765
-5.5321 0.8506 -2.0016 0.9765
-5.5915 0.2506 -2.0016 0.9765
-5.5157 -0.9511 -2.0016 0.9765
-5.4780 -1.1486 -2.0016 0.9765
-5.4332 -1.3446 -2.0016 0.9765
-5.3226 -1.7312 -2.0016 0.9765
-5.1846 -2.1089 -2.0016 0.9765
-4.9579 -2.2274 -1.9437 0.9772
-4.5717 -2.4626 -1.8570 0.9782
-4.4803 -2.6252 -1.8570 0.9782
-4.3832 -2.7844 -1.8570 0.9782
-3.6862 -3.6575 -1.8570 0.9782
-3.2714 -4.0328 -1.8570 0.9782
-3.1244 -4.1477 -1.8570 0.9782
-2.8186 -4.3613 -1.8570 0.9782
-2.6601 -4.4597 -1.8570 0.9782
-2.4982 -4.5524 -1.8570 0.9782
-2.3331 -4.6392 -1.8570 0.9782
-2.1650 -4.7199 -1.8570 0.9782
-1.9940 -4.7947 -1.8570 0.9782
-1.6447 -4.9255 -1.8570 0.9782
-1.4667 -4.9813 -1.8570 0.9782
-1.1053 -5.0738 -1.8570 0.9782
-0.3673 -5.1798 -1.8570 0.9782
0.0055 -5.1928 -1.8570 0.9782
0.1920 -5.1892 -1.8570 0.9782
0.7491 -5.1385 -1.8570 0.9782
0.9331 -5.1083 -1.8570 0.9782
1.1160 -5.0715 -1.8570 0.9782
1.2974 -5.0281 -1.8570 0.9782
2.2353 -4.0531 -1.6552 0.9805
2.8278 -4.3553 -1.8570 0.9782
3.2798 -4.0259 -1.8570 0.9782
3.8376 -4.0743 -2.0016 0.9765
3.9815 -3.9339 -2.0016 0.9765
4.3815 -3.4828 -2.0016 0.9765
4.6202 -3.1593 -2.0016 0.9765
5.1103 -2.2830 -2.0016 0.9765
5.2610 -1.9102 -2.0016 0.9765
5.3846 -1.5276 -2.0016 0.9765
5.5177 -0.9395 -2.0016 0.9765
5.5867 -0.3405 -2.0016 0.9765
5.5954 -0.1397 -2.0016 0.9765
5.5968 0.0614 -2.0016 0.9765
5.5909 0.2624 -2.0016 0.9765
5.5577 0.6631 -2.0016 0.9765
5.5303 0.8623 -2.0016 0.9765
5.4541 1.2570 -2.0016 0.9765
5.4054 1.4521 -2.0016 0.9765
5.3498 1.6453 -2.0016 0.9765
5.2872 1.8364 -2.0016 0.9765
5.2179 2.0252 -2.0016 0.9765
5.1418 2.2113 -2.0016 0.9765
5.0590 2.3945 -2.0016 0.9765
4.7721 2.9248 -2.0016 0.9765
4.3041 3.5781 -2.0016 0.9765
-1.5475 4.9885 -2.0016 0.9779
-1.9016 4.8646 -2.0016 0.9779
-2.0751 4.7931 -2.0016 0.9779
-2.5787 4.5421 -2.0016 0.9779
-2.7402 4.4465 -2.0016 0.9779
-2.8981 4.3452 -2.0016 0.9779
-3.0523 4.2383 -2.0016 0.9779
-3.2025 4.1260 -2.0016 0.9779
-3.3487 4.0083 -2.0016 0.9779
-3.4905 3.8854 -2.0016 0.9779
-3.7604 3.6248 -2.0016 0.9779
-3.8882 3.4874 -2.0016 0.9779
-4.0109 3.3455 -2.0016 0.9779
-4.1285 3.1993 -2.0016 0.9779
-4.4487 2.7366 -2.0016 0.9779
-4.7173 2.2422 -2.0016 0.9779
-4.7947 2.0713 -2.0016 0.9779
-4.9311 1.7218 -2.0016 0.9779
-4.9897 1.5436 -2.0016 0.9779
-5.0877 1.1814 -2.0016 0.9779
-5.1268 0.9979 -2.0016 0.9779
-5.1852 0.6273 -2.0016 0.9779
-5.2044 0.4406 -2.0016 0.9779
-5.2216 -0.1218 -2.0016 0.9779
-5.1504 -0.8683 -2.0016 0.9779
-4.9729 -1.5969 -2.0016 0.9779
-4.8454 -1.9498 -2.0016 0.9779
-4.7723 -2.1226 -2.0016 0.9779
-4.2748 -2.2820 -1.8570 0.9795
-4.1901 -2.4341 -1.8570 0.9795
-4.0045 -2.7286 -1.8570 0.9795
-3.6878 -3.1435 -1.8570 0.9795
-3.5725 -3.2739 -1.8570 0.9795
-3.4526 -3.4002 -1.8570 0.9795
-3.3282 -3.5220 -1.8570 0.9795
-3.0668 -3.7518 -1.8570 0.9795
-2.7896 -3.9623 -1.8570 0.9795
-2.6454 -4.0599 -1.8570 0.9795
-2.3472 -4.2394 -1.8570 0.9795
-2.1934 -4.3209 -1.8570 0.9795
-2.0367 -4.3969 -1.8570 0.9795
-1.7159 -4.5318 -1.8570 0.9795
-1.5520 -4.5905 -1.8570 0.9795
-1.3861 -4.6433 -1.8570 0.9795
-0.7069 -4.7939 -1.8570 0.9795
-0.5342 -4.8162 -1.8570 0.9795
-0.3609 -4.8323 -1.8570 0.9795
-0.0130 -4.8457 -1.8570 0.9795
0.1610 -4.8431 -1.8570 0.9795
0.3349 -4.8342 -1.8570 0.9795
0.8529 -4.7701 -1.8570 0.9795
1.3611 -4.6507 -1.8570 0.9795
1.5272 -4.5988 -1.8570 0.9795
1.8534 -4.4773 -1.8570 0.9795
2.1867 -4.0002 -1.7470 0.9807
2.3775 -4.0007 -1.7834 0.9803
2.6235 -4.0741 -1.8570 0.9795
2.7682 -3.9773 -1.8570 0.9795
2.9092 -3.8753 -1.8570 0.9795
3.1799 -3.6564 -1.8570 0.9795
3.4342 -3.4187 -1.8570 0.9795
3.8316 -3.5495 -2.0016 0.9779
3.9566 -3.4096 -2.0016 0.9779
4.0765 -3.2653 -2.0016 0.9779
4.1911 -3.1168 -2.0016 0.9779
4.3004 -2.9642 -2.0016 0.9779
4.5021 -2.6479 -2.0016 0.9779
4.5943 -2.4845 -2.0016 0.9779
4.9027 -1.8009 -2.0016 0.9779
4.9643 -1.6237 -2.0016 0.9779
5.0680 -1.2631 -2.0016 0.9779
5.1101 -1.0802 -2.0016 0.9779
5.1456 -0.8960 -2.0016 0.9779
5.1745 -0.7106 -2.0016 0.9779
5.2209 -0.1499 -2.0016 0.9779
5.2182 0.2253 -2.0016 0.9779
5.2067 0.4126 -2.0016 0.9779
5.1885 0.5993 -2.0016 0.9779
5.1637 0.7853 -2.0016 0.9779
5.1321 0.9703 -2.0016 0.9779
5.0940 1.1540 -2.0016 0.9779
5.0492 1.3362 -2.0016 0.9779
4.9980 1.5167 -2.0016 0.9779
4.9403 1.6952 -2.0016 0.9779
4.8762 1.8716 -2.0016 0.9779
4.8058 2.0455 -2.0016 0.9779
4.7293 2.2168 -2.0016 0.9779
4.4634 2.7127 -2.0016 0.9779
4.2571 3.0261 -2.0016 0.9779
4.1457 3.1770 -2.0016 0.9779
4.0289 3.3239 -2.0016 0.9779
3.9069 3.4664 -2.0016 0.9779
3.3702 3.9902 -2.0016 0.9779
3.2247 4.1087 -2.0016 0.9779
2.7641 4.4317 -2.0016 0.9779
2.4388 4.6187 -2.0016 0.9779
2.1009 4.7819 -2.0016 0.9779
1.7522 4.9204 -2.0016 0.9779
0.8449 5.1542 -2.0016 0.9779
0.4727 5.2016 -2.0016 0.9779
0.0981 5.2221 -2.0016 0.9779
-0.2770 5.2157 -2.0016 0.9779
-0.4642 5.2024 -2.0016 0.9779
-1.0211 5.1222 -2.0016 0.9779
-1.2044 5.0823 -2.0016 0.9779
-1.3862 5.0357 -2.0016 0.9779
-1.7441 4.9232 -2.0016 0.9779
-2.0931 4.7853 -2.0016 0.9779
-2.4312 4.6227 -2.0016 0.9779
-3.2180 4.1140 -2.0016 0.9779
-3.7740 3.6107 -2.0016 0.9779
-4.0234 3.3305 -2.0016 0.9779
-4.1405 3.1838 -2.0016 0.9779
-4.2521 3.0330 -2.0016 0.9779
-4.3583 2.8784 -2.0016 0.9779
-4.5537 2.5581 -2.0016 0.9779
-4.6427 2.3928 -2.0016 0.9779
-4.8731 1.8796 -2.0016 0.9779
-4.9375 1.7033 -2.0016 0.9779
-4.9955 1.5249 -2.0016 0.9779
-5.0470 1.3445 -2.0016 0.9779
-5.0921 1.1623 -2.0016 0.9779
-5.1875 0.6078 -2.0016 0.9779
-5.2060 0.4211 -2.0016 0.9779
-5.2178 0.2339 -2.0016 0.9779
-5.2228 0.0463 -2.0016 0.9779
-5.2211 -0.1413 -2.0016 0.9779
-5.2127 -0.3288 -2.0016 0.9779
-5.1471 -0.8876 -2.0016 0.9779
-5.1119 -1.0719 -2.0016 0.9779
-5.0217 -1.4361 -2.0016 0.9779
-4.9057 -1.7929 -2.0016 0.9779
-4.5210 -2.2296 -1.9317 0.9786
-4.2662 -2.2980 -1.8570 0.9795
-4.1809 -2.4498 -1.8570 0.9795
-3.9943 -2.7436 -1.8570 0.9795
-3.7870 -3.0232 -1.8570 0.9795
-3.6760 -3.1573 -1.8570 0.9795
-3.5602 -3.2873 -1.8570 0.9795
-3.4398 -3.4131 -1.8570 0.9795
-3.3150 -3.5344 -1.8570 0.9795
-3.0527 -3.7633 -1.8570 0.9795
-2.7747 -3.9727 -1.8570 0.9795
-2.6302 -4.0698 -1.8570 0.9795
-2.3313 -4.2481 -1.8570 0.9795
-2.1772 -4.3291 -1.8570 0.9795
-1.8608 -4.4742 -1.8570 0.9795
-1.6989 -4.5382 -1.8570 0.9795
-1.3687 -4.6484 -1.8570 0.9795
-1.0315 -4.7347 -1.8570 0.9795
-0.8607 -4.7687 -1.8570 0.9795
-0.3428 -4.8336 -1.8570 0.9795
-0.1690 -4.8428 -1.8570 0.9795
0.0051 -4.8458 -1.8570 0.9795
0.3530 -4.8329 -1.8570 0.9795
0.5263 -4.8171 -1.8570 0.9795
0.6990 -4.7951 -1.8570 0.9795
0.8708 -4.7669 -1.8570 0.9795
1.0414 -4.7325 -1.8570 0.9795
1.2107 -4.6921 -1.8570 0.9795
1.5444 -4.5930 -1.8570 0.9795
1.7084 -4.5346 -1.8570 0.9795
1.8702 -4.4703 -1.8570 0.9795
2.0007 -4.3378 -1.8306 0.9797
2.2062 -4.0002 -1.7507 0.9806
2.6388 -4.0643 -1.8570 0.9795
2.7831 -3.9669 -1.8570 0.9795
3.0606 -3.7568 -1.8570 0.9795
3.1936 -3.6445 -1.8570 0.9795
3.3224 -3.5274 -1.8570 0.9795
3.8448 -3.5352 -2.0016 0.9779
4.0887 -3.2500 -2.0016 0.9779
4.2028 -3.1011 -2.0016 0.9779
4.5120 -2.6310 -2.0016 0.9779
4.6036 -2.4672 -2.0016 0.9779
4.6892 -2.3003 -2.0016 0.9779
4.7688 -2.1304 -2.0016 0.9779
4.8422 -1.9577 -2.0016 0.9779
4.9703 -1.6051 -2.0016 0.9779
5.0727 -1.2441 -2.0016 0.9779
5.1141 -1.0611 -2.0016 0.9779
5.1771 -0.6912 -2.0016 0.9779
5.2134 -0.3178 -2.0016 0.9779
5.2214 -0.1303 -2.0016 0.9779
5.2051 0.4321 -2.0016 0.9779
5.1285 0.9895 -2.0016 0.9779
5.0896 1.1730 -2.0016 0.9779
5.0442 1.3551 -2.0016 0.9779
4.9339 1.7137 -2.0016 0.9779
4.8692 1.8898 -2.0016 0.9779
4.7981 2.0635 -2.0016 0.9779
4.6376 2.4026 -2.0016 0.9779
4.5483 2.5676 -2.0016 0.9779
4.4532 2.7293 -2.0016 0.9779
3.8939 3.4810 -2.0016 0.9779
-1.4490 4.6709 -2.0016 0.9791
-1.9430 4.4880 -2.0016 0.9791
-2.1030 4.4153 -2.0016 0.9791
-2.5657 4.1634 -2.0016 0.9791
-2.8580 3.9685 -2.0016 0.9791
-3.1355 3.7531 -2.0016 0.9791
-3.8657 2.9956 -2.0016 0.9791
-4.2548 2.4111 -2.0016 0.9791
-4.3387 2.2568 -2.0016 0.9791
-4.4169 2.0995 -2.0016 0.9791
-4.4895 1.9395 -2.0016 0.9791
-4.6171 1.6122 -2.0016 0.9791
-4.7210 1.2766 -2.0016 0.9791
-4.7638 1.1062 -2.0016 0.9791
-4.8004 0.9344 -2.0016 0.9791
-2.0181 0.3181 -0.8362 0.9912
-1.9541 0.2364 -0.8056 0.9915
-1.9573 0.1657 -0.8039 0.9915
-1.9504 -0.2572 -0.8051 0.9915
-4.7070 -1.3270 -2.0016 0.9791
-4.6563 -1.4952 -2.0016 0.9791
-4.5996 -1.6615 -2.0016 0.9791
-4.4685 -1.9874 -2.0016 0.9791
-4.3942 -2.1466 -2.0016 0.9791
-4.1748 -2.2286 -1.9369 0.9798
-3.9233 -2.2791 -1.8570 0.9806
-3.8389 -2.4186 -1.8570 0.9806
-3.6554 -2.6879 -1.8570 0.9806
-3.5565 -2.8175 -1.8570 0.9806
-3.2328 -3.1837 -1.8570 0.9806
-3.1163 -3.2977 -1.8570 0.9806
-2.9959 -3.4075 -1.8570 0.9806
-2.8716 -3.5129 -1.8570 0.9806
-2.6120 -3.7100 -1.8570 0.9806
-2.3389 -3.8880 -1.8570 0.9806
-2.0537 -4.0458 -1.8570 0.9806
-1.9071 -4.1170 -1.8570 0.9806
-1.6066 -4.2433 -1.8570 0.9806
-1.2979 -4.3477 -1.8570 0.9806
-1.1409 -4.3915 -1.8570 0.9806
-0.8226 -4.4620 -1.8570 0.9806
-0.1752 -4.5339 -1.8570 0.9806
0.1508 -4.5347 -1.8570 0.9806
0.3135 -4.5264 -1.8570 0.9806
0.6377 -4.4922 -1.8570 0.9806
0.9585 -4.4348 -1.8570 0.9806
1.4300 -4.3060 -1.8570 0.9806
1.7354 -4.1922 -1.8570 0.9806
1.8849 -4.1272 -1.8570 0.9806
2.1763 -3.9812 -1.8570 0.9806
2.3179 -3.9005 -1.8570 0.9806
2.5919 -3.7240 -1.8570 0.9806
2.7240 -3.6285 -1.8570 0.9806
3.0985 -3.3145 -1.8570 0.9806
3.3285 -3.0835 -1.8570 0.9806
3.7047 -3.1925 -2.0016 0.9791
3.8170 -3.0574 -2.0016 0.9791
4.0266 -2.7755 -2.0016 0.9791
4.1237 -2.6291 -2.0016 0.9791
4.2155 -2.4793 -2.0016 0.9791
4.3018 -2.3263 -2.0016 0.9791
4.4577 -2.0115 -2.0016 0.9791
4.5271 -1.8501 -2.0016 0.9791
4.5906 -1.6863 -2.0016 0.9791
4.6998 -1.3524 -2.0016 0.9791
4.7453 -1.1827 -2.0016 0.9791
4.7848 -1.0115 -2.0016 0.9791
4.8180 -0.8390 -2.0016 0.9791
4.8450 -0.6654 -2.0016 0.9791
4.8658 -0.4909 -2.0016 0.9791
4.8904 0.0353 -2.0016 0.9791
4.8752 0.3863 -2.0016 0.9791
4.8349 0.7353 -2.0016 0.9791
4.8054 0.9085 -2.0016 0.9791
4.7278 1.2511 -2.0016 0.9791
4.6798 1.4201 -2.0016 0.9791
4.5657 1.7524 -2.0016 0.9791
4.4999 1.9153 -2.0016 0.9791
4.4282 2.0757 -2.0016 0.9791
4.3508 2.2334 -2.0016 0.9791
4.1792 2.5399 -2.0016 0.9791
4.0853 2.6884 -2.0016 0.9791
3.9861 2.8334 -2.0016 0.9791
3.6582 3.2457 -2.0016 0.9791
3.5392 3.3750 -2.0016 0.9791
3.2878 3.6204 -2.0016 0.9791
3.1556 3.7362 -2.0016 0.9791
3.0194 3.8471 -2.0016 0.9791
2.5881 4.1496 -2.0016 0.9791
2.4374 4.2398 -2.0016 0.9791
2.1267 4.4039 -2.0016 0.9791
1.9672 4.4774 -2.0016 0.9791
1.8051 4.5452 -2.0016 0.9791
1.6406 4.6071 -2.0016 0.9791
1.1356 4.7568 -2.0016 0.9791
0.9640 4.7946 -2.0016 0.9791
0.6173 4.8514 -2.0016 0.9791
0.2674 4.8832 -2.0016 0.9791
-0.0838 4.8898 -2.0016 0.9791
-0.6093 4.8524 -2.0016 0.9791
-0.7832 4.8274 -2.0016 0.9791
-1.7976 4.5481 -2.0016 0.9791
-1.9598 4.4806 -2.0016 0.9791
-2.1195 4.4074 -2.0016 0.9791
-2.2764 4.3284 -2.0016 0.9791
-2.5813 4.1538 -2.0016 0.9791
-3.1495 3.7413 -2.0016 0.9791
-3.4100 3.5056 -2.0016 0.9791
-3.5337 3.3808 -2.0016 0.9791
-4.0809 2.6951 -2.0016 0.9791
-4.1750 2.5468 -2.0016 0.9791
-4.4967 1.9227 -2.0016 0.9791
-4.5629 1.7599 -2.0016 0.9791
-4.6774 1.4278 -2.0016 0.9791
-4.7679 1.0883 -2.0016 0.9791
-2.2122 0.4220 -0.9217 0.9903
-1.9880 0.3057 -0.8232 0.9913
-1.9375 0.0868 -0.7937 0.9917
-1.9070 0.0169 -0.7805 0.9918
-1.9238 -0.0521 -0.7877 0.9917
-1.9484 -0.1229 -0.7990 0.9916
-1.9488 -0.2644 -0.8049 0.9915
-2.1384 -0.3687 -0.8881 0.9907
-4.5934 -1.6787 -2.0016 0.9791
-4.5301 -1.8426 -2.0016 0.9791
-4.3861 -2.1631 -2.0016 0.9791
-3.9147 -2.2938 -1.8570 0.9806
-3.8298 -2.4329 -1.8570 0.9806
-3.5459 -2.8308 -1.8570 0.9806
-3.4419 -2.9563 -1.8570 0.9806
-3.3335 -3.0780 -1.8570 0.9806
-2.8584 -3.5237 -1.8570 0.9806
-2.7300 -3.6241 -1.8570 0.9806
-2.5980 -3.7198 -1.8570 0.9806
-2.1828 -3.9777 -1.8570 0.9806
-1.8917 -4.1241 -1.8570 0.9806
-1.7423 -4.1894 -1.8570 0.9806
-1.2816 -4.3525 -1.8570 0.9806
-0.9658 -4.4333 -1.8570 0.9806
-0.8059 -4.4651 -1.8570 0.9806
0.0048 -4.5372 -1.8570 0.9806
0.1677 -4.5341 -1.8570 0.9806
0.3305 -4.5252 -1.8570 0.9806
0.4928 -4.5104 -1.8570 0.9806
0.6545 -4.4898 -1.8570 0.9806
1.5996 -4.2459 -1.8570 0.9806
1.9003 -4.1201 -1.8570 0.9806
2.0295 -4.0143 -1.8410 0.9807
2.3325 -3.8918 -1.8570 0.9806
2.6059 -3.7143 -1.8570 0.9806
3.2400 -3.2012 -1.8641 0.9805
3.6000 -3.3101 -2.0016 0.9791
3.8284 -3.0431 -2.0016 0.9791
3.9352 -2.9036 -2.0016 0.9791
4.0370 -2.7604 -2.0016 0.9791
4.2247 -2.4635 -2.0016 0.9791
4.3105 -2.3102 -2.0016 0.9791
4.3907 -2.1538 -2.0016 0.9791
4.7497 -1.1649 -2.0016 0.9791
4.8475 -0.6472 -2.0016 0.9791
4.8814 -0.2976 -2.0016 0.9791
4.8902 0.0536 -2.0016 0.9791
4.8851 0.2293 -2.0016 0.9791
4.8737 0.4046 -2.0016 0.9791
4.8561 0.5794 -2.0016 0.9791
4.8321 0.7534 -2.0016 0.9791
4.7656 1.0984 -2.0016 0.9791
4.7230 1.2688 -2.0016 0.9791
4.6744 1.4376 -2.0016 0.9791
4.6198 1.6046 -2.0016 0.9791
4.4204 2.0922 -2.0016 0.9791
4.2588 2.4042 -2.0016 0.9791
4.1697 2.5556 -2.0016 0.9791
3.6460 3.2594 -2.0016 0.9791
-1.2023 4.4325 -2.0016 0.9802
-1.6721 4.2774 -2.0016 0.9802
-1.8247 4.2146 -2.0016 0.9802
-2.1225 4.0728 -2.0016 0.9802
-2.4094 3.9099 -2.0016 0.9802
-2.8160 3.6280 -2.0016 0.9802
-2.9445 3.5245 -2.0016 0.9802
-3.3066 3.1873 -2.0016 0.9802
-3.4189 3.0665 -2.0016 0.9802
-3.5269 2.9417 -2.0016 0.9802
-3.8228 2.5453 -2.0016 0.9802
-3.9957 2.2643 -2.0016 0.9802
-4.1479 1.9716 -2.0016 0.9802
-4.2161 1.8214 -2.0016 0.9802
-1.5782 0.4882 -0.7199 0.9928
-1.5579 0.4212 -0.7033 0.9930
-1.5326 0.3559 -0.6857 0.9932
-1.5024 0.2924 -0.6671 0.9933
-1.5101 0.2380 -0.6662 0.9934
-1.5219 0.1841 -0.6681 0.9933
-1.5268 -0.0356 -0.6656 0.9934
-1.5055 -0.2538 -0.6654 0.9934
-1.5119 -0.3111 -0.6727 0.9933
-1.5407 -0.3752 -0.6911 0.9931
-1.5645 -0.4411 -0.7084 0.9929
-1.5831 -0.5084 -0.7247 0.9928
-1.5959 -0.5765 -0.7395 0.9926
-4.1963 -1.8664 -2.0016 0.9802
-4.1266 -2.0159 -2.0016 0.9802
-4.0515 -2.1628 -2.0016 0.9802
-3.8373 -2.2291 -1.9341 0.9808
-3.6051 -2.2713 -1.8570 0.9816
-3.5212 -2.3993 -1.8570 0.9816
-3.3399 -2.6459 -1.8570 0.9816
-3.2427 -2.7641 -1.8570 0.9816
-3.1413 -2.8788 -1.8570 0.9816
-3.0359 -2.9898 -1.8570 0.9816
-2.6967 -3.2990 -1.8570 0.9816
-2.5764 -3.3937 -1.8570 0.9816
-2.4529 -3.4841 -1.8570 0.9816
-2.3262 -3.5699 -1.8570 0.9816
-2.1964 -3.6512 -1.8570 0.9816
-2.0639 -3.7277 -1.8570 0.9816
-1.5088 -3.9849 -1.8570 0.9816
-1.3647 -4.0365 -1.8570 0.9816
-1.0714 -4.1240 -1.8570 0.9816
-0.6215 -4.2153 -1.8570 0.9816
-0.3173 -4.2491 -1.8570 0.9816
-0.1645 -4.2577 -1.8570 0.9816
0.1416 -4.2586 -1.8570 0.9816
0.5988 -4.2186 -1.8570 0.9816
0.7500 -4.1944 -1.8570 0.9816
0.9001 -4.1648 -1.8570 0.9816
1.0492 -4.1297 -1.8570 0.9816
1.1968 -4.0894 -1.8570 0.9816
1.3429 -4.0438 -1.8570 0.9816
1.6297 -3.9369 -1.8570 0.9816
1.9082 -3.8098 -1.8570 0.9816
2.1767 -3.6630 -1.8570 0.9816
2.3069 -3.5824 -1.8570 0.9816
2.6789 -3.3135 -1.8570 0.9816
2.7962 -3.2151 -1.8570 0.9816
2.9098 -3.1126 -1.8570 0.9816
3.0198 -3.0061 -1.8570 0.9816
3.1258 -2.8957 -1.8570 0.9816
3.5845 -2.8712 -2.0016 0.9802
3.7814 -2.6065 -2.0016 0.9802
3.9587 -2.3283 -2.0016 0.9802
4.1157 -2.0381 -2.0016 0.9802
4.1862 -1.8890 -2.0016 0.9802
4.2514 -1.7374 -2.0016 0.9802
4.3651 -1.4277 -2.0016 0.9802
4.4136 -1.2700 -2.0016 0.9802
4.4563 -1.1107 -2.0016 0.9802
4.4934 -0.9499 -2.0016 0.9802
4.5925 0.0332 -2.0016 0.9802
4.5623 0.5270 -2.0016 0.9802
4.5405 0.6905 -2.0016 0.9802
4.5127 0.8532 -2.0016 0.9802
4.3948 1.3336 -2.0016 0.9802
4.3440 1.4906 -2.0016 0.9802
4.2258 1.7986 -2.0016 0.9802
4.1585 1.9492 -2.0016 0.9802
4.0858 2.0974 -2.0016 0.9802
4.0078 2.2428 -2.0016 0.9802
3.9247 2.3853 -2.0016 0.9802
3.8365 2.5247 -2.0016 0.9802
3.4354 3.0481 -2.0016 0.9802
3.3237 3.1695 -2.0016 0.9802
3.2077 3.2868 -2.0016 0.9802
3.0876 3.3999 -2.0016 0.9802
2.8355 3.6128 -2.0016 0.9802
2.7039 3.7123 -2.0016 0.9802
2.4305 3.8969 -2.0016 0.9802
2.2889 3.9816 -2.0016 0.9802
2.1444 4.0613 -2.0016 0.9802
1.9972 4.1357 -2.0016 0.9802
1.6951 4.2684 -2.0016 0.9802
1.5407 4.3265 -2.0016 0.9802
1.2262 4.4260 -2.0016 0.9802
1.0664 4.4671 -2.0016 0.9802
0.9053 4.5026 -2.0016 0.9802
0.7430 4.5322 -2.0016 0.9802
0.4157 4.5738 -2.0016 0.9802
0.2511 4.5858 -2.0016 0.9802
-0.4082 4.5745 -2.0016 0.9802
-1.0591 4.4689 -2.0016 0.9802
-1.2189 4.4280 -2.0016 0.9802
-1.6881 4.2712 -2.0016 0.9802
-2.2824 3.9854 -2.0016 0.9802
-2.4241 3.9008 -2.0016 0.9802
-2.5626 3.8112 -2.0016 0.9802
-3.0820 3.4050 -2.0016 0.9802
-3.2023 3.2921 -2.0016 0.9802
-3.3185 3.1749 -2.0016 0.9802
-3.4304 3.0537 -2.0016 0.9802
-3.5378 2.9285 -2.0016 0.9802
-3.6407 2.7996 -2.0016 0.9802
-3.8323 2.5310 -2.0016 0.9802
-4.1553 1.9561 -2.0016 0.9802
-1.5763 0.4812 -0.7183 0.9928
-1.4990 0.2859 -0.6651 0.9934
-1.5228 0.1784 -0.6682 0.9933
-1.5287 0.1237 -0.6684 0.9933
-1.5291 0.0685 -0.6671 0.9933
-1.5296 -0.0965 -0.6679 0.9933
-1.5264 -0.1515 -0.6685 0.9933
-1.5038 -0.2593 -0.6651 0.9934
-1.5151 -0.3177 -0.6747 0.9933
-1.5434 -0.3820 -0.6929 0.9931
-1.5667 -0.4480 -0.7102 0.9929
-1.5847 -0.5154 -0.7263 0.9928
-1.5969 -0.5836 -0.7410 0.9926
-4.0434 -2.1780 -2.0016 0.9802
-3.8078 -2.2311 -1.9234 0.9809
-3.5966 -2.2847 -1.8570 0.9816
-3.5122 -2.4125 -1.8570 0.9816
-3.3299 -2.6584 -1.8570 0.9816
-3.1305 -2.8906 -1.8570 0.9816
-3.0247 -3.0011 -1.8570 0.9816
-2.9149 -3.1078 -1.8570 0.9816
-2.5637 -3.4034 -1.8570 0.9816
-2.4398 -3.4932 -1.8570 0.9816
-1.3495 -4.0416 -1.8570 0.9816
-1.2035 -4.0874 -1.8570 0.9816
-1.0559 -4.1280 -1.8570 0.9816
-0.6058 -4.2176 -1.8570 0.9816
-0.3014 -4.2502 -1.8570 0.9816
-0.1486 -4.2583 -1.8570 0.9816
0.6146 -4.2164 -1.8570 0.9816
0.7657 -4.1916 -1.8570 0.9816
0.9157 -4.1614 -1.8570 0.9816
1.0646 -4.1258 -1.8570 0.9816
1.3580 -4.0387 -1.8570 0.9816
1.5022 -3.9873 -1.8570 0.9816
1.7846 -3.8692 -1.8570 0.9816
2.0578 -3.7311 -1.8570 0.9816
2.3203 -3.5737 -1.8570 0.9816
2.4472 -3.4881 -1.8570 0.9816
2.6913 -3.3034 -1.8570 0.9816
2.8082 -3.2046 -1.8570 0.9816
2.9215 -3.1017 -1.8570 0.9816
3.4903 -2.9851 -2.0016 0.9802
3.5952 -2.8578 -2.0016 0.9802
3.6956 -2.7268 -2.0016 0.9802
3.8818 -2.4545 -2.0016 0.9802
4.0480 -2.1695 -2.0016 0.9802
4.1933 -1.8733 -2.0016 0.9802
4.2578 -1.7214 -2.0016 0.9802
4.3169 -1.5674 -2.0016 0.9802
4.4605 -1.0940 -2.0016 0.9802
4.5912 -0.1146 -2.0016 0.9802
4.5876 0.2153 -2.0016 0.9802
4.5769 0.3799 -2.0016 0.9802
4.5603 0.5441 -2.0016 0.9802
4.5095 0.8701 -2.0016 0.9802
4.2190 1.8144 -2.0016 0.9802
4.1512 1.9648 -2.0016 0.9802
4.0779 2.1126 -2.0016 0.9802
3.9994 2.2577 -2.0016 0.9802
3.9157 2.3999 -2.0016 0.9802
3.8270 2.5390 -2.0016 0.9802
3.7333 2.6749 -2.0016 0.9802
3.5317 2.9360 -2.0016 0.9802
-1.5744 4.0273 -2.0016 0.9811
-1.7180 3.9682 -2.0016 0.9811
-1.9984 3.8346 -2.0016 0.9811
-2.1349 3.7603 -2.0016 0.9811
-2.3993 3.5974 -2.0016 0.9811
-2.5270 3.5089 -2.0016 0.9811
-2.7723 3.3184 -2.0016 0.9811
-2.8897 3.2167 -2.0016 0.9811
-3.0034 3.1108 -2.0016 0.9811
-3.1132 3.0010 -2.0016 0.9811
-3.5109 2.5242 -2.0016 0.9811
-3.7620 2.1319 -2.0016 0.9811
-3.8362 1.9954 -2.0016 0.9811
-3.9054 1.8563 -2.0016 0.9811
-1.3336 0.4657 -0.6539 0.9938
-1.3279 0.4108 -0.6434 0.9939
-1.3170 0.3561 -0.6315 0.9940
-1.3107 0.2551 -0.6181 0.9941
-1.3326 0.1612 -0.6213 0.9941
-1.3385 -0.0794 -0.6207 0.9941
-1.3369 -0.1276 -0.6216 0.9941
-1.3070 -0.3183 -0.6227 0.9941
-1.3207 -0.3723 -0.6352 0.9940
-1.3187 -0.5865 -0.6681 0.9937
-3.8853 -1.8980 -2.0016 0.9811
-3.5378 -2.2289 -1.9355 0.9817
-3.1446 -2.4912 -1.8570 0.9825
-3.0531 -2.6025 -1.8570 0.9825
-2.6489 -3.0129 -1.8570 0.9825
-2.5390 -3.1061 -1.8570 0.9825
-2.3094 -3.2803 -1.8570 0.9825
-2.1901 -3.3612 -1.8570 0.9825
-2.0680 -3.4377 -1.8570 0.9825
-1.9432 -3.5097 -1.8570 0.9825
-1.8159 -3.5773 -1.8570 0.9825
-1.6862 -3.6402 -1.8570 0.9825
-1.4205 -3.7518 -1.8570 0.9825
-1.0087 -3.8829 -1.8570 0.9825
-0.8686 -3.9166 -1.8570 0.9825
-0.7274 -3.9453 -1.8570 0.9825
-0.4423 -3.9873 -1.8570 0.9825
-0.1549 -4.0088 -1.8570 0.9825
-0.0108 -4.0117 -1.8570 0.9825
0.2772 -4.0022 -1.8570 0.9825
0.9878 -3.8882 -1.8570 0.9825
1.1268 -3.8503 -1.8570 0.9825
1.2644 -3.8073 -1.8570 0.9825
2.4085 -3.2083 -1.8570 0.9825
2.5222 -3.1197 -1.8570 0.9825
2.7397 -2.9306 -1.8570 0.9825
2.8432 -2.8303 -1.8570 0.9825
2.9430 -2.7264 -1.8570 0.9825
3.2756 -2.8228 -2.0016 0.9811
3.4698 -2.5804 -2.0016 0.9811
3.6461 -2.3246 -2.0016 0.9811
3.7272 -2.1921 -2.0016 0.9811
3.8036 -2.0569 -2.0016 0.9811
4.0589 -1.4910 -2.0016 0.9811
4.1555 -1.1957 -2.0016 0.9811
4.1958 -1.0457 -2.0016 0.9811
4.2306 -0.8943 -2.0016 0.9811
4.2600 -0.7418 -2.0016 0.9811
4.2839 -0.5883 -2.0016 0.9811
4.3223 -0.1241 -2.0016 0.9811
4.3201 0.1865 -2.0016 0.9811
4.3106 0.3416 -2.0016 0.9811
4.2955 0.4962 -2.0016 0.9811
4.2750 0.6501 -2.0016 0.9811
4.1378 1.2556 -2.0016 0.9811
4.0370 1.5495 -2.0016 0.9811
3.9787 1.6935 -2.0016 0.9811
3.9153 1.8353 -2.0016 0.9811
3.8469 1.9747 -2.0016 0.9811
3.6121 2.3771 -2.0016 0.9811
3.5244 2.5053 -2.0016 0.9811
3.1293 2.9842 -2.0016 0.9811
3.0201 3.0946 -2.0016 0.9811
2.9070 3.2011 -2.0016 0.9811
2.7902 3.3035 -2.0016 0.9811
2.6697 3.4015 -2.0016 0.9811
2.5458 3.4952 -2.0016 0.9811
2.0190 3.8238 -2.0016 0.9811
1.8804 3.8938 -2.0016 0.9811
1.4506 4.0735 -2.0016 0.9811
1.1545 4.1671 -2.0016 0.9811
0.8523 4.2393 -2.0016 0.9811
0.3914 4.3064 -2.0016 0.9811
-0.2294 4.3180 -2.0016 0.9811
-0.5387 4.2904 -2.0016 0.9811
-1.2966 4.1251 -2.0016 0.9811
-1.4440 4.0759 -2.0016 0.9811
-1.7328 3.9617 -2.0016 0.9811
-1.8740 3.8969 -2.0016 0.9811
-2.0128 3.8271 -2.0016 0.9811
-2.2823 3.6727 -2.0016 0.9811
-2.4128 3.5884 -2.0016 0.9811
-2.6641 3.4059 -2.0016 0.9811
-2.7847 3.3080 -2.0016 0.9811
-3.0150 3.0996 -2.0016 0.9811
-3.1244 2.9893 -2.0016 0.9811
-3.2298 2.8751 -2.0016 0.9811
-3.4278 2.6359 -2.0016 0.9811
-3.5203 2.5110 -2.0016 0.9811
-3.8436 1.9810 -2.0016 0.9811
-3.9123 1.8417 -2.0016 0.9811
-1.3233 0.5658 -0.6662 0.9937
-1.3310 0.5134 -0.6604 0.9937
-1.3336 0.4601 -0.6530 0.9938
-1.3270 0.4051 -0.6422 0.9939
-1.3157 0.3505 -0.6302 0.9940
-1.3122 0.2503 -0.6184 0.9941
-1.3245 0.2037 -0.6203 0.9941
-1.3381 0.1082 -0.6214 0.9941
-1.3381 0.0600 -0.6200 0.9941
-1.3347 0.0118 -0.6178 0.9941
-1.3364 -0.1326 -0.6216 0.9941
-1.3293 -0.1803 -0.6210 0.9941
-1.3046 -0.2736 -0.6170 0.9941
-1.3219 -0.3780 -0.6364 0.9940
-1.3330 -0.4872 -0.6569 0.9938
-1.3278 -0.5401 -0.6635 0.9937
-1.3174 -0.5918 -0.6685 0.9937
-3.8781 -1.9126 -2.0016 0.9811
-3.8069 -2.0506 -2.0016 0.9811
-3.3068 -2.2714 -1.8570 0.9825
-3.1352 -2.5029 -1.8570 0.9825
-2.8478 -2.8256 -1.8570 0.9825
-2.5273 -3.1156 -1.8570 0.9825
-2.4138 -3.2043 -1.8570 0.9825
-2.1775 -3.3693 -1.8570 0.9825
-1.9300 -3.5170 -1.8570 0.9825
-1.8025 -3.5840 -1.8570 0.9825
-1.5405 -3.7042 -1.8570 0.9825
-1.4065 -3.7571 -1.8570 0.9825
-1.2706 -3.8052 -1.8570 0.9825
-0.9942 -3.8866 -1.8570 0.9825
-0.8539 -3.9198 -1.8570 0.9825
-0.7126 -3.9480 -1.8570 0.9825
-0.5703 -3.9710 -1.8570 0.9825
-0.4273 -3.9889 -1.8570 0.9825
0.0042 -4.0118 -1.8570 0.9825
0.1483 -4.0090 -1.8570 0.9825
0.5787 -3.9698 -1.8570 0.9825
0.7209 -3.9464 -1.8570 0.9825
1.0023 -3.8845 -1.8570 0.9825
1.4144 -3.7542 -1.8570 0.9825
1.8100 -3.5802 -1.8570 0.9825
1.9374 -3.5129 -1.8570 0.9825
2.0623 -3.4411 -1.8570 0.9825
2.1846 -3.3648 -1.8570 0.9825
2.4205 -3.1993 -1.8570 0.9825
2.7506 -2.9203 -1.8570 0.9825
2.8537 -2.8196 -1.8570 0.9825
3.3850 -2.6907 -2.0016 0.9811
3.5694 -2.4407 -2.0016 0.9811
3.6548 -2.3109 -2.0016 0.9811
3.7354 -2.1782 -2.0016 0.9811
3.8112 -2.0426 -2.0016 0.9811
3.9481 -1.7637 -2.0016 0.9811
4.0089 -1.6208 -2.0016 0.9811
4.1996 -1.0300 -2.0016 0.9811
4.2339 -0.8785 -2.0016 0.9811
4.2861 -0.5723 -2.0016 0.9811
4.3039 -0.4179 -2.0016 0.9811
4.3228 -0.1079 -2.0016 0.9811
4.2937 0.5123 -2.0016 0.9811
4.2725 0.6661 -2.0016 0.9811
4.1330 1.2711 -2.0016 0.9811
4.0847 1.4188 -2.0016 0.9811
4.0311 1.5646 -2.0016 0.9811
3.9723 1.7083 -2.0016 0.9811
3.8394 1.9891 -2.0016 0.9811
3.7655 2.1257 -2.0016 0.9811
-1.2090 3.8972 -2.0016 0.9820
-1.3482 3.8513 -2.0016 0.9820
-1.8858 3.6185 -2.0016 0.9820
-2.0146 3.5485 -2.0016 0.9820
-2.1407 3.4738 -2.0016 0.9820
-2.2641 3.3947 -2.0016 0.9820
-2.3846 3.3112 -2.0016 0.9820
-2.6161 3.1315 -2.0016 0.9820
-2.8342 2.9356 -2.0016 0.9820
-2.9378 2.8319 -2.0016 0.9820
-3.0376 2.7245 -2.0016 0.9820
-3.2254 2.4994 -2.0016 0.9820
-3.3131 2.3820 -2.0016 0.9820
-3.4755 2.1380 -2.0016 0.9820
-1.1227 0.5840 -0.6207 0.9944
-1.1586 0.3133 -0.5887 0.9947
-1.1651 0.2705 -0.5867 0.9947
-1.1757 0.2288 -0.5875 0.9947
-1.1841 0.1866 -0.5880 0.9947
-1.1960 0.0151 -0.5867 0.9947
-1.1963 -0.0279 -0.5870 0.9947
-1.1960 -0.0709 -0.5877 0.9947
-1.1934 -0.1139 -0.5881 0.9947
-1.1818 -0.1992 -0.5879 0.9947
-1.1584 -0.3720 -0.5968 0.9946
-1.1556 -0.4174 -0.6027 0.9945
-1.1426 -0.5082 -0.6134 0.9944
-1.1167 -0.5961 -0.6209 0.9944
-3.5283 -2.0497 -2.0016 0.9820
-2.9674 -2.3508 -1.8570 0.9833
-2.6973 -2.6563 -1.8570 0.9833
-2.6002 -2.7515 -1.8570 0.9833
-2.4997 -2.8431 -1.8570 0.9833
-2.3959 -2.9311 -1.8570 0.9833
-2.2891 -3.0152 -1.8570 0.9833
-2.1793 -3.0955 -1.8570 0.9833
-2.0667 -3.1718 -1.8570 0.9833
-1.9515 -3.2440 -1.8570 0.9833
-1.7136 -3.3757 -1.8570 0.9833
-1.5912 -3.4351 -1.8570 0.9833
-1.0829 -3.6275 -1.8570 0.9833
-0.8197 -3.6959 -1.8570 0.9833
-0.6864 -3.7230 -1.8570 0.9833
-0.5522 -3.7452 -1.8570 0.9833
-0.2819 -3.7752 -1.8570 0.9833
-0.1462 -3.7829 -1.8570 0.9833
-0.0102 -3.7857 -1.8570 0.9833
0.1258 -3.7836 -1.8570 0.9833
0.2616 -3.7767 -1.8570 0.9833
0.3971 -3.7648 -1.8570 0.9833
0.6663 -3.7266 -1.8570 0.9833
0.7998 -3.7003 -1.8570 0.9833
0.9321 -3.6692 -1.8570 0.9833
1.0633 -3.6333 -1.8570 0.9833
1.1931 -3.5928 -1.8570 0.9833
1.4480 -3.4978 -1.8570 0.9833
1.5727 -3.4436 -1.8570 0.9833
1.6954 -3.3849 -1.8570 0.9833
1.8158 -3.3218 -1.8570 0.9833
1.9340 -3.2544 -1.8570 0.9833
2.1626 -3.1072 -1.8570 0.9833
2.2728 -3.0275 -1.8570 0.9833
2.3801 -2.9439 -1.8570 0.9833
2.4843 -2.8565 -1.8570 0.9833
2.6830 -2.6708 -1.8570 0.9833
3.0911 -2.6637 -2.0016 0.9820
3.2743 -2.4350 -2.0016 0.9820
3.3597 -2.3158 -2.0016 0.9820
3.6567 -1.8108 -2.0016 0.9820
3.7772 -1.5436 -2.0016 0.9820
3.8783 -1.2685 -2.0016 0.9820
3.9213 -1.1284 -2.0016 0.9820
3.9922 -0.8439 -2.0016 0.9820
4.0200 -0.7000 -2.0016 0.9820
4.0425 -0.5552 -2.0016 0.9820
4.0719 -0.2635 -2.0016 0.9820
4.0788 -0.1171 -2.0016 0.9820
4.0804 0.0295 -2.0016 0.9820
4.0767 0.1760 -2.0016 0.9820
4.0094 0.7580 -2.0016 0.9820
3.9547 0.8959 -1.9890 0.9821
3.9254 1.0388 -1.9918 0.9821
3.7545 1.5980 -2.0016 0.9820
3.5608 1.9926 -2.0016 0.9820
3.4870 2.1192 -2.0016 0.9820
3.4086 2.2431 -2.0016 0.9820
3.3258 2.3641 -2.0016 0.9820
3.2388 2.4820 -2.0016 0.9820
3.1475 2.5967 -2.0016 0.9820
3.0522 2.7081 -2.0016 0.9820
2.9530 2.8160 -2.0016 0.9820
2.6330 3.1173 -2.0016 0.9820
2.4024 3.2983 -2.0016 0.9820
2.2824 3.3824 -2.0016 0.9820
2.1594 3.4622 -2.0016 0.9820
1.9053 3.6083 -2.0016 0.9820
1.5061 3.7923 -2.0016 0.9820
1.3689 3.8440 -2.0016 0.9820
1.2299 3.8907 -2.0016 0.9820
0.8043 4.0004 -2.0016 0.9820
0.5150 4.0478 -2.0016 0.9820
0.3693 4.0637 -2.0016 0.9820
0.2231 4.0744 -2.0016 0.9820
0.0766 4.0797 -2.0016 0.9820
-0.0699 4.0799 -2.0016 0.9820
-0.6535 4.0278 -2.0016 0.9820
-0.9409 3.9705 -2.0016 0.9820
-1.0830 3.9341 -2.0016 0.9820
-1.4999 3.7948 -2.0016 0.9820
-1.6352 3.7385 -2.0016 0.9820
-1.7684 3.6773 -2.0016 0.9820
-1.8993 3.6114 -2.0016 0.9820
-2.0278 3.5409 -2.0016 0.9820
-2.1537 3.4658 -2.0016 0.9820
-2.2768 3.3862 -2.0016 0.9820
-2.6278 3.1216 -2.0016 0.9820
-2.7383 3.0252 -2.0016 0.9820
-3.3220 2.3695 -2.0016 0.9820
-3.5576 1.9985 -2.0016 0.9820
-1.1247 0.5797 -0.6207 0.9944
-1.1368 0.5351 -0.6163 0.9944
-1.1460 0.4900 -0.6114 0.9945
-1.1528 0.4446 -0.6061 0.9945
-1.1570 0.3992 -0.6004 0.9946
-1.1589 0.3538 -0.5944 0.9946
-1.1663 0.2662 -0.5868 0.9947
-1.1766 0.2245 -0.5876 0.9947
-1.1848 0.1822 -0.5880 0.9947
-1.1908 0.1395 -0.5881 0.9947
-1.1947 0.0966 -0.5879 0.9947
-1.1964 0.0536 -0.5874 0.9947
-1.1959 0.0106 -0.5866 0.9947
-1.1958 -0.0754 -0.5877 0.9947
-1.1881 -0.1612 -0.5881 0.9947
-1.1717 -0.2457 -0.5872 0.9947
-1.1497 -0.4676 -0.6088 0.9945
-1.1311 -0.5578 -0.6187 0.9944
-1.1146 -0.6004 -0.6210 0.9944
-3.4442 -2.1880 -2.0016 0.9820
-3.0415 -2.2541 -1.8570 0.9833
-2.6873 -2.6664 -1.8570 0.9833
-2.4890 -2.8525 -1.8570 0.9833
-2.3849 -2.9400 -1.8570 0.9833
-2.2778 -3.0238 -1.8570 0.9833
-2.1677 -3.1036 -1.8570 0.9833
-1.8213 -3.3188 -1.8570 0.9833
-1.5783 -3.4410 -1.8570 0.9833
-1.1990 -3.5908 -1.8570 0.9833
-1.0693 -3.6316 -1.8570 0.9833
-0.8058 -3.6990 -1.8570 0.9833
-0.6724 -3.7255 -1.8570 0.9833
-0.1320 -3.7834 -1.8570 0.9833
0.0040 -3.7857 -1.8570 0.9833
0.2757 -3.7757 -1.8570 0.9833
0.5461 -3.7461 -1.8570 0.9833
0.6803 -3.7241 -1.8570 0.9833
0.8136 -3.6972 -1.8570 0.9833
0.9459 -3.6656 -1.8570 0.9833
1.5856 -3.4377 -1.8570 0.9833
1.8283 -3.3150 -1.8570 0.9833
1.9461 -3.2472 -1.8570 0.9833
2.0615 -3.1752 -1.8570 0.9833
2.2841 -3.0190 -1.8570 0.9833
2.5956 -2.7558 -1.8570 0.9833
3.1943 -2.5391 -2.0016 0.9820
3.2834 -2.4227 -2.0016 0.9820
3.3683 -2.3032 -2.0016 0.9820
3.5250 -2.0554 -2.0016 0.9820
3.7256 -1.6643 -2.0016 0.9820
3.8355 -1.3926 -2.0016 0.9820
3.8830 -1.2539 -2.0016 0.9820
3.9255 -1.1137 -2.0016 0.9820
3.9630 -0.9719 -2.0016 0.9820
4.0226 -0.6849 -2.0016 0.9820
4.0446 -0.5400 -2.0016 0.9820
4.0802 0.0448 -2.0016 0.9820
4.0760 0.1913 -2.0016 0.9820
4.0665 0.3376 -2.0016 0.9820
4.0517 0.4834 -2.0016 0.9820
4.0066 0.7730 -2.0016 0.9820
3.9228 1.0539 -1.9925 0.9821
3.8546 1.3388 -2.0016 0.9820
3.7485 1.6121 -2.0016 0.9820
3.6231 1.8770 -2.0016 0.9820
3.5534 2.0059 -2.0016 0.9820
3.1378 2.6085 -2.0016 0.9820
-1.0100 3.7237 -2.0016 0.9828
-1.2747 3.6415 -2.0016 0.9828
-1.4047 3.5934 -2.0016 0.9828
-1.7831 3.4215 -2.0016 0.9828
-1.9048 3.3552 -2.0016 0.9828
-2.1408 3.2098 -2.0016 0.9828
-2.2547 3.1308 -2.0016 0.9828
-2.4736 2.9609 -2.0016 0.9828
-2.6798 2.7757 -2.0016 0.9828
-2.9628 2.4713 -2.0016 0.9828
-3.1326 2.2522 -2.0016 0.9828
-0.9820 0.6041 -0.5981 0.9948
-1.0387 0.4937 -0.5966 0.9948
-1.0553 0.4116 -0.5876 0.9949
-1.0655 0.2881 -0.5726 0.9950
-1.0873 0.2116 -0.5746 0.9950
-1.1008 0.1332 -0.5752 0.9950
-1.1037 -0.1053 -0.5752 0.9950
-1.0929 -0.1843 -0.5750 0.9950
-1.0845 -0.2232 -0.5744 0.9950
-1.0625 -0.3412 -0.5789 0.9950
-1.0590 -0.3826 -0.5841 0.9949
-1.0534 -0.4239 -0.5891 0.9949
-1.0456 -0.4650 -0.5936 0.9949
-1.0343 -0.5053 -0.5972 0.9948
-0.9753 -0.6145 -0.5980 0.9948
-3.1884 -2.1725 -2.0016 0.9828
-3.0276 -2.2263 -1.9496 0.9832
-2.8284 -2.2406 -1.8719 0.9839
-2.7241 -2.3221 -1.8570 0.9840
-2.6390 -2.4184 -1.8570 0.9840
-2.4585 -2.6017 -1.8570 0.9840
-2.3635 -2.6883 -1.8570 0.9840
-2.2654 -2.7714 -1.8570 0.9840
-1.9542 -2.9990 -1.8570 0.9840
-1.8452 -3.0673 -1.8570 0.9840
-1.6202 -3.1918 -1.8570 0.9840
-1.2675 -3.3476 -1.8570 0.9840
-1.1464 -3.3910 -1.8570 0.9840
-1.0239 -3.4300 -1.8570 0.9840
-0.9000 -3.4645 -1.8570 0.9840
-0.7750 -3.4946 -1.8570 0.9840
-0.5221 -3.5412 -1.8570 0.9840
-0.3946 -3.5577 -1.8570 0.9840
-0.2666 -3.5696 -1.8570 0.9840
-0.0096 -3.5795 -1.8570 0.9840
0.1189 -3.5775 -1.8570 0.9840
0.2474 -3.5710 -1.8570 0.9840
0.3755 -3.5598 -1.8570 0.9840
0.6300 -3.5236 -1.8570 0.9840
1.0054 -3.4354 -1.8570 0.9840
1.1282 -3.3971 -1.8570 0.9840
1.3691 -3.3073 -1.8570 0.9840
1.4870 -3.2560 -1.8570 0.9840
1.6030 -3.2005 -1.8570 0.9840
1.7169 -3.1409 -1.8570 0.9840
1.9380 -3.0095 -1.8570 0.9840
2.3490 -2.7010 -1.8570 0.9840
2.5368 -2.5254 -1.8570 0.9840
2.6259 -2.4326 -1.8570 0.9840
3.0113 -2.4121 -2.0016 0.9828
3.0960 -2.3023 -2.0016 0.9828
3.1767 -2.1897 -2.0016 0.9828
3.3257 -1.9560 -2.0016 0.9828
3.4575 -1.7122 -2.0016 0.9828
3.5715 -1.4595 -2.0016 0.9828
3.6216 -1.3303 -2.0016 0.9828
3.6671 -1.1994 -2.0016 0.9828
3.7437 -0.9330 -2.0016 0.9828
3.8223 -0.5249 -2.0016 0.9828
3.8502 -0.2492 -2.0016 0.9828
3.7445 0.8483 -1.9918 0.9828
3.7047 0.9804 -1.9881 0.9829
3.6020 1.3825 -2.0016 0.9828
3.1447 2.2353 -2.0016 0.9828
3.0624 2.3468 -2.0016 0.9828
2.9761 2.4553 -2.0016 0.9828
2.4896 2.9475 -2.0016 0.9828
2.3821 3.0350 -2.0016 0.9828
2.1580 3.1982 -2.0016 0.9828
2.0418 3.2737 -2.0016 0.9828
1.9229 3.3449 -2.0016 0.9828
1.8015 3.4118 -2.0016 0.9828
1.6778 3.4743 -2.0016 0.9828
1.5519 3.5323 -2.0016 0.9828
1.1630 3.6788 -2.0016 0.9828
1.0301 3.7182 -2.0016 0.9828
0.7605 3.7825 -2.0016 0.9828
0.6241 3.8074 -2.0016 0.9828
0.4870 3.8274 -2.0016 0.9828
0.3492 3.8424 -2.0016 0.9828
0.2110 3.8524 -2.0016 0.9828
-0.0661 3.8576 -2.0016 0.9828
-0.4807 3.8281 -2.0016 0.9828
-0.6179 3.8084 -2.0016 0.9828
-1.0240 3.7199 -2.0016 0.9828
-1.1569 3.6807 -2.0016 0.9828
-1.2884 3.6367 -2.0016 0.9828
-1.4182 3.5881 -2.0016 0.9828
-1.5461 3.5349 -2.0016 0.9828
-2.1528 3.2018 -2.0016 0.9828
-2.3771 3.0390 -2.0016 0.9828
-2.5891 2.8605 -2.0016 0.9828
-2.6902 2.7656 -2.0016 0.9828
-2.9721 2.4602 -2.0016 0.9828
-1.0053 0.5647 -0.5982 0.9948
-1.0241 0.5278 -0.5977 0.9948
-1.0398 0.4895 -0.5962 0.9948
-1.0490 0.4485 -0.5918 0.9949
-1.0607 0.3659 -0.5821 0.9950
-1.0633 0.3246 -0.5767 0.9950
-1.0668 0.2842 -0.5727 0.9950
-1.0785 0.2462 -0.5739 0.9950
-1.1013 0.1290 -0.5752 0.9950
-1.1062 0.0098 -0.5739 0.9950
-1.1059 -0.0697 -0.5749 0.9950
-1.0987 -0.1490 -0.5752 0.9950
-1.0922 -0.1883 -0.5750 0.9950
-1.0728 -0.2655 -0.5733 0.9950
-1.0638 -0.3042 -0.5740 0.9950
-1.0622 -0.3455 -0.5795 0.9950
-1.0585 -0.3869 -0.5847 0.9949
-1.0527 -0.4282 -0.5896 0.9949
-1.0446 -0.4693 -0.5941 0.9949
-1.0325 -0.5092 -0.5973 0.9948
-1.0148 -0.5466 -0.5980 0.9948
-0.9949 -0.5830 -0.5982 0.9948
-0.9729 -0.6180 -0.5980 0.9948
-2.8085 -2.2421 -1.8643 0.9839
-2.7154 -2.3323 -1.8570 0.9840
-2.5410 -2.5212 -1.8570 0.9840
-2.4488 -2.6108 -1.8570 0.9840
-2.3534 -2.6971 -1.8570 0.9840
-2.2550 -2.7799 -1.8570 0.9840
-2.1537 -2.8591 -1.8570 0.9840
-2.0496 -2.9346 -1.8570 0.9840
-1.8337 -3.0742 -1.8570 0.9840
-1.7221 -3.1381 -1.8570 0.9840
-1.4924 -3.2536 -1.8570 0.9840
-1.2549 -3.3523 -1.8570 0.9840
-1.0110 -3.4338 -1.8570 0.9840
-0.6358 -3.5226 -1.8570 0.9840
-0.5089 -3.5432 -1.8570 0.9840
0.0038 -3.5795 -1.8570 0.9840
0.5163 -3.5421 -1.8570 0.9840
0.7693 -3.4959 -1.8570 0.9840
0.8944 -3.4660 -1.8570 0.9840
1.1409 -3.3928 -1.8570 0.9840
1.3815 -3.3022 -1.8570 0.9840
1.6150 -3.1945 -1.8570 0.9840
1.8402 -3.0703 -1.8570 0.9840
1.9492 -3.0022 -1.8570 0.9840
2.0558 -2.9303 -1.8570 0.9840
2.1597 -2.8546 -1.8570 0.9840
2.2609 -2.7751 -1.8570 0.9840
2.3591 -2.6921 -1.8570 0.9840
2.5463 -2.5158 -1.8570 0.9840
2.6438 -2.4309 -1.8632 0.9839
2.9321 -2.5077 -2.0016 0.9828
3.2610 -2.0620 -2.0016 0.9828
3.5769 -1.4462 -2.0016 0.9828
3.6266 -1.3168 -2.0016 0.9828
3.6715 -1.1856 -2.0016 0.9828
3.7472 -0.9190 -2.0016 0.9828
3.7777 -0.7838 -2.0016 0.9828
3.8401 -0.3729 -2.0016 0.9828
3.8511 -0.2347 -2.0016 0.9828
3.8570 -0.0963 -2.0016 0.9828
3.8580 0.0423 -2.0016 0.9828
3.8540 0.1809 -2.0016 0.9828
3.8310 0.4571 -2.0016 0.9828
3.8121 0.5944 -2.0016 0.9828
3.6656 1.1274 -1.9895 0.9829
3.6446 1.2659 -2.0016 0.9828
3.5968 1.3960 -2.0016 0.9828
3.5443 1.5243 -2.0016 0.9828
3.3598 1.8967 -2.0016 0.9828
3.2895 2.0161 -2.0016 0.9828
3.1363 2.2471 -2.0016 0.9828
2.8764 2.5714 -2.0016 0.9828
-0.9567 3.5270 -2.0016 0.9835
-1.0828 3.4904 -2.0016 0.9835
-1.4519 3.3537 -2.0016 0.9835
-1.9172 3.1112 -2.0016 0.9835
-2.0277 3.0403 -2.0016 0.9835
-2.1356 2.9655 -2.0016 0.9835
-2.3430 2.8045 -2.0016 0.9835
-2.4422 2.7186 -2.0016 0.9835
-2.7205 2.4401 -2.0016 0.9835
-2.8886 2.2385 -2.0016 0.9835
-0.9190 0.5208 -0.5785 0.9952
-0.9364 0.4871 -0.5781 0.9952
-0.9520 0.4525 -0.5773 0.9952
-0.9645 0.4167 -0.5754 0.9952
-0.9769 0.3411 -0.5667 0.9953
-0.9893 0.2675 -0.5613 0.9953
-1.0274 0.0499 -0.5634 0.9953
-1.0271 -0.0609 -0.5635 0.9953
-1.0207 -0.1346 -0.5639 0.9953
-1.0147 -0.1711 -0.5636 0.9953
-1.0068 -0.2072 -0.5630 0.9953
-0.9971 -0.2428 -0.5621 0.9953
-0.9794 -0.3145 -0.5634 0.9953
-0.9756 -0.3524 -0.5681 0.9953
-0.9697 -0.3902 -0.5725 0.9952
-0.9617 -0.4277 -0.5765 0.9952
-0.8717 -0.5940 -0.5777 0.9952
-0.8482 -0.6237 -0.5767 0.9952
-2.8074 -2.2240 -1.9616 0.9838
-2.6248 -2.2375 -1.8891 0.9844
-2.2387 -2.5463 -1.8570 0.9847
-2.0501 -2.7004 -1.8570 0.9847
-1.9518 -2.7723 -1.8570 0.9847
-1.8510 -2.8407 -1.8570 0.9847
-1.6423 -2.9662 -1.8570 0.9847
-1.4251 -3.0764 -1.8570 0.9847
-1.2005 -3.1708 -1.8570 0.9847
-1.0859 -3.2119 -1.8570 0.9847
-0.8525 -3.2816 -1.8570 0.9847
-0.6147 -3.3343 -1.8570 0.9847
-0.3738 -3.3698 -1.8570 0.9847
-0.0091 -3.3905 -1.8570 0.9847
0.2343 -3.3824 -1.8570 0.9847
0.3556 -3.3718 -1.8570 0.9847
0.4765 -3.3568 -1.8570 0.9847
0.9523 -3.2540 -1.8570 0.9847
1.0686 -3.2177 -1.8570 0.9847
1.1835 -3.1772 -1.8570 0.9847
1.2968 -3.1327 -1.8570 0.9847
