ply
format ascii 1.0
element vertex 1562
property float32 x
property float32 y
property float32 z
property float32 I
end_header
-13.0030 11.9296 -1.2939 0.9317
-15.6382 11.5116 -1.4238 0.9251
-16.8884 11.5198 -1.4989 0.9213
-19.8421 11.5391 -1.6830 0.9121
-21.6136 11.5507 -1.7969 0.9064
-22.6578 11.0813 -1.8494 0.9038
-23.7187 8.5788 -1.8494 0.9038
-26.2712 7.4173 -2.0016 0.8963
-27.1738 2.6025 -2.0016 0.8963
-27.2906 0.6442 -2.0016 0.8963
-27.2664 -1.3173 -2.0016 0.8963
-25.1437 -3.0357 -1.8570 0.9034
-25.0184 -3.9372 -1.8570 0.9034
-24.8608 -4.8336 -1.8570 0.9034
-26.5919 -6.1694 -2.0016 0.8963
-26.3531 -7.1208 -2.0016 0.8963
-25.4338 -9.9153 -2.0016 0.8963
-24.6561 -11.7162 -2.0016 0.8963
-24.2192 -12.5945 -2.0016 0.8963
-23.7510 -13.4566 -2.0016 0.8963
-20.8768 -16.1769 -1.9365 0.8995
-18.7764 -16.8409 -1.8494 0.9038
-18.1592 -17.5047 -1.8494 0.9038
-17.5185 -18.1458 -1.8494 0.9038
-16.1701 -19.3571 -1.8494 0.9038
-15.4642 -19.9256 -1.8494 0.9038
-13.9933 -20.9847 -1.8494 0.9038
-13.2303 -21.4739 -1.8494 0.9038
-12.4501 -21.9354 -1.8494 0.9038
-11.6545 -22.3686 -1.8494 0.9038
-10.6628 -22.3951 -1.8187 0.9053
-9.6929 -22.3978 -1.7894 0.9068
-8.7524 -22.4004 -1.7634 0.9080
-7.8361 -22.3980 -1.7399 0.9092
-6.0718 -22.4029 -1.7019 0.9111
-4.3090 -22.0726 -1.6490 0.9137
-3.5442 -22.4099 -1.6636 0.9130
-2.7233 -22.4122 -1.6554 0.9134
-1.9093 -22.4145 -1.6494 0.9137
1.3195 -22.4234 -1.6470 0.9138
2.3854 -25.1094 -1.8494 0.9038
3.2860 -25.0074 -1.8494 0.9038
5.0738 -24.7068 -1.8494 0.9038
5.9579 -24.5086 -1.8494 0.9038
7.7026 -24.0175 -1.8494 0.9038
9.2652 -25.6778 -2.0016 0.8963
11.0853 -24.9461 -2.0016 0.8963
11.9745 -24.5317 -2.0016 0.8963
14.5447 -23.1007 -2.0016 0.8963
16.1661 -21.9965 -2.0016 0.8963
17.7041 -20.7787 -2.0016 0.8963
19.1506 -19.4537 -2.0016 0.8963
19.8372 -18.7530 -2.0016 0.8963
20.4982 -18.0281 -2.0016 0.8963
22.8695 -14.9056 -2.0016 0.8963
14.3470 15.1269 -2.0016 0.9196
12.6359 16.5829 -2.0016 0.9196
11.4124 17.4475 -2.0016 0.9196
10.1299 18.2221 -2.0016 0.9196
7.4936 17.7459 -1.8494 0.9255
3.4786 13.3010 -1.3199 0.9463
1.9041 12.7728 -1.2398 0.9494
1.3896 12.3495 -1.1931 0.9513
0.9333 12.2384 -1.1784 0.9519
0.4964 12.3502 -1.1866 0.9515
0.0505 11.9406 -1.1464 0.9532
-0.3802 11.9880 -1.1515 0.9529
-0.8048 11.8790 -1.1431 0.9533
-1.2309 11.8403 -1.1429 0.9533
-3.0337 12.0144 -1.1896 0.9514
-3.4501 11.8519 -1.1851 0.9516
-4.4669 12.0442 -1.2333 0.9497
-4.8814 11.8386 -1.2294 0.9498
-5.4186 11.9083 -1.2560 0.9488
-5.9136 11.8473 -1.2712 0.9482
-6.4219 11.7858 -1.2886 0.9475
-7.0639 11.9233 -1.3305 0.9458
-7.4003 11.5256 -1.3150 0.9464
-8.5840 11.4654 -1.3750 0.9441
-9.2486 11.4697 -1.4145 0.9425
-9.9534 11.4743 -1.4583 0.9408
-10.7043 11.4792 -1.5069 0.9389
-11.5079 11.4845 -1.5609 0.9368
-14.3251 11.5030 -1.7638 0.9288
-15.4393 11.5103 -1.8488 0.9255
-16.2307 10.3747 -1.8494 0.9255
-16.9338 9.1823 -1.8494 0.9255
-17.2528 8.5680 -1.8494 0.9255
-18.2216 8.2467 -1.9202 0.9228
-19.5621 7.2099 -2.0016 0.9196
-20.2244 5.0630 -2.0016 0.9196
-20.6518 2.8574 -2.0016 0.9196
-20.8393 0.6185 -2.0016 0.9196
-20.8481 -0.1307 -2.0016 0.9196
-20.7849 -1.6276 -2.0016 0.9196
-20.6143 -3.1160 -2.0016 0.9196
-20.4890 -3.8547 -2.0016 0.9196
-20.3373 -4.5884 -2.0016 0.9196
-19.9553 -6.0371 -2.0016 0.9196
-19.4702 -7.4546 -2.0016 0.9196
-19.1898 -8.1494 -2.0016 0.9196
-18.5550 -9.5064 -2.0016 0.9196
-16.5572 -12.6697 -2.0016 0.9196
-15.6045 -13.8260 -2.0016 0.9196
-15.0977 -14.3778 -2.0016 0.9196
-12.7073 -16.1698 -1.9744 0.9207
-10.9373 -16.1881 -1.8756 0.9245
-10.2109 -16.3503 -1.8507 0.9255
-9.6100 -16.6948 -1.8494 0.9255
-9.0040 -17.0293 -1.8494 0.9255
-8.3863 -17.3418 -1.8494 0.9255
-7.1192 -17.8993 -1.8494 0.9255
-6.4715 -18.1436 -1.8494 0.9255
-5.1518 -18.5615 -1.8494 0.9255
-1.7514 -19.1834 -1.8494 0.9255
-1.0610 -19.2339 -1.8494 0.9255
0.2882 -17.1820 -1.6498 0.9333
3.0790 -19.0155 -1.8494 0.9255
3.7602 -18.8926 -1.8494 0.9255
6.2327 -19.8473 -1.9972 0.9198
6.9570 -19.6535 -2.0016 0.9196
9.0314 -18.7908 -2.0016 0.9196
13.4246 -15.9511 -2.0016 0.9196
13.9891 -15.4585 -2.0016 0.9196
14.5355 -14.9459 -2.0016 0.9196
15.0631 -14.4139 -2.0016 0.9196
15.5713 -13.8634 -2.0016 0.9196
16.0594 -13.2949 -2.0016 0.9196
16.5267 -12.7093 -2.0016 0.9196
17.3968 -11.4897 -2.0016 0.9196
18.1770 -10.2106 -2.0016 0.9196
18.5321 -9.5509 -2.0016 0.9196
18.8633 -8.8789 -2.0016 0.9196
19.4523 -7.5013 -2.0016 0.9196
19.7093 -6.7975 -2.0016 0.9196
19.9407 -6.0849 -2.0016 0.9196
20.4797 -3.9039 -2.0016 0.9196
20.6068 -3.1655 -2.0016 0.9196
20.8278 -0.9296 -2.0016 0.9196
20.8069 1.3170 -2.0016 0.9196
20.6586 2.8078 -2.0016 0.9196
20.4036 4.2842 -2.0016 0.9196
19.8241 6.4549 -2.0016 0.9196
19.5794 7.1630 -2.0016 0.9196
19.0144 8.5506 -2.0016 0.9196
18.6949 9.2283 -2.0016 0.9196
17.5933 11.1864 -2.0016 0.9196
17.1800 11.8113 -2.0016 0.9196
16.2874 13.0146 -2.0016 0.9196
14.7924 14.6917 -2.0016 0.9196
14.2550 15.2137 -2.0016 0.9196
13.6991 15.7161 -2.0016 0.9196
12.5351 16.6593 -2.0016 0.9196
11.9284 17.0989 -2.0016 0.9196
10.6697 17.9114 -2.0016 0.9196
7.6043 16.6058 -1.7534 0.9292
6.7418 18.0449 -1.8494 0.9255
6.0890 18.2755 -1.8494 0.9255
2.8547 13.1484 -1.2917 0.9474
2.3012 12.8018 -1.2487 0.9491
1.3271 12.4755 -1.2045 0.9508
0.8636 12.3096 -1.1847 0.9516
-0.0218 11.8765 -1.1402 0.9534
-1.3117 11.9146 -1.1508 0.9530
-1.7665 12.0474 -1.1690 0.9522
-2.2105 12.0430 -1.1755 0.9520
-3.1382 12.1180 -1.2018 0.9509
-3.5086 11.7856 -1.1806 0.9518
-4.1184 12.2111 -1.2372 0.9495
-5.4748 11.8405 -1.2524 0.9489
-7.0528 11.7415 -1.3150 0.9464
-7.4701 11.4805 -1.3150 0.9464
-8.0586 11.4619 -1.3452 0.9453
-8.6936 11.4661 -1.3814 0.9438
-10.0768 11.4751 -1.4661 0.9405
-10.8360 11.4801 -1.5156 0.9385
-11.6494 11.4854 -1.5706 0.9364
-12.5251 11.4912 -1.6319 0.9340
-16.2933 10.2760 -1.8494 0.9255
-16.6521 9.6840 -1.8494 0.9255
-16.9892 9.0794 -1.8494 0.9255
-17.3045 8.4631 -1.8494 0.9255
-18.5095 8.2420 -1.9452 0.9218
-19.8476 6.3821 -2.0016 0.9196
-20.4192 4.2093 -2.0016 0.9196
-20.5572 3.4729 -2.0016 0.9196
-20.8116 1.2406 -2.0016 0.9196
-20.8242 -1.0061 -2.0016 0.9196
-20.5951 -3.2411 -2.0016 0.9196
-20.4653 -3.9790 -2.0016 0.9196
-20.3091 -4.7117 -2.0016 0.9196
-19.6842 -6.8698 -2.0016 0.9196
-19.1400 -8.2656 -2.0016 0.9196
-18.8306 -8.9480 -2.0016 0.9196
-18.1394 -10.2772 -2.0016 0.9196
-17.7584 -10.9224 -2.0016 0.9196
-17.3545 -11.5534 -2.0016 0.9196
-16.9282 -12.1695 -2.0016 0.9196
-16.0105 -13.3538 -2.0016 0.9196
-15.0102 -14.4691 -2.0016 0.9196
-14.4806 -14.9991 -2.0016 0.9196
-13.3377 -15.9664 -1.9973 0.9198
-12.5507 -16.1715 -1.9653 0.9210
-11.6511 -16.1810 -1.9143 0.9230
-10.7957 -16.1895 -1.8681 0.9248
-8.9005 -17.0836 -1.8494 0.9255
-8.2809 -17.3924 -1.8494 0.9255
-7.0105 -17.9422 -1.8494 0.9255
-5.1940 -16.7547 -1.6841 0.9319
-5.0391 -18.5924 -1.8494 0.9255
-4.3678 -18.7614 -1.8494 0.9255
-3.6909 -18.9063 -1.8494 0.9255
-1.6350 -19.1937 -1.8494 0.9255
-0.9443 -19.2400 -1.8494 0.9255
-0.2524 -19.2615 -1.8494 0.9255
0.3925 -17.1823 -1.6500 0.9333
1.1316 -19.2299 -1.8494 0.9255
2.5097 -19.0990 -1.8494 0.9255
3.1943 -18.9965 -1.8494 0.9255
5.3931 -19.1579 -1.9107 0.9231
7.0761 -19.6109 -2.0016 0.9196
7.7762 -19.3440 -2.0016 0.9196
11.7350 -17.2322 -2.0016 0.9196
12.3466 -16.7994 -2.0016 0.9196
12.9423 -16.3450 -2.0016 0.9196
13.5212 -15.8694 -2.0016 0.9196
15.6552 -13.7686 -2.0016 0.9196
16.6035 -12.6088 -2.0016 0.9196
17.0459 -12.0041 -2.0016 0.9196
17.4662 -11.3839 -2.0016 0.9196
11.5955 12.2259 -2.0016 0.9344
11.1487 12.6346 -2.0016 0.9344
10.6876 13.0270 -2.0016 0.9344
8.7111 14.4237 -2.0016 0.9344
7.5646 13.6076 -1.8494 0.9392
7.0708 13.8706 -1.8494 0.9392
6.5679 14.1157 -1.8494 0.9392
5.5372 14.5509 -1.8494 0.9392
5.0108 14.7405 -1.8494 0.9392
3.4786 13.3010 -1.6331 0.9461
1.3906 12.3591 -1.4774 0.9511
0.4802 11.9485 -1.4205 0.9530
0.0497 11.7543 -1.3963 0.9538
-0.3669 11.5664 -1.3746 0.9545
-1.1868 11.4169 -1.3635 0.9548
-1.2369 8.8079 -1.0565 0.9648
-2.0250 11.4224 -1.3780 0.9543
-2.4519 11.4252 -1.3880 0.9540
-2.8857 11.4280 -1.4001 0.9536
-3.3276 11.4309 -1.4142 0.9532
-4.2417 11.4369 -1.4490 0.9521
-5.7135 11.4465 -1.5197 0.9498
-6.2389 11.4500 -1.5489 0.9488
-9.2486 11.4697 -1.7502 0.9424
-10.6178 11.3865 -1.8494 0.9392
-11.0200 10.9976 -1.8494 0.9392
-11.4081 10.5946 -1.8494 0.9392
-12.1395 9.7479 -1.8494 0.9392
-12.4819 9.3055 -1.8494 0.9392
-13.1179 8.3851 -1.8494 0.9392
-14.7834 8.0163 -1.9976 0.9345
-15.0916 7.4947 -2.0016 0.9344
-15.3512 6.9476 -2.0016 0.9344
-15.5909 6.3915 -2.0016 0.9344
-16.1881 4.6767 -2.0016 0.9344
-16.3457 4.0920 -2.0016 0.9344
-16.4822 3.5021 -2.0016 0.9344
-16.5974 2.9076 -2.0016 0.9344
-16.8427 0.4999 -2.0016 0.9344
-16.8498 -0.1056 -2.0016 0.9344
-16.8351 -0.7110 -2.0016 0.9344
-16.7987 -1.3154 -2.0016 0.9344
-16.7406 -1.9182 -2.0016 0.9344
-16.2931 -4.2966 -2.0016 0.9344
-16.1282 -4.8793 -2.0016 0.9344
-15.9425 -5.4556 -2.0016 0.9344
-15.5096 -6.5865 -2.0016 0.9344
-14.9965 -7.6833 -2.0016 0.9344
-14.7107 -8.2172 -2.0016 0.9344
-14.0826 -9.2524 -2.0016 0.9344
-13.7411 -9.7524 -2.0016 0.9344
-13.3818 -10.2399 -2.0016 0.9344
-13.0052 -10.7141 -2.0016 0.9344
-12.6119 -11.1745 -2.0016 0.9344
-11.7768 -12.0513 -2.0016 0.9344
-10.4116 -13.2486 -2.0016 0.9344
-9.9289 -13.6142 -2.0016 0.9344
-8.4062 -14.6035 -2.0016 0.9344
-7.3358 -15.1695 -2.0016 0.9344
-6.7860 -15.4233 -2.0016 0.9344
-4.4870 -16.1664 -1.9929 0.9347
-3.8680 -16.1697 -1.9749 0.9352
-2.6588 -16.1749 -1.9471 0.9361
-2.0653 -16.1767 -1.9372 0.9364
-1.4770 -16.1781 -1.9297 0.9367
-0.3115 -16.2464 -1.9302 0.9366
0.2740 -16.3350 -1.9406 0.9363
0.8685 -16.4626 -1.9582 0.9358
1.4785 -16.6342 -1.9837 0.9349
2.0888 -16.6790 -1.9967 0.9345
2.6932 -16.6329 -2.0015 0.9344
3.8809 -16.3972 -2.0016 0.9344
5.6228 -15.8843 -2.0016 0.9344
6.1899 -15.6721 -2.0016 0.9344
6.7490 -15.4395 -2.0016 0.9344
7.2994 -15.1871 -2.0016 0.9344
8.3712 -14.6236 -2.0016 0.9344
8.8912 -14.3134 -2.0016 0.9344
9.8962 -13.6379 -2.0016 0.9344
10.3798 -13.2735 -2.0016 0.9344
10.8500 -12.8920 -2.0016 0.9344
12.5850 -11.2047 -2.0016 0.9344
13.3572 -10.2719 -2.0016 0.9344
14.0604 -9.2862 -2.0016 0.9344
14.3850 -8.7750 -2.0016 0.9344
14.6910 -8.2524 -2.0016 0.9344
14.9780 -7.7192 -2.0016 0.9344
15.4937 -6.6236 -2.0016 0.9344
15.9294 -5.4939 -2.0016 0.9344
16.2828 -4.3357 -2.0016 0.9344
16.4281 -3.7478 -2.0016 0.9344
16.5521 -3.1552 -2.0016 0.9344
16.6548 -2.5584 -2.0016 0.9344
16.7360 -1.9583 -2.0016 0.9344
16.8334 -0.7514 -2.0016 0.9344
16.8495 -0.1460 -2.0016 0.9344
16.3555 4.0528 -2.0016 0.9344
16.0222 5.2169 -2.0016 0.9344
15.8244 5.7893 -2.0016 0.9344
15.3678 6.9107 -2.0016 0.9344
15.1096 7.4585 -2.0016 0.9344
14.8318 7.9965 -2.0016 0.9344
14.5349 8.5243 -2.0016 0.9344
14.2192 9.0410 -2.0016 0.9344
13.8852 9.5461 -2.0016 0.9344
13.1638 10.5186 -2.0016 0.9344
12.7774 10.9848 -2.0016 0.9344
11.9555 11.8741 -2.0016 0.9344
11.0719 12.7020 -2.0016 0.9344
10.6083 13.0917 -2.0016 0.9344
10.1311 13.4643 -2.0016 0.9344
8.6234 14.4763 -2.0016 0.9344
7.4819 13.6532 -1.8494 0.9392
6.4821 14.1553 -1.8494 0.9392
5.9693 14.3790 -1.8494 0.9392
5.4488 14.5842 -1.8494 0.9392
4.9213 14.7706 -1.8494 0.9392
4.3707 14.8811 -1.8423 0.9394
2.2950 12.7671 -1.5409 0.9491
1.7917 12.5401 -1.5047 0.9503
1.3109 12.3232 -1.4721 0.9513
-0.0215 11.7222 -1.3924 0.9539
-0.4360 11.5352 -1.3712 0.9546
-1.6745 11.4201 -1.3710 0.9546
-2.5246 11.4256 -1.3899 0.9540
-2.9597 11.4285 -1.4023 0.9536
-3.4031 11.4314 -1.4168 0.9531
-3.8564 11.4344 -1.4334 0.9526
-4.7987 11.4405 -1.4737 0.9513
-5.2913 11.4438 -1.4976 0.9505
-6.3296 11.4506 -1.5541 0.9487
-7.4555 11.4580 -1.6238 0.9464
-9.3646 11.4705 -1.7589 0.9421
-10.0768 11.4751 -1.8140 0.9403
-10.6866 11.3219 -1.8494 0.9392
-11.4722 10.5252 -1.8494 0.9392
-12.8617 8.7731 -1.8494 0.9392
-14.1719 8.2416 -1.9474 0.9361
-14.8424 7.9321 -1.9990 0.9345
-15.1368 7.4030 -2.0016 0.9344
-16.0412 5.1581 -2.0016 0.9344
-16.7734 1.6064 -2.0016 0.9344
-16.8489 -0.2079 -2.0016 0.9344
-16.7904 -1.4173 -2.0016 0.9344
-16.7287 -2.0197 -2.0016 0.9344
-16.4142 -3.8081 -2.0016 0.9344
-16.2668 -4.3954 -2.0016 0.9344
-15.9091 -5.5523 -2.0016 0.9344
-14.9496 -7.7742 -2.0016 0.9344
-14.6606 -8.3063 -2.0016 0.9344
-12.1315 -11.6942 -2.0016 0.9344
-11.7035 -12.1226 -2.0016 0.9344
-10.8027 -12.9317 -2.0016 0.9344
-10.3311 -13.3116 -2.0016 0.9344
-9.8461 -13.6742 -2.0016 0.9344
-9.3484 -14.0191 -2.0016 0.9344
-8.3175 -14.6543 -2.0016 0.9344
-7.7856 -14.9436 -2.0016 0.9344
-6.6923 -15.4642 -2.0016 0.9344
-6.1323 -15.6947 -2.0016 0.9344
-3.1573 -16.1730 -1.9574 0.9358
-2.5582 -16.1752 -1.9453 0.9362
-1.9656 -16.1770 -1.9357 0.9365
-1.3782 -16.1795 -1.9289 0.9367
-0.7952 -16.2022 -1.9269 0.9367
0.3736 -16.3541 -1.9431 0.9362
1.5833 -16.6662 -1.9886 0.9348
2.7941 -16.6169 -2.0016 0.9344
3.3894 -16.5057 -2.0016 0.9344
6.2849 -15.6342 -2.0016 0.9344
6.8425 -15.3983 -2.0016 0.9344
2.2379 -4.1952 -0.5648 0.9810
8.4598 -14.5726 -2.0016 0.9344
8.9779 -14.2592 -2.0016 0.9344
9.4845 -13.9274 -2.0016 0.9344
9.9788 -13.5776 -2.0016 0.9344
10.4602 -13.2103 -2.0016 0.9344
10.9281 -12.8259 -2.0016 0.9344
12.2448 -11.5755 -2.0016 0.9344
13.4193 -10.1907 -2.0016 0.9344
13.7768 -9.7019 -2.0016 0.9344
14.1165 -9.2007 -2.0016 0.9344
9.3466 10.5923 -2.0016 0.9445
8.5618 11.2362 -2.0016 0.9445
7.7327 11.8220 -2.0016 0.9445
7.2895 12.0699 -1.9979 0.9446
5.9279 11.6285 -1.8494 0.9486
3.7541 12.5007 -1.8494 0.9486
2.8467 12.7380 -1.8494 0.9486
1.8750 12.5776 -1.8018 0.9499
1.3906 12.3591 -1.7622 0.9510
0.4802 11.9485 -1.6943 0.9528
0.0497 11.7543 -1.6655 0.9536
-0.3669 11.5664 -1.6397 0.9543
-0.7733 11.4142 -1.6210 0.9548
-2.0250 11.4224 -1.6437 0.9542
-2.4519 11.4252 -1.6557 0.9539
-2.8857 11.4280 -1.6701 0.9535
-4.7171 11.4400 -1.7533 0.9512
-5.2070 11.4432 -1.7813 0.9505
-5.7135 11.4465 -1.8127 0.9496
-6.2389 11.4500 -1.8475 0.9487
-6.6528 11.2294 -1.8494 0.9486
-7.0520 10.9831 -1.8494 0.9486
-7.4421 10.7227 -1.8494 0.9486
-8.1929 10.1605 -1.8494 0.9486
-9.2387 9.2199 -1.8494 0.9486
-9.5640 8.8820 -1.8494 0.9486
-9.8770 8.5326 -1.8494 0.9486
-12.1683 7.1756 -2.0016 0.9445
-12.4182 6.7337 -2.0016 0.9445
-12.6521 6.2832 -2.0016 0.9445
-12.8697 5.8245 -2.0016 0.9445
-13.7035 3.4306 -2.0016 0.9445
-13.9145 2.4376 -2.0016 0.9445
-13.9931 1.9361 -2.0016 0.9445
-14.1138 -0.5961 -2.0016 0.9445
-12.7847 -2.8844 -1.8570 0.9484
-12.6728 -3.3419 -1.8570 0.9484
-12.2396 -4.6862 -1.8570 0.9484
-12.0633 -5.1229 -1.8570 0.9484
-11.8714 -5.5531 -1.8570 0.9484
-11.8062 -7.7568 -2.0016 0.9445
-11.5199 -8.1760 -2.0016 0.9445
-11.2187 -8.5846 -2.0016 0.9445
-10.2298 -9.7420 -2.0016 0.9445
-9.8731 -10.1033 -2.0016 0.9445
-9.5038 -10.4515 -2.0016 0.9445
-9.1221 -10.7862 -2.0016 0.9445
-8.7286 -11.1070 -2.0016 0.9445
-8.3239 -11.4135 -2.0016 0.9445
-7.9084 -11.7052 -2.0016 0.9445
-7.4828 -11.9818 -2.0016 0.9445
-6.6030 -12.4882 -2.0016 0.9445
-5.2208 -13.1263 -2.0016 0.9445
-4.7458 -13.3054 -2.0016 0.9445
-3.2865 -13.7388 -2.0016 0.9445
-1.7890 -14.0127 -2.0016 0.9445
-0.7781 -14.1050 -2.0016 0.9445
-0.2708 -14.1238 -2.0016 0.9445
0.7442 -14.1068 -2.0016 0.9445
2.2579 -13.9448 -2.0016 0.9445
2.7575 -13.8547 -2.0016 0.9445
3.7454 -13.6208 -2.0016 0.9445
4.2324 -13.4775 -2.0016 0.9445
5.6580 -12.9438 -2.0016 0.9445
6.1195 -12.7321 -2.0016 0.9445
2.2137 -4.2113 -0.6741 0.9810
7.0180 -12.2598 -2.0016 0.9445
8.7020 -11.1279 -2.0016 0.9445
9.4787 -10.4743 -2.0016 0.9445
10.2064 -9.7665 -2.0016 0.9445
10.5507 -9.3935 -2.0016 0.9445
11.5003 -8.2036 -2.0016 0.9445
11.7876 -7.7851 -2.0016 0.9445
12.3163 -6.9185 -2.0016 0.9445
12.5569 -6.4715 -2.0016 0.9445
12.7813 -6.0161 -2.0016 0.9445
13.8765 -2.6451 -2.0016 0.9445
13.9626 -2.1448 -2.0016 0.9445
14.1124 -0.6299 -2.0016 0.9445
14.0982 0.8923 -2.0016 0.9445
14.0570 1.3983 -2.0016 0.9445
13.9977 1.9025 -2.0016 0.9445
13.9203 2.4042 -2.0016 0.9445
13.2665 4.8535 -2.0016 0.9445
12.6672 6.2528 -2.0016 0.9445
12.1854 7.1464 -2.0016 0.9445
11.9208 7.5796 -2.0016 0.9445
11.6407 8.0030 -2.0016 0.9445
11.0359 8.8183 -2.0016 0.9445
10.7120 9.2092 -2.0016 0.9445
10.0229 9.9547 -2.0016 0.9445
9.6588 10.3084 -2.0016 0.9445
8.0824 11.5858 -2.0016 0.9445
7.2109 12.1051 -1.9964 0.9447
6.2725 11.4462 -1.8494 0.9486
5.4343 11.8672 -1.8494 0.9486
5.0044 12.0547 -1.8494 0.9486
3.6782 12.5232 -1.8494 0.9486
3.2258 12.6473 -1.8494 0.9486
2.7693 12.7551 -1.8494 0.9486
1.7917 12.5401 -1.7948 0.9501
1.3109 12.3232 -1.7559 0.9512
0.8499 12.1153 -1.7208 0.9521
-0.4360 11.5352 -1.6356 0.9544
-1.2570 11.4173 -1.6275 0.9547
-1.2814 8.7394 -1.2515 0.9649
-2.0966 11.4228 -1.6455 0.9542
-5.8009 11.4471 -1.8183 0.9495
-6.3145 11.4231 -1.8494 0.9486
-8.6124 9.8075 -1.8494 0.9486
-8.9592 9.4917 -1.8494 0.9486
-9.2945 9.1637 -1.8494 0.9486
-9.9286 8.4725 -1.8494 0.9486
-10.4074 8.2537 -1.8821 0.9478
-11.1906 8.2377 -1.9689 0.9454
-11.6537 7.9491 -1.9988 0.9446
-13.1030 5.2789 -2.0016 0.9445
-13.2842 4.8047 -2.0016 0.9445
-13.7241 3.3474 -2.0016 0.9445
-13.9290 2.3531 -2.0016 0.9445
-14.0046 1.8511 -2.0016 0.9445
-14.0621 1.3467 -2.0016 0.9445
-14.1014 0.8406 -2.0016 0.9445
-14.1225 0.3334 -2.0016 0.9445
-14.1253 -0.1743 -2.0016 0.9445
-14.0763 -1.1882 -2.0016 0.9445
-14.0246 -1.6932 -2.0016 0.9445
-12.7669 -2.9619 -1.8570 0.9484
-12.6522 -3.4187 -1.8570 0.9484
-12.5212 -3.8712 -1.8570 0.9484
-11.8375 -5.6250 -1.8570 0.9484
-12.2908 -6.9636 -2.0016 0.9445
-11.7590 -7.8283 -2.0016 0.9445
-11.1664 -8.6526 -2.0016 0.9445
-9.8117 -10.1630 -2.0016 0.9445
-9.4402 -10.5090 -2.0016 0.9445
-9.0565 -10.8414 -2.0016 0.9445
-7.8373 -11.7530 -2.0016 0.9445
-6.9730 -12.2855 -2.0016 0.9445
-6.0727 -12.7545 -2.0016 0.9445
-5.6105 -12.9645 -2.0016 0.9445
-5.1411 -13.1577 -2.0016 0.9445
-4.6650 -13.3339 -2.0016 0.9445
-4.1829 -13.4929 -2.0016 0.9445
-2.2067 -13.9530 -2.0016 0.9445
-1.7040 -14.0233 -2.0016 0.9445
-1.1990 -14.0754 -2.0016 0.9445
-0.6925 -14.1094 -2.0016 0.9445
-0.1851 -14.1252 -2.0016 0.9445
0.3226 -14.1227 -2.0016 0.9445
0.8298 -14.1020 -2.0016 0.9445
2.3425 -13.9308 -2.0016 0.9445
2.8415 -13.8377 -2.0016 0.9445
3.8279 -13.5979 -2.0016 0.9445
4.3140 -13.4516 -2.0016 0.9445
4.7946 -13.2879 -2.0016 0.9445
5.2689 -13.1070 -2.0016 0.9445
5.7365 -12.9092 -2.0016 0.9445
6.1966 -12.6948 -2.0016 0.9445
7.9513 -11.6761 -2.0016 0.9445
9.5420 -10.4166 -2.0016 0.9445
10.2655 -9.7044 -2.0016 0.9445
10.9359 -8.9421 -2.0016 0.9445
11.5498 -8.1337 -2.0016 0.9445
11.8346 -7.7134 -2.0016 0.9445
8.3610 8.8155 -2.0016 0.9519
7.3638 9.6640 -2.0016 0.9519
5.8718 10.5625 -1.9909 0.9522
4.3670 10.3417 -1.8494 0.9555
3.9926 10.4920 -1.8494 0.9555
3.6131 10.6287 -1.8494 0.9555
3.2288 10.7516 -1.8494 0.9555
2.8404 10.8607 -1.8494 0.9555
2.4484 10.9557 -1.8494 0.9555
1.6553 11.1033 -1.8494 0.9555
1.2552 11.1556 -1.8494 0.9555
0.8536 11.1935 -1.8494 0.9555
0.4508 11.2169 -1.8494 0.9555
0.0475 11.2259 -1.8494 0.9555
-1.2255 8.7262 -1.4517 0.9649
-2.3555 10.9761 -1.8494 0.9555
-2.7484 10.8844 -1.8494 0.9555
-3.1377 10.7786 -1.8494 0.9555
-3.5229 10.6589 -1.8494 0.9555
-4.2793 10.3784 -1.8494 0.9555
-4.6495 10.2179 -1.8494 0.9555
-7.0466 8.7389 -1.8494 0.9555
-7.3560 8.4801 -1.8494 0.9555
-7.7003 8.2578 -1.8601 0.9553
-9.7408 7.2620 -2.0016 0.9519
-10.2372 6.5437 -2.0016 0.9519
-10.4657 6.1716 -2.0016 0.9519
-10.8819 5.4041 -2.0016 0.9519
-11.6725 3.3722 -2.0016 0.9519
-11.7862 2.9506 -2.0016 0.9519
-12.0352 1.6652 -2.0016 0.9519
-12.1445 0.3604 -2.0016 0.9519
-12.1496 -0.0762 -2.0016 0.9519
-12.1128 -0.9485 -2.0016 0.9519
-11.9404 -2.2464 -2.0016 0.9519
-10.8996 -2.8743 -1.8570 0.9553
-10.6651 -3.6497 -1.8570 0.9553
-10.5270 -4.0305 -1.8570 0.9553
-10.3754 -4.4062 -1.8570 0.9553
-10.2104 -4.7761 -1.8570 0.9553
-10.3875 -6.3023 -2.0016 0.9519
-10.1543 -6.6715 -2.0016 0.9519
-9.6490 -7.3835 -2.0016 0.9519
-9.3775 -7.7254 -2.0016 0.9519
-9.0939 -8.0574 -2.0016 0.9519
-8.7985 -8.3789 -2.0016 0.9519
-7.8458 -9.2771 -2.0016 0.9519
-7.5073 -9.5530 -2.0016 0.9519
-7.1592 -9.8165 -2.0016 0.9519
-6.8019 -10.0674 -2.0016 0.9519
-6.0614 -10.5299 -2.0016 0.9519
-5.6791 -10.7409 -2.0016 0.9519
-5.2895 -10.9380 -2.0016 0.9519
-4.8931 -11.1210 -2.0016 0.9519
-4.4903 -11.2897 -2.0016 0.9519
-4.0818 -11.4437 -2.0016 0.9519
-3.6679 -11.5830 -2.0016 0.9519
-3.2494 -11.7073 -2.0016 0.9519
-2.4003 -11.9104 -2.0016 0.9519
-1.5387 -12.0520 -2.0016 0.9519
-0.2329 -12.1476 -2.0016 0.9519
0.2037 -12.1482 -2.0016 0.9519
1.0756 -12.1022 -2.0016 0.9519
2.7983 -11.8232 -2.0016 0.9519
3.2213 -11.7151 -2.0016 0.9519
3.6402 -11.5917 -2.0016 0.9519
4.0543 -11.4535 -2.0016 0.9519
7.1357 -9.8337 -2.0016 0.9519
7.4844 -9.5710 -2.0016 0.9519
7.8235 -9.2958 -2.0016 0.9519
8.1524 -9.0087 -2.0016 0.9519
8.7783 -8.4000 -2.0016 0.9519
9.3589 -7.7479 -2.0016 0.9519
10.5930 -5.9504 -2.0016 0.9519
10.9930 -5.1743 -2.0016 0.9519
11.3362 -4.3715 -2.0016 0.9519
11.8455 -2.7024 -2.0016 0.9519
11.9350 -2.2750 -2.0016 0.9519
12.0090 -1.8447 -2.0016 0.9519
12.0675 -1.4121 -2.0016 0.9519
12.1378 -0.5418 -2.0016 0.9519
12.1454 0.3313 -2.0016 0.9519
12.1256 0.7675 -2.0016 0.9519
12.0902 1.2027 -2.0016 0.9519
12.0392 1.6363 -2.0016 0.9519
11.8906 2.4967 -2.0016 0.9519
11.7932 2.9223 -2.0016 0.9519
11.6806 3.3442 -2.0016 0.9519
11.5529 3.7617 -2.0016 0.9519
11.2529 4.5816 -2.0016 0.9519
11.0810 4.9830 -2.0016 0.9519
10.8948 5.3780 -2.0016 0.9519
10.4805 6.1465 -2.0016 0.9519
10.2529 6.5191 -2.0016 0.9519
10.0120 6.8833 -2.0016 0.9519
9.7582 7.2386 -2.0016 0.9519
9.4918 7.5845 -2.0016 0.9519
8.6205 8.5619 -2.0016 0.9519
8.3074 8.8661 -2.0016 0.9519
7.3051 9.7085 -2.0016 0.9519
6.5890 10.2081 -2.0016 0.9519
6.2121 10.4284 -1.9997 0.9520
5.0377 10.0322 -1.8494 0.9555
4.6740 10.2067 -1.8494 0.9555
3.9289 10.5160 -1.8494 0.9555
3.1635 10.7710 -1.8494 0.9555
2.7745 10.8777 -1.8494 0.9555
2.3818 10.9704 -1.8494 0.9555
1.5878 11.1131 -1.8494 0.9555
1.1875 11.1630 -1.8494 0.9555
0.7857 11.1985 -1.8494 0.9555
0.3828 11.2195 -1.8494 0.9555
-0.0206 11.2260 -1.8494 0.9555
-0.4239 11.2180 -1.8494 0.9555
-0.8267 11.1955 -1.8494 0.9555
-1.2285 11.1586 -1.8494 0.9555
-1.2793 8.7251 -1.4527 0.9649
-2.4221 10.9616 -1.8494 0.9555
-2.8144 10.8675 -1.8494 0.9555
-3.2030 10.7593 -1.8494 0.9555
-3.5876 10.6373 -1.8494 0.9555
-3.9674 10.5015 -1.8494 0.9555
-4.3422 10.3522 -1.8494 0.9555
-4.7114 10.1895 -1.8494 0.9555
-5.0744 10.0136 -1.8494 0.9555
-5.7805 9.6233 -1.8494 0.9555
-6.1225 9.4094 -1.8494 0.9555
-6.4567 9.1834 -1.8494 0.9555
-6.7824 8.9455 -1.8494 0.9555
-7.4074 8.4353 -1.8494 0.9555
-8.3617 8.2440 -1.9344 0.9535
-9.7847 7.2027 -2.0016 0.9519
-10.0372 6.8465 -2.0016 0.9519
-10.2767 6.4814 -2.0016 0.9519
-10.5030 6.1080 -2.0016 0.9519
-10.7156 5.7267 -2.0016 0.9519
-11.0992 4.9423 -2.0016 0.9519
-11.2697 4.5403 -2.0016 0.9519
-11.4255 4.1325 -2.0016 0.9519
-11.8997 2.4530 -2.0016 0.9519
-12.0451 1.5921 -2.0016 0.9519
-12.0945 1.1583 -2.0016 0.9519
-12.1489 -0.1499 -2.0016 0.9519
-12.1357 -0.5863 -2.0016 0.9519
-12.0623 -1.4563 -2.0016 0.9519
-10.9806 -2.5475 -1.8570 0.9553
-10.5024 -4.0943 -1.8570 0.9553
-10.3485 -4.4690 -1.8570 0.9553
-10.1812 -4.8380 -1.8570 0.9553
-10.0008 -5.2007 -1.8570 0.9553
-9.8075 -5.5566 -1.8570 0.9553
-10.3491 -6.3651 -2.0016 0.9519
-10.1137 -6.7330 -2.0016 0.9519
-9.0448 -8.1124 -2.0016 0.9519
-7.7893 -9.3245 -2.0016 0.9519
-7.4492 -9.5983 -2.0016 0.9519
-6.3732 -10.3442 -2.0016 0.9519
-5.2230 -10.9699 -2.0016 0.9519
-4.8255 -11.1505 -2.0016 0.9519
-4.0123 -11.4683 -2.0016 0.9519
-2.7549 -11.8334 -2.0016 0.9519
-2.3279 -11.9248 -2.0016 0.9519
-1.4655 -12.0612 -2.0016 0.9519
-1.0312 -12.1060 -2.0016 0.9519
-0.5956 -12.1353 -2.0016 0.9519
-0.1592 -12.1488 -2.0016 0.9519
0.7137 -12.1289 -2.0016 0.9519
1.1491 -12.0954 -2.0016 0.9519
2.0147 -11.9817 -2.0016 0.9519
2.8700 -11.8060 -2.0016 0.9519
3.2923 -11.6953 -2.0016 0.9519
3.7104 -11.5694 -2.0016 0.9519
4.1237 -11.4287 -2.0016 0.9519
4.5317 -11.2731 -2.0016 0.9519
2.2379 -4.1952 -0.7833 0.9809
6.1000 -10.5076 -2.0016 0.9519
6.4736 -10.2817 -2.0016 0.9519
6.8388 -10.0424 -2.0016 0.9519
7.1952 -9.7902 -2.0016 0.9519
7.5424 -9.5254 -2.0016 0.9519
7.8797 -9.2482 -2.0016 0.9519
8.5236 -8.6584 -2.0016 0.9519
7.0457 7.9847 -2.0016 0.9576
6.7542 8.2327 -2.0016 0.9576
5.8291 8.9117 -2.0016 0.9576
5.5052 9.1154 -2.0016 0.9576
4.8243 9.4636 -1.9966 0.9577
4.3534 9.3562 -1.9397 0.9589
2.8299 9.4233 -1.8494 0.9607
1.7995 9.6731 -1.8494 0.9607
1.1002 9.7774 -1.8494 0.9607
0.3951 9.8311 -1.8494 0.9607
0.0416 9.8390 -1.8494 0.9607
-0.3119 9.8341 -1.8494 0.9607
-0.6650 9.8166 -1.8494 0.9607
-1.0173 9.7863 -1.8494 0.9607
-2.0645 9.6200 -1.8494 0.9607
-2.4088 9.5396 -1.8494 0.9607
-2.7500 9.4469 -1.8494 0.9607
-3.0877 9.3420 -1.8494 0.9607
-3.7506 9.0962 -1.8494 0.9607
-4.0750 8.9555 -1.8494 0.9607
-4.3942 8.8033 -1.8494 0.9607
-5.3160 8.2794 -1.8494 0.9607
-5.7277 8.2526 -1.8882 0.9599
-7.2621 7.7879 -2.0015 0.9576
-8.0583 6.9615 -2.0016 0.9576
-8.3032 6.6674 -2.0016 0.9576
-8.5374 6.3648 -2.0016 0.9576
-9.1727 5.4091 -2.0016 0.9576
-9.3611 5.0761 -2.0016 0.9576
-9.5375 4.7364 -2.0016 0.9576
-9.8530 4.0393 -2.0016 0.9576
-9.9918 3.6826 -2.0016 0.9576
-10.1176 3.3212 -2.0016 0.9576
-10.4163 2.2132 -2.0016 0.9576
-10.5940 1.0795 -2.0016 0.9576
-10.6259 0.6982 -2.0016 0.9576
-10.6393 -0.4493 -2.0016 0.9576
-10.6163 -0.8313 -2.0016 0.9576
-10.5796 -1.2122 -2.0016 0.9576
-10.5292 -1.5916 -2.0016 0.9576
-10.4652 -1.9689 -2.0016 0.9576
-9.9017 -2.2340 -1.9079 0.9595
-9.4563 -2.8608 -1.8570 0.9606
-9.0936 -3.8618 -1.8570 0.9606
-8.7928 -4.5049 -1.8570 0.9606
-8.6840 -6.1633 -2.0016 0.9576
-8.4569 -6.4713 -2.0016 0.9576
-7.7115 -7.3437 -2.0016 0.9576
-7.4426 -7.6161 -2.0016 0.9576
-7.1642 -7.8786 -2.0016 0.9576
-6.8764 -8.1309 -2.0016 0.9576
-6.5799 -8.3727 -2.0016 0.9576
-5.9616 -8.8237 -2.0016 0.9576
-5.6407 -9.0322 -2.0016 0.9576
-3.5775 -10.0299 -2.0016 0.9576
-3.2148 -10.1520 -2.0016 0.9576
-2.8480 -10.2609 -2.0016 0.9576
-2.4774 -10.3566 -2.0016 0.9576
-2.1037 -10.4389 -2.0016 0.9576
-1.3486 -10.5631 -2.0016 0.9576
-0.9682 -10.6047 -2.0016 0.9576
1.3233 -10.5663 -2.0016 0.9576
1.7021 -10.5119 -2.0016 0.9576
2.0787 -10.4440 -2.0016 0.9576
3.5534 -10.0384 -2.0016 0.9576
4.2652 -9.7573 -2.0016 0.9576
4.6130 -9.5978 -2.0016 0.9576
2.2137 -4.2112 -0.8942 0.9808
5.2904 -9.2417 -2.0016 0.9576
5.6190 -9.0457 -2.0016 0.9576
6.8569 -8.1474 -2.0016 0.9576
7.6938 -7.3622 -2.0016 0.9576
8.2027 -6.7907 -2.0016 0.9576
8.4414 -6.4916 -2.0016 0.9576
8.6692 -6.1841 -2.0016 0.9576
8.8858 -5.8686 -2.0016 0.9576
9.4657 -4.8783 -2.0016 0.9576
9.6349 -4.5351 -2.0016 0.9576
10.0669 -3.4720 -2.0016 0.9576
10.2903 -2.7401 -2.0016 0.9576
10.4605 -1.9940 -2.0016 0.9576
10.5254 -1.6168 -2.0016 0.9576
10.5767 -1.2376 -2.0016 0.9576
10.6449 0.2904 -2.0016 0.9576
10.5518 1.4342 -2.0016 0.9576
10.4935 1.8124 -2.0016 0.9576
10.4216 2.1882 -2.0016 0.9576
10.3362 2.5613 -2.0016 0.9576
10.2375 2.9310 -2.0016 0.9576
10.1256 3.2970 -2.0016 0.9576
10.0006 3.6586 -2.0016 0.9576
9.8627 4.0156 -2.0016 0.9576
9.7120 4.3674 -2.0016 0.9576
9.5488 4.7135 -2.0016 0.9576
8.7751 6.0329 -2.0016 0.9576
8.3191 6.6475 -2.0016 0.9576
8.0749 6.9421 -2.0016 0.9576
7.5555 7.5041 -2.0016 0.9576
7.2810 7.7707 -2.0016 0.9576
6.9971 8.0273 -2.0016 0.9576
6.7042 8.2735 -2.0016 0.9576
5.1167 9.3371 -2.0013 0.9576
4.2608 9.3044 -1.9235 0.9592
2.7727 9.4403 -1.8494 0.9607
1.7408 9.6839 -1.8494 0.9607
1.3917 9.7402 -1.8494 0.9607
0.6886 9.8150 -1.8494 0.9607
0.3355 9.8334 -1.8494 0.9607
-0.0181 9.8391 -1.8494 0.9607
-0.7246 9.8124 -1.8494 0.9607
-1.2765 8.7060 -1.6539 0.9648
-1.7763 9.6774 -1.8494 0.9607
-3.1443 9.3231 -1.8494 0.9607
-3.4773 9.2041 -1.8494 0.9607
-3.8058 9.0732 -1.8494 0.9607
-4.4475 8.7765 -1.8494 0.9607
-4.7600 8.6110 -1.8494 0.9607
-5.3762 8.2625 -1.8528 0.9607
-5.8012 8.2512 -1.8959 0.9598
-6.2493 8.2422 -1.9442 0.9588
-6.7097 8.2185 -1.9942 0.9577
-7.8467 7.1990 -2.0016 0.9576
-8.5758 6.3129 -2.0016 0.9576
-8.7971 6.0006 -2.0016 0.9576
-9.0071 5.6807 -2.0016 0.9576
-9.5660 4.6785 -2.0016 0.9576
-10.0139 3.6219 -2.0016 0.9576
-10.1376 3.2598 -2.0016 0.9576
-10.2482 2.8934 -2.0016 0.9576
-10.3455 2.5233 -2.0016 0.9576
-10.4295 2.1500 -2.0016 0.9576
-10.5000 1.7739 -2.0016 0.9576
-10.6459 0.2513 -2.0016 0.9576
-10.6364 -0.5139 -2.0016 0.9576
-10.6111 -0.8957 -2.0016 0.9576
-10.5194 -1.6554 -2.0016 0.9576
-10.4531 -2.0323 -2.0016 0.9576
-9.6637 -2.2420 -1.8646 0.9604
-9.4388 -2.9182 -1.8570 0.9606
-9.0700 -3.9169 -1.8570 0.9606
-8.9234 -4.2403 -1.8570 0.9606
-8.7653 -4.5582 -1.8570 0.9606
-8.6464 -6.2158 -2.0016 0.9576
-8.1777 -6.8207 -2.0016 0.9576
-7.9273 -7.1102 -2.0016 0.9576
-7.6668 -7.3904 -2.0016 0.9576
-7.1162 -7.9219 -2.0016 0.9576
-6.5289 -8.4125 -2.0016 0.9576
-6.2224 -8.6417 -2.0016 0.9576
-5.5858 -9.0662 -2.0016 0.9576
-5.2564 -9.2611 -2.0016 0.9576
-4.9203 -9.4440 -2.0016 0.9576
-4.5777 -9.6147 -2.0016 0.9576
-2.7856 -10.2780 -2.0016 0.9576
-2.4146 -10.3715 -2.0016 0.9576
-2.0403 -10.4515 -2.0016 0.9576
-1.6635 -10.5181 -2.0016 0.9576
-0.1395 -10.6479 -2.0016 0.9576
0.6255 -10.6304 -2.0016 0.9576
1.0071 -10.6011 -2.0016 0.9576
2.1420 -10.4312 -2.0016 0.9576
3.2520 -10.1401 -2.0016 0.9576
3.9719 -9.8804 -2.0016 0.9576
4.3243 -9.7313 -2.0016 0.9576
4.6711 -9.5696 -2.0016 0.9576
5.6738 -9.0114 -2.0016 0.9576
5.9939 -8.8017 -2.0016 0.9576
6.3063 -8.5807 -2.0016 0.9576
6.6105 -8.3485 -2.0016 0.9576
7.1930 -7.8522 -2.0016 0.9576
7.4705 -7.5889 -2.0016 0.9576
7.7384 -7.3154 -2.0016 0.9576
7.9962 -7.0326 -2.0016 0.9576
8.7065 -6.1313 -2.0016 0.9576
6.5162 6.8704 -2.0016 0.9620
6.0059 7.3206 -2.0016 0.9620
5.4647 7.7330 -2.0016 0.9620
4.6008 8.2761 -2.0016 0.9620
4.3005 8.4361 -2.0016 0.9620
3.3551 8.8168 -1.9941 0.9622
1.2900 8.6534 -1.8494 0.9649
-0.9046 8.7021 -1.8494 0.9649
-1.2167 8.6640 -1.8494 0.9649
-1.5272 8.6147 -1.8494 0.9649
-1.8358 8.5542 -1.8494 0.9649
-2.4454 8.4003 -1.8494 0.9649
-2.7456 8.3070 -1.8494 0.9649
-3.4029 8.2528 -1.8870 0.9642
-4.8126 8.1232 -1.9958 0.9621
-5.1086 7.9563 -1.9986 0.9621
-5.3990 7.7790 -2.0016 0.9620
-5.9437 7.3712 -2.0016 0.9620
-6.4578 6.9253 -2.0016 0.9620
-6.7024 6.6888 -2.0016 0.9620
-7.1655 6.1902 -2.0016 0.9620
-7.3833 5.9287 -2.0016 0.9620
-7.5915 5.6596 -2.0016 0.9620
-7.7900 5.3832 -2.0016 0.9620
-8.3240 4.5137 -2.0016 0.9620
-8.4808 4.2117 -2.0016 0.9620
-8.6267 3.9042 -2.0016 0.9620
-8.8848 3.2746 -2.0016 0.9620
-8.9967 2.9533 -2.0016 0.9620
-9.0970 2.6281 -2.0016 0.9620
-9.4202 0.9599 -2.0016 0.9620
-9.4648 0.2809 -2.0016 0.9620
-9.4606 -0.3995 -2.0016 0.9620
-9.4075 -1.0779 -2.0016 0.9620
-9.3058 -1.7507 -2.0016 0.9620
-8.5144 -2.2453 -1.8613 0.9646
-8.3118 -2.8444 -1.8570 0.9647
-8.2043 -3.1412 -1.8570 0.9647
-7.8186 -4.0058 -1.8570 0.9647
-7.5107 -4.5569 -1.8570 0.9647
-7.3422 -4.8239 -1.8570 0.9647
-6.9768 -5.3387 -1.8570 0.9647
-6.7804 -5.5859 -1.8570 0.9647
-6.8571 -6.5301 -2.0016 0.9620
-6.3704 -7.0057 -2.0016 0.9620
-5.8509 -7.4451 -2.0016 0.9620
-5.5796 -7.6505 -2.0016 0.9620
-5.3011 -7.8461 -2.0016 0.9620
-4.7239 -8.2065 -2.0016 0.9620
-3.4995 -8.7986 -2.0016 0.9620
-3.1811 -8.9187 -2.0016 0.9620
-2.5324 -9.1241 -2.0016 0.9620
-1.8706 -9.2824 -2.0016 0.9620
-0.5216 -9.4546 -2.0016 0.9620
-0.1815 -9.4673 -2.0016 0.9620
0.4989 -9.4559 -2.0016 0.9620
0.8383 -9.4318 -2.0016 0.9620
1.1767 -9.3956 -2.0016 0.9620
2.1809 -9.2145 -2.0016 0.9620
2.5105 -9.1301 -2.0016 0.9620
2.8370 -9.0340 -2.0016 0.9620
3.4784 -8.8070 -2.0016 0.9620
3.7926 -8.6763 -2.0016 0.9620
4.7042 -8.2178 -2.0016 0.9620
4.9965 -8.0435 -2.0016 0.9620
5.5612 -7.6639 -2.0016 0.9620
5.8330 -7.4591 -2.0016 0.9620
6.0972 -7.2447 -2.0016 0.9620
6.8414 -6.5466 -2.0016 0.9620
7.5061 -5.7724 -2.0016 0.9620
7.9013 -5.2184 -2.0016 0.9620
8.2557 -4.6375 -2.0016 0.9620
8.4170 -4.3379 -2.0016 0.9620
8.8349 -3.4069 -2.0016 0.9620
8.9516 -3.0873 -2.0016 0.9620
9.4049 -1.1005 -2.0016 0.9620
9.4383 -0.7619 -2.0016 0.9620
9.4596 -0.4222 -2.0016 0.9620
9.4687 -0.0821 -2.0016 0.9620
9.4655 0.2582 -2.0016 0.9620
9.3309 1.6116 -2.0016 0.9620
9.2669 1.9458 -2.0016 0.9620
9.1910 2.2775 -2.0016 0.9620
9.1033 2.6063 -2.0016 0.9620
8.6360 3.8835 -2.0016 0.9620
8.4909 4.1913 -2.0016 0.9620
8.3348 4.4937 -2.0016 0.9620
8.1680 4.7903 -2.0016 0.9620
7.6051 5.6414 -2.0016 0.9620
7.3975 5.9110 -2.0016 0.9620
6.9539 6.4270 -2.0016 0.9620
6.7184 6.6727 -2.0016 0.9620
6.4743 6.9098 -2.0016 0.9620
5.9614 7.3569 -2.0016 0.9620
5.4177 7.7660 -2.0016 0.9620
4.8460 8.1350 -2.0016 0.9620
4.2492 8.4621 -2.0016 0.9620
3.6230 8.7272 -1.9974 0.9621
3.2868 8.7974 -1.9851 0.9623
2.8872 8.6656 -1.9307 0.9633
2.5115 8.5509 -1.8838 0.9642
2.1623 8.4776 -1.8494 0.9649
1.8563 8.5498 -1.8494 0.9649
1.5479 8.6110 -1.8494 0.9649
1.2375 8.6610 -1.8494 0.9649
0.6123 8.7275 -1.8494 0.9649
-0.3304 8.7427 -1.8494 0.9649
-1.5795 8.6052 -1.8494 0.9649
-1.8877 8.5429 -1.8494 0.9649
-2.4963 8.3853 -1.8494 0.9649
-2.7960 8.2902 -1.8494 0.9649
-3.4613 8.2520 -1.8915 0.9641
-4.1760 8.2406 -1.9528 0.9629
-4.5516 8.2340 -1.9887 0.9623
-4.8629 8.0957 -1.9963 0.9621
-5.1580 7.9271 -1.9991 0.9621
-5.7209 7.5454 -2.0016 0.9620
-5.9884 7.3350 -2.0016 0.9620
-6.7429 6.6480 -2.0016 0.9620
-7.4191 5.8838 -2.0016 0.9620
-7.6257 5.6134 -2.0016 0.9620
-7.8225 5.3358 -2.0016 0.9620
-8.0092 5.0513 -2.0016 0.9620
-8.3512 4.4631 -2.0016 0.9620
-8.6502 3.8518 -2.0016 0.9620
-9.0144 2.8986 -2.0016 0.9620
-9.3367 1.5773 -2.0016 0.9620
-9.3874 1.2408 -2.0016 0.9620
-9.4664 0.2235 -2.0016 0.9620
-9.4683 -0.1168 -2.0016 0.9620
-9.4580 -0.4569 -2.0016 0.9620
-9.4355 -0.7965 -2.0016 0.9620
-8.3931 -2.5949 -1.8570 0.9647
-8.1850 -3.1909 -1.8570 0.9647
-8.0651 -3.4829 -1.8570 0.9647
-7.6435 -4.3306 -1.8570 0.9647
-7.1331 -5.1279 -1.8570 0.9647
-6.0706 -7.2671 -2.0016 0.9620
-5.8056 -7.4805 -2.0016 0.9620
-5.2534 -7.8781 -2.0016 0.9620
-4.3751 -8.3977 -2.0016 0.9620
-4.0706 -8.5494 -2.0016 0.9620
-3.7608 -8.6902 -2.0016 0.9620
-3.4461 -8.8197 -2.0016 0.9620
-2.8038 -9.0444 -2.0016 0.9620
-2.1470 -9.2224 -2.0016 0.9620
-0.4642 -9.4576 -2.0016 0.9620
-0.1240 -9.4682 -2.0016 0.9620
0.5562 -9.4527 -2.0016 0.9620
1.5702 -9.3379 -2.0016 0.9620
2.2367 -9.2011 -2.0016 0.9620
3.2138 -8.9069 -2.0016 0.9620
4.1536 -8.5094 -2.0016 0.9620
4.7540 -8.1891 -2.0016 0.9620
5.6076 -7.6300 -2.0016 0.9620
6.1411 -7.2076 -2.0016 0.9620
6.3961 -6.9823 -2.0016 0.9620
6.8810 -6.5049 -2.0016 0.9620
7.1103 -6.2535 -2.0016 0.9620
7.3304 -5.9940 -2.0016 0.9620
7.7419 -5.4521 -2.0016 0.9620
5.8606 6.1792 -2.0016 0.9656
5.6348 6.3858 -2.0016 0.9656
4.6619 7.1272 -2.0016 0.9656
4.4028 7.2901 -2.0016 0.9656
4.1380 7.4436 -2.0016 0.9656
2.7410 8.0633 -2.0016 0.9656
2.4475 8.1499 -1.9999 0.9656
1.2349 8.2834 -1.9683 0.9662
0.6292 8.2514 -1.9449 0.9666
0.3313 8.2432 -1.9389 0.9667
0.0349 8.2435 -1.9374 0.9667
-0.2615 8.2433 -1.9383 0.9667
-0.5584 8.2427 -1.9417 0.9666
-1.4605 8.2381 -1.9663 0.9662
-1.7674 8.2357 -1.9796 0.9660
-2.0772 8.2263 -1.9941 0.9657
-2.3729 8.1515 -1.9953 0.9657
-3.2441 7.8678 -2.0001 0.9656
-4.0748 7.4783 -2.0016 0.9656
-4.6014 7.1664 -2.0016 0.9656
-5.1041 6.8174 -2.0016 0.9656
-5.8081 6.2286 -2.0016 0.9656
-6.2404 5.7954 -2.0016 0.9656
-6.4446 5.5675 -2.0016 0.9656
-6.6405 5.3323 -2.0016 0.9656
-6.8278 5.0903 -2.0016 0.9656
-7.3359 4.3260 -2.0016 0.9656
-7.4866 4.0596 -2.0016 0.9656
-7.6277 3.7880 -2.0016 0.9656
-7.7588 3.5115 -2.0016 0.9656
-7.8800 3.2304 -2.0016 0.9656
-7.9910 2.9452 -2.0016 0.9656
-8.0916 2.6562 -2.0016 0.9656
-8.3305 1.7700 -2.0016 0.9656
-8.4905 -0.6648 -2.0016 0.9656
-8.3696 -1.5746 -2.0016 0.9656
-8.2349 -2.1716 -2.0016 0.9656
-7.5628 -2.2880 -1.8570 0.9681
-7.3789 -2.8252 -1.8570 0.9681
-7.2726 -3.0885 -1.8570 0.9681
-7.1570 -3.3478 -1.8570 0.9681
-7.0321 -3.6028 -1.8570 0.9681
-6.8981 -3.8531 -1.8570 0.9681
-6.7552 -4.0985 -1.8570 0.9681
-6.4434 -4.5731 -1.8570 0.9681
-6.2749 -4.8016 -1.8570 0.9681
-6.0983 -5.0240 -1.8570 0.9681
-5.9139 -5.2399 -1.8570 0.9681
-5.5223 -5.6510 -1.8570 0.9681
-5.2623 -6.6961 -2.0016 0.9656
-5.0183 -6.8809 -2.0016 0.9656
-4.7678 -7.0568 -2.0016 0.9656
-4.5112 -7.2235 -2.0016 0.9656
-3.7077 -7.6670 -2.0016 0.9656
-3.1475 -7.9135 -2.0016 0.9656
-2.8611 -8.0215 -2.0016 0.9656
-2.5710 -8.1191 -2.0016 0.9656
-1.9813 -8.2828 -2.0016 0.9656
-1.0785 -8.4479 -2.0016 0.9656
-0.4691 -8.5035 -2.0016 0.9656
-0.1632 -8.5149 -2.0016 0.9656
0.1428 -8.5152 -2.0016 0.9656
0.4487 -8.5046 -2.0016 0.9656
2.2580 -8.2117 -2.0016 0.9656
2.8419 -8.0283 -2.0016 0.9656
3.4111 -7.8035 -2.0016 0.9656
3.6893 -7.6759 -2.0016 0.9656
2.1979 -4.1811 -1.1102 0.9808
2.3811 -4.1596 -1.1264 0.9805
5.0018 -6.8929 -2.0016 0.9656
5.2462 -6.7087 -2.0016 0.9656
5.4839 -6.5159 -2.0016 0.9656
5.7144 -6.3147 -2.0016 0.9656
5.9376 -6.1053 -2.0016 0.9656
6.1532 -5.8880 -2.0016 0.9656
6.3608 -5.6631 -2.0016 0.9656
7.7055 -3.6270 -2.0016 0.9656
7.8309 -3.3477 -2.0016 0.9656
8.0511 -2.7767 -2.0016 0.9656
8.3031 -1.8942 -2.0016 0.9656
8.3658 -1.5947 -2.0016 0.9656
8.4177 -1.2931 -2.0016 0.9656
8.5080 -0.3797 -2.0016 0.9656
8.5161 -0.0738 -2.0016 0.9656
8.5133 0.2322 -2.0016 0.9656
8.4994 0.5380 -2.0016 0.9656
8.4389 1.1470 -2.0016 0.9656
8.3922 1.4494 -2.0016 0.9656
8.3347 1.7501 -2.0016 0.9656
8.1875 2.3441 -2.0016 0.9656
7.9980 2.9260 -2.0016 0.9656
7.7672 3.4928 -2.0016 0.9656
7.6367 3.7697 -2.0016 0.9656
6.6533 5.3164 -2.0016 0.9656
6.2543 5.7804 -2.0016 0.9656
5.8230 6.2147 -2.0016 0.9656
5.5960 6.4199 -2.0016 0.9656
4.3585 7.3167 -2.0016 0.9656
4.0927 7.4685 -2.0016 0.9656
3.8218 7.6108 -2.0016 0.9656
3.5458 7.7432 -2.0016 0.9656
2.9806 7.9778 -2.0016 0.9656
2.6920 8.0798 -2.0016 0.9656
2.3975 8.1629 -1.9995 0.9656
1.8011 8.2955 -1.9951 0.9657
1.4953 8.3185 -1.9864 0.9659
0.8789 8.2623 -1.9528 0.9664
0.5787 8.2492 -1.9435 0.9666
0.2812 8.2433 -1.9385 0.9667
-0.0151 8.2435 -1.9374 0.9667
-0.6087 8.2425 -1.9425 0.9666
-0.9073 8.2414 -1.9486 0.9665
-1.2082 8.2398 -1.9572 0.9664
-1.5120 8.2377 -1.9684 0.9662
-1.8197 8.2352 -1.9821 0.9659
-2.7155 8.0515 -1.9970 0.9657
-3.0055 7.9553 -1.9986 0.9657
-3.2923 7.8492 -2.0004 0.9656
-3.5742 7.7301 -2.0016 0.9656
-4.1201 7.4535 -2.0016 0.9656
-4.6448 7.1383 -2.0016 0.9656
-5.3859 6.5971 -2.0016 0.9656
-5.6195 6.3993 -2.0016 0.9656
-6.0646 5.9792 -2.0016 0.9656
-6.2755 5.7575 -2.0016 0.9656
-6.4783 5.5282 -2.0016 0.9656
-6.6727 5.2919 -2.0016 0.9656
-6.8586 5.0487 -2.0016 0.9656
-7.0356 4.7990 -2.0016 0.9656
-7.3620 4.2814 -2.0016 0.9656
-7.7800 3.4643 -2.0016 0.9656
-7.8994 3.1825 -2.0016 0.9656
-8.0087 2.8967 -2.0016 0.9656
-8.1076 2.6070 -2.0016 0.9656
-8.1960 2.3140 -2.0016 0.9656
-8.2739 2.0180 -2.0016 0.9656
-8.3411 1.7195 -2.0016 0.9656
-8.4430 1.1160 -2.0016 0.9656
-8.4777 0.8119 -2.0016 0.9656
-8.5141 0.2010 -2.0016 0.9656
-8.5065 -0.4110 -2.0016 0.9656
-8.4863 -0.7164 -2.0016 0.9656
-8.3599 -1.6254 -2.0016 0.9656
-8.2961 -1.9247 -2.0016 0.9656
-7.4600 -2.6035 -1.8570 0.9681
-7.2538 -3.1326 -1.8570 0.9681
-7.1365 -3.3912 -1.8570 0.9681
-7.0101 -3.6454 -1.8570 0.9681
-6.8746 -3.8949 -1.8570 0.9681
-6.7302 -4.1394 -1.8570 0.9681
-6.5771 -4.3786 -1.8570 0.9681
-6.4155 -4.6121 -1.8570 0.9681
-6.2457 -4.8396 -1.8570 0.9681
-5.6912 -6.3356 -2.0016 0.9656
-5.4599 -6.5360 -2.0016 0.9656
-4.9764 -6.9112 -2.0016 0.9656
-4.7249 -7.0856 -2.0016 0.9656
-4.4673 -7.2508 -2.0016 0.9656
-3.6611 -7.6894 -2.0016 0.9656
-3.3824 -7.8159 -2.0016 0.9656
-2.8124 -8.0387 -2.0016 0.9656
-2.5217 -8.1345 -2.0016 0.9656
-2.2278 -8.2199 -2.0016 0.9656
-1.9310 -8.2946 -2.0016 0.9656
-1.3304 -8.4119 -2.0016 0.9656
-1.0273 -8.4543 -2.0016 0.9656
-0.7228 -8.4857 -2.0016 0.9656
-0.4175 -8.5062 -2.0016 0.9656
0.1945 -8.5142 -2.0016 0.9656
1.1095 -8.4439 -2.0016 0.9656
1.7131 -8.3424 -2.0016 0.9656
2.8905 -8.0109 -2.0016 0.9656
3.1765 -7.9019 -2.0016 0.9656
3.4584 -7.7826 -2.0016 0.9656
2.1431 -4.3905 -1.1482 0.9801
2.4153 -4.1606 -1.1307 0.9804
4.5376 -7.2069 -2.0016 0.9656
5.0435 -6.8624 -2.0016 0.9656
5.7527 -6.2799 -2.0016 0.9656
5.9746 -6.0691 -2.0016 0.9656
6.1888 -5.8505 -2.0016 0.9656
6.3950 -5.6244 -2.0016 0.9656
6.7824 -5.1506 -2.0016 0.9656
6.9631 -4.9036 -2.0016 0.9656
5.3198 5.6090 -2.0016 0.9686
5.1148 5.7965 -2.0016 0.9686
4.9032 5.9765 -2.0016 0.9686
4.6853 6.1488 -2.0016 0.9686
3.9965 6.6173 -2.0016 0.9686
3.7561 6.7566 -2.0016 0.9686
2.7494 7.2250 -2.0016 0.9686
2.4880 7.3192 -2.0016 0.9686
1.9560 7.4789 -2.0016 0.9686
1.4138 7.6001 -2.0016 0.9686
1.1398 7.6460 -2.0016 0.9686
0.8644 7.6820 -2.0016 0.9686
0.5878 7.7081 -2.0016 0.9686
0.3105 7.7243 -2.0016 0.9686
-0.2451 7.7266 -2.0016 0.9686
-1.6221 7.5584 -2.0016 0.9686
-1.8926 7.4952 -2.0016 0.9686
-2.4260 7.3400 -2.0016 0.9686
-2.6882 7.2481 -2.0016 0.9686
-3.6988 6.7882 -2.0016 0.9686
-4.1767 6.5050 -2.0016 0.9686
-4.6331 6.1883 -2.0016 0.9686
-5.0656 5.8396 -2.0016 0.9686
-5.4718 5.4607 -2.0016 0.9686
-6.0277 4.8402 -2.0016 0.9686
-6.5135 4.1635 -2.0016 0.9686
-6.7957 3.6850 -2.0016 0.9686
-7.0428 3.1874 -2.0016 0.9686
-7.2535 2.6734 -2.0016 0.9686
-7.4268 2.1456 -2.0016 0.9686
-7.4991 1.8773 -2.0016 0.9686
-7.6575 1.0595 -2.0016 0.9686
-7.6907 0.7837 -2.0016 0.9686
-7.7139 0.5068 -2.0016 0.9686
-7.7271 0.2293 -2.0016 0.9686
-7.7303 -0.0485 -2.0016 0.9686
-7.7236 -0.3262 -2.0016 0.9686
-7.6437 -1.1554 -2.0016 0.9686
-7.4749 -1.9712 -2.0016 0.9686
-7.3372 -2.2197 -1.9848 0.9688
-6.6015 -2.8035 -1.8570 0.9708
-6.2615 -3.4975 -1.8570 0.9708
-6.1318 -3.7203 -1.8570 0.9708
-5.9941 -3.9382 -1.8570 0.9708
-5.6958 -4.3585 -1.8570 0.9708
-5.0127 -5.1295 -1.8570 0.9708
-4.8251 -5.3063 -1.8570 0.9708
-4.3278 -6.4055 -2.0016 0.9686
-4.0948 -6.5569 -2.0016 0.9686
-3.8566 -6.6998 -2.0016 0.9686
-3.6134 -6.8340 -2.0016 0.9686
-3.1133 -7.0759 -2.0016 0.9686
-2.8570 -7.1832 -2.0016 0.9686
-2.3338 -7.3698 -2.0016 0.9686
-2.0675 -7.4489 -2.0016 0.9686
-1.5272 -7.5781 -2.0016 0.9686
-0.7029 -7.6985 -2.0016 0.9686
-0.1482 -7.7291 -2.0016 0.9686
0.1296 -7.7294 -2.0016 0.9686
0.4073 -7.7197 -2.0016 0.9686
0.6844 -7.7001 -2.0016 0.9686
0.9606 -7.6706 -2.0016 0.9686
1.5090 -7.5818 -2.0016 0.9686
1.7804 -7.5227 -2.0016 0.9686
2.0496 -7.4538 -2.0016 0.9686
2.5796 -7.2874 -2.0016 0.9686
2.1055 -4.3806 -1.2584 0.9801
2.1620 -4.1128 -1.2030 0.9810
2.3526 -4.1098 -1.2261 0.9806
4.0791 -6.5667 -2.0016 0.9686
5.1871 -5.7319 -2.0016 0.9686
5.3897 -5.5418 -2.0016 0.9686
5.7737 -5.1405 -2.0016 0.9686
5.9547 -4.9297 -2.0016 0.9686
6.1280 -4.7125 -2.0016 0.9686
6.2934 -4.4893 -2.0016 0.9686
6.4506 -4.2603 -2.0016 0.9686
6.5995 -4.0258 -2.0016 0.9686
6.7399 -3.7860 -2.0016 0.9686
6.8716 -3.5414 -2.0016 0.9686
7.2128 -2.7814 -2.0016 0.9686
7.3939 -2.2563 -2.0016 0.9686
7.4702 -1.9891 -2.0016 0.9686
7.5938 -1.4475 -2.0016 0.9686
7.6409 -1.1737 -2.0016 0.9686
7.7054 -0.6220 -2.0016 0.9686
7.7302 -0.0670 -2.0016 0.9686
7.7276 0.2108 -2.0016 0.9686
7.6925 0.7652 -2.0016 0.9686
7.6177 1.3157 -2.0016 0.9686
7.5035 1.8594 -2.0016 0.9686
7.3506 2.3934 -2.0016 0.9686
7.1598 2.9151 -2.0016 0.9686
6.9319 3.4218 -2.0016 0.9686
6.8045 3.6686 -2.0016 0.9686
6.5235 4.1478 -2.0016 0.9686
6.3702 4.3796 -2.0016 0.9686
5.8620 5.0396 -2.0016 0.9686
5.6771 5.2470 -2.0016 0.9686
5.2856 5.6411 -2.0016 0.9686
4.8669 6.0062 -2.0016 0.9686
4.6479 6.1772 -2.0016 0.9686
4.1923 6.4950 -2.0016 0.9686
3.9562 6.6414 -2.0016 0.9686
3.4691 6.9084 -2.0016 0.9686
2.9640 7.1397 -2.0016 0.9686
2.7055 7.2416 -2.0016 0.9686
1.6402 7.5545 -2.0016 0.9686
1.3677 7.6085 -2.0016 0.9686
0.8177 7.6871 -2.0016 0.9686
-0.2919 7.7250 -2.0016 0.9686
-0.8459 7.6841 -2.0016 0.9686
-1.6679 7.5484 -2.0016 0.9686
-1.9381 7.4836 -2.0016 0.9686
-2.2057 7.4091 -2.0016 0.9686
-3.2444 7.0167 -2.0016 0.9686
-3.4944 6.8956 -2.0016 0.9686
-3.7399 6.7656 -2.0016 0.9686
-3.9806 6.6269 -2.0016 0.9686
-4.8889 5.9883 -2.0016 0.9686
-5.1009 5.8087 -2.0016 0.9686
-5.3063 5.6217 -2.0016 0.9686
-5.5049 5.4274 -2.0016 0.9686
-5.6963 5.2261 -2.0016 0.9686
-6.0569 4.8035 -2.0016 0.9686
-6.2256 4.5828 -2.0016 0.9686
-6.5387 4.1239 -2.0016 0.9686
-6.8179 3.6437 -2.0016 0.9686
-7.0620 3.1446 -2.0016 0.9686
-7.3594 2.3664 -2.0016 0.9686
-7.4396 2.1005 -2.0016 0.9686
-7.5103 1.8318 -2.0016 0.9686
-7.6225 1.2877 -2.0016 0.9686
-7.6953 0.7370 -2.0016 0.9686
-7.7168 0.4600 -2.0016 0.9686
-7.7299 -0.0954 -2.0016 0.9686
-7.7031 -0.6502 -2.0016 0.9686
-7.6748 -0.9266 -2.0016 0.9686
-7.4628 -2.0165 -2.0016 0.9686
-7.1999 -2.2260 -1.9512 0.9693
-6.6823 -2.6050 -1.8570 0.9708
-5.3392 -4.7888 -1.8570 0.9708
-4.5980 -5.5043 -1.8570 0.9708
-4.2888 -6.4317 -2.0016 0.9686
-4.0550 -6.5816 -2.0016 0.9686
-3.5719 -6.8558 -2.0016 0.9686
-2.2890 -7.3838 -2.0016 0.9686
-2.0222 -7.4613 -2.0016 0.9686
-1.7528 -7.5291 -2.0016 0.9686
-1.4812 -7.5873 -2.0016 0.9686
-1.2076 -7.6356 -2.0016 0.9686
-0.3789 -7.7212 -2.0016 0.9686
-0.1013 -7.7298 -2.0016 0.9686
0.1765 -7.7285 -2.0016 0.9686
0.4541 -7.7171 -2.0016 0.9686
1.0071 -7.6646 -2.0016 0.9686
1.2819 -7.6235 -2.0016 0.9686
1.8261 -7.5117 -2.0016 0.9686
2.3608 -7.3612 -2.0016 0.9686
2.8834 -7.1726 -2.0016 0.9686
2.1075 -4.3176 -1.2440 0.9803
2.3856 -4.1093 -1.2303 0.9806
4.3513 -6.3896 -2.0016 0.9686
5.0136 -5.8843 -2.0016 0.9686
5.2218 -5.7003 -2.0016 0.9686
5.4232 -5.5090 -2.0016 0.9686
5.8048 -5.1053 -2.0016 0.9686
6.1565 -4.6753 -2.0016 0.9686
6.3205 -4.4510 -2.0016 0.9686
6.4763 -4.2211 -2.0016 0.9686
4.6780 5.3015 -2.0016 0.9710
4.0804 5.7741 -2.0016 0.9710
3.8703 5.9170 -2.0016 0.9710
3.6552 6.0522 -2.0016 0.9710
2.9827 6.4104 -2.0016 0.9710
2.7504 6.5134 -2.0016 0.9710
2.5146 6.6080 -2.0016 0.9710
2.2756 6.6941 -2.0016 0.9710
2.0336 6.7716 -2.0016 0.9710
1.7890 6.8403 -2.0016 0.9710
1.5420 6.9001 -2.0016 0.9710
0.7906 7.0260 -2.0016 0.9710
0.2840 7.0646 -2.0016 0.9710
-0.7311 7.0324 -2.0016 0.9710
-1.2342 6.9618 -2.0016 0.9710
-1.7310 6.8552 -2.0016 0.9710
-2.2188 6.7132 -2.0016 0.9710
-2.4586 6.6291 -2.0016 0.9710
-2.6952 6.5365 -2.0016 0.9710
-2.9283 6.4354 -2.0016 0.9710
-3.3829 6.2085 -2.0016 0.9710
-3.6038 6.0829 -2.0016 0.9710
-3.8200 5.9495 -2.0016 0.9710
-4.4381 5.5039 -2.0016 0.9710
-5.0046 4.9944 -2.0016 0.9710
-5.1808 4.8114 -2.0016 0.9710
-5.6684 4.2259 -2.0016 0.9710
-6.0903 3.5914 -2.0016 0.9710
-6.3325 3.1448 -2.0016 0.9710
-6.4414 2.9152 -2.0016 0.9710
-6.7926 1.9624 -2.0016 0.9710
-6.8587 1.7170 -2.0016 0.9710
-6.9159 1.4695 -2.0016 0.9710
-7.0036 0.9690 -2.0016 0.9710
-7.0339 0.7167 -2.0016 0.9710
-7.0551 0.4635 -2.0016 0.9710
-7.0672 0.2097 -2.0016 0.9710
-7.0640 -0.2983 -2.0016 0.9710
-7.0488 -0.5520 -2.0016 0.9710
-7.0244 -0.8049 -2.0016 0.9710
-6.7674 -2.0474 -2.0016 0.9710
-6.5070 -2.2268 -1.9470 0.9718
-6.0377 -2.5641 -1.8570 0.9731
-5.9417 -2.7793 -1.8570 0.9731
-5.7268 -3.1989 -1.8570 0.9731
-5.6081 -3.4026 -1.8570 0.9731
-5.4823 -3.6019 -1.8570 0.9731
-5.3493 -3.7965 -1.8570 0.9731
-4.7502 -4.5237 -1.8570 0.9731
-4.0531 -5.1576 -1.8570 0.9731
-3.8652 -5.2999 -1.8570 0.9731
-3.6723 -5.4353 -1.8570 0.9731
-3.4746 -5.5638 -1.8570 0.9731
-3.3048 -6.2504 -2.0016 0.9710
-2.8474 -6.4716 -2.0016 0.9710
-2.6130 -6.5698 -2.0016 0.9710
-2.1345 -6.7404 -2.0016 0.9710
-1.6449 -6.8763 -2.0016 0.9710
-1.1468 -6.9767 -2.0016 0.9710
-0.8954 -7.0134 -2.0016 0.9710
-0.6428 -7.0411 -2.0016 0.9710
-0.3894 -7.0596 -2.0016 0.9710
-0.1355 -7.0690 -2.0016 0.9710
0.3725 -7.0605 -2.0016 0.9710
0.8786 -7.0155 -2.0016 0.9710
1.1301 -6.9794 -2.0016 0.9710
1.6284 -6.8803 -2.0016 0.9710
2.8319 -6.4784 -2.0016 0.9710
2.0913 -4.3512 -1.3667 0.9801
3.9442 -5.8680 -2.0016 0.9710
4.5527 -5.4095 -2.0016 0.9710
4.9294 -5.0686 -2.0016 0.9710
5.1084 -4.8882 -2.0016 0.9710
5.4462 -4.5087 -2.0016 0.9710
5.7559 -4.1059 -2.0016 0.9710
5.8998 -3.8965 -2.0016 0.9710
6.0359 -3.6820 -2.0016 0.9710
6.1643 -3.4627 -2.0016 0.9710
6.2848 -3.2390 -2.0016 0.9710
6.3971 -3.0111 -2.0016 0.9710
6.5012 -2.7793 -2.0016 0.9710
6.6840 -2.3052 -2.0016 0.9710
6.7625 -2.0636 -2.0016 0.9710
7.0701 -0.0613 -2.0016 0.9710
7.0677 0.1928 -2.0016 0.9710
7.0562 0.4466 -2.0016 0.9710
7.0356 0.6999 -2.0016 0.9710
7.0059 0.9522 -2.0016 0.9710
6.9194 1.4529 -2.0016 0.9710
6.6399 2.4292 -2.0016 0.9710
6.0989 3.5768 -2.0016 0.9710
5.8262 4.0056 -2.0016 0.9710
5.5235 4.4136 -2.0016 0.9710
5.1923 4.7989 -2.0016 0.9710
5.0165 4.9824 -2.0016 0.9710
4.6458 5.3298 -2.0016 0.9710
4.4513 5.4933 -2.0016 0.9710
3.3978 6.2004 -2.0016 0.9710
3.1728 6.3184 -2.0016 0.9710
1.7474 6.8510 -2.0016 0.9710
1.5001 6.9094 -2.0016 0.9710
1.2509 6.9588 -2.0016 0.9710
1.0001 6.9992 -2.0016 0.9710
0.4948 7.0530 -2.0016 0.9710
0.2411 7.0662 -2.0016 0.9710
-0.0130 7.0703 -2.0016 0.9710
-0.2670 7.0653 -2.0016 0.9710
-0.5207 7.0511 -2.0016 0.9710
-1.2764 6.9542 -2.0016 0.9710
-1.7725 6.8445 -2.0016 0.9710
-2.0173 6.7764 -2.0016 0.9710
-2.4988 6.6141 -2.0016 0.9710
-2.7348 6.5200 -2.0016 0.9710
-3.1960 6.3068 -2.0016 0.9710
