ply
format ascii 1.0
element vertex 1595
property float32 x
property float32 y
property float32 z
property float32 I
end_header
6.7881 1.9778 -2.0016 0.9710
6.7128 2.2200 -2.0016 0.9710
6.6288 2.4593 -2.0016 0.9710
6.4354 2.9283 -2.0016 0.9710
6.2089 3.3821 -2.0016 0.9710
6.0836 3.6027 -2.0016 0.9710
5.8097 4.0295 -2.0016 0.9710
5.1736 4.8190 -2.0016 0.9710
4.9975 5.0015 -2.0016 0.9710
4.2308 5.6648 -2.0016 0.9710
3.5978 6.0865 -2.0016 0.9710
2.6903 6.5385 -2.0016 0.9710
2.2146 6.7146 -2.0016 0.9710
1.7275 6.8560 -2.0016 0.9710
1.4805 6.9136 -2.0016 0.9710
0.7292 7.0326 -2.0016 0.9710
0.2231 7.0668 -2.0016 0.9710
-0.0305 7.0703 -2.0016 0.9710
-0.2841 7.0646 -2.0016 0.9710
-0.5373 7.0499 -2.0016 0.9710
-0.7899 7.0261 -2.0016 0.9710
-1.2916 6.9514 -2.0016 0.9710
-2.0308 6.7724 -2.0016 0.9710
-2.7466 6.5150 -2.0016 0.9710
-3.2066 6.3014 -2.0016 0.9710
-3.4306 6.1823 -2.0016 0.9710
-3.8650 5.9204 -2.0016 0.9710
-4.0749 5.7780 -2.0016 0.9710
-4.6720 5.3068 -2.0016 0.9710
-4.8593 5.1358 -2.0016 0.9710
-5.3829 4.5840 -2.0016 0.9710
-6.2379 3.3284 -2.0016 0.9710
-6.4605 2.8726 -2.0016 0.9710
-6.5594 2.6390 -2.0016 0.9710
-6.7317 2.1620 -2.0016 0.9710
-7.0381 0.6741 -2.0016 0.9710
-7.0698 -0.0859 -2.0016 0.9710
-7.0197 -0.8448 -2.0016 0.9710
-6.9410 -1.3459 -2.0016 0.9710
-6.8883 -1.5940 -2.0016 0.9710
-6.8267 -1.8401 -2.0016 0.9710
-6.7563 -2.0838 -2.0016 0.9710
-6.4093 -2.2315 -1.9213 0.9722
-6.1135 -2.3777 -1.8570 0.9731
-6.0243 -2.5954 -1.8570 0.9731
-5.8227 -3.0207 -1.8570 0.9731
-5.7106 -3.2276 -1.8570 0.9731
-5.5912 -3.4304 -1.8570 0.9731
-5.4645 -3.6287 -1.8570 0.9731
-5.3308 -3.8224 -1.8570 0.9731
-5.1903 -4.0111 -1.8570 0.9731
-5.0431 -4.1947 -1.8570 0.9731
-4.8894 -4.3729 -1.8570 0.9731
-4.7294 -4.5455 -1.8570 0.9731
-4.5633 -4.7122 -1.8570 0.9731
-4.2137 -5.0273 -1.8570 0.9731
-3.8424 -5.3164 -1.8570 0.9731
-3.5020 -6.1421 -2.0016 0.9710
-3.2795 -6.2638 -2.0016 0.9710
-2.5876 -6.5798 -2.0016 0.9710
-2.3499 -6.6684 -2.0016 0.9710
-1.8658 -6.8197 -2.0016 0.9710
-1.6200 -6.8822 -2.0016 0.9710
-1.3721 -6.9359 -2.0016 0.9710
-1.1224 -6.9807 -2.0016 0.9710
-0.8713 -7.0164 -2.0016 0.9710
-0.6190 -7.0432 -2.0016 0.9710
-0.3660 -7.0609 -2.0016 0.9710
-0.1125 -7.0694 -2.0016 0.9710
0.1412 -7.0689 -2.0016 0.9710
0.3947 -7.0593 -2.0016 0.9710
0.8997 -7.0128 -2.0016 0.9710
1.6479 -6.8756 -2.0016 0.9710
1.8935 -6.8121 -2.0016 0.9710
2.3770 -6.6588 -2.0016 0.9710
2.6143 -6.5693 -2.0016 0.9710
2.0922 -4.3257 -1.3603 0.9802
2.1668 -4.0979 -1.3123 0.9809
2.3570 -4.0951 -1.3376 0.9805
3.7445 -5.9974 -2.0016 0.9710
3.9572 -5.8592 -2.0016 0.9710
4.1648 -5.7135 -2.0016 0.9710
4.5637 -5.4002 -2.0016 0.9710
5.2891 -4.6920 -2.0016 0.9710
5.4540 -4.4992 -2.0016 0.9710
5.6119 -4.3007 -2.0016 0.9710
5.7626 -4.0966 -2.0016 0.9710
5.9058 -3.8873 -2.0016 0.9710
6.1693 -3.4539 -2.0016 0.9710
6.2892 -3.2304 -2.0016 0.9710
6.5046 -2.7711 -2.0016 0.9710
6.6866 -2.2977 -2.0016 0.9710
6.7647 -2.0563 -2.0016 0.9710
6.9893 -1.0677 -2.0016 0.9710
7.0231 -0.8163 -2.0016 0.9710
7.0056 0.9546 -2.0016 0.9710
6.9669 1.2053 -2.0016 0.9710
6.6400 2.4290 -2.0016 0.9710
6.4488 2.8988 -2.0016 0.9710
6.3406 3.1283 -2.0016 0.9710
6.2243 3.3537 -2.0016 0.9710
5.8280 4.0029 -2.0016 0.9710
5.0203 4.9786 -2.0016 0.9710
4.2566 5.6454 -2.0016 0.9710
4.0514 5.7945 -2.0016 0.9710
3.8409 5.9360 -2.0016 0.9710
3.4055 6.1961 -2.0016 0.9710
3.1810 6.3143 -2.0016 0.9710
2.9525 6.4244 -2.0016 0.9710
2.4843 6.6195 -2.0016 0.9710
2.2453 6.7044 -2.0016 0.9710
2.0033 6.7806 -2.0016 0.9710
1.0130 6.9974 -2.0016 0.9710
0.7613 7.0292 -2.0016 0.9710
0.2554 7.0657 -2.0016 0.9710
0.0018 7.0703 -2.0016 0.9710
-0.2518 7.0658 -2.0016 0.9710
-0.7577 7.0296 -2.0016 0.9710
-1.2598 6.9572 -2.0016 0.9710
-1.5085 6.9075 -2.0016 0.9710
-1.7553 6.8490 -2.0016 0.9710
-2.7168 6.5275 -2.0016 0.9710
-2.9492 6.4259 -2.0016 0.9710
-3.8379 5.9380 -2.0016 0.9710
-4.2537 5.6476 -2.0016 0.9710
-4.6477 5.3281 -2.0016 0.9710
-4.8358 5.1579 -2.0016 0.9710
-5.1932 4.7980 -2.0016 0.9710
-5.3619 4.6086 -2.0016 0.9710
-5.6785 4.2123 -2.0016 0.9710
-6.5472 2.6690 -2.0016 0.9710
-6.6387 2.4324 -2.0016 0.9710
-6.7217 2.1927 -2.0016 0.9710
-6.7960 1.9502 -2.0016 0.9710
-6.8616 1.7052 -2.0016 0.9710
-6.9184 1.4580 -2.0016 0.9710
-6.9662 1.2088 -2.0016 0.9710
-7.0051 0.9582 -2.0016 0.9710
-7.0350 0.7063 -2.0016 0.9710
-7.0637 -0.3071 -2.0016 0.9710
-7.0481 -0.5603 -2.0016 0.9710
-6.8955 -1.5625 -2.0016 0.9710
-6.8350 -1.8089 -2.0016 0.9710
-6.7657 -2.0529 -2.0016 0.9710
-6.4930 -2.2274 -1.9433 0.9719
-5.7253 -3.2015 -1.8570 0.9731
-5.4811 -3.6037 -1.8570 0.9731
-5.3483 -3.7980 -1.8570 0.9731
-4.9093 -4.3505 -1.8570 0.9731
-4.7501 -4.5238 -1.8570 0.9731
-4.5848 -4.6913 -1.8570 0.9731
-4.4136 -4.8527 -1.8570 0.9731
-4.2366 -5.0079 -1.8570 0.9731
-4.0543 -5.1567 -1.8570 0.9731
-3.8667 -5.2988 -1.8570 0.9731
-3.6741 -5.4341 -1.8570 0.9731
-3.4769 -5.5624 -1.8570 0.9731
-3.2751 -5.6835 -1.8570 0.9731
-3.0818 -6.3633 -2.0016 0.9710
-2.6177 -6.5679 -2.0016 0.9710
-2.3804 -6.6576 -2.0016 0.9710
-1.8970 -6.8111 -2.0016 0.9710
-1.1543 -6.9755 -2.0016 0.9710
-0.9033 -7.0124 -2.0016 0.9710
0.1088 -7.0695 -2.0016 0.9710
0.3624 -7.0610 -2.0016 0.9710
0.8677 -7.0169 -2.0016 0.9710
1.3685 -6.9366 -2.0016 0.9710
1.6164 -6.8831 -2.0016 0.9710
5.5759 -3.3551 -2.0016 0.9731
5.9041 -2.7367 -2.0016 0.9731
6.2348 -1.8642 -2.0016 0.9731
6.4373 -0.9533 -2.0016 0.9731
6.4673 -0.7218 -2.0016 0.9731
6.4891 -0.4893 -2.0016 0.9731
6.5024 -0.2563 -2.0016 0.9731
6.5041 0.2106 -2.0016 0.9731
6.4923 0.4438 -2.0016 0.9731
6.4071 1.1386 -2.0016 0.9731
6.0160 2.4809 -2.0016 0.9731
5.9231 2.6952 -2.0016 0.9731
5.8226 2.9059 -2.0016 0.9731
5.4768 3.5146 -2.0016 0.9731
5.3472 3.7088 -2.0016 0.9731
5.2107 3.8982 -2.0016 0.9731
4.2578 4.9213 -2.0016 0.9731
4.0785 5.0708 -2.0016 0.9731
3.8940 5.2139 -2.0016 0.9731
3.5102 5.4796 -2.0016 0.9731
2.9012 5.8250 -2.0016 0.9731
2.4761 6.0180 -2.0016 0.9731
1.8153 6.2492 -2.0016 0.9731
0.6711 6.4728 -2.0016 0.9731
0.4385 6.4927 -2.0016 0.9731
0.2054 6.5042 -2.0016 0.9731
-0.0281 6.5074 -2.0016 0.9731
-0.4946 6.4887 -2.0016 0.9731
-0.9585 6.4365 -2.0016 0.9731
-1.4175 6.3512 -2.0016 0.9731
-1.6444 6.2963 -2.0016 0.9731
-2.0916 6.1622 -2.0016 0.9731
-2.5280 5.9964 -2.0016 0.9731
-2.9514 5.7997 -2.0016 0.9731
-3.5573 5.4491 -2.0016 0.9731
-4.4725 4.7269 -2.0016 0.9731
-4.6392 4.5635 -2.0016 0.9731
-4.7999 4.3941 -2.0016 0.9731
-4.9544 4.2191 -2.0016 0.9731
-5.6277 3.2674 -2.0016 0.9731
-5.7413 3.0634 -2.0016 0.9731
-6.1204 2.2108 -2.0016 0.9731
-6.4778 0.6205 -2.0016 0.9731
-6.4959 0.3877 -2.0016 0.9731
-6.5000 -0.3124 -2.0016 0.9731
-6.4609 -0.7776 -2.0016 0.9731
-6.4288 -1.0088 -2.0016 0.9731
-6.3885 -1.2388 -2.0016 0.9731
-6.3399 -1.4671 -2.0016 0.9731
-6.2832 -1.6936 -2.0016 0.9731
-6.2184 -1.9179 -2.0016 0.9731
-6.1456 -2.1397 -2.0016 0.9731
-5.7491 -2.2359 -1.8973 0.9745
-5.4555 -2.5862 -1.8570 0.9751
-5.2560 -2.9707 -1.8570 0.9751
-5.1461 -3.1573 -1.8570 0.9751
-4.9065 -3.5181 -1.8570 0.9751
-4.5001 -4.0248 -1.8570 0.9751
-4.3529 -4.1836 -1.8570 0.9751
-4.0417 -4.4850 -1.8570 0.9751
-3.8783 -4.6270 -1.8570 0.9751
-3.5365 -4.8932 -1.8570 0.9751
-3.3588 -5.0169 -1.8570 0.9751
-3.1766 -5.1341 -1.8570 0.9751
-2.4097 -5.5357 -1.8570 0.9751
-2.2096 -5.6186 -1.8570 0.9751
-2.1628 -6.1375 -2.0016 0.9731
-1.7173 -6.2768 -2.0016 0.9731
-1.4910 -6.3344 -2.0016 0.9731
-1.0330 -6.4250 -2.0016 0.9731
-0.8019 -6.4579 -2.0016 0.9731
-0.5697 -6.4825 -2.0016 0.9731
-0.3369 -6.4988 -2.0016 0.9731
0.1299 -6.5062 -2.0016 0.9731
1.2887 -6.3786 -2.0016 0.9731
1.9665 -6.2032 -2.0016 0.9731
2.1592 -4.0837 -1.4208 0.9809
2.3486 -4.0806 -1.4481 0.9805
3.8333 -5.2586 -2.0016 0.9731
4.0194 -5.1178 -2.0016 0.9731
4.2004 -4.9703 -2.0016 0.9731
4.5460 -4.6564 -2.0016 0.9731
5.3038 -3.7705 -2.0016 0.9731
5.4357 -3.5778 -2.0016 0.9731
5.5605 -3.3805 -2.0016 0.9731
5.8915 -2.7636 -2.0016 0.9731
5.9868 -2.5505 -2.0016 0.9731
6.0745 -2.3341 -2.0016 0.9731
6.2262 -1.8926 -2.0016 0.9731
6.2900 -1.6681 -2.0016 0.9731
6.3458 -1.4414 -2.0016 0.9731
6.3935 -1.2128 -2.0016 0.9731
6.4328 -0.9827 -2.0016 0.9731
6.4868 -0.5190 -2.0016 0.9731
6.5012 -0.2860 -2.0016 0.9731
6.5073 -0.0526 -2.0016 0.9731
6.5050 0.1808 -2.0016 0.9731
6.4943 0.4141 -2.0016 0.9731
6.4753 0.6468 -2.0016 0.9731
6.4479 0.8786 -2.0016 0.9731
6.4122 1.1093 -2.0016 0.9731
6.3683 1.3386 -2.0016 0.9731
6.2560 1.7917 -2.0016 0.9731
6.1877 2.0150 -2.0016 0.9731
6.1114 2.2357 -2.0016 0.9731
5.8359 2.8792 -2.0016 0.9731
5.3641 3.6843 -2.0016 0.9731
5.2285 3.8743 -2.0016 0.9731
4.6206 4.5823 -2.0016 0.9731
4.2802 4.9017 -2.0016 0.9731
3.9178 5.1960 -2.0016 0.9731
3.7289 5.3332 -2.0016 0.9731
3.5352 5.4635 -2.0016 0.9731
3.1344 5.7029 -2.0016 0.9731
2.5036 6.0066 -2.0016 0.9731
2.2865 6.0925 -2.0016 0.9731
1.8439 6.2408 -2.0016 0.9731
1.6188 6.3029 -2.0016 0.9731
1.3917 6.3569 -2.0016 0.9731
0.7007 6.4696 -2.0016 0.9731
0.4682 6.4906 -2.0016 0.9731
0.2351 6.5032 -2.0016 0.9731
-0.4649 6.4909 -2.0016 0.9731
-0.6974 6.4700 -2.0016 0.9731
-1.6156 6.3037 -2.0016 0.9731
-2.0634 6.1717 -2.0016 0.9731
-2.2834 6.0937 -2.0016 0.9731
-2.7144 5.9143 -2.0016 0.9731
-3.1315 5.7045 -2.0016 0.9731
-3.7261 5.3351 -2.0016 0.9731
-4.0990 5.0542 -2.0016 0.9731
-4.2777 4.9039 -2.0016 0.9731
-4.4509 4.7473 -2.0016 0.9731
-4.6183 4.5846 -2.0016 0.9731
-4.7798 4.4160 -2.0016 0.9731
-5.0841 4.0620 -2.0016 0.9731
-5.4910 3.4923 -2.0016 0.9731
-5.6127 3.2931 -2.0016 0.9731
-5.7273 3.0896 -2.0016 0.9731
-5.8344 2.8822 -2.0016 0.9731
-5.9340 2.6711 -2.0016 0.9731
-6.0260 2.4565 -2.0016 0.9731
-6.1103 2.2388 -2.0016 0.9731
-6.2550 1.7950 -2.0016 0.9731
-6.3676 1.3419 -2.0016 0.9731
-6.4749 0.6501 -2.0016 0.9731
-6.4941 0.4174 -2.0016 0.9731
-6.4333 -0.9794 -2.0016 0.9731
-6.3941 -1.2096 -2.0016 0.9731
-6.3466 -1.4381 -2.0016 0.9731
-6.2271 -1.8895 -2.0016 0.9731
-6.1554 -2.1116 -2.0016 0.9731
-5.4672 -2.5612 -1.8570 0.9751
-5.0447 -3.3168 -1.8570 0.9751
-4.9225 -3.4956 -1.8570 0.9751
-4.6592 -3.8395 -1.8570 0.9751
-4.5185 -4.0042 -1.8570 0.9751
-4.3720 -4.1637 -1.8570 0.9751
-4.2198 -4.3178 -1.8570 0.9751
-4.0622 -4.4664 -1.8570 0.9751
-3.3817 -5.0015 -1.8570 0.9751
-3.0144 -5.2311 -1.8570 0.9751
-2.4350 -5.5246 -1.8570 0.9751
-2.2352 -5.6084 -1.8570 0.9751
-1.7459 -6.2689 -2.0016 0.9731
-1.2920 -6.3779 -2.0016 0.9731
-0.8314 -6.4541 -2.0016 0.9731
-0.5994 -6.4798 -2.0016 0.9731
-0.3666 -6.4971 -2.0016 0.9731
-0.1333 -6.5061 -2.0016 0.9731
0.5664 -6.4828 -2.0016 0.9731
1.0297 -6.4255 -2.0016 0.9731
1.4878 -6.3351 -2.0016 0.9731
5.2675 -2.9174 -2.0016 0.9749
5.3687 -2.7266 -2.0016 0.9749
5.5504 -2.3347 -2.0016 0.9749
5.8272 -1.5169 -2.0016 0.9749
5.8779 -1.3069 -2.0016 0.9749
5.9843 -0.6679 -2.0016 0.9749
6.0168 -0.2371 -2.0016 0.9749
6.0214 -0.0211 -2.0016 0.9749
6.0183 0.1949 -2.0016 0.9749
6.0074 0.4106 -2.0016 0.9749
5.9888 0.6258 -2.0016 0.9749
5.7169 1.8907 -2.0016 0.9749
5.1811 3.0682 -2.0016 0.9749
4.8215 3.6070 -2.0016 0.9749
4.4061 4.1041 -2.0016 0.9749
4.1006 4.4094 -2.0016 0.9749
3.9398 4.5537 -2.0016 0.9749
3.6031 4.8244 -2.0016 0.9749
3.4278 4.9506 -2.0016 0.9749
3.0640 5.1836 -2.0016 0.9749
2.8761 5.2902 -2.0016 0.9749
2.6845 5.3899 -2.0016 0.9749
2.4894 5.4827 -2.0016 0.9749
1.6797 5.7824 -2.0016 0.9749
1.4712 5.8389 -2.0016 0.9749
1.2608 5.8880 -2.0016 0.9749
1.0488 5.9294 -2.0016 0.9749
0.1900 6.0184 -2.0016 0.9749
-0.6727 5.9837 -2.0016 0.9749
-1.7296 5.7677 -2.0016 0.9749
-2.1386 5.6289 -2.0016 0.9749
-2.3391 5.5485 -2.0016 0.9749
-2.5367 5.4610 -2.0016 0.9749
-2.7309 5.3665 -2.0016 0.9749
-3.1086 5.1569 -2.0016 0.9749
-3.4704 4.9208 -2.0016 0.9749
-3.9789 4.5195 -2.0016 0.9749
-4.2927 4.2226 -2.0016 0.9749
-4.8525 3.5653 -2.0016 0.9749
-5.3125 2.8346 -2.0016 0.9749
-5.5863 2.2475 -2.0016 0.9749
-5.6633 2.0457 -2.0016 0.9749
-5.7954 1.6344 -2.0016 0.9749
-5.8503 1.4255 -2.0016 0.9749
-5.9696 0.7888 -2.0016 0.9749
-5.9940 0.5741 -2.0016 0.9749
-6.0145 -0.2890 -2.0016 0.9749
-5.9486 -0.9335 -2.0016 0.9749
-5.9113 -1.1463 -2.0016 0.9749
-5.8139 -1.5671 -2.0016 0.9749
-5.6866 -1.9799 -2.0016 0.9749
-5.1969 -2.2390 -1.8810 0.9764
-5.0587 -2.3981 -1.8609 0.9767
-4.9589 -2.5726 -1.8570 0.9767
-4.8634 -2.7488 -1.8570 0.9767
-4.7617 -2.9215 -1.8570 0.9767
-4.6539 -3.0904 -1.8570 0.9767
-4.4203 -3.4161 -1.8570 0.9767
-4.2949 -3.5724 -1.8570 0.9767
-4.1640 -3.7242 -1.8570 0.9767
-3.7399 -4.1500 -1.8570 0.9767
-3.2724 -4.5277 -1.8570 0.9767
-3.1079 -4.6422 -1.8570 0.9767
-2.5912 -4.9492 -1.8570 0.9767
-1.8567 -5.2689 -1.8570 0.9767
-1.6666 -5.3321 -1.8570 0.9767
-1.0841 -5.4803 -1.8570 0.9767
-0.6886 -5.5458 -1.8576 0.9767
-0.2892 -5.5790 -1.8570 0.9767
-0.0889 -5.5858 -1.8570 0.9767
0.3118 -5.5778 -1.8570 0.9767
1.1063 -5.4758 -1.8570 0.9767
1.3021 -5.4326 -1.8570 0.9767
2.2505 -5.1131 -1.8570 0.9767
2.0641 -4.2676 -1.5758 0.9802
2.3402 -4.0660 -1.5594 0.9804
2.9586 -4.7387 -1.8570 0.9767
3.1267 -4.6295 -1.8570 0.9767
3.2908 -4.5144 -1.8570 0.9767
3.8867 -4.5991 -2.0016 0.9749
4.2064 -4.3086 -2.0016 0.9749
4.7794 -3.6627 -2.0016 0.9749
4.9077 -3.4889 -2.0016 0.9749
5.1452 -3.1281 -2.0016 0.9749
5.2541 -2.9415 -2.0016 0.9749
5.3562 -2.7511 -2.0016 0.9749
5.5397 -2.3600 -2.0016 0.9749
5.6208 -2.1598 -2.0016 0.9749
5.7612 -1.7513 -2.0016 0.9749
5.8203 -1.5435 -2.0016 0.9749
5.8719 -1.3337 -2.0016 0.9749
5.9159 -1.1222 -2.0016 0.9749
5.9524 -0.9093 -2.0016 0.9749
5.9812 -0.6952 -2.0016 0.9749
6.0156 -0.2646 -2.0016 0.9749
6.0092 0.3831 -2.0016 0.9749
5.8444 1.4492 -2.0016 0.9749
5.7255 1.8645 -2.0016 0.9749
5.6549 2.0687 -2.0016 0.9749
5.5771 2.2702 -2.0016 0.9749
5.4921 2.4688 -2.0016 0.9749
5.4000 2.6642 -2.0016 0.9749
5.3010 2.8562 -2.0016 0.9749
5.1951 3.0445 -2.0016 0.9749
5.0825 3.2289 -2.0016 0.9749
4.9634 3.4091 -2.0016 0.9749
4.7063 3.7562 -2.0016 0.9749
4.5685 3.9226 -2.0016 0.9749
4.4249 4.0839 -2.0016 0.9749
4.2755 4.2400 -2.0016 0.9749
4.1207 4.3906 -2.0016 0.9749
3.9605 4.5356 -2.0016 0.9749
3.7953 4.6748 -2.0016 0.9749
3.6252 4.8079 -2.0016 0.9749
3.4504 4.9348 -2.0016 0.9749
3.0877 5.1695 -2.0016 0.9749
2.9003 5.2769 -2.0016 0.9749
2.5145 5.4713 -2.0016 0.9749
2.3166 5.5580 -2.0016 0.9749
2.1158 5.6375 -2.0016 0.9749
0.6484 5.9864 -2.0016 0.9749
0.4332 6.0058 -2.0016 0.9749
0.2175 6.0175 -2.0016 0.9749
-0.2144 6.0176 -2.0016 0.9749
-0.4302 6.0061 -2.0016 0.9749
-1.0729 5.9251 -2.0016 0.9749
-1.2847 5.8828 -2.0016 0.9749
-1.4949 5.8329 -2.0016 0.9749
-1.7032 5.7755 -2.0016 0.9749
-1.9092 5.7107 -2.0016 0.9749
-2.3138 5.5592 -2.0016 0.9749
-2.7064 5.3790 -2.0016 0.9749
-2.8976 5.2784 -2.0016 0.9749
-3.0850 5.1711 -2.0016 0.9749
-3.7929 4.6767 -2.0016 0.9749
-4.1184 4.3928 -2.0016 0.9749
-4.2733 4.2422 -2.0016 0.9749
-4.4228 4.0862 -2.0016 0.9749
-4.5665 3.9249 -2.0016 0.9749
-4.7043 3.7586 -2.0016 0.9749
-4.8361 3.5874 -2.0016 0.9749
-4.9617 3.4116 -2.0016 0.9749
-5.0809 3.2315 -2.0016 0.9749
-5.1935 3.0471 -2.0016 0.9749
-5.2995 2.8589 -2.0016 0.9749
-5.3986 2.6670 -2.0016 0.9749
-5.7245 1.8674 -2.0016 0.9749
-5.7878 1.6609 -2.0016 0.9749
-5.8437 1.4522 -2.0016 0.9749
-5.8920 1.2417 -2.0016 0.9749
-6.0213 -0.0456 -2.0016 0.9749
-5.9815 -0.6922 -2.0016 0.9749
-5.9529 -0.9063 -2.0016 0.9749
-5.9165 -1.1192 -2.0016 0.9749
-5.7620 -1.7483 -2.0016 0.9749
-5.6219 -2.1569 -2.0016 0.9749
-5.0589 -2.3699 -1.8570 0.9767
-4.8760 -2.7265 -1.8570 0.9767
-4.5548 -3.2345 -1.8570 0.9767
-3.7588 -4.1328 -1.8570 0.9767
-3.2931 -4.5127 -1.8570 0.9767
-3.1291 -4.6279 -1.8570 0.9767
-2.9611 -4.7372 -1.8570 0.9767
-2.4350 -5.0279 -1.8570 0.9767
-2.2531 -5.1120 -1.8570 0.9767
-1.3048 -5.4320 -1.8570 0.9767
-1.1092 -5.4753 -1.8570 0.9767
-0.1144 -5.5853 -1.8570 0.9767
0.2863 -5.5791 -1.8570 0.9767
0.4863 -5.5653 -1.8570 0.9767
0.6858 -5.5459 -1.8575 0.9767
1.2772 -5.4385 -1.8570 0.9767
4.8963 -2.7118 -2.0016 0.9765
4.9904 -2.5345 -2.0016 0.9765
5.1592 -2.1702 -2.0016 0.9765
5.3625 -1.6034 -2.0016 0.9765
5.4166 -1.4100 -2.0016 0.9765
5.5037 -1.0180 -2.0016 0.9765
5.5367 -0.8199 -2.0016 0.9765
5.5942 0.1811 -2.0016 0.9765
5.5841 0.3817 -2.0016 0.9765
5.5423 0.7810 -2.0016 0.9765
5.4263 1.3719 -2.0016 0.9765
5.3140 1.7574 -2.0016 0.9765
5.1744 2.1339 -2.0016 0.9765
5.0945 2.3181 -2.0016 0.9765
4.7106 3.0229 -2.0016 0.9765
4.4817 3.3528 -2.0016 0.9765
4.3586 3.5114 -2.0016 0.9765
4.0956 3.8149 -2.0016 0.9765
3.8116 4.0987 -2.0016 0.9765
3.6621 4.2328 -2.0016 0.9765
3.5079 4.3614 -2.0016 0.9765
3.3492 4.4844 -2.0016 0.9765
2.6734 4.9173 -2.0016 0.9765
2.4953 5.0101 -2.0016 0.9765
1.5613 5.3749 -2.0016 0.9765
1.3675 5.4275 -2.0016 0.9765
0.7766 5.5430 -2.0016 0.9765
0.5773 5.5672 -2.0016 0.9765
0.1766 5.5943 -2.0016 0.9765
-0.0242 5.5970 -2.0016 0.9765
-0.6253 5.5621 -2.0016 0.9765
-0.8244 5.5360 -2.0016 0.9765
-1.4143 5.4155 -2.0016 0.9765
-1.9879 5.2322 -2.0016 0.9765
-2.3579 5.0762 -2.0016 0.9765
-2.5385 4.9883 -2.0016 0.9765
-2.8896 4.7935 -2.0016 0.9765
-3.2258 4.5740 -2.0016 0.9765
-3.3878 4.4554 -2.0016 0.9765
-3.6985 4.2010 -2.0016 0.9765
-3.9902 3.9250 -2.0016 0.9765
-4.3887 3.4737 -2.0016 0.9765
-4.5105 3.3140 -2.0016 0.9765
-4.8404 2.8103 -2.0016 0.9765
-5.0294 2.4560 -2.0016 0.9765
-5.1143 2.2740 -2.0016 0.9765
-5.1926 2.0891 -2.0016 0.9765
-5.2642 1.9015 -2.0016 0.9765
-5.3870 1.5192 -2.0016 0.9765
-5.4820 1.1291 -2.0016 0.9765
-5.5716 0.5337 -2.0016 0.9765
-5.5871 0.3335 -2.0016 0.9765
-5.5955 0.1328 -2.0016 0.9765
-5.5967 -0.0680 -2.0016 0.9765
-5.5906 -0.2687 -2.0016 0.9765
-5.4530 -1.2619 -2.0016 0.9765
-5.3485 -1.6496 -2.0016 0.9765
-5.2859 -1.8404 -2.0016 0.9765
-5.2165 -2.0288 -2.0016 0.9765
-5.1403 -2.2146 -2.0016 0.9765
-4.7270 -2.2409 -1.8707 0.9780
-4.2201 -3.0259 -1.8570 0.9782
-4.1088 -3.1753 -1.8570 0.9782
-3.9923 -3.3207 -1.8570 0.9782
-3.6124 -3.7303 -1.8570 0.9782
-3.4763 -3.8575 -1.8570 0.9782
-3.1908 -4.0968 -1.8570 0.9782
-2.8889 -4.3150 -1.8570 0.9782
-2.7322 -4.4159 -1.8570 0.9782
-2.2420 -4.6838 -1.8570 0.9782
-2.0726 -4.7613 -1.8570 0.9782
-1.5491 -4.9563 -1.8570 0.9782
-0.8243 -5.1269 -1.8570 0.9782
-0.6399 -5.1532 -1.8570 0.9782
-0.4546 -5.1729 -1.8570 0.9782
-0.2688 -5.1858 -1.8570 0.9782
-0.0826 -5.1921 -1.8570 0.9782
0.2898 -5.1847 -1.8570 0.9782
0.6608 -5.1506 -1.8570 0.9782
0.8451 -5.1236 -1.8570 0.9782
1.0284 -5.0899 -1.8570 0.9782
1.2103 -5.0498 -1.8570 0.9782
1.7458 -4.8905 -1.8570 0.9782
1.9201 -4.8248 -1.8570 0.9782
2.0919 -4.7528 -1.8570 0.9782
2.0464 -4.2309 -1.6807 0.9802
2.1440 -4.0548 -1.6402 0.9807
2.3287 -4.0459 -1.6694 0.9804
3.0588 -4.1962 -1.8570 0.9782
3.2074 -4.0838 -1.8570 0.9782
3.4919 -3.8434 -1.8570 0.9782
3.9100 -4.0049 -2.0016 0.9765
4.0511 -3.8621 -2.0016 0.9765
4.3176 -3.5617 -2.0016 0.9765
4.7826 -2.9076 -2.0016 0.9765
4.8838 -2.7342 -2.0016 0.9765
4.9787 -2.5572 -2.0016 0.9765
5.3551 -1.6279 -2.0016 0.9765
5.4101 -1.4347 -2.0016 0.9765
5.4581 -1.2397 -2.0016 0.9765
5.4990 -1.0432 -2.0016 0.9765
5.5329 -0.8452 -2.0016 0.9765
5.5597 -0.6462 -2.0016 0.9765
5.5793 -0.4464 -2.0016 0.9765
5.5917 -0.2460 -2.0016 0.9765
5.5949 0.1555 -2.0016 0.9765
5.5858 0.3561 -2.0016 0.9765
5.5694 0.5563 -2.0016 0.9765
5.5458 0.7557 -2.0016 0.9765
5.5152 0.9541 -2.0016 0.9765
5.3808 1.5411 -2.0016 0.9765
5.2564 1.9229 -2.0016 0.9765
5.0194 2.4764 -2.0016 0.9765
4.8290 2.8299 -2.0016 0.9765
4.7244 3.0013 -2.0016 0.9765
4.6137 3.1689 -2.0016 0.9765
4.4970 3.3323 -2.0016 0.9765
4.1130 3.7961 -2.0016 0.9765
3.8303 4.0812 -2.0016 0.9765
3.6814 4.2160 -2.0016 0.9765
3.5278 4.3453 -2.0016 0.9765
3.3697 4.4691 -2.0016 0.9765
3.2072 4.5871 -2.0016 0.9765
2.8701 4.8052 -2.0016 0.9765
2.5182 4.9986 -2.0016 0.9765
2.3373 5.0857 -2.0016 0.9765
2.1533 5.1663 -2.0016 0.9765
1.9667 5.2402 -2.0016 0.9765
1.7774 5.3074 -2.0016 0.9765
1.5859 5.3677 -2.0016 0.9765
1.3923 5.4211 -2.0016 0.9765
1.1970 5.4676 -2.0016 0.9765
0.4027 5.5826 -2.0016 0.9765
-0.3998 5.5828 -2.0016 0.9765
-0.5998 5.5649 -2.0016 0.9765
-0.9973 5.5075 -2.0016 0.9765
-1.5831 5.3685 -2.0016 0.9765
-1.7747 5.3083 -2.0016 0.9765
-2.1507 5.1674 -2.0016 0.9765
-2.5156 4.9999 -2.0016 0.9765
-2.6934 4.9064 -2.0016 0.9765
-3.0382 4.7007 -2.0016 0.9765
-3.3674 4.4708 -2.0016 0.9765
-3.5256 4.3471 -2.0016 0.9765
-3.8282 4.0832 -2.0016 0.9765
-3.9722 3.9432 -2.0016 0.9765
-4.1111 3.7982 -2.0016 0.9765
-4.4953 3.3346 -2.0016 0.9765
-4.8275 2.8324 -2.0016 0.9765
-4.9260 2.6574 -2.0016 0.9765
-5.0182 2.4790 -2.0016 0.9765
-5.1039 2.2974 -2.0016 0.9765
-5.2554 1.9256 -2.0016 0.9765
-5.3211 1.7358 -2.0016 0.9765
-5.3800 1.5438 -2.0016 0.9765
-5.5691 0.5591 -2.0016 0.9765
-5.5856 0.3590 -2.0016 0.9765
-5.5948 0.1584 -2.0016 0.9765
-5.5918 -0.2431 -2.0016 0.9765
-5.5795 -0.4435 -2.0016 0.9765
-5.5600 -0.6434 -2.0016 0.9765
-5.5333 -0.8424 -2.0016 0.9765
-5.4996 -1.0403 -2.0016 0.9765
-5.4108 -1.4319 -2.0016 0.9765
-5.3560 -1.6251 -2.0016 0.9765
-5.2257 -2.0049 -2.0016 0.9765
-4.7772 -2.2379 -1.8865 0.9778
-4.0074 -3.3024 -1.8570 0.9782
-3.8864 -3.4440 -1.8570 0.9782
-3.2095 -4.0822 -1.8570 0.9782
-3.0610 -4.1947 -1.8570 0.9782
-2.9086 -4.3018 -1.8570 0.9782
-2.7524 -4.4033 -1.8570 0.9782
-2.5927 -4.4992 -1.8570 0.9782
-2.2634 -4.6735 -1.8570 0.9782
-0.6635 -5.1502 -1.8570 0.9782
-0.4783 -5.1707 -1.8570 0.9782
-0.2925 -5.1845 -1.8570 0.9782
0.0799 -5.1922 -1.8570 0.9782
0.2661 -5.1860 -1.8570 0.9782
0.6373 -5.1535 -1.8570 0.9782
1.0051 -5.0946 -1.8570 0.9782
1.1872 -5.0553 -1.8570 0.9782
4.6569 -2.3651 -2.0016 0.9779
4.8144 -2.0251 -2.0016 0.9779
4.9473 -1.6747 -2.0016 0.9779
5.0041 -1.4962 -2.0016 0.9779
5.0546 -1.3157 -2.0016 0.9779
5.1359 -0.9500 -2.0016 0.9779
5.1908 -0.5793 -2.0016 0.9779
5.2230 -0.0183 -2.0016 0.9779
5.2203 0.1690 -2.0016 0.9779
5.2109 0.3562 -2.0016 0.9779
5.0145 1.4610 -2.0016 0.9779
4.9589 1.6400 -2.0016 0.9779
4.8969 1.8168 -2.0016 0.9779
4.5867 2.4985 -2.0016 0.9779
4.3958 2.8209 -2.0016 0.9779
4.2918 2.9767 -2.0016 0.9779
4.0673 3.2768 -2.0016 0.9779
3.9472 3.4205 -2.0016 0.9779
3.6917 3.6947 -2.0016 0.9779
3.5568 3.8248 -2.0016 0.9779
2.9733 4.2942 -2.0016 0.9779
2.8173 4.3980 -2.0016 0.9779
2.6578 4.4963 -2.0016 0.9779
2.3286 4.6752 -2.0016 0.9779
2.1594 4.7558 -2.0016 0.9779
1.9874 4.8302 -2.0016 0.9779
1.8128 4.8983 -2.0016 0.9779
1.2762 5.0647 -2.0016 0.9779
1.0937 5.1072 -2.0016 0.9779
0.9097 5.1432 -2.0016 0.9779
0.7247 5.1725 -2.0016 0.9779
0.3520 5.2112 -2.0016 0.9779
0.1648 5.2204 -2.0016 0.9779
-0.0225 5.2230 -2.0016 0.9779
-0.2099 5.2188 -2.0016 0.9779
-0.7693 5.1661 -2.0016 0.9779
-1.1377 5.0976 -2.0016 0.9779
-1.5002 5.0029 -2.0016 0.9779
-1.6787 4.9459 -2.0016 0.9779
-1.8550 4.8825 -2.0016 0.9779
-2.0290 4.8128 -2.0016 0.9779
-2.2003 4.7369 -2.0016 0.9779
-2.3688 4.6550 -2.0016 0.9779
-2.5343 4.5670 -2.0016 0.9779
-2.6965 4.4732 -2.0016 0.9779
-3.4513 3.9203 -2.0016 0.9779
-3.5897 3.7939 -2.0016 0.9779
-3.8525 3.5268 -2.0016 0.9779
-4.5169 2.6225 -2.0016 0.9779
-4.6081 2.4588 -2.0016 0.9779
-4.7725 2.1221 -2.0016 0.9779
-4.9124 1.7745 -2.0016 0.9779
-4.9729 1.5971 -2.0016 0.9779
-5.0270 1.4177 -2.0016 0.9779
-5.0746 1.2365 -2.0016 0.9779
-5.1156 1.0537 -2.0016 0.9779
-5.1780 0.6842 -2.0016 0.9779
-5.2226 -0.0634 -2.0016 0.9779
-5.2170 -0.2507 -2.0016 0.9779
-5.1856 -0.6241 -2.0016 0.9779
-5.1599 -0.8097 -2.0016 0.9779
-5.1275 -0.9943 -2.0016 0.9779
-5.0886 -1.1776 -2.0016 0.9779
-4.9910 -1.5393 -2.0016 0.9779
-4.9326 -1.7174 -2.0016 0.9779
-4.8678 -1.8932 -2.0016 0.9779
-4.7968 -2.0666 -2.0016 0.9779
-4.2186 -2.3843 -1.8570 0.9795
-4.1303 -2.5341 -1.8570 0.9795
-3.8342 -2.9631 -1.8570 0.9795
-3.7255 -3.0988 -1.8570 0.9795
-3.4937 -3.3579 -1.8570 0.9795
-3.3710 -3.4810 -1.8570 0.9795
-3.2440 -3.5997 -1.8570 0.9795
-3.1128 -3.7138 -1.8570 0.9795
-2.8385 -3.9274 -1.8570 0.9795
-2.6958 -4.0267 -1.8570 0.9795
-2.2476 -4.2930 -1.8570 0.9795
-2.0922 -4.3708 -1.8570 0.9795
-1.9341 -4.4431 -1.8570 0.9795
-1.7735 -4.5096 -1.8570 0.9795
-1.4456 -4.6251 -1.8570 0.9795
-1.2788 -4.6740 -1.8570 0.9795
-1.1103 -4.7168 -1.8570 0.9795
-0.7692 -4.7843 -1.8570 0.9795
-0.4243 -4.8271 -1.8570 0.9795
-0.2508 -4.8393 -1.8570 0.9795
0.7887 -4.7811 -1.8570 0.9795
1.2977 -4.6688 -1.8570 0.9795
1.6291 -4.5637 -1.8570 0.9795
1.7917 -4.5023 -1.8570 0.9795
2.0013 -4.1377 -1.7614 0.9805
2.3025 -4.0005 -1.7689 0.9804
2.9931 -3.8109 -1.8570 0.9795
3.2586 -3.5865 -1.8570 0.9795
3.3851 -3.4673 -1.8570 0.9795
3.7804 -3.6040 -2.0016 0.9779
3.9072 -3.4661 -2.0016 0.9779
4.2570 -3.0263 -2.0016 0.9779
4.4630 -2.7133 -2.0016 0.9779
4.5574 -2.5515 -2.0016 0.9779
4.8755 -1.8734 -2.0016 0.9779
4.9395 -1.6973 -2.0016 0.9779
5.0485 -1.3388 -2.0016 0.9779
5.0933 -1.1569 -2.0016 0.9779
5.1631 -0.7887 -2.0016 0.9779
5.1881 -0.6030 -2.0016 0.9779
5.2210 0.1452 -2.0016 0.9779
5.2125 0.3323 -2.0016 0.9779
5.0695 1.2571 -2.0016 0.9779
5.0212 1.4381 -2.0016 0.9779
4.9663 1.6173 -2.0016 0.9779
4.9051 1.7944 -2.0016 0.9779
4.8376 1.9692 -2.0016 0.9779
4.6840 2.3109 -2.0016 0.9779
4.5981 2.4775 -2.0016 0.9779
4.5062 2.6408 -2.0016 0.9779
4.4086 2.8007 -2.0016 0.9779
4.1965 3.1096 -2.0016 0.9779
4.0822 3.2581 -2.0016 0.9779
3.9627 3.4025 -2.0016 0.9779
3.8381 3.5424 -2.0016 0.9779
3.5743 3.8085 -2.0016 0.9779
3.4354 3.9342 -2.0016 0.9779
3.2921 4.0549 -2.0016 0.9779
3.1445 4.1704 -2.0016 0.9779
2.8374 4.3851 -2.0016 0.9779
2.6783 4.4841 -2.0016 0.9779
2.3499 4.6646 -2.0016 0.9779
2.0094 4.8210 -2.0016 0.9779
1.8352 4.8900 -2.0016 0.9779
1.6586 4.9527 -2.0016 0.9779
1.4799 5.0090 -2.0016 0.9779
1.2993 5.0588 -2.0016 0.9779
0.9333 5.1390 -2.0016 0.9779
0.5624 5.1927 -2.0016 0.9779
0.3758 5.2095 -2.0016 0.9779
-0.9306 5.1395 -2.0016 0.9779
-1.8327 4.8909 -2.0016 0.9779
-2.0070 4.8221 -2.0016 0.9779
-2.1786 4.7470 -2.0016 0.9779
-2.3475 4.6657 -2.0016 0.9779
-2.9907 4.2820 -2.0016 0.9779
-3.1423 4.1720 -2.0016 0.9779
-3.2900 4.0566 -2.0016 0.9779
-3.7067 3.6797 -2.0016 0.9779
-3.9610 3.4045 -2.0016 0.9779
-4.1949 3.1117 -2.0016 0.9779
-4.4072 2.8030 -2.0016 0.9779
-4.5049 2.6431 -2.0016 0.9779
-4.6828 2.3133 -2.0016 0.9779
-4.8366 1.9716 -2.0016 0.9779
-4.9042 1.7969 -2.0016 0.9779
-4.9655 1.6198 -2.0016 0.9779
-5.0689 1.2597 -2.0016 0.9779
-5.1108 1.0770 -2.0016 0.9779
-5.1461 0.8930 -2.0016 0.9779
-5.1969 0.5218 -2.0016 0.9779
-5.2123 0.3350 -2.0016 0.9779
-5.2209 0.1478 -2.0016 0.9779
-5.2181 -0.2269 -2.0016 0.9779
-5.1884 -0.6004 -2.0016 0.9779
-5.1320 -0.9708 -2.0016 0.9779
-5.0492 -1.3363 -2.0016 0.9779
-4.9404 -1.6948 -2.0016 0.9779
-4.2294 -2.3650 -1.8570 0.9795
-4.1419 -2.5152 -1.8570 0.9795
-3.8477 -2.9456 -1.8570 0.9795
-3.7396 -3.0817 -1.8570 0.9795
-3.5090 -3.3419 -1.8570 0.9795
-2.9950 -3.8094 -1.8570 0.9795
-2.8564 -3.9143 -1.8570 0.9795
-2.7142 -4.0143 -1.8570 0.9795
-2.5684 -4.1091 -1.8570 0.9795
-2.2672 -4.2826 -1.8570 0.9795
-2.1122 -4.3612 -1.8570 0.9795
-1.9544 -4.4342 -1.8570 0.9795
-1.6314 -4.5629 -1.8570 0.9795
-1.4667 -4.6184 -1.8570 0.9795
-1.3001 -4.6681 -1.8570 0.9795
-0.9621 -4.7493 -1.8570 0.9795
-0.4463 -4.8252 -1.8570 0.9795
-0.0992 -4.8447 -1.8570 0.9795
0.2484 -4.8394 -1.8570 0.9795
0.5947 -4.8091 -1.8570 0.9795
1.1078 -4.7174 -1.8570 0.9795
4.2781 -2.3695 -2.0016 0.9791
4.3604 -2.2145 -2.0016 0.9791
4.4370 -2.0567 -2.0016 0.9791
4.5079 -1.8962 -2.0016 0.9791
4.5731 -1.7333 -2.0016 0.9791
4.6323 -1.5681 -2.0016 0.9791
4.7739 -1.0614 -2.0016 0.9791
4.8089 -0.8895 -2.0016 0.9791
4.8377 -0.7164 -2.0016 0.9791
4.8603 -0.5424 -2.0016 0.9791
4.8767 -0.3677 -2.0016 0.9791
4.8905 -0.0172 -2.0016 0.9791
4.8791 0.3335 -2.0016 0.9791
4.8640 0.5083 -2.0016 0.9791
4.8151 0.8557 -2.0016 0.9791
4.6953 1.3680 -2.0016 0.9791
4.6432 1.5356 -2.0016 0.9791
4.2947 2.3394 -2.0016 0.9791
4.2080 2.4919 -2.0016 0.9791
4.1159 2.6413 -2.0016 0.9791
3.8083 3.0681 -2.0016 0.9791
3.6958 3.2028 -2.0016 0.9791
3.5786 3.3333 -2.0016 0.9791
3.4567 3.4595 -2.0016 0.9791
3.3304 3.5813 -2.0016 0.9791
3.1998 3.6984 -2.0016 0.9791
3.0651 3.8108 -2.0016 0.9791
2.9264 3.9183 -2.0016 0.9791
2.7840 4.0208 -2.0016 0.9791
2.6380 4.1180 -2.0016 0.9791
2.4885 4.2100 -2.0016 0.9791
2.1803 4.3776 -2.0016 0.9791
2.0219 4.4530 -2.0016 0.9791
1.6974 4.5865 -2.0016 0.9791
1.5318 4.6444 -2.0016 0.9791
1.3642 4.6964 -2.0016 0.9791
1.1949 4.7423 -2.0016 0.9791
1.0240 4.7821 -2.0016 0.9791
0.6785 4.8432 -2.0016 0.9791
0.5044 4.8644 -2.0016 0.9791
0.1543 4.8881 -2.0016 0.9791
-0.0211 4.8905 -2.0016 0.9791
-0.1965 4.8866 -2.0016 0.9791
-0.5463 4.8599 -2.0016 0.9791
-0.7203 4.8372 -2.0016 0.9791
-0.8934 4.8082 -2.0016 0.9791
-1.2358 4.7318 -2.0016 0.9791
-1.5718 4.6310 -2.0016 0.9791
-2.0602 4.4354 -2.0016 0.9791
-2.2180 4.3586 -2.0016 0.9791
-2.3729 4.2762 -2.0016 0.9791
-2.8186 3.9966 -2.0016 0.9791
-2.9601 3.8929 -2.0016 0.9791
-3.0978 3.7842 -2.0016 0.9791
-3.3612 3.5524 -2.0016 0.9791
-3.6072 3.3023 -2.0016 0.9791
-3.8347 3.0352 -2.0016 0.9791
-4.2294 2.4555 -2.0016 0.9791
-4.3147 2.3022 -2.0016 0.9791
-4.3945 2.1460 -2.0016 0.9791
-4.7069 1.3274 -2.0016 0.9791
-4.7515 1.1577 -2.0016 0.9791
-1.9579 0.1875 -0.8050 0.9915
-1.9466 0.1162 -0.7981 0.9916
-1.9210 0.0456 -0.7864 0.9917
-1.9571 -0.1646 -0.8038 0.9915
-1.9542 -0.2352 -0.8056 0.9915
-2.0128 -0.3159 -0.8339 0.9912
-4.8011 -0.9310 -2.0016 0.9791
-4.7646 -1.1026 -2.0016 0.9791
-4.6186 -1.6080 -2.0016 0.9791
-4.4914 -1.9350 -2.0016 0.9791
-4.4191 -2.0949 -2.0016 0.9791
-3.9667 -2.2420 -1.8648 0.9805
-3.8674 -2.3728 -1.8570 0.9806
-3.5901 -2.7745 -1.8570 0.9806
-3.4883 -2.9015 -1.8570 0.9806
-3.1564 -3.2594 -1.8570 0.9806
-2.7880 -3.5796 -1.8570 0.9806
-2.6578 -3.6773 -1.8570 0.9806
-2.5242 -3.7703 -1.8570 0.9806
-2.3873 -3.8584 -1.8570 0.9806
-1.9590 -4.0925 -1.8570 0.9806
-1.3535 -4.3306 -1.8570 0.9806
-1.1973 -4.3764 -1.8570 0.9806
-1.0396 -4.4165 -1.8570 0.9806
-0.2349 -4.5312 -1.8570 0.9806
0.0906 -4.5363 -1.8570 0.9806
0.2533 -4.5302 -1.8570 0.9806
1.0575 -4.4123 -1.8570 0.9806
1.3711 -4.3251 -1.8570 0.9806
1.5254 -4.2732 -1.8570 0.9806
1.6777 -4.2157 -1.8570 0.9806
1.8278 -4.1528 -1.8570 0.9806
1.9756 -4.0846 -1.8570 0.9806
2.2633 -3.9324 -1.8570 0.9806
3.0511 -3.3582 -1.8570 0.9806
3.2840 -3.1308 -1.8570 0.9806
3.7725 -3.1121 -2.0016 0.9791
3.9859 -2.8336 -2.0016 0.9791
4.1788 -2.5406 -2.0016 0.9791
4.2673 -2.3890 -2.0016 0.9791
4.3502 -2.2344 -2.0016 0.9791
4.4276 -2.0769 -2.0016 0.9791
4.7271 -1.2536 -2.0016 0.9791
4.7690 -1.0832 -2.0016 0.9791
4.8048 -0.9115 -2.0016 0.9791
4.8344 -0.7385 -2.0016 0.9791
4.8578 -0.5646 -2.0016 0.9791
4.8749 -0.3900 -2.0016 0.9791
4.8858 -0.2149 -2.0016 0.9791
4.8903 -0.0395 -2.0016 0.9791
4.8886 0.1359 -2.0016 0.9791
4.8663 0.4861 -2.0016 0.9791
4.7859 1.0060 -2.0016 0.9791
4.7467 1.1770 -2.0016 0.9791
4.6501 1.5143 -2.0016 0.9791
4.2194 2.4727 -2.0016 0.9791
4.1279 2.6224 -2.0016 0.9791
3.8223 3.0507 -2.0016 0.9791
3.4725 3.4437 -2.0016 0.9791
3.2167 3.6838 -2.0016 0.9791
2.6568 4.1059 -2.0016 0.9791
2.5078 4.1986 -2.0016 0.9791
2.2003 4.3676 -2.0016 0.9791
1.8815 4.5141 -2.0016 0.9791
0.3519 4.8778 -2.0016 0.9791
-0.1742 4.8874 -2.0016 0.9791
-0.3494 4.8780 -2.0016 0.9791
-1.0434 4.7779 -2.0016 0.9791
-1.3833 4.6908 -2.0016 0.9791
-1.7160 4.5796 -2.0016 0.9791
-2.3533 4.2870 -2.0016 0.9791
-2.5056 4.1999 -2.0016 0.9791
-2.8003 4.0094 -2.0016 0.9791
-2.9423 3.9064 -2.0016 0.9791
-3.2148 3.6854 -2.0016 0.9791
-3.3449 3.5677 -2.0016 0.9791
-3.4707 3.4454 -2.0016 0.9791
-3.7088 3.1877 -2.0016 0.9791
-4.1266 2.6245 -2.0016 0.9791
-4.3847 2.1660 -2.0016 0.9791
-4.4595 2.0074 -2.0016 0.9791
-4.7008 1.3489 -2.0016 0.9791
-2.1427 0.3718 -0.8901 0.9906
-1.9483 0.2665 -0.8048 0.9915
-1.9556 -0.1555 -0.8029 0.9916
-1.9554 -0.2263 -0.8056 0.9915
-2.2057 -0.4172 -0.9187 0.9903
-4.7696 -1.0808 -2.0016 0.9791
-4.7277 -1.2512 -2.0016 0.9791
-4.6259 -1.5869 -2.0016 0.9791
-4.5660 -1.7518 -2.0016 0.9791
-4.4286 -2.0747 -2.0016 0.9791
-4.3254 -2.2189 -1.9896 0.9792
-3.7912 -2.4926 -1.8570 0.9806
-3.6994 -2.6270 -1.8570 0.9806
-3.6028 -2.7580 -1.8570 0.9806
-3.5015 -2.8855 -1.8570 0.9806
-3.3957 -3.0092 -1.8570 0.9806
-3.1713 -3.2449 -1.8570 0.9806
-3.0528 -3.3566 -1.8570 0.9806
-2.9305 -3.4640 -1.8570 0.9806
-2.8043 -3.5668 -1.8570 0.9806
-2.6746 -3.6651 -1.8570 0.9806
-2.4049 -3.8475 -1.8570 0.9806
-2.2654 -3.9312 -1.8570 0.9806
-1.9777 -4.0835 -1.8570 0.9806
-1.5276 -4.2724 -1.8570 0.9806
-1.3733 -4.3244 -1.8570 0.9806
-1.2173 -4.3709 -1.8570 0.9806
-0.4179 -4.5180 -1.8570 0.9806
-0.2556 -4.5300 -1.8570 0.9806
0.0699 -4.5367 -1.8570 0.9806
0.2325 -4.5313 -1.8570 0.9806
0.3949 -4.5200 -1.8570 0.9806
0.5568 -4.5029 -1.8570 0.9806
0.8782 -4.4514 -1.8570 0.9806
4.0176 -2.2252 -2.0016 0.9802
4.0948 -2.0796 -2.0016 0.9802
4.2946 -1.6277 -2.0016 0.9802
4.4002 -1.3156 -2.0016 0.9802
4.4832 -0.9968 -2.0016 0.9802
4.5161 -0.8353 -2.0016 0.9802
4.5431 -0.6728 -2.0016 0.9802
4.5643 -0.5094 -2.0016 0.9802
4.5891 -0.1808 -2.0016 0.9802
4.5903 0.1486 -2.0016 0.9802
4.5820 0.3132 -2.0016 0.9802
4.5218 0.8036 -2.0016 0.9802
4.4526 1.1257 -2.0016 0.9802
4.4093 1.2847 -2.0016 0.9802
4.3059 1.5975 -2.0016 0.9802
4.2458 1.7509 -2.0016 0.9802
4.0331 2.1969 -2.0016 0.9802
3.8652 2.4804 -2.0016 0.9802
3.5764 2.8813 -2.0016 0.9802
3.1276 3.3632 -2.0016 0.9802
2.1937 4.0349 -2.0016 0.9802
2.0475 4.1110 -2.0016 0.9802
1.8987 4.1818 -2.0016 0.9802
1.5940 4.3072 -2.0016 0.9802
1.4385 4.3616 -2.0016 0.9802
0.9617 4.4909 -2.0016 0.9802
0.4737 4.5682 -2.0016 0.9802
0.1449 4.5904 -2.0016 0.9802
-0.0198 4.5926 -2.0016 0.9802
-0.1846 4.5890 -2.0016 0.9802
-0.3490 4.5794 -2.0016 0.9802
-0.5131 4.5639 -2.0016 0.9802
-0.6764 4.5426 -2.0016 0.9802
-0.8390 4.5154 -2.0016 0.9802
-1.0004 4.4824 -2.0016 0.9802
-1.3192 4.3991 -2.0016 0.9802
-1.4761 4.3490 -2.0016 0.9802
-1.9348 4.1652 -2.0016 0.9802
-2.3710 3.9333 -2.0016 0.9802
-2.6469 3.7532 -2.0016 0.9802
-2.7798 3.6558 -2.0016 0.9802
-2.9092 3.5538 -2.0016 0.9802
-3.0348 3.4471 -2.0016 0.9802
-3.3875 3.1012 -2.0016 0.9802
-3.4966 2.9777 -2.0016 0.9802
-3.6012 2.8503 -2.0016 0.9802
-3.7011 2.7193 -2.0016 0.9802
-3.7962 2.5848 -2.0016 0.9802
-4.1269 2.0153 -2.0016 0.9802
-4.1965 1.8660 -2.0016 0.9802
-4.2608 1.7142 -2.0016 0.9802
-1.5959 0.5765 -0.7395 0.9926
-1.5645 0.4412 -0.7084 0.9929
-1.5120 0.3114 -0.6728 0.9933
-1.5054 0.2542 -0.6654 0.9934
-1.5269 0.1463 -0.6685 0.9933
-1.5296 0.0913 -0.6678 0.9933
-1.5269 0.0362 -0.6656 0.9934
-1.5249 -0.0185 -0.6646 0.9934
-1.5293 -0.0735 -0.6673 0.9933
-1.5103 -0.2370 -0.6663 0.9934
-1.5018 -0.2912 -0.6667 0.9933
-1.5573 -0.4198 -0.7029 0.9930
-1.5777 -0.4866 -0.7196 0.9928
-1.5924 -0.5544 -0.7349 0.9927
-4.0767 -2.1149 -2.0016 0.9802
-3.9327 -2.2227 -1.9687 0.9805
-3.6533 -2.2414 -1.8679 0.9815
-3.2758 -2.7248 -1.8570 0.9816
-3.1760 -2.8405 -1.8570 0.9816
-2.7371 -3.2655 -1.8570 0.9816
-2.6182 -3.3616 -1.8570 0.9816
-2.3704 -3.5407 -1.8570 0.9816
-2.2419 -3.6234 -1.8570 0.9816
-2.1105 -3.7015 -1.8570 0.9816
-1.4162 -4.0187 -1.8570 0.9816
-1.2711 -4.0669 -1.8570 0.9816
-0.9763 -4.1476 -1.8570 0.9816
-0.8269 -4.1799 -1.8570 0.9816
-0.3731 -4.2446 -1.8570 0.9816
-0.2206 -4.2552 -1.8570 0.9816
-0.0678 -4.2604 -1.8570 0.9816
0.0851 -4.2601 -1.8570 0.9816
0.2378 -4.2543 -1.8570 0.9816
0.6935 -4.2041 -1.8570 0.9816
0.8438 -4.1765 -1.8570 0.9816
0.9931 -4.1436 -1.8570 0.9816
1.1411 -4.1053 -1.8570 0.9816
1.2876 -4.0617 -1.8570 0.9816
1.7165 -3.8999 -1.8570 0.9816
1.9917 -3.7668 -1.8570 0.9816
2.2566 -3.6143 -1.8570 0.9816
2.6318 -3.3510 -1.8570 0.9816
2.7503 -3.2544 -1.8570 0.9816
2.9766 -3.0489 -1.8570 0.9816
3.0930 -2.9487 -1.8624 0.9815
3.7432 -2.6610 -2.0016 0.9802
3.8362 -2.5251 -2.0016 0.9802
4.0853 -2.0983 -2.0016 0.9802
4.2252 -1.8000 -2.0016 0.9802
4.3434 -1.4925 -2.0016 0.9802
4.3941 -1.3357 -2.0016 0.9802
4.5400 -0.6936 -2.0016 0.9802
4.5619 -0.5303 -2.0016 0.9802
4.5780 -0.3663 -2.0016 0.9802
4.5882 -0.2018 -2.0016 0.9802
4.5925 -0.0371 -2.0016 0.9802
4.5909 0.1276 -2.0016 0.9802
4.5699 0.4565 -2.0016 0.9802
4.5506 0.6201 -2.0016 0.9802
4.4944 0.9447 -2.0016 0.9802
4.4577 1.1053 -2.0016 0.9802
4.4152 1.2645 -2.0016 0.9802
4.3131 1.5778 -2.0016 0.9802
4.1889 1.8830 -2.0016 0.9802
4.0431 2.1785 -2.0016 0.9802
3.8766 2.4627 -2.0016 0.9802
3.7857 2.6002 -2.0016 0.9802
3.6900 2.7343 -2.0016 0.9802
3.3749 3.1149 -2.0016 0.9802
3.2610 3.2339 -2.0016 0.9802
3.1429 3.3488 -2.0016 0.9802
3.0208 3.4594 -2.0016 0.9802
2.7650 3.6671 -2.0016 0.9802
2.4950 3.8559 -2.0016 0.9802
2.3550 3.9429 -2.0016 0.9802
2.2121 4.0248 -2.0016 0.9802
1.7669 4.2392 -2.0016 0.9802
1.4585 4.3549 -2.0016 0.9802
1.1425 4.4483 -2.0016 0.9802
0.9822 4.4864 -2.0016 0.9802
0.8206 4.5188 -2.0016 0.9802
0.4945 4.5660 -2.0016 0.9802
-0.1636 4.5898 -2.0016 0.9802
-0.3281 4.5809 -2.0016 0.9802
-0.6557 4.5456 -2.0016 0.9802
-1.2990 4.4051 -2.0016 0.9802
-1.4562 4.3557 -2.0016 0.9802
-1.7647 4.2401 -2.0016 0.9802
-2.2100 4.0260 -2.0016 0.9802
-2.3530 3.9441 -2.0016 0.9802
-2.8929 3.5670 -2.0016 0.9802
-3.5881 2.8667 -2.0016 0.9802
-3.6886 2.7362 -2.0016 0.9802
-3.7844 2.6021 -2.0016 0.9802
-3.9612 2.3241 -2.0016 0.9802
-4.0420 2.1805 -2.0016 0.9802
-4.2529 1.7337 -2.0016 0.9802
-1.5851 0.5171 -0.7266 0.9928
-1.5672 0.4497 -0.7106 0.9929
-1.5441 0.3837 -0.6934 0.9931
-1.5160 0.3195 -0.6752 0.9933
-1.5033 0.2609 -0.6650 0.9934
-1.5262 0.1532 -0.6685 0.9933
-1.5296 0.0983 -0.6680 0.9933
-1.5275 0.0433 -0.6660 0.9934
-1.5121 -0.2302 -0.6666 0.9933
-1.4976 -0.2833 -0.6643 0.9934
-1.5544 -0.4114 -0.7007 0.9930
-1.5754 -0.4780 -0.7175 0.9928
-4.2879 -1.6451 -2.0016 0.9802
-4.0864 -2.0962 -2.0016 0.9802
-3.5603 -2.3408 -1.8570 0.9816
-3.3833 -2.5901 -1.8570 0.9816
-3.2883 -2.7098 -1.8570 0.9816
-3.1889 -2.8260 -1.8570 0.9816
-2.9781 -3.0473 -1.8570 0.9816
-2.7520 -3.2530 -1.8570 0.9816
-2.5117 -3.4419 -1.8570 0.9816
-1.5775 -3.9581 -1.8570 0.9816
-1.4345 -4.0122 -1.8570 0.9816
-1.1432 -4.1047 -1.8570 0.9816
-0.9952 -4.1431 -1.8570 0.9816
-0.8460 -4.1761 -1.8570 0.9816
-0.6956 -4.2038 -1.8570 0.9816
-0.5444 -4.2260 -1.8570 0.9816
-0.3925 -4.2428 -1.8570 0.9816
-0.0873 -4.2600 -1.8570 0.9816
0.0656 -4.2604 -1.8570 0.9816
0.2184 -4.2553 -1.8570 0.9816
0.3709 -4.2447 -1.8570 0.9816
0.5229 -4.2287 -1.8570 0.9816
0.8247 -4.1803 -1.8570 0.9816
3.7051 -2.2294 -2.0016 0.9811
3.7827 -2.0951 -2.0016 0.9811
4.0958 -1.3865 -2.0016 0.9811
4.1429 -1.2387 -2.0016 0.9811
4.1846 -1.0893 -2.0016 0.9811
4.2210 -0.9385 -2.0016 0.9811
4.2775 -0.6334 -2.0016 0.9811
4.2974 -0.4796 -2.0016 0.9811
4.3218 0.1399 -2.0016 0.9811
4.3140 0.2949 -2.0016 0.9811
4.3007 0.4494 -2.0016 0.9811
4.2818 0.6034 -2.0016 0.9811
4.1922 1.0599 -2.0016 0.9811
3.9975 1.6485 -2.0016 0.9811
3.9358 1.7909 -2.0016 0.9811
3.7973 2.0684 -2.0016 0.9811
3.6392 2.3354 -2.0016 0.9811
3.5531 2.4644 -2.0016 0.9811
3.4624 2.5903 -2.0016 0.9811
3.2678 2.8318 -2.0016 0.9811
3.0564 3.0588 -2.0016 0.9811
2.9447 3.1665 -2.0016 0.9811
2.8292 3.2701 -2.0016 0.9811
2.7101 3.3695 -2.0016 0.9811
2.5875 3.4645 -2.0016 0.9811
2.4615 3.5551 -2.0016 0.9811
2.2003 3.7224 -2.0016 0.9811
2.0654 3.7990 -2.0016 0.9811
1.9278 3.8706 -2.0016 0.9811
1.2062 4.1525 -2.0016 0.9811
0.7532 4.2580 -2.0016 0.9811
0.6000 4.2823 -2.0016 0.9811
0.4460 4.3010 -2.0016 0.9811
0.2914 4.3143 -2.0016 0.9811
-0.1738 4.3206 -2.0016 0.9811
-0.6369 4.2769 -2.0016 0.9811
-0.9419 4.2203 -2.0016 0.9811
-1.0927 4.1838 -2.0016 0.9811
-1.2420 4.1419 -2.0016 0.9811
-1.5358 4.0422 -2.0016 0.9811
-1.6798 3.9845 -2.0016 0.9811
-1.8216 3.9217 -2.0016 0.9811
-2.0981 3.7810 -2.0016 0.9811
-2.3638 3.6208 -2.0016 0.9811
-2.4921 3.5337 -2.0016 0.9811
-2.7391 3.3459 -2.0016 0.9811
-2.9719 3.1410 -2.0016 0.9811
-3.0827 3.0323 -2.0016 0.9811
-3.1894 2.9198 -2.0016 0.9811
-3.2921 2.8035 -2.0016 0.9811
-3.3906 2.6836 -2.0016 0.9811
-3.5742 2.4336 -2.0016 0.9811
-3.7395 2.1711 -2.0016 0.9811
-3.8150 2.0356 -2.0016 0.9811
-3.8856 1.8974 -2.0016 0.9811
-1.3187 0.5864 -0.6680 0.9937
-1.3332 0.4816 -0.6561 0.9938
-1.3304 0.4273 -0.6468 0.9939
-1.3062 0.2690 -0.6173 0.9941
-1.3365 0.0317 -0.6188 0.9941
-1.3383 -0.0643 -0.6202 0.9941
-1.3236 -0.2077 -0.6202 0.9941
-1.3110 -0.2542 -0.6181 0.9941
-1.3168 -0.3549 -0.6313 0.9940
-1.3277 -0.4095 -0.6432 0.9939
-1.3336 -0.4643 -0.6537 0.9938
-1.3306 -0.5175 -0.6609 0.9937
-3.8383 -1.9912 -2.0016 0.9811
-3.7644 -2.1276 -2.0016 0.9811
-3.2603 -2.3377 -1.8570 0.9825
-2.9903 -2.6744 -1.8570 0.9825
-2.7908 -2.8819 -1.8570 0.9825
-2.3500 -3.2514 -1.8570 0.9825
-2.2318 -3.3336 -1.8570 0.9825
-1.9871 -3.4851 -1.8570 0.9825
-1.8608 -3.5541 -1.8570 0.9825
-1.7321 -3.6186 -1.8570 0.9825
-1.6012 -3.6784 -1.8570 0.9825
-1.4682 -3.7334 -1.8570 0.9825
-1.3334 -3.7837 -1.8570 0.9825
-1.1968 -3.8291 -1.8570 0.9825
-1.0587 -3.8695 -1.8570 0.9825
-0.6368 -3.9609 -1.8570 0.9825
-0.3512 -3.9963 -1.8570 0.9825
-0.0638 -4.0112 -1.8570 0.9825
0.0801 -4.0110 -1.8570 0.9825
0.2239 -4.0055 -1.8570 0.9825
0.5105 -3.9791 -1.8570 0.9825
0.6529 -3.9583 -1.8570 0.9825
1.0744 -3.8652 -1.8570 0.9825
1.2123 -3.8242 -1.8570 0.9825
1.4834 -3.7274 -1.8570 0.9825
1.7468 -3.6115 -1.8570 0.9825
1.8752 -3.5465 -1.8570 0.9825
2.1246 -3.4029 -1.8570 0.9825
2.5895 -3.0641 -1.8570 0.9825
3.4322 -2.6302 -2.0016 0.9811
3.5243 -2.5054 -2.0016 0.9811
3.6119 -2.3774 -2.0016 0.9811
3.7730 -2.1123 -2.0016 0.9811
3.9148 -1.8364 -2.0016 0.9811
3.9781 -1.6948 -2.0016 0.9811
4.1372 -1.2576 -2.0016 0.9811
4.1796 -1.1084 -2.0016 0.9811
4.2167 -0.9578 -2.0016 0.9811
4.3240 -0.0350 -2.0016 0.9811
4.3224 0.1202 -2.0016 0.9811
4.3027 0.4298 -2.0016 0.9811
4.2316 0.8895 -2.0016 0.9811
4.1570 1.1906 -2.0016 0.9811
4.1116 1.3389 -2.0016 0.9811
3.9440 1.7729 -2.0016 0.9811
3.8778 1.9132 -2.0016 0.9811
3.8067 2.0511 -2.0016 0.9811
3.7307 2.1863 -2.0016 0.9811
3.6499 2.3187 -2.0016 0.9811
3.1776 2.9327 -2.0016 0.9811
3.0703 3.0448 -2.0016 0.9811
2.9591 3.1530 -2.0016 0.9811
2.8441 3.2571 -2.0016 0.9811
2.4778 3.5438 -2.0016 0.9811
2.3491 3.6304 -2.0016 0.9811
2.2173 3.7123 -2.0016 0.9811
2.0827 3.7895 -2.0016 0.9811
1.9455 3.8617 -2.0016 0.9811
1.6636 3.9913 -2.0016 0.9811
1.0757 4.1882 -2.0016 0.9811
0.7726 4.2545 -2.0016 0.9811
0.6195 4.2795 -2.0016 0.9811
0.4656 4.2990 -2.0016 0.9811
0.3111 4.3129 -2.0016 0.9811
-0.3089 4.3131 -2.0016 0.9811
-0.4634 4.2992 -2.0016 0.9811
-0.6173 4.2798 -2.0016 0.9811
-0.7704 4.2549 -2.0016 0.9811
-1.0735 4.1887 -2.0016 0.9811
-1.2231 4.1475 -2.0016 0.9811
-2.0808 3.7905 -2.0016 0.9811
-2.2154 3.7135 -2.0016 0.9811
-2.4760 3.5451 -2.0016 0.9811
-3.0688 3.0464 -2.0016 0.9811
-3.1761 2.9344 -2.0016 0.9811
-3.2793 2.8185 -2.0016 0.9811
-3.3783 2.6991 -2.0016 0.9811
-3.4729 2.5762 -2.0016 0.9811
-3.5631 2.4500 -2.0016 0.9811
-3.6487 2.3206 -2.0016 0.9811
-1.3171 0.5929 -0.6686 0.9937
-1.3276 0.5412 -0.6636 0.9937
-1.3329 0.4884 -0.6571 0.9938
-1.3090 0.3253 -0.6244 0.9941
-1.3042 0.2748 -0.6170 0.9941
-1.3370 0.0379 -0.6191 0.9941
-1.3345 -0.0101 -0.6177 0.9941
-1.3381 -0.0582 -0.6200 0.9941
-1.3250 -0.2017 -0.6204 0.9941
-1.3128 -0.2483 -0.6185 0.9941
-1.2997 -0.2945 -0.6169 0.9941
-1.3336 -0.4575 -0.6526 0.9938
-1.3313 -0.5108 -0.6600 0.9937
-1.3238 -0.5632 -0.6659 0.9937
-3.8474 -1.9737 -2.0016 0.9811
-3.6567 -2.2206 -1.9803 0.9813
-3.4040 -2.2381 -1.8857 0.9822
-3.2709 -2.3228 -1.8570 0.9825
-3.0025 -2.6607 -1.8570 0.9825
-2.9051 -2.7667 -1.8570 0.9825
-2.3648 -3.2407 -1.8570 0.9825
-2.0030 -3.4759 -1.8570 0.9825
-1.7486 -3.6106 -1.8570 0.9825
-1.6180 -3.6710 -1.8570 0.9825
-1.2143 -3.8236 -1.8570 0.9825
-0.9370 -3.9008 -1.8570 0.9825
-0.6549 -3.9579 -1.8570 0.9825
-0.2260 -4.0054 -1.8570 0.9825
-0.0822 -4.0109 -1.8570 0.9825
0.2056 -4.0065 -1.8570 0.9825
0.4923 -3.9814 -1.8570 0.9825
0.7765 -3.9359 -1.8570 0.9825
3.5695 -1.9770 -2.0016 0.9820
3.6381 -1.8477 -2.0016 0.9820
3.7613 -1.5821 -2.0016 0.9820
4.0364 -0.5978 -2.0016 0.9820
4.0553 -0.4526 -2.0016 0.9820
4.0689 -0.3068 -2.0016 0.9820
4.0783 0.1320 -2.0016 0.9820
4.0710 0.2783 -2.0016 0.9820
4.0584 0.4241 -2.0016 0.9820
4.0175 0.7140 -2.0016 0.9820
3.9329 0.9943 -1.9899 0.9821
3.8741 1.2812 -2.0016 0.9820
3.7723 1.5557 -2.0016 0.9820
3.6510 1.8221 -2.0016 0.9820
3.5833 1.9519 -2.0016 0.9820
3.5110 2.0792 -2.0016 0.9820
3.0837 2.6723 -2.0016 0.9820
2.9858 2.7812 -2.0016 0.9820
2.5574 3.1796 -2.0016 0.9820
2.4417 3.2693 -2.0016 0.9820
2.3228 3.3548 -2.0016 0.9820
2.2010 3.4359 -2.0016 0.9820
1.9490 3.5849 -2.0016 0.9820
1.8192 3.6525 -2.0016 0.9820
1.4163 3.8268 -2.0016 0.9820
1.1383 3.9185 -2.0016 0.9820
0.8544 3.9900 -2.0016 0.9820
0.7107 4.0181 -2.0016 0.9820
0.2750 4.0712 -2.0016 0.9820
-0.1640 4.0772 -2.0016 0.9820
-0.8888 3.9825 -2.0016 0.9820
-1.1720 3.9085 -2.0016 0.9820
-1.3115 3.8640 -2.0016 0.9820
-1.7190 3.7007 -2.0016 0.9820
-1.9799 3.5679 -2.0016 0.9820
-2.1066 3.4946 -2.0016 0.9820
-2.3517 3.3346 -2.0016 0.9820
-3.1066 2.6456 -2.0016 0.9820
-3.1995 2.5324 -2.0016 0.9820
-3.2883 2.4160 -2.0016 0.9820
-3.3729 2.2965 -2.0016 0.9820
-3.4531 2.1741 -2.0016 0.9820
-1.1324 0.5530 -0.6182 0.9944
-1.1584 0.3720 -0.5968 0.9946
-1.1589 0.3268 -0.5906 0.9946
-1.1817 0.1995 -0.5879 0.9947
-1.1963 -0.0575 -0.5875 0.9947
-1.1944 -0.1004 -0.5880 0.9947
-1.1842 -0.1858 -0.5880 0.9947
-1.1654 -0.2697 -0.5867 0.9947
-1.1588 -0.3574 -0.5949 0.9946
-1.1454 -0.4935 -0.6118 0.9945
-1.1360 -0.5385 -0.6167 0.9944
-3.1217 -2.2384 -1.8842 0.9830
-2.7294 -2.6233 -1.8570 0.9833
-2.2176 -3.0682 -1.8570 0.9833
-1.9919 -3.2193 -1.8570 0.9833
-1.8751 -3.2887 -1.8570 0.9833
-1.5110 -3.4711 -1.8570 0.9833
-0.7346 -3.7137 -1.8570 0.9833
-0.6010 -3.7377 -1.8570 0.9833
-0.3315 -3.7712 -1.8570 0.9833
-0.1960 -3.7806 -1.8570 0.9833
-0.0602 -3.7852 -1.8570 0.9833
0.2113 -3.7798 -1.8570 0.9833
0.4818 -3.7549 -1.8570 0.9833
0.6161 -3.7352 -1.8570 0.9833
0.7497 -3.7107 -1.8570 0.9833
1.1440 -3.6087 -1.8570 0.9833
1.2727 -3.5654 -1.8570 0.9833
1.3998 -3.5174 -1.8570 0.9833
1.5251 -3.4649 -1.8570 0.9833
1.6484 -3.4080 -1.8570 0.9833
2.7401 -2.6122 -1.8570 0.9833
3.1477 -2.5966 -2.0016 0.9820
3.2388 -2.4820 -2.0016 0.9820
3.5605 -1.9933 -2.0016 0.9820
3.6297 -1.8643 -2.0016 0.9820
3.6942 -1.7329 -2.0016 0.9820
3.7540 -1.5993 -2.0016 0.9820
3.8089 -1.4636 -2.0016 0.9820
3.9041 -1.1868 -2.0016 0.9820
4.0090 -0.7605 -2.0016 0.9820
4.0337 -0.6162 -2.0016 0.9820
4.0532 -0.4711 -2.0016 0.9820
4.0675 -0.3254 -2.0016 0.9820
4.0765 -0.1793 -2.0016 0.9820
4.0207 0.6956 -2.0016 0.9820
3.9771 0.8360 -1.9935 0.9821
3.9357 0.9759 -1.9890 0.9821
3.8321 1.4018 -2.0016 0.9820
3.7217 1.6730 -2.0016 0.9820
3.5922 1.9355 -2.0016 0.9820
3.5205 2.0631 -2.0016 0.9820
3.4442 2.1881 -2.0016 0.9820
3.3635 2.3102 -2.0016 0.9820
3.2785 2.4294 -2.0016 0.9820
3.0959 2.6581 -2.0016 0.9820
2.9985 2.7675 -2.0016 0.9820
2.8973 2.8733 -2.0016 0.9820
2.5719 3.1679 -2.0016 0.9820
2.3382 3.3441 -2.0016 0.9820
2.2167 3.4258 -2.0016 0.9820
2.0924 3.5031 -2.0016 0.9820
1.9654 3.5759 -2.0016 0.9820
1.8358 3.6441 -2.0016 0.9820
1.7040 3.7077 -2.0016 0.9820
1.4337 3.8203 -2.0016 0.9820
0.8726 3.9861 -2.0016 0.9820
0.1474 4.0778 -2.0016 0.9820
0.0010 4.0805 -2.0016 0.9820
-0.5825 4.0387 -2.0016 0.9820
-0.7270 4.0152 -2.0016 0.9820
-0.8706 3.9865 -2.0016 0.9820
-1.2938 3.8699 -2.0016 0.9820
-1.5679 3.7672 -2.0016 0.9820
-1.7021 3.7085 -2.0016 0.9820
-2.2149 3.4270 -2.0016 0.9820
-2.3364 3.3453 -2.0016 0.9820
-2.5703 3.1692 -2.0016 0.9820
-2.6823 3.0750 -2.0016 0.9820
-2.8959 2.8747 -2.0016 0.9820
-3.0945 2.6597 -2.0016 0.9820
-3.2772 2.4310 -2.0016 0.9820
-3.3623 2.3119 -2.0016 0.9820
-1.1309 0.5587 -0.6187 0.9944
-1.1415 0.5138 -0.6140 0.9944
-1.1495 0.4686 -0.6089 0.9945
-1.1551 0.4232 -0.6034 0.9945
-1.1582 0.3778 -0.5976 0.9946
-1.1590 0.3326 -0.5914 0.9946
-1.1879 0.1625 -0.5881 0.9947
-1.1929 0.1198 -0.5881 0.9947
-1.1957 0.0769 -0.5877 0.9947
-1.1964 0.0339 -0.5871 0.9947
-1.1958 -0.0091 -0.5866 0.9947
-1.1964 -0.0520 -0.5874 0.9947
-1.1948 -0.0950 -0.5879 0.9947
-1.1910 -0.1378 -0.5881 0.9947
-1.1770 -0.2227 -0.5876 0.9947
-1.1572 -0.3970 -0.6001 0.9946
-1.1530 -0.4424 -0.6058 0.9945
-1.1464 -0.4877 -0.6111 0.9945
-1.1373 -0.5328 -0.6161 0.9944
-1.1053 -0.6181 -0.6212 0.9944
-3.4877 -2.1180 -2.0016 0.9820
-3.3768 -2.2202 -1.9824 0.9822
-3.1493 -2.2364 -1.8947 0.9829
-3.0060 -2.3012 -1.8570 0.9833
-2.9215 -2.4076 -1.8570 0.9833
-2.5472 -2.8006 -1.8570 0.9833
-2.3398 -2.9760 -1.8570 0.9833
-2.2316 -3.0581 -1.8570 0.9833
-2.1204 -3.1361 -1.8570 0.9833
-2.0066 -3.2102 -1.8570 0.9833
-1.8901 -3.2801 -1.8570 0.9833
-1.1459 -3.6081 -1.8570 0.9833
-0.8842 -3.6810 -1.8570 0.9833
-0.7516 -3.7103 -1.8570 0.9833
-0.6180 -3.7349 -1.8570 0.9833
-0.4837 -3.7547 -1.8570 0.9833
-0.3487 -3.7696 -1.8570 0.9833
-0.0775 -3.7849 -1.8570 0.9833
0.0583 -3.7853 -1.8570 0.9833
0.4646 -3.7571 -1.8570 0.9833
0.5990 -3.7380 -1.8570 0.9833
0.8655 -3.6854 -1.8570 0.9833
3.3059 -1.9892 -2.0016 0.9828
3.5004 -1.6225 -2.0016 0.9828
3.6078 -1.3674 -2.0016 0.9828
3.6965 -1.1052 -2.0016 0.9828
3.7662 -0.8374 -2.0016 0.9828
