ply
format ascii 1.0
element vertex 1593
property float32 x
property float32 y
property float32 z
property float32 I
end_header
-5.9134 1.1356 -2.0016 0.9749
-6.0194 -0.1561 -2.0016 0.9749
-6.0099 -0.3723 -2.0016 0.9749
-5.9927 -0.5880 -2.0016 0.9749
-5.9350 -1.0168 -2.0016 0.9749
-5.7911 -1.6496 -2.0016 0.9749
-5.7280 -1.8567 -2.0016 0.9749
-5.0981 -2.2844 -1.8570 0.9767
-4.7182 -2.9913 -1.8570 0.9767
-4.6076 -3.1589 -1.8570 0.9767
-4.4912 -3.3224 -1.8570 0.9767
-4.3689 -3.4816 -1.8570 0.9767
-4.1075 -3.7864 -1.8570 0.9767
-3.9688 -3.9316 -1.8570 0.9767
-3.8250 -4.0716 -1.8570 0.9767
-3.5227 -4.3358 -1.8570 0.9767
-3.3646 -4.4596 -1.8570 0.9767
-3.2022 -4.5776 -1.8570 0.9767
-2.8652 -4.7958 -1.8570 0.9767
-2.6910 -4.8957 -1.8570 0.9767
-2.5133 -4.9892 -1.8570 0.9767
-1.9618 -5.2307 -1.8570 0.9767
-1.7726 -5.2978 -1.8570 0.9767
-1.3875 -5.4114 -1.8570 0.9767
-0.9953 -5.4971 -1.8570 0.9767
-0.7971 -5.5293 -1.8570 0.9767
-0.5979 -5.5544 -1.8570 0.9767
0.4045 -5.5718 -1.8570 0.9767
1.0018 -5.4959 -1.8570 0.9767
1.7788 -5.2957 -1.8570 0.9767
1.9680 -5.2284 -1.8570 0.9767
2.1546 -5.1543 -1.8570 0.9767
2.4347 -4.0644 -1.5749 0.9802
3.2076 -4.5739 -1.8570 0.9767
3.3699 -4.4557 -1.8570 0.9767
3.8024 -4.6690 -2.0016 0.9749
3.9678 -4.5293 -2.0016 0.9749
4.1280 -4.3838 -2.0016 0.9749
4.2828 -4.2326 -2.0016 0.9749
4.4321 -4.0760 -2.0016 0.9749
4.5757 -3.9141 -2.0016 0.9749
5.3073 -2.8443 -2.0016 0.9749
5.4061 -2.6518 -2.0016 0.9749
5.5826 -2.2567 -2.0016 0.9749
5.6601 -2.0546 -2.0016 0.9749
5.7302 -1.8499 -2.0016 0.9749
5.8483 -1.4336 -2.0016 0.9749
5.9362 -1.0099 -2.0016 0.9749
5.9934 -0.5809 -2.0016 0.9749
6.0104 -0.3652 -2.0016 0.9749
6.0007 0.4997 -2.0016 0.9749
5.9121 1.1425 -2.0016 0.9749
5.8672 1.3542 -2.0016 0.9749
5.8147 1.5642 -2.0016 0.9749
5.6874 1.9778 -2.0016 0.9749
5.5306 2.3811 -2.0016 0.9749
5.4415 2.5783 -2.0016 0.9749
5.2423 2.9625 -2.0016 0.9749
5.1324 3.1489 -2.0016 0.9749
4.6283 3.8518 -2.0016 0.9749
4.4869 4.0156 -2.0016 0.9749
4.1870 4.3275 -2.0016 0.9749
4.0288 4.4751 -2.0016 0.9749
3.8653 4.6170 -2.0016 0.9749
3.3460 5.0062 -2.0016 0.9749
3.1640 5.1232 -2.0016 0.9749
2.7879 5.3372 -2.0016 0.9749
2.5943 5.4339 -2.0016 0.9749
2.3974 5.5236 -2.0016 0.9749
2.1973 5.6062 -2.0016 0.9749
1.9945 5.6815 -2.0016 0.9749
1.5813 5.8101 -2.0016 0.9749
1.1599 5.9087 -2.0016 0.9749
0.7325 5.9767 -2.0016 0.9749
0.3014 6.0139 -2.0016 0.9749
-0.5633 5.9950 -2.0016 0.9749
-0.7784 5.9709 -2.0016 0.9749
-0.9924 5.9391 -2.0016 0.9749
-1.2052 5.8996 -2.0016 0.9749
-1.4164 5.8525 -2.0016 0.9749
-2.0380 5.6661 -2.0016 0.9749
-2.2403 5.5892 -2.0016 0.9749
-2.8288 5.3156 -2.0016 0.9749
-3.9007 4.5872 -2.0016 0.9749
-4.0630 4.4441 -2.0016 0.9749
-4.2200 4.2952 -2.0016 0.9749
-4.3717 4.1408 -2.0016 0.9749
-4.5176 3.9811 -2.0016 0.9749
-4.7919 3.6463 -2.0016 0.9749
-5.0414 3.2927 -2.0016 0.9749
-5.1565 3.1095 -2.0016 0.9749
-5.4611 2.5365 -2.0016 0.9749
-5.5487 2.3386 -2.0016 0.9749
-6.0043 0.4536 -2.0016 0.9749
-6.0214 0.0212 -2.0016 0.9749
-6.0183 -0.1952 -2.0016 0.9749
-5.9282 -1.0554 -2.0016 0.9749
-5.8371 -1.4784 -2.0016 0.9749
-5.0831 -2.3175 -1.8570 0.9767
-4.9966 -2.4987 -1.8570 0.9767
-4.9035 -2.6766 -1.8570 0.9767
-4.3462 -3.5099 -1.8570 0.9767
-3.9432 -3.9573 -1.8570 0.9767
-3.7985 -4.0964 -1.8570 0.9767
-3.6488 -4.2303 -1.8570 0.9767
-3.4944 -4.3586 -1.8570 0.9767
-3.3356 -4.4814 -1.8570 0.9767
-2.6591 -4.9130 -1.8570 0.9767
-2.4809 -5.0054 -1.8570 0.9767
-2.2994 -5.0913 -1.8570 0.9767
1.5399 5.3811 -2.0016 0.9765
1.3455 5.4330 -2.0016 0.9765
1.1494 5.4778 -2.0016 0.9765
0.7530 5.5462 -2.0016 0.9765
0.1518 5.5950 -2.0016 0.9765
-0.0493 5.5969 -2.0016 0.9765
-0.2504 5.5915 -2.0016 0.9765
-0.4512 5.5789 -2.0016 0.9765
-0.6514 5.5591 -2.0016 0.9765
-0.8507 5.5321 -2.0016 0.9765
-1.0489 5.4979 -2.0016 0.9765
-1.4411 5.4084 -2.0016 0.9765
-1.6345 5.3531 -2.0016 0.9765
-2.7421 4.8794 -2.0016 0.9765
-3.4129 4.4362 -2.0016 0.9765
-3.5701 4.3107 -2.0016 0.9765
-3.7227 4.1796 -2.0016 0.9765
-4.0132 3.9015 -2.0016 0.9765
-4.5308 3.2862 -2.0016 0.9765
-4.6459 3.1213 -2.0016 0.9765
-4.8581 2.7796 -2.0016 0.9765
-4.9549 2.6032 -2.0016 0.9765
-5.0452 2.4235 -2.0016 0.9765
-5.1290 2.2406 -2.0016 0.9765
-5.2062 2.0549 -2.0016 0.9765
-5.3404 1.6757 -2.0016 0.9765
-5.3971 1.4827 -2.0016 0.9765
-5.4469 1.2878 -2.0016 0.9765
-5.5253 0.8933 -2.0016 0.9765
-5.5539 0.6942 -2.0016 0.9765
-5.5752 0.4941 -2.0016 0.9765
-5.5885 -0.3097 -2.0016 0.9765
-5.5227 -0.9093 -2.0016 0.9765
-5.4432 -1.3036 -2.0016 0.9765
-5.3928 -1.4984 -2.0016 0.9765
-5.2002 -2.0700 -2.0016 0.9765
-4.6742 -2.2620 -1.8570 0.9782
-4.5899 -2.4285 -1.8570 0.9782
-4.4997 -2.5919 -1.8570 0.9782
-4.3019 -2.9084 -1.8570 0.9782
-4.1946 -3.0611 -1.8570 0.9782
-2.8500 -4.3408 -1.8570 0.9782
-2.3663 -4.6223 -1.8570 0.9782
-2.0282 -4.7803 -1.8570 0.9782
-1.5020 -4.9708 -1.8570 0.9782
-1.1411 -5.0659 -1.8570 0.9782
-0.7743 -5.1347 -1.8570 0.9782
-0.0307 -5.1927 -1.8570 0.9782
0.1559 -5.1905 -1.8570 0.9782
0.5283 -5.1658 -1.8570 0.9782
0.7136 -5.1435 -1.8570 0.9782
0.8980 -5.1146 -1.8570 0.9782
1.0812 -5.0790 -1.8570 0.9782
1.2630 -5.0369 -1.8570 0.9782
1.7977 -4.8717 -1.8570 0.9782
1.9716 -4.8040 -1.8570 0.9782
2.0005 -4.4157 -1.7336 0.9796
2.0547 -4.1333 -1.6506 0.9806
2.2002 -4.0538 -1.6494 0.9806
2.3881 -4.0461 -1.6801 0.9802
2.9538 -4.2708 -1.8570 0.9782
3.1054 -4.1619 -1.8570 0.9782
3.2530 -4.0476 -1.8570 0.9782
3.9554 -3.9601 -2.0016 0.9765
4.0951 -3.8154 -2.0016 0.9765
4.2296 -3.6658 -2.0016 0.9765
4.3585 -3.5115 -2.0016 0.9765
4.4819 -3.3526 -2.0016 0.9765
4.8167 -2.8508 -2.0016 0.9765
4.9160 -2.6759 -2.0016 0.9765
5.0955 -2.3159 -2.0016 0.9765
5.1754 -2.1313 -2.0016 0.9765
5.2487 -1.9440 -2.0016 0.9765
5.3151 -1.7541 -2.0016 0.9765
5.3747 -1.5620 -2.0016 0.9765
5.4730 -1.1719 -2.0016 0.9765
5.5116 -0.9745 -2.0016 0.9765
5.5617 0.6285 -2.0016 0.9765
5.5355 0.8279 -2.0016 0.9765
5.4618 1.2233 -2.0016 0.9765
5.2302 1.9932 -2.0016 0.9765
4.8906 2.7220 -2.0016 0.9765
4.7897 2.8960 -2.0016 0.9765
4.0590 3.8538 -2.0016 0.9765
3.9179 3.9971 -2.0016 0.9765
3.6208 4.2682 -2.0016 0.9765
3.3049 4.5172 -2.0016 0.9765
2.6236 4.9441 -2.0016 0.9765
1.8882 5.2690 -2.0016 0.9765
1.6976 5.3334 -2.0016 0.9765
1.5049 5.3910 -2.0016 0.9765
1.1138 5.4851 -2.0016 0.9765
0.9160 5.5216 -2.0016 0.9765
0.5171 5.5732 -2.0016 0.9765
-0.0857 5.5964 -2.0016 0.9765
-0.2867 5.5897 -2.0016 0.9765
-0.6874 5.5547 -2.0016 0.9765
-0.8866 5.5264 -2.0016 0.9765
-1.0846 5.4910 -2.0016 0.9765
-1.2812 5.4485 -2.0016 0.9765
-1.6692 5.3424 -2.0016 0.9765
-1.8601 5.2790 -2.0016 0.9765
-2.0486 5.2087 -2.0016 0.9765
-2.2344 5.1317 -2.0016 0.9765
-2.7737 4.8615 -2.0016 0.9765
-3.1157 4.6497 -2.0016 0.9765
-3.5980 4.2874 -2.0016 0.9765
-3.7497 4.1554 -2.0016 0.9765
-3.8966 4.0179 -2.0016 0.9765
-4.0385 3.8753 -2.0016 0.9765
-4.1751 3.7277 -2.0016 0.9765
-4.3064 3.5753 -2.0016 0.9765
-4.5520 3.2567 -2.0016 0.9765
-4.6661 3.0911 -2.0016 0.9765
-4.9717 2.5710 -2.0016 0.9765
-5.0608 2.3907 -2.0016 0.9765
-5.2887 1.8322 -2.0016 0.9765
-5.4552 1.2524 -2.0016 0.9765
-5.4967 1.0556 -2.0016 0.9765
-5.5783 0.4579 -2.0016 0.9765
-5.5912 0.2572 -2.0016 0.9765
-5.5968 0.0561 -2.0016 0.9765
-5.5471 -0.7463 -2.0016 0.9765
-5.3830 -1.5334 -2.0016 0.9765
-4.4828 -2.6211 -1.8570 0.9782
-4.2829 -2.9363 -1.8570 0.9782
-4.1747 -3.0883 -1.8570 0.9782
-4.0610 -3.2363 -1.8570 0.9782
-3.9421 -3.3801 -1.8570 0.9782
-3.6891 -3.6545 -1.8570 0.9782
-3.5554 -3.7847 -1.8570 0.9782
-3.2744 -4.0303 -1.8570 0.9782
-3.1275 -4.1453 -1.8570 0.9782
-2.5013 -4.5507 -1.8570 0.9782
-2.1680 -4.7185 -1.8570 0.9782
-1.8236 -4.8621 -1.8570 0.9782
-0.5558 -5.1630 -1.8570 0.9782
-0.3699 -5.1796 -1.8570 0.9782
-0.1835 -5.1895 -1.8570 0.9782
0.1896 -5.1893 -1.8570 0.9782
0.3760 -5.1792 -1.8570 0.9782
0.5619 -5.1623 -1.8570 0.9782
1.1141 -5.0719 -1.8570 0.9782
1.2957 -5.0286 -1.8570 0.9782
1.6535 -4.9225 -1.8570 0.9782
2.0027 -4.7911 -1.8570 0.9782
2.0008 -4.3411 -1.7094 0.9799
2.4174 -4.0356 -1.6823 0.9802
2.8268 -4.3559 -1.8570 0.9782
2.9815 -4.2515 -1.8570 0.9782
3.2792 -4.0264 -1.8570 0.9782
3.8370 -4.0749 -2.0016 0.9765
4.1198 -3.7888 -2.0016 0.9765
4.3813 -3.4831 -2.0016 0.9765
4.5036 -3.3234 -2.0016 0.9765
4.6201 -3.1594 -2.0016 0.9765
4.9333 -2.6439 -2.0016 0.9765
5.0251 -2.4649 -2.0016 0.9765
5.2612 -1.9098 -2.0016 0.9765
5.3264 -1.7195 -2.0016 0.9765
5.4361 -1.3326 -2.0016 0.9765
5.5954 -0.1385 -2.0016 0.9765
5.5967 0.0627 -2.0016 0.9765
5.4954 1.0620 -2.0016 0.9765
5.2866 1.8384 -2.0016 0.9765
5.2171 2.0272 -2.0016 0.9765
4.9686 2.5768 -2.0016 0.9765
4.8728 2.7537 -2.0016 0.9765
4.3022 3.5803 -2.0016 0.9765
4.1707 3.7326 -2.0016 0.9765
4.0339 3.8801 -2.0016 0.9765
3.5929 4.2916 -2.0016 0.9765
3.4364 4.4180 -2.0016 0.9765
3.2754 4.5386 -2.0016 0.9765
3.1102 4.6534 -2.0016 0.9765
2.9410 4.7621 -2.0016 0.9765
2.7680 4.8647 -2.0016 0.9765
2.5914 4.9611 -2.0016 0.9765
2.4115 5.0510 -2.0016 0.9765
2.0425 5.2111 -2.0016 0.9765
1.6629 5.3443 -2.0016 0.9765
1.4698 5.4007 -2.0016 0.9765
1.2748 5.4500 -2.0016 0.9765
0.8801 5.5275 -2.0016 0.9765
0.4808 5.5764 -2.0016 0.9765
0.2802 5.5901 -2.0016 0.9765
0.0791 5.5965 -2.0016 0.9765
-0.1220 5.5958 -2.0016 0.9765
-0.3230 5.5878 -2.0016 0.9765
-0.5236 5.5725 -2.0016 0.9765
-0.7235 5.5501 -2.0016 0.9765
-0.9225 5.5206 -2.0016 0.9765
-1.1203 5.4838 -2.0016 0.9765
-1.3166 5.4400 -2.0016 0.9765
-1.5112 5.3892 -2.0016 0.9765
-2.0824 5.1953 -2.0016 0.9765
-2.2677 5.1171 -2.0016 0.9765
-2.4501 5.0323 -2.0016 0.9765
-2.6294 4.9410 -2.0016 0.9765
-3.1458 4.6294 -2.0016 0.9765
-3.4702 4.3915 -2.0016 0.9765
-3.6258 4.2639 -2.0016 0.9765
-4.1993 3.7005 -2.0016 0.9765
-4.3295 3.5472 -2.0016 0.9765
-4.4542 3.3893 -2.0016 0.9765
-4.6861 3.0607 -2.0016 0.9765
-4.7931 2.8903 -2.0016 0.9765
-4.8938 2.7162 -2.0016 0.9765
-4.9883 2.5386 -2.0016 0.9765
-5.0763 2.3577 -2.0016 0.9765
-5.1577 2.1738 -2.0016 0.9765
-5.3005 1.7978 -2.0016 0.9765
-5.3617 1.6062 -2.0016 0.9765
-5.4632 1.2169 -2.0016 0.9765
-5.5365 0.8214 -2.0016 0.9765
-5.5624 0.6219 -2.0016 0.9765
-5.5812 0.4217 -2.0016 0.9765
-5.5927 0.2208 -2.0016 0.9765
-5.5942 -0.1814 -2.0016 0.9765
-5.5667 -0.5827 -2.0016 0.9765
-5.5421 -0.7824 -2.0016 0.9765
-5.5105 -0.9810 -2.0016 0.9765
-5.4716 -1.1784 -2.0016 0.9765
-5.4258 -1.3742 -2.0016 0.9765
-5.3729 -1.5683 -2.0016 0.9765
-5.1729 -2.1374 -2.0016 0.9765
-4.8937 -2.2311 -1.9233 0.9774
-4.6444 -2.3226 -1.8570 0.9782
-4.4656 -2.6501 -1.8570 0.9782
-4.2638 -2.9640 -1.8570 0.9782
-4.1545 -3.1153 -1.8570 0.9782
-3.9200 -3.4056 -1.8570 0.9782
-3.7951 -3.5443 -1.8570 0.9782
-3.6653 -3.6784 -1.8570 0.9782
-3.2482 -4.0515 -1.8570 0.9782
-3.1005 -4.1656 -1.8570 0.9782
-2.7933 -4.3775 -1.8570 0.9782
-2.4717 -4.5668 -1.8570 0.9782
-2.3060 -4.6527 -1.8570 0.9782
-2.1373 -4.7325 -1.8570 0.9782
1.4370 5.0215 -2.0016 0.9779
1.2556 5.0699 -2.0016 0.9779
1.0726 5.1117 -2.0016 0.9779
0.8882 5.1470 -2.0016 0.9779
0.5163 5.1975 -2.0016 0.9779
0.1417 5.2211 -2.0016 0.9779
-0.0460 5.2228 -2.0016 0.9779
-0.2337 5.2178 -2.0016 0.9779
-0.4210 5.2060 -2.0016 0.9779
-0.6078 5.1875 -2.0016 0.9779
-0.7938 5.1624 -2.0016 0.9779
-1.3448 5.0469 -2.0016 0.9779
-1.8801 4.8729 -2.0016 0.9779
-2.0540 4.8022 -2.0016 0.9779
-2.2252 4.7253 -2.0016 0.9779
-2.5588 4.5533 -2.0016 0.9779
-2.7208 4.4584 -2.0016 0.9779
-2.8792 4.3578 -2.0016 0.9779
-3.0340 4.2515 -2.0016 0.9779
-3.6118 3.7729 -2.0016 0.9779
-4.1151 3.2166 -2.0016 0.9779
-4.2280 3.0666 -2.0016 0.9779
-4.4373 2.7551 -2.0016 0.9779
-4.6237 2.4292 -2.0016 0.9779
-4.7080 2.2615 -2.0016 0.9779
-4.7863 2.0909 -2.0016 0.9779
-4.9241 1.7418 -2.0016 0.9779
-4.9835 1.5637 -2.0016 0.9779
-5.2158 0.2739 -2.0016 0.9779
-5.2013 -0.4762 -2.0016 0.9779
-5.1808 -0.6628 -2.0016 0.9779
-5.1198 -1.0332 -2.0016 0.9779
-5.0794 -1.2165 -2.0016 0.9779
-4.9789 -1.5782 -2.0016 0.9779
-4.9190 -1.7561 -2.0016 0.9779
-4.7802 -2.1048 -2.0016 0.9779
-4.1093 -2.5680 -1.8570 0.9795
-4.0144 -2.7140 -1.8570 0.9795
-3.5842 -3.2612 -1.8570 0.9795
-3.4647 -3.3878 -1.8570 0.9795
-3.2124 -3.6279 -1.8570 0.9795
-3.0800 -3.7410 -1.8570 0.9795
-2.9436 -3.8493 -1.8570 0.9795
-2.5122 -4.1437 -1.8570 0.9795
-2.3617 -4.2313 -1.8570 0.9795
-2.0517 -4.3900 -1.8570 0.9795
-1.4016 -4.6386 -1.8570 0.9795
-1.0648 -4.7273 -1.8570 0.9795
-0.7226 -4.7916 -1.8570 0.9795
-0.5499 -4.8144 -1.8570 0.9795
-0.3766 -4.8311 -1.8570 0.9795
-0.0286 -4.8457 -1.8570 0.9795
0.1455 -4.8436 -1.8570 0.9795
1.0089 -4.7396 -1.8570 0.9795
1.1786 -4.7002 -1.8570 0.9795
1.5131 -4.6035 -1.8570 0.9795
1.6775 -4.5461 -1.8570 0.9795
1.8398 -4.4829 -1.8570 0.9795
2.0085 -4.0405 -1.7292 0.9809
2.3613 -4.0007 -1.7803 0.9803
2.7564 -3.9854 -1.8570 0.9795
2.8979 -3.8838 -1.8570 0.9795
3.0356 -3.7771 -1.8570 0.9795
3.4244 -3.4285 -1.8570 0.9795
3.8214 -3.5605 -2.0016 0.9779
4.1824 -3.1285 -2.0016 0.9779
4.6742 -2.3306 -2.0016 0.9779
4.7550 -2.1611 -2.0016 0.9779
4.8979 -1.8141 -2.0016 0.9779
4.9599 -1.6369 -2.0016 0.9779
5.0155 -1.4576 -2.0016 0.9779
5.0647 -1.2764 -2.0016 0.9779
5.1073 -1.0936 -2.0016 0.9779
5.1726 -0.7240 -2.0016 0.9779
5.1953 -0.5377 -2.0016 0.9779
5.2112 -0.3506 -2.0016 0.9779
5.2187 0.2122 -2.0016 0.9779
5.0967 1.1416 -2.0016 0.9779
5.0524 1.3240 -2.0016 0.9779
5.0016 1.5047 -2.0016 0.9779
4.9443 1.6834 -2.0016 0.9779
4.8806 1.8600 -2.0016 0.9779
4.8106 2.0342 -2.0016 0.9779
4.4696 2.7024 -2.0016 0.9779
4.3696 2.8613 -2.0016 0.9779
3.9146 3.4578 -2.0016 0.9779
3.3788 3.9830 -2.0016 0.9779
2.6124 4.5227 -2.0016 0.9779
1.4043 5.0307 -2.0016 0.9779
1.2226 5.0779 -2.0016 0.9779
0.8548 5.1526 -2.0016 0.9779
0.6691 5.1800 -2.0016 0.9779
0.2953 5.2147 -2.0016 0.9779
0.1077 5.2219 -2.0016 0.9779
-0.0800 5.2224 -2.0016 0.9779
-0.2676 5.2162 -2.0016 0.9779
-0.4548 5.2032 -2.0016 0.9779
-0.6415 5.1835 -2.0016 0.9779
-0.8274 5.1571 -2.0016 0.9779
-1.0121 5.1240 -2.0016 0.9779
-1.1956 5.0844 -2.0016 0.9779
-1.7358 4.9262 -2.0016 0.9779
-1.9117 4.8606 -2.0016 0.9779
-2.0851 4.7888 -2.0016 0.9779
-2.9075 4.3390 -2.0016 0.9779
-3.0615 4.2317 -2.0016 0.9779
-3.2116 4.1189 -2.0016 0.9779
-3.7686 3.6163 -2.0016 0.9779
-3.8961 3.4786 -2.0016 0.9779
-4.5502 2.5643 -2.0016 0.9779
-4.6394 2.3992 -2.0016 0.9779
-4.9935 1.5313 -2.0016 0.9779
-5.0453 1.3509 -2.0016 0.9779
-5.0906 1.1687 -2.0016 0.9779
-5.1293 0.9850 -2.0016 0.9779
-5.1614 0.8001 -2.0016 0.9779
-5.1868 0.6141 -2.0016 0.9779
-5.2130 -0.3229 -2.0016 0.9779
-5.1764 -0.6965 -2.0016 0.9779
-5.1480 -0.8820 -2.0016 0.9779
-5.0714 -1.2495 -2.0016 0.9779
-4.9075 -1.7880 -2.0016 0.9779
-4.8401 -1.9632 -2.0016 0.9779
-4.7664 -2.1358 -2.0016 0.9779
-4.5306 -2.2290 -1.9350 0.9786
-4.2684 -2.2940 -1.8570 0.9795
-3.7896 -3.0200 -1.8570 0.9795
-3.6786 -3.1542 -1.8570 0.9795
-3.4426 -3.4103 -1.8570 0.9795
-2.7776 -3.9707 -1.8570 0.9795
-2.1801 -4.3276 -1.8570 0.9795
-1.7017 -4.5371 -1.8570 0.9795
-1.5376 -4.5953 -1.8570 0.9795
-1.3714 -4.6476 -1.8570 0.9795
-0.6914 -4.7962 -1.8570 0.9795
-0.3452 -4.8334 -1.8570 0.9795
-0.1713 -4.8427 -1.8570 0.9795
0.0028 -4.8458 -1.8570 0.9795
0.1770 -4.8425 -1.8570 0.9795
0.6971 -4.7954 -1.8570 0.9795
1.2091 -4.6925 -1.8570 0.9795
1.7070 -4.5351 -1.8570 0.9795
1.8689 -4.4709 -1.8570 0.9795
2.0007 -4.3409 -1.8317 0.9797
2.6379 -4.0648 -1.8570 0.9795
2.9230 -3.8649 -1.8570 0.9795
3.0600 -3.7573 -1.8570 0.9795
3.1931 -3.6450 -1.8570 0.9795
3.3220 -3.5279 -1.8570 0.9795
3.4466 -3.4062 -1.8570 0.9795
3.9690 -3.3951 -2.0016 0.9779
4.0885 -3.2503 -2.0016 0.9779
4.2026 -3.1013 -2.0016 0.9779
4.4145 -2.7915 -2.0016 0.9779
4.5120 -2.6310 -2.0016 0.9779
4.7689 -2.1302 -2.0016 0.9779
4.9704 -1.6046 -2.0016 0.9779
5.1143 -1.0604 -2.0016 0.9779
5.1491 -0.8760 -2.0016 0.9779
5.1772 -0.6904 -2.0016 0.9779
5.2214 -0.1292 -2.0016 0.9779
5.2172 0.2461 -2.0016 0.9779
5.1604 0.8061 -2.0016 0.9779
5.1281 0.9910 -2.0016 0.9779
5.0892 1.1747 -2.0016 0.9779
4.9917 1.5372 -2.0016 0.9779
4.9333 1.7155 -2.0016 0.9779
4.8684 1.8917 -2.0016 0.9779
4.7973 2.0654 -2.0016 0.9779
4.7200 2.2365 -2.0016 0.9779
4.6366 2.4046 -2.0016 0.9779
4.5472 2.5697 -2.0016 0.9779
3.8920 3.4832 -2.0016 0.9779
3.7643 3.6208 -2.0016 0.9779
3.2068 4.1227 -2.0016 0.9779
3.0565 4.2353 -2.0016 0.9779
2.7445 4.4439 -2.0016 0.9779
2.5830 4.5396 -2.0016 0.9779
2.2503 4.7134 -2.0016 0.9779
2.0795 4.7912 -2.0016 0.9779
1.9060 4.8629 -2.0016 0.9779
1.7300 4.9282 -2.0016 0.9779
1.5518 4.9872 -2.0016 0.9779
-0.1139 5.2218 -2.0016 0.9779
-0.3014 5.2143 -2.0016 0.9779
-0.4886 5.2001 -2.0016 0.9779
-0.6752 5.1792 -2.0016 0.9779
-1.5900 4.9751 -2.0016 0.9779
-1.7678 4.9148 -2.0016 0.9779
-2.1162 4.7751 -2.0016 0.9779
-2.4537 4.6108 -2.0016 0.9779
-2.7785 4.4227 -2.0016 0.9779
-3.3834 3.9790 -2.0016 0.9779
-3.5242 3.8548 -2.0016 0.9779
-3.6605 3.7257 -2.0016 0.9779
-3.9186 3.4532 -2.0016 0.9779
-4.0402 3.3102 -2.0016 0.9779
-4.3729 2.8561 -2.0016 0.9779
-4.4727 2.6972 -2.0016 0.9779
-4.6549 2.3690 -2.0016 0.9779
-4.7370 2.2002 -2.0016 0.9779
-4.8130 2.0285 -2.0016 0.9779
-4.8828 1.8543 -2.0016 0.9779
-5.0034 1.4988 -2.0016 0.9779
-5.0540 1.3181 -2.0016 0.9779
-5.2082 0.3935 -2.0016 0.9779
-5.2190 0.2061 -2.0016 0.9779
-5.2203 -0.1693 -2.0016 0.9779
-5.1947 -0.5438 -2.0016 0.9779
-5.1718 -0.7301 -2.0016 0.9779
-5.0138 -1.4635 -2.0016 0.9779
-4.8957 -1.8198 -2.0016 0.9779
-4.8272 -1.9946 -2.0016 0.9779
-4.4653 -2.2330 -1.9132 0.9788
-4.2534 -2.3217 -1.8570 0.9795
-4.1672 -2.4730 -1.8570 0.9795
-3.9788 -2.7659 -1.8570 0.9795
-3.8769 -2.9071 -1.8570 0.9795
-3.6581 -3.1780 -1.8570 0.9795
-3.4204 -3.4326 -1.8570 0.9795
-3.2948 -3.5532 -1.8570 0.9795
-3.1650 -3.6693 -1.8570 0.9795
-3.0311 -3.7807 -1.8570 0.9795
-2.4582 -4.1760 -1.8570 0.9795
1.3455 4.7018 -2.0016 0.9791
1.1756 4.7471 -2.0016 0.9791
0.6580 4.8460 -2.0016 0.9791
0.4834 4.8666 -2.0016 0.9791
0.3082 4.8808 -2.0016 0.9791
0.1326 4.8887 -2.0016 0.9791
-0.0431 4.8903 -2.0016 0.9791
-0.2188 4.8856 -2.0016 0.9791
-0.3942 4.8746 -2.0016 0.9791
-0.5691 4.8573 -2.0016 0.9791
-0.9165 4.8039 -2.0016 0.9791
-1.0885 4.7678 -2.0016 0.9791
-1.2592 4.7256 -2.0016 0.9791
-1.9232 4.4965 -2.0016 0.9791
-2.0835 4.4245 -2.0016 0.9791
-2.2412 4.3467 -2.0016 0.9791
-2.5476 4.1746 -2.0016 0.9791
-2.9820 3.8762 -2.0016 0.9791
-3.1194 3.7665 -2.0016 0.9791
-3.2527 3.6520 -2.0016 0.9791
-3.3818 3.5327 -2.0016 0.9791
-3.6268 3.2807 -2.0016 0.9791
-3.7424 3.1483 -2.0016 0.9791
-3.8531 3.0118 -2.0016 0.9791
-3.9588 2.8714 -2.0016 0.9791
-4.0594 2.7273 -2.0016 0.9791
-4.1548 2.5796 -2.0016 0.9791
-4.3293 2.2746 -2.0016 0.9791
-4.4815 1.9578 -2.0016 0.9791
-4.6106 1.6309 -2.0016 0.9791
-4.6662 1.4641 -2.0016 0.9791
-4.7158 1.2955 -2.0016 0.9791
-4.7593 1.1252 -2.0016 0.9791
-1.9528 0.2441 -0.8055 0.9915
-1.9425 0.1020 -0.7961 0.9916
-1.9442 -0.1078 -0.7969 0.9916
-1.9518 -0.2497 -0.8053 0.9915
-2.0753 -0.3417 -0.8608 0.9910
-4.7120 -1.3092 -2.0016 0.9791
-4.6619 -1.4777 -2.0016 0.9791
-4.6058 -1.6443 -2.0016 0.9791
-4.4758 -1.9708 -2.0016 0.9791
-3.7588 -2.5412 -1.8570 0.9806
-3.6651 -2.6746 -1.8570 0.9806
-3.4635 -2.9310 -1.8570 0.9806
-3.3560 -3.0535 -1.8570 0.9806
-3.2441 -3.1721 -1.8570 0.9806
-3.0079 -3.3969 -1.8570 0.9806
-1.7721 -4.1769 -1.8570 0.9806
-1.6209 -4.2378 -1.8570 0.9806
-1.1555 -4.3877 -1.8570 0.9806
-0.9970 -4.4263 -1.8570 0.9806
-0.8373 -4.4593 -1.8570 0.9806
0.2991 -4.5274 -1.8570 0.9806
0.6235 -4.4942 -1.8570 0.9806
0.9447 -4.4378 -1.8570 0.9806
1.8724 -4.1329 -1.8570 0.9806
2.0085 -4.0405 -1.8467 0.9807
2.1644 -3.9877 -1.8570 0.9806
2.3063 -3.9074 -1.8570 0.9806
2.9675 -3.4322 -1.8570 0.9806
3.0890 -3.3234 -1.8570 0.9806
3.2064 -3.2102 -1.8570 0.9806
3.6956 -3.2030 -2.0016 0.9791
3.9161 -2.9294 -2.0016 0.9791
4.0188 -2.7867 -2.0016 0.9791
4.1164 -2.6405 -2.0016 0.9791
4.2086 -2.4909 -2.0016 0.9791
4.2954 -2.3381 -2.0016 0.9791
4.5861 -1.6986 -2.0016 0.9791
4.6441 -1.5327 -2.0016 0.9791
4.6962 -1.3648 -2.0016 0.9791
4.7821 -1.0240 -2.0016 0.9791
4.8158 -0.8515 -2.0016 0.9791
4.8433 -0.6779 -2.0016 0.9791
4.8645 -0.5034 -2.0016 0.9791
4.8881 -0.1528 -2.0016 0.9791
4.8904 0.0230 -2.0016 0.9791
4.8596 0.5491 -2.0016 0.9791
4.8367 0.7234 -2.0016 0.9791
4.8076 0.8967 -2.0016 0.9791
4.7723 1.0689 -2.0016 0.9791
4.3559 2.2233 -2.0016 0.9791
4.2732 2.3784 -2.0016 0.9791
4.0914 2.6791 -2.0016 0.9791
3.8884 2.9660 -2.0016 0.9791
3.7793 3.1039 -2.0016 0.9791
3.6653 3.2377 -2.0016 0.9791
3.4233 3.4925 -2.0016 0.9791
3.0276 3.8407 -2.0016 0.9791
2.8877 3.9470 -2.0016 0.9791
2.5967 4.1442 -2.0016 0.9791
2.1357 4.3995 -2.0016 0.9791
1.9762 4.4734 -2.0016 0.9791
1.6498 4.6038 -2.0016 0.9791
1.4833 4.6601 -2.0016 0.9791
1.3149 4.7104 -2.0016 0.9791
0.1009 4.8895 -2.0016 0.9791
-0.4259 4.8719 -2.0016 0.9791
-1.1195 4.7606 -2.0016 0.9791
-1.2898 4.7174 -2.0016 0.9791
-1.4585 4.6680 -2.0016 0.9791
-1.7900 4.5511 -2.0016 0.9791
-2.8666 3.9623 -2.0016 0.9791
-3.1438 3.7462 -2.0016 0.9791
-3.5287 3.3861 -2.0016 0.9791
-3.6481 3.2571 -2.0016 0.9791
-3.7627 3.1239 -2.0016 0.9791
-3.8726 2.9867 -2.0016 0.9791
-4.1715 2.5526 -2.0016 0.9791
-4.2605 2.4011 -2.0016 0.9791
-4.3440 2.2464 -2.0016 0.9791
-4.4219 2.0889 -2.0016 0.9791
-4.5606 1.7659 -2.0016 0.9791
-4.7241 1.2649 -2.0016 0.9791
-1.9977 0.3097 -0.8274 0.9913
-1.9565 0.1606 -0.8034 0.9916
-1.9383 0.0892 -0.7941 0.9916
-1.9229 -0.0499 -0.7872 0.9917
-1.9478 -0.1206 -0.7987 0.9916
-1.9492 -0.2623 -0.8050 0.9915
-2.1339 -0.3656 -0.8861 0.9907
-4.7875 -0.9985 -2.0016 0.9791
-4.6522 -1.5079 -2.0016 0.9791
-4.5950 -1.6741 -2.0016 0.9791
-4.5319 -1.8382 -2.0016 0.9791
-4.3882 -2.1589 -2.0016 0.9791
-4.1497 -2.2302 -1.9281 0.9798
-3.8320 -2.4295 -1.8570 0.9806
-3.7422 -2.5656 -1.8570 0.9806
-3.6476 -2.6984 -1.8570 0.9806
-3.5483 -2.8277 -1.8570 0.9806
-3.4444 -2.9534 -1.8570 0.9806
-3.3361 -3.0753 -1.8570 0.9806
-3.1066 -3.3069 -1.8570 0.9806
-2.9858 -3.4164 -1.8570 0.9806
-2.4655 -3.8089 -1.8570 0.9806
-2.0413 -4.0521 -1.8570 0.9806
-1.7450 -4.1883 -1.8570 0.9806
-1.4397 -4.3028 -1.8570 0.9806
-1.2841 -4.3517 -1.8570 0.9806
-1.1269 -4.3951 -1.8570 0.9806
-0.9683 -4.4327 -1.8570 0.9806
-0.3232 -4.5257 -1.8570 0.9806
-0.1604 -4.5344 -1.8570 0.9806
0.0027 -4.5372 -1.8570 0.9806
0.3285 -4.5253 -1.8570 0.9806
0.8136 -4.4637 -1.8570 0.9806
0.9735 -4.4316 -1.8570 0.9806
1.1321 -4.3937 -1.8570 0.9806
1.2892 -4.3502 -1.8570 0.9806
1.5983 -4.2464 -1.8570 0.9806
2.0286 -4.0152 -1.8411 0.9807
2.1902 -3.9736 -1.8570 0.9806
2.3316 -3.8923 -1.8570 0.9806
2.4700 -3.8060 -1.8570 0.9806
2.6051 -3.7148 -1.8570 0.9806
2.8652 -3.5181 -1.8570 0.9806
2.9898 -3.4129 -1.8570 0.9806
3.1105 -3.3033 -1.8570 0.9806
3.7163 -3.1790 -2.0016 0.9791
3.9351 -2.9039 -2.0016 0.9791
4.3105 -2.3101 -2.0016 0.9791
4.4653 -1.9946 -2.0016 0.9791
4.6540 -1.5025 -2.0016 0.9791
4.7499 -1.1643 -2.0016 0.9791
4.8212 -0.8202 -2.0016 0.9791
4.8902 0.0548 -2.0016 0.9791
4.8851 0.2304 -2.0016 0.9791
4.8559 0.5807 -2.0016 0.9791
4.7226 1.2704 -2.0016 0.9791
4.6192 1.6063 -2.0016 0.9791
4.4919 1.9339 -2.0016 0.9791
4.4195 2.0941 -2.0016 0.9791
4.3414 2.2515 -2.0016 0.9791
4.2577 2.4061 -2.0016 0.9791
4.1685 2.5575 -2.0016 0.9791
4.0739 2.7056 -2.0016 0.9791
3.9740 2.8503 -2.0016 0.9791
3.8690 2.9912 -2.0016 0.9791
3.7591 3.1283 -2.0016 0.9791
3.6442 3.2614 -2.0016 0.9791
3.4006 3.5147 -2.0016 0.9791
3.2721 3.6346 -2.0016 0.9791
3.1394 3.7499 -2.0016 0.9791
3.0026 3.8602 -2.0016 0.9791
2.8619 3.9656 -2.0016 0.9791
2.7176 4.0659 -2.0016 0.9791
2.5697 4.1609 -2.0016 0.9791
2.4186 4.2506 -2.0016 0.9791
2.2643 4.3348 -2.0016 0.9791
2.1070 4.4133 -2.0016 0.9791
1.9471 4.4862 -2.0016 0.9791
1.6199 4.6144 -2.0016 0.9791
1.4530 4.6697 -2.0016 0.9791
1.2843 4.7189 -2.0016 0.9791
0.9421 4.7989 -2.0016 0.9791
0.7690 4.8297 -2.0016 0.9791
0.5950 4.8542 -2.0016 0.9791
0.2448 4.8844 -2.0016 0.9791
-0.1066 4.8893 -2.0016 0.9791
-0.2823 4.8824 -2.0016 0.9791
-0.6322 4.8495 -2.0016 0.9791
-1.1504 4.7533 -2.0016 0.9791
-1.3204 4.7089 -2.0016 0.9791
-2.1408 4.3970 -2.0016 0.9791
-2.4511 4.2319 -2.0016 0.9791
-3.1680 3.7257 -2.0016 0.9791
-3.2999 3.6094 -2.0016 0.9791
-3.4274 3.4885 -2.0016 0.9791
-3.5506 3.3631 -2.0016 0.9791
-3.6691 3.2333 -2.0016 0.9791
-3.7829 3.0994 -2.0016 0.9791
-4.2760 2.3733 -2.0016 0.9791
-4.4354 2.0601 -2.0016 0.9791
-4.5066 1.8994 -2.0016 0.9791
-4.7322 1.2341 -2.0016 0.9791
-4.7735 1.0633 -2.0016 0.9791
-1.9466 0.2888 -0.8054 0.9915
-1.9562 0.2187 -0.8056 0.9915
-1.9541 0.1476 -0.8021 0.9916
-1.9015 0.0067 -0.7782 0.9918
-1.9282 -0.0625 -0.7896 0.9917
-1.9511 -0.1336 -0.8004 0.9916
-1.9573 -0.2049 -0.8055 0.9915
-1.9462 -0.2747 -0.8044 0.9915
-2.1607 -0.3847 -0.8982 0.9906
-4.7809 -1.0296 -2.0016 0.9791
-4.7408 -1.2007 -2.0016 0.9791
-4.5841 -1.7040 -2.0016 0.9791
-4.4498 -2.0288 -2.0016 0.9791
-3.7255 -2.5898 -1.8570 0.9806
-3.4252 -2.9757 -1.8570 0.9806
-3.0850 -3.3270 -1.8570 0.9806
-2.9635 -3.4357 -1.8570 0.9806
-2.8381 -3.5400 -1.8570 0.9806
-2.7091 -3.6397 -1.8570 0.9806
-2.5766 -3.7347 -1.8570 0.9806
-2.3017 -3.9101 -1.8570 0.9806
-2.0149 -4.0653 -1.8570 0.9806
-1.8675 -4.1351 -1.8570 0.9806
1.1041 4.4580 -2.0016 0.9802
0.9431 4.4948 -2.0016 0.9802
0.7810 4.5258 -2.0016 0.9802
0.6179 4.5509 -2.0016 0.9802
0.1246 4.5910 -2.0016 0.9802
-0.0405 4.5925 -2.0016 0.9802
-0.2055 4.5881 -2.0016 0.9802
-0.6980 4.5393 -2.0016 0.9802
-0.8607 4.5113 -2.0016 0.9802
-1.1825 4.4378 -2.0016 0.9802
-1.6532 4.2848 -2.0016 0.9802
-2.1047 4.0820 -2.0016 0.9802
-2.2500 4.0038 -2.0016 0.9802
-2.3924 3.9203 -2.0016 0.9802
-2.6678 3.7384 -2.0016 0.9802
-2.8004 3.6401 -2.0016 0.9802
-3.1759 3.3176 -2.0016 0.9802
-4.2086 1.8385 -2.0016 0.9802
-1.5940 0.5638 -0.7369 0.9926
-1.5604 0.4287 -0.7052 0.9930
-1.5059 0.2994 -0.6692 0.9933
-1.5084 0.2439 -0.6659 0.9934
-1.5208 0.1901 -0.6680 0.9933
-1.5279 0.1354 -0.6685 0.9933
-1.5295 0.0803 -0.6675 0.9933
-1.5262 -0.0296 -0.6653 0.9934
-1.5275 -0.1399 -0.6685 0.9933
-1.5200 -0.1945 -0.6679 0.9933
-1.5072 -0.2482 -0.6657 0.9934
-1.5379 -0.3683 -0.6892 0.9931
-1.5622 -0.4340 -0.7066 0.9930
-1.5814 -0.5013 -0.7230 0.9928
-4.2032 -1.8508 -2.0016 0.9802
-4.0595 -2.1479 -2.0016 0.9802
-3.6134 -2.2581 -1.8570 0.9816
-3.4419 -2.5118 -1.8570 0.9816
-3.3494 -2.6338 -1.8570 0.9816
-3.2526 -2.7525 -1.8570 0.9816
-3.1516 -2.8676 -1.8570 0.9816
-3.0465 -2.9790 -1.8570 0.9816
-2.7082 -3.2895 -1.8570 0.9816
-2.5883 -3.3847 -1.8570 0.9816
-2.4650 -3.4755 -1.8570 0.9816
-2.3385 -3.5618 -1.8570 0.9816
-2.0767 -3.7206 -1.8570 0.9816
-1.9416 -3.7928 -1.8570 0.9816
-1.3782 -4.0319 -1.8570 0.9816
-1.0851 -4.1204 -1.8570 0.9816
0.1279 -4.2590 -1.8570 0.9816
0.7368 -4.1967 -1.8570 0.9816
0.8871 -4.1675 -1.8570 0.9816
1.0363 -4.1330 -1.8570 0.9816
1.3305 -4.0479 -1.8570 0.9816
2.0326 -3.7449 -1.8570 0.9816
2.1658 -3.6694 -1.8570 0.9816
2.2963 -3.5892 -1.8570 0.9816
2.7868 -3.2232 -1.8570 0.9816
2.9008 -3.1210 -1.8570 0.9816
3.0111 -3.0147 -1.8570 0.9816
4.2467 -1.7488 -2.0016 0.9802
4.3613 -1.4393 -2.0016 0.9802
4.4102 -1.2817 -2.0016 0.9802
4.4534 -1.1224 -2.0016 0.9802
4.5683 -0.4728 -2.0016 0.9802
4.5823 -0.3083 -2.0016 0.9802
4.5904 -0.1434 -2.0016 0.9802
4.5636 0.5157 -2.0016 0.9802
4.3980 1.3231 -2.0016 0.9802
4.3476 1.4803 -2.0016 0.9802
4.0130 2.2335 -2.0016 0.9802
3.9301 2.3763 -2.0016 0.9802
3.8422 2.5160 -2.0016 0.9802
3.5491 2.9148 -2.0016 0.9802
3.3306 3.1622 -2.0016 0.9802
3.2149 3.2798 -2.0016 0.9802
3.0949 3.3932 -2.0016 0.9802
2.8432 3.6068 -2.0016 0.9802
2.7118 3.7066 -2.0016 0.9802
2.2972 3.9769 -2.0016 0.9802
2.0056 4.1316 -2.0016 0.9802
1.8558 4.2010 -2.0016 0.9802
1.2348 4.4235 -2.0016 0.9802
1.0751 4.4651 -2.0016 0.9802
0.9139 4.5008 -2.0016 0.9802
0.7516 4.5307 -2.0016 0.9802
0.2597 4.5853 -2.0016 0.9802
0.0947 4.5917 -2.0016 0.9802
-0.2353 4.5866 -2.0016 0.9802
-0.3999 4.5752 -2.0016 0.9802
-0.7275 4.5347 -2.0016 0.9802
-1.2113 4.4301 -2.0016 0.9802
-1.8335 4.2108 -2.0016 0.9802
-2.1312 4.0683 -2.0016 0.9802
-2.2760 3.9891 -2.0016 0.9802
-2.4178 3.9047 -2.0016 0.9802
-2.5566 3.8153 -2.0016 0.9802
-2.6920 3.7210 -2.0016 0.9802
-2.9523 3.5180 -2.0016 0.9802
-3.0768 3.4097 -2.0016 0.9802
-3.5336 2.9337 -2.0016 0.9802
-3.8288 2.5364 -2.0016 0.9802
-3.9174 2.3971 -2.0016 0.9802
-4.1526 1.9617 -2.0016 0.9802
-4.2205 1.8112 -2.0016 0.9802
-1.5307 0.3514 -0.6844 0.9932
-1.5001 0.2881 -0.6657 0.9934
-1.5111 0.2342 -0.6664 0.9934
-1.5225 0.1803 -0.6682 0.9933
-1.5286 0.1255 -0.6684 0.9933
-1.5244 0.0153 -0.6644 0.9934
-1.5043 -0.2577 -0.6652 0.9934
-1.5142 -0.3158 -0.6741 0.9933
-1.5661 -0.4461 -0.7097 0.9929
-1.5843 -0.5135 -0.7258 0.9928
-1.5966 -0.5817 -0.7406 0.9926
-4.2559 -1.7262 -2.0016 0.9802
-4.1911 -1.8780 -2.0016 0.9802
-4.0454 -2.1742 -2.0016 0.9802
-3.8150 -2.2306 -1.9260 0.9809
-3.5143 -2.4093 -1.8570 0.9816
-3.4255 -2.5341 -1.8570 0.9816
-3.0271 -2.9987 -1.8570 0.9816
-2.8039 -3.2083 -1.8570 0.9816
-2.6868 -3.3070 -1.8570 0.9816
-1.7790 -3.8718 -1.8570 0.9816
-1.4963 -3.9895 -1.8570 0.9816
-1.0583 -4.1274 -1.8570 0.9816
-0.9093 -4.1628 -1.8570 0.9816
-0.3035 -4.2501 -1.8570 0.9816
-0.1506 -4.2583 -1.8570 0.9816
0.4610 -4.2359 -1.8570 0.9816
0.7641 -4.1919 -1.8570 0.9816
1.0631 -4.1262 -1.8570 0.9816
1.2107 -4.0853 -1.8570 0.9816
1.3567 -4.0391 -1.8570 0.9816
1.5010 -3.9878 -1.8570 0.9816
1.6433 -3.9313 -1.8570 0.9816
1.7835 -3.8697 -1.8570 0.9816
2.0568 -3.7316 -1.8570 0.9816
2.1896 -3.6553 -1.8570 0.9816
2.5702 -3.3984 -1.8570 0.9816
2.6907 -3.3039 -1.8570 0.9816
2.8077 -3.2050 -1.8570 0.9816
2.9210 -3.1021 -1.8570 0.9816
3.0306 -2.9951 -1.8570 0.9816
3.5950 -2.8580 -2.0016 0.9802
3.6954 -2.7270 -2.0016 0.9802
3.7910 -2.5925 -2.0016 0.9802
3.8817 -2.4546 -2.0016 0.9802
3.9674 -2.3135 -2.0016 0.9802
4.0480 -2.1694 -2.0016 0.9802
4.1233 -2.0226 -2.0016 0.9802
4.1933 -1.8731 -2.0016 0.9802
4.2579 -1.7212 -2.0016 0.9802
4.3706 -1.4110 -2.0016 0.9802
4.4184 -1.2530 -2.0016 0.9802
4.5524 -0.6071 -2.0016 0.9802
4.5842 -0.2785 -2.0016 0.9802
4.5913 -0.1136 -2.0016 0.9802
4.5924 0.0514 -2.0016 0.9802
4.5876 0.2164 -2.0016 0.9802
4.5602 0.5453 -2.0016 0.9802
4.5376 0.7088 -2.0016 0.9802
4.5092 0.8714 -2.0016 0.9802
4.4350 1.1930 -2.0016 0.9802
4.0770 2.1144 -2.0016 0.9802
3.9984 2.2595 -2.0016 0.9802
3.9146 2.4018 -2.0016 0.9802
3.8258 2.5409 -2.0016 0.9802
3.6334 2.8091 -2.0016 0.9802
3.5301 2.9378 -2.0016 0.9802
3.4223 3.0628 -2.0016 0.9802
3.0728 3.4133 -2.0016 0.9802
2.6877 3.7241 -2.0016 0.9802
2.5521 3.8183 -2.0016 0.9802
2.1264 4.0708 -2.0016 0.9802
1.9787 4.1445 -2.0016 0.9802
1.8285 4.2130 -2.0016 0.9802
1.6759 4.2760 -2.0016 0.9802
1.3645 4.3853 -2.0016 0.9802
1.2061 4.4315 -2.0016 0.9802
0.7222 4.5355 -2.0016 0.9802
0.3946 4.5757 -2.0016 0.9802
0.0649 4.5922 -2.0016 0.9802
-0.1001 4.5916 -2.0016 0.9802
-1.0803 4.4638 -2.0016 0.9802
-1.5544 4.3216 -2.0016 0.9802
-1.7087 4.2630 -2.0016 0.9802
-2.1575 4.0543 -2.0016 0.9802
-2.3018 3.9742 -2.0016 0.9802
-3.2187 3.2761 -2.0016 0.9802
-3.3343 3.1583 -2.0016 0.9802
-3.7524 2.6480 -2.0016 0.9802
-4.0156 2.2288 -2.0016 0.9802
-4.0931 2.0831 -2.0016 0.9802
-4.1653 1.9346 -2.0016 0.9802
-4.2321 1.7837 -2.0016 0.9802
-1.5520 0.4048 -0.6990 0.9930
-1.5255 0.3398 -0.6811 0.9932
-1.5294 -0.1047 -0.6681 0.9933
-1.5254 -0.1597 -0.6684 0.9933
-1.5013 -0.2673 -0.6646 0.9934
-1.5197 -0.3273 -0.6775 0.9932
-1.5472 -0.3919 -0.6956 0.9931
-1.5982 -0.5941 -0.7431 0.9926
-4.1788 -1.9052 -2.0016 0.9802
-4.1077 -2.0542 -2.0016 0.9802
-3.7644 -2.2340 -1.9078 0.9811
-3.4986 -2.4321 -1.8570 0.9816
-3.3149 -2.6771 -1.8570 0.9816
-3.1141 -2.9083 -1.8570 0.9816
-2.7830 -3.2265 -1.8570 0.9816
-2.6653 -3.3244 -1.8570 0.9816
-2.2920 -3.5919 -1.8570 0.9816
-2.1615 -3.6720 -1.8570 0.9816
-2.0282 -3.7473 -1.8570 0.9816
1.0395 4.1973 -2.0016 0.9811
0.8880 4.2319 -2.0016 0.9811
0.5818 4.2848 -2.0016 0.9811
0.4274 4.3029 -2.0016 0.9811
0.2725 4.3155 -2.0016 0.9811
0.1173 4.3225 -2.0016 0.9811
-0.1935 4.3198 -2.0016 0.9811
-0.6572 4.2739 -2.0016 0.9811
-1.1133 4.1783 -2.0016 0.9811
-1.4105 4.0876 -2.0016 0.9811
-1.5565 4.0342 -2.0016 0.9811
-1.7005 3.9757 -2.0016 0.9811
-1.8422 3.9120 -2.0016 0.9811
-1.9816 3.8433 -2.0016 0.9811
-2.1184 3.7696 -2.0016 0.9811
-2.2525 3.6911 -2.0016 0.9811
-2.3837 3.6077 -2.0016 0.9811
-2.6366 3.4272 -2.0016 0.9811
-2.7581 3.3303 -2.0016 0.9811
-2.8760 3.2290 -2.0016 0.9811
-2.9902 3.1236 -2.0016 0.9811
-3.1005 3.0141 -2.0016 0.9811
-3.2068 2.9008 -2.0016 0.9811
-3.5893 2.4114 -2.0016 0.9811
-3.6736 2.2809 -2.0016 0.9811
-3.7532 2.1474 -2.0016 0.9811
-1.3209 0.5770 -0.6672 0.9937
-1.3335 0.4717 -0.6547 0.9938
-1.3289 0.4170 -0.6447 0.9939
-1.3091 0.2602 -0.6178 0.9941
-1.3317 0.1664 -0.6212 0.9941
-1.3376 0.1186 -0.6216 0.9941
-1.3357 0.0221 -0.6184 0.9941
-1.3213 -0.2175 -0.6198 0.9941
-1.3079 -0.2639 -0.6176 0.9941
-1.3195 -0.3666 -0.6339 0.9940
-1.3296 -0.4214 -0.6456 0.9939
-1.3334 -0.4760 -0.6554 0.9938
-1.3200 -0.5812 -0.6676 0.9937
-3.8923 -1.8836 -2.0016 0.9811
-3.8221 -2.0223 -2.0016 0.9811
-3.7469 -2.1583 -2.0016 0.9811
-3.5638 -2.2271 -1.9452 0.9816
-3.3257 -2.2484 -1.8582 0.9825
-3.1535 -2.4798 -1.8570 0.9825
-3.0624 -2.5915 -1.8570 0.9825
-2.9673 -2.6999 -1.8570 0.9825
-2.7657 -2.9060 -1.8570 0.9825
-2.6595 -3.0035 -1.8570 0.9825
-2.2018 -3.3536 -1.8570 0.9825
-1.6986 -3.6344 -1.8570 0.9825
-1.4332 -3.7470 -1.8570 0.9825
-1.2976 -3.7961 -1.8570 0.9825
-1.0216 -3.8795 -1.8570 0.9825
-0.8816 -3.9137 -1.8570 0.9825
-0.7404 -3.9428 -1.8570 0.9825
-0.5982 -3.9669 -1.8570 0.9825
-0.4553 -3.9858 -1.8570 0.9825
-0.3118 -3.9996 -1.8570 0.9825
0.4082 -3.9909 -1.8570 0.9825
0.5513 -3.9737 -1.8570 0.9825
0.6937 -3.9513 -1.8570 0.9825
0.8353 -3.9238 -1.8570 0.9825
0.9757 -3.8913 -1.8570 0.9825
1.2527 -3.8112 -1.8570 0.9825
1.5232 -3.7114 -1.8570 0.9825
1.6555 -3.6542 -1.8570 0.9825
1.9137 -3.5259 -1.8570 0.9825
2.3991 -3.2153 -1.8570 0.9825
2.6238 -3.0347 -1.8570 0.9825
2.8350 -2.8384 -1.8570 0.9825
3.2676 -2.8321 -2.0016 0.9811
3.4626 -2.5901 -2.0016 0.9811
3.7979 -2.0673 -2.0016 0.9811
3.9366 -1.7892 -2.0016 0.9811
4.1063 -1.3552 -2.0016 0.9811
4.1523 -1.2067 -2.0016 0.9811
4.1930 -1.0568 -2.0016 0.9811
4.2581 -0.7529 -2.0016 0.9811
4.3144 -0.2903 -2.0016 0.9811
4.3220 -0.1351 -2.0016 0.9811
4.3205 0.1757 -2.0016 0.9811
4.3114 0.3308 -2.0016 0.9811
4.2765 0.6396 -2.0016 0.9811
4.2196 0.9451 -2.0016 0.9811
4.1408 1.2457 -2.0016 0.9811
4.0406 1.5399 -2.0016 0.9811
3.9827 1.6841 -2.0016 0.9811
3.9196 1.8261 -2.0016 0.9811
3.8514 1.9658 -2.0016 0.9811
3.7003 2.2373 -2.0016 0.9811
3.6175 2.3688 -2.0016 0.9811
3.2408 2.8627 -2.0016 0.9811
3.1359 2.9773 -2.0016 0.9811
3.0269 3.0880 -2.0016 0.9811
2.9139 3.1948 -2.0016 0.9811
2.7973 3.2975 -2.0016 0.9811
2.0269 3.8196 -2.0016 0.9811
1.8883 3.8900 -2.0016 0.9811
1.6041 4.0156 -2.0016 0.9811
1.3115 4.1204 -2.0016 0.9811
1.1626 4.1649 -2.0016 0.9811
0.7077 4.2658 -2.0016 0.9811
0.2445 4.3172 -2.0016 0.9811
0.0892 4.3232 -2.0016 0.9811
-0.2215 4.3184 -2.0016 0.9811
-0.3765 4.3077 -2.0016 0.9811
-0.6850 4.2695 -2.0016 0.9811
-0.8379 4.2421 -2.0016 0.9811
-1.1404 4.1710 -2.0016 0.9811
-1.2896 4.1273 -2.0016 0.9811
-1.7263 3.9646 -2.0016 0.9811
-1.8676 3.9000 -2.0016 0.9811
-2.0065 3.8304 -2.0016 0.9811
-2.1429 3.7558 -2.0016 0.9811
-2.6589 3.4100 -2.0016 0.9811
-2.8969 3.2103 -2.0016 0.9811
-3.0104 3.1041 -2.0016 0.9811
-3.1200 2.9939 -2.0016 0.9811
-3.3269 2.7621 -2.0016 0.9811
-3.4241 2.6408 -2.0016 0.9811
-3.5167 2.5160 -2.0016 0.9811
-3.6049 2.3880 -2.0016 0.9811
-3.6883 2.2570 -2.0016 0.9811
-1.3308 0.5153 -0.6606 0.9937
-1.3336 0.4620 -0.6533 0.9938
-1.3161 0.3524 -0.6307 0.9940
-1.3011 0.2987 -0.6179 0.9941
-1.3242 0.2053 -0.6203 0.9941
-1.3382 0.0616 -0.6201 0.9941
-1.3368 -0.0347 -0.6190 0.9941
-1.3385 -0.0829 -0.6208 0.9941
-1.3365 -0.1311 -0.6216 0.9941
-1.3051 -0.2722 -0.6171 0.9941
-1.3216 -0.3765 -0.6361 0.9940
-1.3177 -0.5905 -0.6684 0.9937
-3.8800 -1.9089 -2.0016 0.9811
-3.8089 -2.0471 -2.0016 0.9811
-3.7328 -2.1826 -2.0016 0.9811
-3.5178 -2.2303 -1.9280 0.9818
-3.3088 -2.2684 -1.8570 0.9825
-2.9497 -2.7191 -1.8570 0.9825
-2.8501 -2.8233 -1.8570 0.9825
-2.5297 -3.1136 -1.8570 0.9825
-2.2995 -3.2873 -1.8570 0.9825
-1.4088 -3.7562 -1.8570 0.9825
-1.2729 -3.8044 -1.8570 0.9825
-1.1354 -3.8477 -1.8570 0.9825
-0.8561 -3.9193 -1.8570 0.9825
-0.5724 -3.9707 -1.8570 0.9825
-0.1418 -4.0092 -1.8570 0.9825
0.0024 -4.0118 -1.8570 0.9825
0.4341 -3.9882 -1.8570 0.9825
0.7194 -3.9467 -1.8570 0.9825
0.8607 -3.9183 -1.8570 0.9825
1.0010 -3.8849 -1.8570 0.9825
1.1399 -3.8464 -1.8570 0.9825
1.2774 -3.8029 -1.8570 0.9825
1.5472 -3.7014 -1.8570 0.9825
1.9366 -3.5134 -1.8570 0.9825
2.0616 -3.4415 -1.8570 0.9825
2.1839 -3.3652 -1.8570 0.9825
2.3034 -3.2846 -1.8570 0.9825
2.4200 -3.1997 -1.8570 0.9825
2.5334 -3.1107 -1.8570 0.9825
2.8534 -2.8200 -1.8570 0.9825
2.9529 -2.7156 -1.8570 0.9825
3.4793 -2.5675 -2.0016 0.9811
3.6547 -2.3110 -2.0016 0.9811
3.8113 -2.0426 -2.0016 0.9811
3.8822 -1.9043 -2.0016 0.9811
4.0646 -1.4755 -2.0016 0.9811
4.1150 -1.3285 -2.0016 0.9811
4.1601 -1.1797 -2.0016 0.9811
4.2340 -0.8779 -2.0016 0.9811
4.2629 -0.7252 -2.0016 0.9811
4.2862 -0.5716 -2.0016 0.9811
4.3039 -0.4172 -2.0016 0.9811
4.3161 -0.2622 -2.0016 0.9811
4.3238 0.0484 -2.0016 0.9811
4.3092 0.3588 -2.0016 0.9811
4.2935 0.5134 -2.0016 0.9811
4.2723 0.6674 -2.0016 0.9811
4.2455 0.8205 -2.0016 0.9811
4.0305 1.5661 -2.0016 0.9811
3.9717 1.7099 -2.0016 0.9811
3.9076 1.8515 -2.0016 0.9811
3.8386 1.9908 -2.0016 0.9811
3.6021 2.3923 -2.0016 0.9811
3.5138 2.5202 -2.0016 0.9811
3.4209 2.6448 -2.0016 0.9811
3.3237 2.7660 -2.0016 0.9811
3.1165 2.9976 -2.0016 0.9811
3.0067 3.1076 -2.0016 0.9811
2.8931 3.2137 -2.0016 0.9811
2.5305 3.5064 -2.0016 0.9811
2.4029 3.5950 -2.0016 0.9811
2.2721 3.6790 -2.0016 0.9811
2.1385 3.7583 -2.0016 0.9811
2.0020 3.8327 -2.0016 0.9811
1.8630 3.9022 -2.0016 0.9811
1.7216 3.9666 -2.0016 0.9811
1.2847 4.1288 -2.0016 0.9811
1.1355 4.1723 -2.0016 0.9811
0.9849 4.2105 -2.0016 0.9811
0.6799 4.2703 -2.0016 0.9811
0.3715 4.3081 -2.0016 0.9811
0.0611 4.3237 -2.0016 0.9811
-0.0943 4.3231 -2.0016 0.9811
-0.4045 4.3051 -2.0016 0.9811
-0.7127 4.2650 -2.0016 0.9811
-0.8655 4.2366 -2.0016 0.9811
-1.1675 4.1635 -2.0016 0.9811
-1.3164 4.1189 -2.0016 0.9811
-1.4635 4.0689 -2.0016 0.9811
-1.7520 3.9533 -2.0016 0.9811
-2.0314 3.8172 -2.0016 0.9811
-2.4304 3.5765 -2.0016 0.9811
-2.5573 3.4868 -2.0016 0.9811
-2.6810 3.3927 -2.0016 0.9811
-2.8011 3.2942 -2.0016 0.9811
-2.9177 3.1914 -2.0016 0.9811
-3.0305 3.0845 -2.0016 0.9811
-3.2442 2.8589 -2.0016 0.9811
-3.5330 2.4931 -2.0016 0.9811
-3.6203 2.3646 -2.0016 0.9811
-3.7029 2.2330 -2.0016 0.9811
-3.8537 1.9612 -2.0016 0.9811
-1.3247 0.5583 -0.6654 0.9937
-1.3317 0.5057 -0.6594 0.9937
-1.3334 0.4522 -0.6517 0.9938
-1.3256 0.3971 -0.6405 0.9939
-1.3137 0.3426 -0.6284 0.9940
-1.2990 0.2893 -0.6160 0.9942
-1.3142 0.2435 -0.6187 0.9941
-1.3343 0.1492 -0.6215 0.9941
-1.3383 0.1011 -0.6212 0.9941
-1.3339 0.0047 -0.6174 0.9941
-1.3355 -0.1398 -0.6216 0.9941
-1.3168 -0.2344 -0.6191 0.9941
-1.3109 -0.3320 -0.6260 0.9941
-1.3236 -0.3863 -0.6382 0.9939
-1.3322 -0.4414 -0.6496 0.9938
-1.3265 -0.5481 -0.6644 0.9937
-3.7186 -2.2068 -2.0016 0.9811
-3.2940 -2.2899 -1.8570 0.9825
-3.2096 -2.4068 -1.8570 0.9825
-3.1211 -2.5206 -1.8570 0.9825
-2.8317 -2.8418 -1.8570 0.9825
-2.6203 -3.0378 -1.8570 0.9825
-2.5094 -3.1300 -1.8570 0.9825
-2.2781 -3.3022 -1.8570 0.9825
-1.9096 -3.5281 -1.8570 0.9825
-1.7815 -3.5945 -1.8570 0.9825
1.1226 3.9230 -2.0016 0.9820
0.9809 3.9608 -2.0016 0.9820
0.5490 4.0434 -2.0016 0.9820
0.4033 4.0605 -2.0016 0.9820
0.1107 4.0790 -2.0016 0.9820
-0.0360 4.0803 -2.0016 0.9820
-0.3289 4.0672 -2.0016 0.9820
-0.6202 4.0331 -2.0016 0.9820
-1.0506 3.9429 -2.0016 0.9820
-1.9991 3.5572 -2.0016 0.9820
-2.2494 3.4045 -2.0016 0.9820
-2.3703 3.3214 -2.0016 0.9820
-2.4881 3.2341 -2.0016 0.9820
-2.6027 3.1426 -2.0016 0.9820
-2.7139 3.0471 -2.0016 0.9820
-2.9258 2.8443 -2.0016 0.9820
-3.0261 2.7373 -2.0016 0.9820
-3.2149 2.5129 -2.0016 0.9820
-3.4666 2.1524 -2.0016 0.9820
-3.5417 2.0264 -2.0016 0.9820
-1.1204 0.5886 -0.6208 0.9944
-1.1344 0.5449 -0.6173 0.9944
-1.1442 0.4999 -0.6125 0.9945
-1.1515 0.4545 -0.6072 0.9945
-1.1587 0.3636 -0.5957 0.9946
-1.1587 0.3183 -0.5894 0.9947
-1.1941 0.1058 -0.5880 0.9947
-1.1962 0.0198 -0.5868 0.9947
-1.1962 -0.0232 -0.5869 0.9947
-1.1961 -0.0663 -0.5876 0.9947
-1.1938 -0.1093 -0.5880 0.9947
-1.1738 -0.2369 -0.5874 0.9947
-1.1588 -0.3220 -0.5899 0.9947
-1.1560 -0.4127 -0.6021 0.9945
-1.1435 -0.5035 -0.6129 0.9944
-3.5358 -2.0367 -2.0016 0.9820
-2.9759 -2.3401 -1.8570 0.9833
-2.7067 -2.6467 -1.8570 0.9833
-2.6099 -2.7423 -1.8570 0.9833
-2.5097 -2.8343 -1.8570 0.9833
-2.4062 -2.9226 -1.8570 0.9833
-2.1901 -3.0879 -1.8570 0.9833
-2.0777 -3.1646 -1.8570 0.9833
-1.9627 -3.2372 -1.8570 0.9833
-1.4786 -3.4850 -1.8570 0.9833
-1.3524 -3.5359 -1.8570 0.9833
-1.2245 -3.5822 -1.8570 0.9833
-1.0950 -3.6239 -1.8570 0.9833
-0.9641 -3.6609 -1.8570 0.9833
-0.8319 -3.6932 -1.8570 0.9833
-0.5645 -3.7434 -1.8570 0.9833
-0.4296 -3.7613 -1.8570 0.9833
-0.1584 -3.7824 -1.8570 0.9833
0.2496 -3.7775 -1.8570 0.9833
0.5202 -3.7498 -1.8570 0.9833
0.9207 -3.6720 -1.8570 0.9833
1.0521 -3.6366 -1.8570 0.9833
1.5623 -3.4483 -1.8570 0.9833
1.9243 -3.2602 -1.8570 0.9833
2.1535 -3.1136 -1.8570 0.9833
2.4760 -2.8637 -1.8570 0.9833
3.0835 -2.6725 -2.0016 0.9820
3.5115 -2.0783 -2.0016 0.9820
3.6517 -1.8208 -2.0016 0.9820
3.8749 -1.2788 -2.0016 0.9820
3.9183 -1.1387 -2.0016 0.9820
3.9567 -0.9972 -2.0016 0.9820
4.0181 -0.7105 -2.0016 0.9820
4.0785 -0.1275 -2.0016 0.9820
4.0804 0.0192 -2.0016 0.9820
4.0771 0.1658 -2.0016 0.9820
3.8627 1.3152 -2.0016 0.9820
3.8129 1.4531 -2.0016 0.9820
3.7583 1.5892 -2.0016 0.9820
3.6987 1.7232 -2.0016 0.9820
3.6344 1.8550 -2.0016 0.9820
3.5654 1.9844 -2.0016 0.9820
3.4918 2.1113 -2.0016 0.9820
3.4137 2.2354 -2.0016 0.9820
3.0582 2.7014 -2.0016 0.9820
2.8563 2.9140 -2.0016 0.9820
2.6396 3.1117 -2.0016 0.9820
2.1666 3.4577 -2.0016 0.9820
1.7819 3.6708 -2.0016 0.9820
1.3765 3.8413 -2.0016 0.9820
1.0971 3.9302 -2.0016 0.9820
0.6678 4.0254 -2.0016 0.9820
0.5227 4.0468 -2.0016 0.9820
0.3770 4.0630 -2.0016 0.9820
0.2307 4.0739 -2.0016 0.9820
0.0842 4.0796 -2.0016 0.9820
-0.0625 4.0800 -2.0016 0.9820
-0.5012 4.0496 -2.0016 0.9820
-0.6464 4.0289 -2.0016 0.9820
-0.7907 4.0031 -2.0016 0.9820
-1.0762 3.9360 -2.0016 0.9820
-1.6290 3.7412 -2.0016 0.9820
-1.7624 3.6802 -2.0016 0.9820
-2.0221 3.5442 -2.0016 0.9820
-2.1482 3.4692 -2.0016 0.9820
-2.2715 3.3898 -2.0016 0.9820
-2.6231 3.1257 -2.0016 0.9820
-2.7337 3.0294 -2.0016 0.9820
-2.8408 2.9292 -2.0016 0.9820
-3.0438 2.7176 -2.0016 0.9820
-3.1395 2.6065 -2.0016 0.9820
-3.2311 2.4920 -2.0016 0.9820
-1.1240 0.5812 -0.6207 0.9944
-1.1364 0.5368 -0.6165 0.9944
-1.1457 0.4917 -0.6116 0.9945
-1.1526 0.4463 -0.6063 0.9945
-1.1659 0.2677 -0.5868 0.9947
-1.1763 0.2259 -0.5875 0.9947
-1.1846 0.1836 -0.5880 0.9947
-1.1907 0.1410 -0.5881 0.9947
-1.1958 -0.0741 -0.5877 0.9947
-1.1931 -0.1171 -0.5881 0.9947
-1.1882 -0.1599 -0.5881 0.9947
-1.1605 -0.2859 -0.5863 0.9947
-1.1589 -0.3301 -0.5911 0.9946
-1.1583 -0.3754 -0.5973 0.9946
-1.1498 -0.4664 -0.6087 0.9945
-1.1419 -0.5117 -0.6138 0.9944
-1.1314 -0.5566 -0.6185 0.9944
-3.5225 -2.0596 -2.0016 0.9820
-3.4462 -2.1849 -2.0016 0.9820
-3.2516 -2.2292 -1.9338 0.9826
-3.0435 -2.2514 -1.8570 0.9833
-2.9606 -2.3593 -1.8570 0.9833
-2.6895 -2.6642 -1.8570 0.9833
-2.5920 -2.7592 -1.8570 0.9833
-2.2800 -3.0221 -1.8570 0.9833
-2.1700 -3.1021 -1.8570 0.9833
-1.9416 -3.2499 -1.8570 0.9833
-1.5806 -3.4400 -1.8570 0.9833
-0.9403 -3.6671 -1.8570 0.9833
-0.8079 -3.6985 -1.8570 0.9833
-0.6745 -3.7251 -1.8570 0.9833
-0.4052 -3.7640 -1.8570 0.9833
-0.1338 -3.7833 -1.8570 0.9833
0.0022 -3.7857 -1.8570 0.9833
0.1383 -3.7832 -1.8570 0.9833
0.4096 -3.7635 -1.8570 0.9833
0.5446 -3.7463 -1.8570 0.9833
0.9446 -3.6660 -1.8570 0.9833
1.0757 -3.6297 -1.8570 0.9833
1.3336 -3.5430 -1.8570 0.9833
1.4601 -3.4928 -1.8570 0.9833
1.8275 -3.3154 -1.8570 0.9833
2.2836 -3.0194 -1.8570 0.9833
2.3906 -2.9354 -1.8570 0.9833
2.4946 -2.8476 -1.8570 0.9833
2.6926 -2.6611 -1.8570 0.9833
2.7865 -2.5626 -1.8570 0.9833
3.1008 -2.6524 -2.0016 0.9820
3.2833 -2.4229 -2.0016 0.9820
3.3682 -2.3033 -2.0016 0.9820
3.4488 -2.1808 -2.0016 0.9820
3.5249 -2.0555 -2.0016 0.9820
3.6635 -1.7970 -2.0016 0.9820
3.7257 -1.6642 -2.0016 0.9820
3.7831 -1.5293 -2.0016 0.9820
3.8356 -1.3923 -2.0016 0.9820
3.8831 -1.2536 -2.0016 0.9820
3.9257 -1.1133 -2.0016 0.9820
4.0447 -0.5394 -2.0016 0.9820
4.0759 0.1923 -2.0016 0.9820
4.0664 0.3386 -2.0016 0.9820
3.9226 1.0552 -1.9925 0.9821
3.8726 1.1925 -1.9876 0.9821
3.7479 1.6136 -2.0016 0.9820
3.6875 1.7472 -2.0016 0.9820
3.3991 2.2575 -2.0016 0.9820
3.3158 2.3782 -2.0016 0.9820
3.2282 2.4958 -2.0016 0.9820
3.1364 2.6102 -2.0016 0.9820
2.7301 3.0326 -2.0016 0.9820
2.6194 3.1287 -2.0016 0.9820
2.3879 3.3088 -2.0016 0.9820
2.1441 3.4717 -2.0016 0.9820
1.6246 3.7431 -2.0016 0.9820
0.9294 3.9732 -2.0016 0.9820
0.6416 4.0297 -2.0016 0.9820
0.3506 4.0654 -2.0016 0.9820
0.2042 4.0753 -2.0016 0.9820
-0.2355 4.0737 -2.0016 0.9820
-0.6725 4.0247 -2.0016 0.9820
-0.9598 3.9660 -2.0016 0.9820
-1.1017 3.9289 -2.0016 0.9820
-1.5181 3.7875 -2.0016 0.9820
-1.9169 3.6022 -2.0016 0.9820
-2.1707 3.4552 -2.0016 0.9820
-2.2934 3.3750 -2.0016 0.9820
-2.5299 3.2015 -2.0016 0.9820
-2.6433 3.1085 -2.0016 0.9820
-2.8597 2.9107 -2.0016 0.9820
-2.9625 2.8060 -2.0016 0.9820
-3.0614 2.6978 -2.0016 0.9820
-3.2472 2.4709 -2.0016 0.9820
-1.1072 0.6145 -0.6212 0.9944
-1.1268 0.5735 -0.6202 0.9944
-1.1383 0.5287 -0.6156 0.9944
-1.1574 0.3926 -0.5995 0.9946
-1.1680 0.2602 -0.5870 0.9947
-1.1780 0.2183 -0.5877 0.9947
-1.1956 0.0042 -0.5865 0.9947
-1.1965 -0.0388 -0.5872 0.9947
-1.1955 -0.0819 -0.5878 0.9947
-1.1545 -0.4291 -0.6042 0.9945
-1.1293 -0.5647 -0.6193 0.9944
-1.1114 -0.6066 -0.6211 0.9944
-2.6721 -2.6817 -1.8570 0.9833
-2.5740 -2.7759 -1.8570 0.9833
-2.4726 -2.8667 -1.8570 0.9833
-2.0364 -3.1913 -1.8570 0.9833
-1.5582 -3.4502 -1.8570 0.9833
1.0615 3.7093 -2.0016 0.9828
0.7923 3.7760 -2.0016 0.9828
0.6561 3.8020 -2.0016 0.9828
0.3814 3.8393 -2.0016 0.9828
0.1046 3.8568 -2.0016 0.9828
-0.1726 3.8544 -2.0016 0.9828
-0.4490 3.8320 -2.0016 0.9828
-1.2586 3.6472 -2.0016 0.9828
-1.7681 3.4292 -2.0016 0.9828
-1.8902 3.3635 -2.0016 0.9828
-2.0098 3.2934 -2.0016 0.9828
-2.1269 3.2190 -2.0016 0.9828
-2.2412 3.1405 -2.0016 0.9828
-2.3526 3.0580 -2.0016 0.9828
-2.5661 2.8811 -2.0016 0.9828
-2.6680 2.7870 -2.0016 0.9828
-2.8613 2.5882 -2.0016 0.9828
-2.9524 2.4837 -2.0016 0.9828
-3.2026 2.1516 -2.0016 0.9828
-1.0009 0.5726 -0.5982 0.9948
-1.0201 0.5360 -0.5978 0.9948
-1.0598 0.3749 -0.5832 0.9949
-1.0640 0.2923 -0.5724 0.9950
-1.0761 0.2544 -0.5736 0.9950
-1.0943 0.1769 -0.5751 0.9950
-1.1003 0.1375 -0.5752 0.9950
-1.1063 0.0581 -0.5747 0.9950
-1.1065 -0.0215 -0.5741 0.9950
-1.1062 -0.0613 -0.5748 0.9950
-1.1040 -0.1011 -0.5751 0.9950
-1.0855 -0.2191 -0.5745 0.9950
-1.0638 -0.2956 -0.5728 0.9950
-1.0627 -0.3368 -0.5783 0.9950
-1.0541 -0.4196 -0.5886 0.9949
-1.0465 -0.4608 -0.5932 0.9949
-1.0187 -0.5390 -0.5979 0.9948
-0.9776 -0.6109 -0.5981 0.9948
-3.1963 -2.1609 -2.0016 0.9828
-3.0486 -2.2247 -1.9579 0.9831
-2.7324 -2.3123 -1.8570 0.9840
-2.6476 -2.4090 -1.8570 0.9840
-2.5593 -2.5026 -1.8570 0.9840
-2.4677 -2.5929 -1.8570 0.9840
-1.8558 -3.0609 -1.8570 0.9840
-1.7446 -3.1256 -1.8570 0.9840
-1.6311 -3.1863 -1.8570 0.9840
-1.3981 -3.2952 -1.8570 0.9840
-1.1578 -3.3871 -1.8570 0.9840
-0.9116 -3.4615 -1.8570 0.9840
-0.7866 -3.4920 -1.8570 0.9840
-0.6606 -3.5180 -1.8570 0.9840
-0.4062 -3.5564 -1.8570 0.9840
-0.0211 -3.5795 -1.8570 0.9840
0.3642 -3.5609 -1.8570 0.9840
0.6190 -3.5256 -1.8570 0.9840
0.7453 -3.5011 -1.8570 0.9840
0.9948 -3.4385 -1.8570 0.9840
1.1177 -3.4005 -1.8570 0.9840
1.2392 -3.3582 -1.8570 0.9840
1.9291 -3.0152 -1.8570 0.9840
2.0362 -2.9440 -1.8570 0.9840
2.2423 -2.7901 -1.8570 0.9840
2.3411 -2.7078 -1.8570 0.9840
2.5296 -2.5326 -1.8570 0.9840
3.0045 -2.4205 -2.0016 0.9828
3.3202 -1.9651 -2.0016 0.9828
3.4528 -1.7216 -2.0016 0.9828
3.5124 -1.5964 -2.0016 0.9828
3.6180 -1.3400 -2.0016 0.9828
3.8210 -0.5348 -2.0016 0.9828
3.8377 -0.3972 -2.0016 0.9828
3.8563 -0.1205 -2.0016 0.9828
3.8582 0.0181 -2.0016 0.9828
3.8338 0.4332 -2.0016 0.9828
3.8158 0.5707 -2.0016 0.9828
3.7928 0.7075 -2.0016 0.9828
3.7481 0.8395 -1.9926 0.9828
3.7061 0.9712 -1.9876 0.9829
3.6724 1.1048 -1.9895 0.9829
3.4973 1.6294 -2.0016 0.9828
3.3712 1.8763 -2.0016 0.9828
3.2278 2.1136 -2.0016 0.9828
3.0676 2.3400 -2.0016 0.9828
2.7007 2.7553 -2.0016 0.9828
2.2781 3.1138 -2.0016 0.9828
2.1648 3.1937 -2.0016 0.9828
2.0486 3.2694 -2.0016 0.9828
1.9298 3.3409 -2.0016 0.9828
1.6849 3.4709 -2.0016 0.9828
1.4312 3.5829 -2.0016 0.9828
1.0374 3.7161 -2.0016 0.9828
0.7678 3.7810 -2.0016 0.9828
