ply
format ascii 1.0
element vertex 1541
property float32 x
property float32 y
property float32 z
property float32 I
end_header
-5.2077 13.9786 2.6303 0.9412
-6.3710 13.9467 2.7036 0.9396
-7.6281 13.9502 2.8035 0.9375
-8.3147 13.9871 2.8692 0.9360
-9.7415 13.9911 3.0061 0.9331
-12.1794 13.9978 3.2717 0.9274
-13.0619 13.9653 3.3717 0.9253
-14.0337 13.9629 3.4907 0.9227
-19.8594 15.8974 4.4855 0.9018
-21.2198 8.6608 4.0416 0.9111
-25.1465 -22.3549 5.9328 0.8723
-23.4014 -22.3597 5.7071 0.8768
-18.8567 -22.3724 5.1592 0.8879
-17.2266 -21.9963 4.9264 0.8927
-14.7445 -21.9023 4.6555 0.8983
-10.7831 -22.3948 4.3827 0.9040
-8.8653 -22.4001 4.2478 0.9068
-7.9459 -22.3977 4.1905 0.9080
-7.0513 -22.4002 4.1408 0.9090
-2.8221 -22.4119 3.9830 0.9123
-2.0122 -22.4691 3.9778 0.9124
-1.1976 -22.4164 3.9583 0.9129
-0.3908 -22.4187 3.9536 0.9130
0.2944 -15.9037 2.8047 0.9374
2.2210 -4.2069 0.8388 0.9809
32.8779 -33.6837 8.2996 0.8260
32.8618 -29.1504 7.7456 0.8366
33.5300 -25.6878 7.4479 0.8423
36.1607 -25.6952 7.8219 0.8351
45.5248 13.1283 8.3544 0.8249
35.2581 14.4347 6.7178 0.8566
27.4760 13.6290 5.4080 0.8829
27.1280 14.6939 5.4400 0.8822
26.3234 15.5067 5.3870 0.8833
26.5278 18.3142 5.6840 0.8773
26.8137 24.8799 6.4498 0.8619
26.9002 28.8230 6.9518 0.8520
7.6238 16.7367 3.2428 0.9280
1.9655 13.9587 2.4856 0.9444
0.9486 13.9264 2.4613 0.9449
-0.5550 13.9306 2.4583 0.9449
-2.0777 13.9699 2.4904 0.9442
-2.5942 13.9714 2.5056 0.9439
-3.1177 13.9728 2.5244 0.9435
-5.8983 13.9805 2.6756 0.9402
-7.1052 13.9488 2.7602 0.9384
-7.7497 13.9506 2.8139 0.9372
-8.4418 13.9875 2.8807 0.9358
-9.8811 13.9915 3.0203 0.9328
-12.3449 13.9983 3.2910 0.9270
-17.5528 16.0354 4.1921 0.9080
-18.8766 16.0391 4.3677 0.9043
-26.7398 -22.4054 6.1513 0.8679
-24.8764 -22.4139 5.9042 0.8728
-23.0873 -22.3564 5.6667 0.8776
-21.5466 -22.4198 5.4829 0.8814
-20.0024 -22.3692 5.2912 0.8853
-18.6032 -22.3731 5.1306 0.8885
-17.2191 -22.2916 4.9667 0.8919
-15.7121 -21.9263 4.7564 0.8962
-13.3271 -21.7426 4.4967 0.9016
-11.6010 -22.3925 4.4468 0.9026
-10.5997 -22.3953 4.3689 0.9043
-6.8874 -22.4006 4.1323 0.9092
-6.0161 -22.4031 4.0902 0.9101
-4.3203 -22.4078 4.0239 0.9115
-3.4907 -22.4101 3.9991 0.9120
-0.2412 -22.4191 3.9533 0.9130
32.8791 -33.2381 8.2437 0.8270
32.8629 -28.7616 7.7005 0.8375
32.8685 -26.7430 7.4716 0.8419
36.6789 -25.6966 7.8967 0.8337
39.6500 -25.7049 8.3320 0.8254
27.8267 -16.6511 5.7179 0.8766
32.6508 -25.3620 6.3336 0.8459
35.6521 -25.6937 6.7323 0.8371
37.4236 -24.9775 6.8927 0.8335
33.0135 -7.6988 5.1932 0.8718
31.5709 -5.0050 4.8969 0.8787
29.2850 -3.5692 4.5195 0.8875
30.9009 -0.4158 4.7343 0.8824
36.5569 13.1774 5.9530 0.8545
35.0340 14.0706 5.7837 0.8583
26.2462 15.2261 4.6484 0.8845
25.9535 16.3301 4.6975 0.8833
26.0567 17.7332 4.8285 0.8803
25.7050 18.8802 4.8859 0.8789
28.3597 22.4425 5.5403 0.8639
27.9378 23.7901 5.6214 0.8620
26.7197 24.4627 5.5497 0.8636
31.9241 36.2784 7.4031 0.8224
1.1135 14.8812 2.2861 0.9414
0.0418 14.9227 2.2861 0.9414
-1.5644 14.8405 2.2861 0.9414
-3.1524 14.5860 2.2861 0.9414
-4.1919 14.3219 2.2861 0.9414
-5.2097 13.9838 2.2861 0.9414
-5.7748 13.9469 2.3125 0.9407
-6.9881 13.9484 2.3900 0.9388
-7.4208 13.5712 2.3696 0.9393
-7.7731 13.0761 2.3304 0.9403
-9.0115 13.9891 2.5492 0.9349
-13.0619 13.9653 2.9294 0.9255
-14.0337 13.9629 3.0327 0.9230
-17.4547 13.9724 3.4252 0.9135
-21.2176 8.6599 3.5108 0.9114
-30.2671 -3.5170 4.6679 0.8840
-30.2739 -4.6257 4.6916 0.8834
-27.1041 -22.4044 5.3871 0.8674
-23.4014 -22.3597 4.9584 0.8772
-20.2086 -22.2984 4.6101 0.8853
-16.0286 -22.0555 4.1768 0.8955
-12.8376 -22.3891 3.9537 0.9008
-11.8833 -22.5673 3.9072 0.9019
-10.7831 -22.3948 3.8077 0.9043
-9.8332 -22.4524 3.7550 0.9056
-6.1767 -22.4026 3.5600 0.9102
-5.3190 -22.4050 3.5277 0.9110
-2.0122 -22.4691 3.4559 0.9128
-0.3909 -22.4187 3.4349 0.9133
0.3065 -16.5586 2.5371 0.9352
32.8778 -33.6836 7.2108 0.8266
32.1365 -30.6398 6.8022 0.8355
35.9724 -25.5614 6.7604 0.8365
32.4483 -8.5754 5.1416 0.8730
31.6340 -7.1547 4.9686 0.8770
31.1527 -5.8779 4.8566 0.8796
31.5004 -4.7784 4.8809 0.8790
30.0165 -3.4552 4.6287 0.8849
30.6610 -1.3106 4.7014 0.8832
39.4780 12.9382 6.3643 0.8453
35.0347 14.3433 5.7995 0.8580
29.2692 13.2301 4.9207 0.8781
26.7543 15.7605 4.7569 0.8819
25.8175 16.4862 4.6927 0.8834
25.7083 19.1482 4.9108 0.8783
27.3252 23.5850 5.5297 0.8641
25.0590 24.9865 5.4212 0.8666
27.9706 29.9698 6.2801 0.8471
31.7283 36.5450 7.4141 0.8221
10.6801 36.6358 5.8460 0.8569
2.0808 14.7770 2.2861 0.9414
1.0141 14.8883 2.2861 0.9414
0.4784 14.9151 2.2861 0.9414
-2.7243 14.6720 2.2861 0.9414
-3.7710 14.4384 2.2861 0.9414
-4.2874 14.2936 2.2861 0.9414
-4.7983 14.1303 2.2861 0.9414
-5.3029 13.9488 2.2861 0.9414
-6.4841 13.9470 2.3562 0.9397
-7.1052 13.9488 2.3981 0.9386
-7.4214 13.3596 2.3412 0.9400
-7.8989 13.0879 2.3418 0.9400
-9.8811 13.9915 2.6240 0.9330
-10.6564 13.9936 2.6946 0.9313
-11.4756 13.9959 2.7727 0.9294
-13.2334 13.9607 2.9469 0.9251
-14.2229 13.9634 3.0534 0.9225
-16.4821 14.0046 3.3133 0.9162
-20.3180 16.0431 3.9659 0.9005
-30.2662 -3.7219 4.6715 0.8839
-26.7398 -22.4054 5.3443 0.8683
-21.3235 -22.1877 4.7143 0.8829
-19.9428 -22.3025 4.5834 0.8860
-18.0652 -21.7260 4.3286 0.8920
-17.0792 -22.1106 4.2801 0.8931
-11.6919 -22.5679 3.8937 0.9023
-10.5997 -22.3953 3.7957 0.9046
-7.7780 -22.3981 3.6323 0.9085
-6.9043 -22.4555 3.5990 0.9093
-6.0161 -22.4031 3.5536 0.9104
-1.8611 -22.4696 3.4540 0.9128
-1.0476 -22.4169 3.4379 0.9132
1.3724 -22.4236 3.4416 0.9131
2.2483 -4.1906 0.7285 0.9809
32.8952 -33.2543 7.1657 0.8276
36.1423 -25.3207 6.7604 0.8365
32.5162 -25.2575 5.3616 0.8470
35.7928 -25.7951 5.7453 0.8370
38.0933 -25.4245 5.9639 0.8313
36.4494 -8.5001 4.8738 0.8599
30.9733 -3.7750 4.0632 0.8817
29.5545 -2.5283 3.8627 0.8872
31.5091 -1.5577 4.1081 0.8805
41.0946 13.1648 5.6193 0.8402
36.4169 13.1270 5.0409 0.8554
34.9830 14.0501 4.9092 0.8589
29.9115 13.2806 4.2618 0.8763
29.8768 14.5722 4.3287 0.8745
27.5106 15.9596 4.1416 0.8796
26.5282 16.6918 4.0815 0.8812
29.7888 23.5734 4.9468 0.8579
2.5639 17.3672 2.2861 0.9316
1.9381 17.4481 2.2861 0.9316
1.3099 17.5065 2.2861 0.9316
0.6149 15.8626 2.0672 0.9380
-1.0766 15.5584 2.0309 0.9390
-1.6424 15.5804 2.0401 0.9388
-3.9629 15.5982 2.0957 0.9371
-5.9164 15.8807 2.2069 0.9339
-6.0480 14.6069 2.0587 0.9382
-6.3710 13.9467 1.9967 0.9400
-6.9882 13.9485 2.0316 0.9390
-7.7556 13.0466 1.9765 0.9406
-9.8026 13.0523 2.1256 0.9363
-10.5587 13.0544 2.1864 0.9345
-11.3604 13.0566 2.2537 0.9326
-14.0337 13.9629 2.5779 0.9233
-20.3478 14.0153 3.2174 0.9051
-21.9525 13.9849 3.3895 0.9003
-21.2154 8.6590 2.9839 0.9117
-26.9573 -22.2830 4.5544 0.8684
-21.7822 -22.3642 4.0654 0.8817
-17.2704 -22.0521 3.6475 0.8932
-15.0680 -22.3829 3.5136 0.8969
-11.8833 -22.5673 3.3213 0.9022
-10.7831 -22.3948 3.2367 0.9046
-8.8653 -22.4001 3.1371 0.9074
-7.9459 -22.3977 3.0947 0.9086
-5.3190 -22.4050 2.9987 0.9113
-3.6441 -22.4096 2.9565 0.9125
-2.0122 -22.4691 2.9377 0.9130
-1.1976 -22.4164 2.9233 0.9134
-0.3908 -22.4187 2.9198 0.9135
0.3193 -17.2493 2.2466 0.9328
1.2222 -22.4232 2.9243 0.9134
2.2210 -4.2068 0.6195 0.9810
32.9533 -33.7609 6.1435 0.8267
32.5332 -31.0181 5.8535 0.8342
32.9683 -27.1920 5.5650 0.8417
38.4806 -25.3132 5.9980 0.8304
31.8299 -7.1991 4.2496 0.8767
34.4427 -6.4987 4.5643 0.8682
30.3252 -4.6002 3.9942 0.8836
31.0458 -3.5736 4.0695 0.8816
30.5805 -2.4105 3.9946 0.8836
35.8004 13.1755 4.9677 0.8574
29.8724 13.5027 4.2689 0.8761
29.0138 14.3918 4.2175 0.8775
27.2129 14.7399 4.0301 0.8826
27.5257 17.5770 4.2529 0.8766
27.7039 19.1261 4.3838 0.8730
29.4332 23.6133 4.9138 0.8588
28.3149 24.4393 4.8707 0.8600
26.8566 24.9196 4.7709 0.8626
33.0500 35.4123 6.3078 0.8225
2.4479 17.3839 2.2861 0.9316
1.8216 17.4607 2.2861 0.9316
1.1930 17.5149 2.2861 0.9316
-0.6193 15.5448 2.0259 0.9392
-1.1813 15.5621 2.0323 0.9390
-2.3192 15.5936 2.0530 0.9384
-2.8957 15.5952 2.0655 0.9380
-3.4801 15.5969 2.0810 0.9376
-4.0740 15.5985 2.0994 0.9370
-4.6793 15.6002 2.1209 0.9364
-7.1052 13.9488 2.0385 0.9388
-8.5296 13.0488 2.0300 0.9391
-9.2167 13.0507 2.0806 0.9376
-9.9399 13.0527 2.1365 0.9360
-10.7040 13.0548 2.1984 0.9342
-11.5148 13.0570 2.2670 0.9322
-12.4280 13.1110 2.3525 0.9297
-14.2229 13.9634 2.5955 0.9227
-16.4821 14.0046 2.8165 0.9165
-17.7407 14.0081 2.9436 0.9129
-20.6427 14.0161 3.2492 0.9043
-23.0917 -22.3606 4.1858 0.8784
-20.0024 -22.3692 3.9077 0.8860
-18.6032 -22.3731 3.7890 0.8893
-17.0346 -22.0528 3.6287 0.8937
-14.8522 -22.3835 3.4981 0.8973
-13.4086 -21.8755 3.3412 0.9017
-12.6401 -22.3896 3.3481 0.9015
-11.6919 -22.5679 3.3098 0.9026
-10.5997 -22.3953 3.2265 0.9049
-9.7071 -22.5734 3.1998 0.9056
-7.7780 -22.3981 3.0876 0.9088
-6.9043 -22.4555 3.0593 0.9096
-6.0161 -22.4031 3.0207 0.9107
-5.1613 -22.4054 2.9941 0.9114
-4.3541 -22.5832 2.9950 0.9114
-3.4907 -22.4101 2.9534 0.9126
-2.6702 -22.4124 2.9392 0.9130
-1.8611 -22.4696 2.9360 0.9131
-0.2412 -22.4191 2.9196 0.9135
0.5681 -22.5528 2.9378 0.9130
32.9476 -35.7931 6.3351 0.8218
32.4665 -32.8210 6.0118 0.8301
32.8532 -30.9070 5.8738 0.8336
32.5459 -26.4805 5.4638 0.8443
36.8236 -25.7980 5.8549 0.8341
39.0080 -25.2887 6.0537 0.8290
32.7552 -25.4431 4.4538 0.8463
35.8909 -25.8658 4.7506 0.8370
38.1136 -25.4380 4.9205 0.8316
32.6608 -7.6166 3.6013 0.8738
31.3853 -6.1391 3.4341 0.8793
33.1732 -4.0431 3.5886 0.8742
46.7676 13.1491 5.2167 0.8225
41.5427 13.3084 4.6842 0.8390
36.8426 13.2804 4.2054 0.8542
29.2926 14.2872 3.4997 0.8771
27.2462 15.8062 3.3824 0.8810
27.4494 17.2714 3.4825 0.8777
25.9436 17.6562 3.3698 0.8814
26.9843 19.8198 3.5953 0.8740
27.5762 23.4822 3.8893 0.8644
2.3504 21.1592 2.2861 0.9179
-1.5469 14.6748 1.5845 0.9424
-1.2524 8.8252 0.9572 0.9648
-2.6280 14.6996 1.6035 0.9417
-3.7682 14.8322 1.6433 0.9403
-4.3552 14.8798 1.6649 0.9395
-5.9164 15.8808 1.8198 0.9341
-7.4208 13.5712 1.6609 0.9397
-7.7556 13.0466 1.6298 0.9408
-9.0865 13.0503 1.7076 0.9380
-10.5587 13.0544 1.8029 0.9347
-12.2142 13.0590 1.9201 0.9306
-13.1277 13.0615 1.9886 0.9282
-15.6216 14.4637 2.2861 0.9179
-16.2072 13.9584 2.2968 0.9175
-17.4547 13.9724 2.4009 0.9140
-18.8538 14.0112 2.5224 0.9098
-20.3478 14.0153 2.6531 0.9054
-21.2133 8.6581 2.4604 0.9119
-27.2496 -22.5246 3.7964 0.8674
-23.4014 -22.3597 3.4756 0.8779
-21.8356 -22.4190 3.3606 0.8817
-18.8567 -22.3724 3.1419 0.8890
-15.0680 -22.3829 2.8974 0.8971
-12.8376 -22.3891 2.7714 0.9014
-11.8833 -22.5673 2.7388 0.9025
-10.7831 -22.3948 2.6690 0.9048
-7.9459 -22.3977 2.5520 0.9088
-5.3190 -22.4050 2.4728 0.9115
-4.5018 -22.5387 2.4681 0.9117
-3.6441 -22.4096 2.4380 0.9127
-1.1976 -22.4164 2.4106 0.9136
0.3205 -17.3159 1.8597 0.9327
1.2222 -22.4232 2.4114 0.9136
2.2210 -4.2068 0.5108 0.9810
33.0293 -29.2989 4.7411 0.8373
49.5167 -3.9031 5.3337 0.8189
33.1512 0.9671 3.5613 0.8751
40.1773 13.1674 4.5401 0.8436
29.1424 14.4556 3.4932 0.8773
28.4440 15.4067 3.4736 0.8780
27.5574 17.5972 3.5110 0.8767
25.6242 17.6903 3.3436 0.8823
29.9306 22.2930 4.0075 0.8606
29.2883 23.4970 4.0321 0.8598
27.1369 29.0765 4.2708 0.8521
7.6225 16.7340 1.9746 0.9287
2.2090 21.1744 2.2861 0.9179
0.5088 15.8629 1.7043 0.9381
-0.5827 14.6252 1.5717 0.9428
-1.6468 14.6815 1.5864 0.9423
-3.2965 14.7741 1.6255 0.9409
-4.4666 14.8911 1.6694 0.9394
-5.0792 14.9575 1.6962 0.9384
-6.0488 14.3371 1.6710 0.9393
-7.8742 13.0470 1.6364 0.9405
-9.9399 13.0527 1.7618 0.9361
-11.5148 13.0570 1.8694 0.9324
-12.3791 13.0594 1.9322 0.9302
-14.2229 13.9634 2.1403 0.9229
-16.4285 13.9590 2.3149 0.9169
-17.6963 13.9731 2.4212 0.9133
-19.1201 14.0119 2.5454 0.9090
-22.3145 14.0070 2.8291 0.8994
-33.5276 17.8255 4.0775 0.8583
-21.5466 -22.4198 3.3390 0.8824
-18.6032 -22.3731 3.1245 0.8895
-17.0346 -22.0528 2.9923 0.8940
-14.8522 -22.3835 2.8846 0.8976
-11.6919 -22.5679 2.7293 0.9028
-6.9043 -22.4555 2.5227 0.9098
-6.0161 -22.4031 2.4909 0.9109
-4.3456 -22.5391 2.4649 0.9118
-2.6702 -22.4124 2.4237 0.9132
-1.8692 -22.5666 2.4315 0.9129
0.5681 -22.5528 2.4225 0.9132
1.3724 -22.4236 2.4124 0.9136
2.2483 -4.1905 0.5107 0.9811
32.9534 -33.3131 5.0317 0.8282
32.6265 -26.5461 4.5167 0.8443
36.7799 -25.7673 4.8223 0.8347
38.1824 -25.4839 3.8861 0.8317
30.2130 -18.6314 3.0048 0.8672
34.3850 -4.1908 2.9323 0.8702
41.5220 13.3017 3.6909 0.8394
36.8218 13.2729 3.3134 0.8546
35.0159 14.0633 3.1943 0.8594
32.5365 14.4461 3.0136 0.8668
29.7439 14.5073 2.8014 0.8756
27.6861 14.7580 2.6559 0.8817
26.9261 16.9421 2.6930 0.8801
27.1695 18.4906 2.7821 0.8764
31.8515 23.3947 3.3455 0.8533
2.5356 22.8271 1.9443 0.9119
1.7082 22.8295 1.9380 0.9122
0.0380 13.5691 1.1487 0.9470
-0.4499 13.5705 1.1494 0.9470
-0.9391 13.5718 1.1516 0.9469
-1.4308 13.5732 1.1554 0.9467
-1.2522 8.8238 0.7544 0.9649
-2.9609 13.6999 1.1865 0.9453
-6.9882 13.9485 1.3207 0.9393
-7.6281 13.9503 1.3459 0.9382
-9.1189 15.3400 1.5107 0.9309
-12.2854 13.1352 1.5225 0.9303
-13.1554 13.0891 1.5710 0.9282
-16.7344 15.4939 1.9306 0.9125
-21.3977 15.9017 2.2568 0.8985
-22.2402 15.3188 2.2861 0.8973
-33.0244 17.8417 3.1775 0.8601
-21.2111 8.6572 1.9393 0.9121
-27.2496 -22.5246 2.9928 0.8677
-23.4014 -22.3597 2.7399 0.8782
-20.2721 -22.3684 2.5555 0.8859
-13.5820 -21.8299 2.1764 0.9019
-12.8376 -22.3891 2.1848 0.9016
-11.8833 -22.5673 2.1591 0.9027
-10.7831 -22.3948 2.1041 0.9050
-7.0513 -22.4002 1.9880 0.9100
-6.1767 -22.4026 1.9672 0.9109
-5.3190 -22.4050 1.9494 0.9117
-4.4756 -22.4073 1.9343 0.9124
-2.0073 -22.4142 1.9050 0.9136
0.3205 -17.3149 1.4660 0.9328
1.2222 -22.4232 1.9010 0.9138
2.2210 -4.2068 0.4027 0.9811
33.1300 -27.3254 3.6354 0.8416
33.2123 -25.4444 3.5417 0.8454
45.6081 13.1523 4.0182 0.8265
35.2581 14.4347 3.2251 0.8582
31.7477 14.3504 2.9493 0.8695
27.8297 15.0740 2.6793 0.8807
26.8260 17.1302 2.6944 0.8801
31.5725 23.5159 3.3326 0.8538
29.8131 23.9180 3.2356 0.8578
29.0462 26.9514 3.3543 0.8529
30.3024 30.2146 3.6225 0.8422
7.6221 16.7329 1.5565 0.9288
3.3963 24.1197 2.0619 0.9068
-0.0526 13.5693 1.1487 0.9470
-0.5406 13.5707 1.1497 0.9469
-1.5225 13.5734 1.1562 0.9466
-2.5372 13.6645 1.1765 0.9457
-3.0571 13.7012 1.1884 0.9452
-4.1206 13.7376 1.2141 0.9441
-4.6826 13.7898 1.2328 0.9432
-5.2652 13.8494 1.2543 0.9423
-6.0488 14.3371 1.3173 0.9394
-6.4841 13.9471 1.3020 0.9401
-9.2211 15.2788 1.5107 0.9309
-9.7642 14.9375 1.5107 0.9309
-10.2947 14.5770 1.5107 0.9309
-11.8036 13.3845 1.5107 0.9309
-12.4431 13.1270 1.5311 0.9300
-16.9971 15.5277 1.9489 0.9117
-21.7825 15.9630 2.2861 0.8973
-22.8727 14.3573 2.2861 0.8973
-34.6736 -23.1961 3.5315 0.8458
-32.1277 -23.2063 3.3550 0.8529
-26.8833 -22.5257 2.9690 0.8687
-21.6623 -22.5402 2.6464 0.8821
-20.0024 -22.3692 2.5403 0.8865
-18.6032 -22.3731 2.4631 0.8898
-17.0346 -22.0528 2.3589 0.8942
-16.0373 -22.3802 2.3308 0.8954
-12.6401 -22.3896 2.1765 0.9019
-7.7780 -22.3981 2.0071 0.9092
-6.8874 -22.4006 1.9839 0.9102
-6.0161 -22.4031 1.9637 0.9111
-5.1613 -22.4054 1.9464 0.9118
-1.8566 -22.4146 1.9040 0.9137
-1.0476 -22.4169 1.8997 0.9139
2.2483 -4.1905 0.4026 0.9811
32.6265 -26.5461 3.5606 0.8446
33.6773 -25.4457 3.5732 0.8441
37.2241 -26.0786 3.8475 0.8332
39.2743 -25.4613 3.9622 0.8287
32.7552 -25.4431 2.5719 0.8469
38.1824 -25.4839 2.8466 0.8320
30.2107 -18.6300 2.2009 0.8674
49.6111 -2.4526 3.0802 0.8195
46.7676 13.1491 3.0125 0.8231
35.4217 12.7682 2.3349 0.8599
34.6039 15.3640 2.3478 0.8592
32.4449 15.8247 2.2385 0.8653
31.0906 16.5728 2.1847 0.8683
31.7524 25.1272 2.5109 0.8502
3.5606 24.1192 1.5118 0.9069
2.5356 22.8271 1.4242 0.9121
-0.4499 13.5705 0.8420 0.9470
-0.9391 13.5718 0.8436 0.9469
-1.4308 13.5732 0.8463 0.9468
-3.4498 13.5788 0.8688 0.9454
-3.9748 13.5802 0.8774 0.9449
-4.5111 13.5817 0.8874 0.9443
-5.0604 13.5833 0.8989 0.9436
-6.0480 14.6069 0.9804 0.9386
-6.3710 13.9468 0.9508 0.9404
-6.9882 13.9485 0.9674 0.9394
-7.6281 13.9503 0.9859 0.9383
-10.4428 17.5671 1.2673 0.9214
-11.4244 17.7348 1.3082 0.9189
-13.0109 17.3242 1.3435 0.9168
-13.2130 15.1858 1.2482 0.9225
-13.0619 13.9653 1.1858 0.9262
-14.0337 13.9629 1.2276 0.9237
-15.2277 14.0989 1.2869 0.9202
-18.1349 14.5169 1.4405 0.9111
-21.2080 8.6559 1.4204 0.9123
-25.1465 -22.3549 2.0864 0.8739
-14.8283 -18.9339 1.4913 0.9081
-14.7720 -21.9433 1.6403 0.8994
-13.6100 -21.8749 1.5976 0.9019
-12.8376 -22.3891 1.6004 0.9017
-11.7910 -22.3920 1.5693 0.9036
-9.8092 -22.3975 1.5162 0.9067
-7.9459 -22.3977 1.4737 0.9092
-5.3190 -22.4050 1.4280 0.9118
-4.4681 -22.3700 1.4146 0.9126
-2.8221 -22.4119 1.4007 0.9134
-1.1976 -22.4164 1.3920 0.9140
-0.3908 -22.4187 1.3904 0.9141
0.3205 -17.3148 1.0739 0.9329
1.2222 -22.4232 1.3925 0.9139
2.2209 -4.2067 0.2950 0.9811
32.6139 -31.0950 2.7943 0.8348
32.8220 -27.0714 2.6383 0.8432
38.7032 -25.4597 2.8727 0.8306
34.4071 -3.9606 2.1477 0.8704
28.9237 15.6666 2.0398 0.8765
35.0571 22.3863 2.5793 0.8465
31.2772 25.0926 2.4865 0.8515
2.3815 22.8276 1.4232 0.9121
0.4352 13.5680 0.8418 0.9470
-0.5406 13.5707 0.8422 0.9470
-1.0302 13.5721 0.8440 0.9469
-2.0190 13.5748 0.8510 0.9465
-3.0295 13.5776 0.8627 0.9458
-4.0735 13.5805 0.8792 0.9448
-5.1641 13.5835 0.9011 0.9434
-6.4841 13.9471 0.9538 0.9402
-9.8495 17.7305 1.2577 0.9219
-10.7022 17.7328 1.2844 0.9203
-13.1931 17.3247 1.3503 0.9164
-13.2104 16.1117 1.2920 0.9199
-13.2334 13.9607 1.1928 0.9258
-15.4638 14.1270 1.2988 0.9195
-16.8367 14.3059 1.3700 0.9153
-26.8833 -22.5257 2.1749 0.8689
-23.0917 -22.3606 1.9932 0.8791
-21.4939 -22.3650 1.9235 0.8831
-20.0024 -22.3692 1.8608 0.8867
-15.7329 -18.9211 1.5259 0.9061
-15.0946 -21.0646 1.6070 0.9014
-14.7017 -22.1567 1.6489 0.8989
-12.6400 -22.3896 1.5944 0.9021
-11.6010 -22.3925 1.5639 0.9039
-5.1377 -22.3032 1.4192 0.9124
-3.4907 -22.4101 1.4064 0.9131
-2.6702 -22.4124 1.3996 0.9135
-1.8566 -22.4146 1.3947 0.9138
-1.0476 -22.4169 1.3916 0.9140
0.5648 -22.4213 1.3908 0.9140
1.3724 -22.4236 1.3931 0.9139
39.2743 -25.4613 2.9025 0.8290
37.1836 -26.7974 1.8073 0.8324
46.6272 13.1096 1.9098 0.8237
41.0946 13.1648 1.7015 0.8414
35.0340 14.0706 1.4887 0.8597
35.1780 18.7515 1.5719 0.8525
29.8380 17.3098 1.3602 0.8710
35.1874 22.1402 1.6393 0.8467
35.0612 23.8613 1.6723 0.8439
1.7082 22.8295 0.9027 0.9124
-1.0979 15.8674 0.6272 0.9383
-1.2518 8.8212 0.3513 0.9650
-2.8376 15.8722 0.6358 0.9375
-3.4308 15.8739 0.6404 0.9371
-4.0333 15.8756 0.6459 0.9365
-5.2741 15.8790 0.6598 0.9352
-6.0480 14.6069 0.6234 0.9387
-6.3710 13.9468 0.6046 0.9405
-6.9882 13.9485 0.6152 0.9395
-7.6281 13.9503 0.6269 0.9383
-10.4428 17.5671 0.8058 0.9214
-13.0109 17.3242 0.8543 0.9169
-13.2098 16.3321 0.8283 0.9194
-15.7371 13.5536 0.8189 0.9202
-18.2474 13.5605 0.8964 0.9130
-23.4014 -22.3597 1.2762 0.8785
-17.1443 -18.9172 1.0067 0.9028
-14.8203 -18.9236 0.9478 0.9083
-13.9577 -19.2059 0.9362 0.9093
-13.9620 -20.7399 0.9858 0.9048
-12.8376 -22.3891 1.0177 0.9018
-9.8332 -22.4524 0.9665 0.9065
-7.0686 -22.4551 0.9283 0.9101
-5.3190 -22.4050 0.9080 0.9119
-3.6441 -22.4096 0.8952 0.9131
-2.8221 -22.4119 0.8907 0.9135
-1.1976 -22.4164 0.8852 0.9141
-0.3908 -22.4187 0.8841 0.9142
0.3205 -17.3147 0.6829 0.9330
1.2222 -22.4232 0.8855 0.9140
2.2209 -4.2067 0.1876 0.9811
32.8750 -36.1962 1.9281 0.8222
32.6139 -31.0950 1.7768 0.8349
33.2122 -25.4444 1.6498 0.8458
35.0389 15.8380 1.5162 0.8573
35.1788 19.0547 1.5775 0.8520
35.1835 20.7260 1.6101 0.8492
35.0622 24.2060 1.6800 0.8432
7.6204 16.7292 0.7249 0.9291
1.5550 22.8299 0.9023 0.9125
0.5088 15.8629 0.6258 0.9384
-0.6321 15.8661 0.6261 0.9384
-1.2045 15.8677 0.6275 0.9383
-1.7801 15.8693 0.6297 0.9381
-2.3604 15.8709 0.6327 0.9378
-3.5419 15.8742 0.6413 0.9370
-5.3922 15.8793 0.6613 0.9351
-6.4841 13.9471 0.6065 0.9403
-7.1052 13.9488 0.6173 0.9393
-9.8495 17.7305 0.7998 0.9220
-13.1931 17.3247 0.8587 0.9165
-13.2104 16.1117 0.8215 0.9200
-13.2135 14.9833 0.7877 0.9231
-13.2334 13.9607 0.7585 0.9259
-17.3942 15.8906 0.9290 0.9100
-15.9520 13.5542 0.8254 0.9196
-17.1701 13.5575 0.8626 0.9161
-26.6744 -22.3506 1.3722 0.8700
-24.8631 -22.4019 1.3196 0.8746
-15.7329 -18.9211 0.9703 0.9062
-14.6179 -18.9242 0.9429 0.9087
-13.9585 -19.4791 0.9449 0.9085
-11.6919 -22.5679 1.0022 0.9033
-10.5997 -22.3953 0.9770 0.9056
-7.7780 -22.3981 0.9349 0.9095
-5.1377 -22.3032 0.9025 0.9125
-4.3404 -22.5120 0.9040 0.9123
-2.6702 -22.4124 0.8900 0.9136
-0.2412 -22.4191 0.8841 0.9142
0.5681 -22.5528 0.8896 0.9136
32.8882 -33.2472 1.8440 0.8293
37.1935 -26.0571 1.7907 0.8338
39.2742 -25.4613 1.8456 0.8291
32.7552 -25.4431 0.7006 0.8471
30.2040 -18.6259 0.5994 0.8677
47.6480 13.3966 0.8361 0.8204
41.8683 13.4127 0.7426 0.8387
35.2465 17.1911 0.6624 0.8548
29.8212 17.3000 0.5824 0.8712
35.3928 24.0870 0.7232 0.8426
3.9816 15.3123 0.2673 0.9387
1.9796 13.4092 0.2290 0.9472
2.5356 22.8271 0.3880 0.9122
0.9521 12.7251 0.2155 0.9502
0.0349 12.4513 0.2103 0.9514
-1.2516 8.8199 0.1505 0.9650
-2.2010 12.3115 0.2113 0.9512
-3.4308 15.8739 0.2743 0.9371
-4.0333 15.8756 0.2767 0.9366
-5.9164 15.8808 0.2863 0.9344
-6.0480 14.6069 0.2671 0.9387
-5.6944 12.4654 0.2315 0.9467
-7.6281 13.9503 0.2686 0.9384
-10.4428 17.5671 0.3452 0.9215
-11.4244 17.7348 0.3563 0.9191
-8.5998 12.3513 0.2542 0.9416
-13.0109 17.3242 0.3660 0.9170
-13.0619 13.9653 0.3230 0.9264
-17.1620 15.8899 0.3951 0.9107
-19.8594 15.8974 0.4297 0.9032
-21.3977 15.9017 0.4503 0.8988
-34.5635 22.0187 0.6922 0.8488
-21.1992 8.6523 0.3868 0.9125
-27.2496 -22.5246 0.5972 0.8681
-23.4014 -22.3597 0.5467 0.8785
-21.8356 -22.4190 0.5286 0.8823
-18.8567 -22.3724 0.4942 0.8895
-17.2704 -22.0521 0.4731 0.8940
-16.3915 -22.5548 0.4710 0.8945
-15.1860 -22.5582 0.4593 0.8969
-11.8833 -22.5673 0.4308 0.9030
-7.9459 -22.3977 0.4014 0.9093
-6.1767 -22.4026 0.3925 0.9112
-2.0230 -22.5898 0.3831 0.9133
-0.3908 -22.4187 0.3787 0.9142
1.2222 -22.4232 0.3793 0.9141
32.8752 -33.6809 0.7950 0.8284
32.6139 -31.0950 0.7612 0.8350
33.8330 -30.0119 0.7639 0.8345
33.2122 -25.4444 0.7067 0.8459
37.2044 -26.4368 0.7710 0.8331
38.7032 -25.4597 0.7825 0.8308
34.2989 -3.9481 0.5832 0.8710
36.3860 13.3910 0.6549 0.8563
35.9703 14.7263 0.6565 0.8560
35.3938 24.4350 0.7265 0.8419
2.9158 13.5618 0.2343 0.9460
0.5088 15.8629 0.2681 0.9385
-0.0615 15.8645 0.2680 0.9385
-0.6321 15.8661 0.2682 0.9385
-1.2045 15.8677 0.2688 0.9383
-1.3629 12.1505 0.2065 0.9523
-1.8291 12.2984 0.2100 0.9515
-2.2831 12.2958 0.2112 0.9512
-6.0488 14.3371 0.2629 0.9396
-6.1565 12.0862 0.2291 0.9472
-9.8495 17.7305 0.3426 0.9221
-10.7022 17.7328 0.3499 0.9205
-10.0952 12.3123 0.2689 0.9383
-13.2135 14.9833 0.3375 0.9232
-17.3942 15.8906 0.3980 0.9101
-18.7060 15.8942 0.4146 0.9065
-26.8833 -22.5257 0.5924 0.8691
-17.1470 -19.1760 0.4347 0.9022
-18.6032 -22.3731 0.4915 0.8901
-11.6919 -22.5679 0.4293 0.9033
-10.5997 -22.3953 0.4185 0.9056
-7.7780 -22.3981 0.4005 0.9095
-4.3404 -22.5120 0.3873 0.9124
-3.4907 -22.4101 0.3831 0.9133
-1.0476 -22.4169 0.3791 0.9141
0.5681 -22.5528 0.3811 0.9137
32.8981 -30.9493 0.7630 0.8347
37.1952 -26.0583 0.7671 0.8339
32.7553 -25.4431 -0.2335 0.8471
37.1872 -26.8000 -0.2581 0.8325
32.9143 9.2541 -0.1925 0.8722
41.8683 13.4127 -0.2475 0.8387
37.1017 13.3738 -0.2220 0.8541
35.2380 14.1525 -0.2138 0.8591
36.0138 15.9900 -0.2219 0.8542
35.2465 17.1911 -0.2208 0.8548
34.1356 18.1959 -0.2178 0.8566
34.4725 21.6903 -0.2293 0.8497
35.1977 25.8525 -0.2459 0.8397
4.8268 16.1551 -0.0949 0.9348
3.5180 13.5294 -0.0787 0.9456
2.4662 13.3623 -0.0765 0.9471
1.3912 12.5244 -0.0709 0.9508
0.9490 12.6829 -0.0716 0.9504
-0.4063 12.2553 -0.0690 0.9521
-0.8550 12.3561 -0.0697 0.9517
-2.1903 12.2513 -0.0701 0.9514
-3.0498 12.0045 -0.0697 0.9517
-3.5491 12.1258 -0.0711 0.9507
-4.4264 11.8813 -0.0714 0.9505
-6.0907 12.1572 -0.0766 0.9471
-6.4901 11.8690 -0.0762 0.9473
-9.6843 11.9733 -0.0867 0.9403
-10.3353 11.8784 -0.0886 0.9390
-11.3458 12.1305 -0.0935 0.9357
-12.2044 12.1429 -0.0969 0.9335
-13.9361 12.0024 -0.1036 0.9291
-17.3287 11.9358 -0.1185 0.9193
-27.2496 -22.5246 -0.1990 0.8681
-21.9099 -22.4954 -0.1767 0.8820
-18.8567 -22.3724 -0.1647 0.8896
-13.6100 -21.8749 -0.1451 0.9021
-10.7831 -22.3948 -0.1399 0.9054
-9.8667 -22.5288 -0.1385 0.9063
-8.8653 -22.4001 -0.1356 0.9081
-7.9459 -22.3977 -0.1338 0.9093
-7.1066 -22.5756 -0.1333 0.9097
-3.6441 -22.4096 -0.1278 0.9132
-2.8221 -22.4119 -0.1272 0.9136
-2.0230 -22.5898 -0.1277 0.9133
-1.1976 -22.4164 -0.1264 0.9141
-0.3909 -22.4187 -0.1262 0.9142
2.2209 -4.2067 -0.0268 0.9812
32.6139 -31.0950 -0.2537 0.8351
33.8350 -30.0137 -0.2546 0.8345
37.2061 -26.4380 -0.2570 0.8331
40.9337 13.4153 -0.2425 0.8417
36.3860 13.3910 -0.2183 0.8563
35.9703 14.7263 -0.2189 0.8560
36.0146 16.2791 -0.2225 0.8538
34.1338 18.4886 -0.2186 0.8562
29.7969 17.5528 -0.1947 0.8708
34.4728 22.0132 -0.2303 0.8491
7.6187 16.7256 -0.1035 0.9291
2.9030 13.5022 -0.0778 0.9463
2.3584 13.2743 -0.0759 0.9475
1.8862 13.3954 -0.0762 0.9473
-0.0485 12.5071 -0.0704 0.9512
-0.4782 12.0028 -0.0676 0.9531
-0.9108 11.9983 -0.0677 0.9530
-1.3599 12.1238 -0.0687 0.9524
-1.8116 12.1808 -0.0693 0.9519
-2.2491 12.1129 -0.0694 0.9519
-4.5381 11.9371 -0.0719 0.9502
-6.6411 11.9549 -0.0770 0.9468
-7.4177 12.2905 -0.0808 0.9442
-7.7852 11.9100 -0.0801 0.9447
-8.3864 11.8750 -0.0819 0.9435
-11.5279 12.1615 -0.0943 0.9352
-12.3341 12.1091 -0.0973 0.9332
-14.4130 12.2465 -0.1065 0.9271
-15.2487 12.0404 -0.1094 0.9252
-16.5768 12.1481 -0.1157 0.9211
-19.0448 11.9545 -0.1266 0.9140
-20.6991 11.9783 -0.1346 0.9088
-22.4402 11.9307 -0.1431 0.9033
-24.8764 -22.4139 -0.1885 0.8746
-17.1470 -19.1759 -0.1448 0.9022
-18.6032 -22.3731 -0.1638 0.8901
-17.0346 -22.0528 -0.1569 0.8945
-12.6401 -22.3896 -0.1448 0.9023
-11.6919 -22.5679 -0.1431 0.9033
-9.7071 -22.5734 -0.1383 0.9064
-7.7780 -22.3981 -0.1335 0.9095
-6.9278 -22.5319 -0.1327 0.9100
-6.0161 -22.4031 -0.1306 0.9114
-5.1377 -22.3032 -0.1289 0.9125
-4.3404 -22.5120 -0.1291 0.9124
-3.4907 -22.4101 -0.1277 0.9133
1.3724 -22.4236 -0.1265 0.9141
33.1639 -36.0280 -0.2757 0.8221
32.8820 -33.2409 -0.2633 0.8294
32.8950 -30.9464 -0.2543 0.8347
33.6773 -25.4457 -0.2376 0.8446
37.1971 -26.0597 -0.2557 0.8339
39.2742 -25.4613 -0.2635 0.8293
32.7552 -25.4431 -1.1678 0.8471
37.1341 -26.7617 -1.2889 0.8326
38.1824 -25.4839 -1.2926 0.8322
30.1966 -18.6213 -0.9989 0.8677
34.5470 -4.2105 -0.9800 0.8700
43.7240 -3.7404 -1.2357 0.8389
44.8951 12.6226 -1.3132 0.8298
41.0946 13.1648 -1.2151 0.8414
35.0378 14.0721 -1.0632 0.8598
36.0491 16.0057 -1.1106 0.8540
33.4588 17.8351 -1.0676 0.8592
29.9216 17.3582 -0.9740 0.8707
2.9376 13.2327 -0.3817 0.9472
1.9284 13.0629 -0.3718 0.9485
0.9268 12.3866 -0.3498 0.9515
0.0341 12.1739 -0.3428 0.9525
-0.4011 12.0984 -0.3408 0.9527
-1.2513 8.8174 -0.2507 0.9650
-2.1348 11.9409 -0.3416 0.9526
-2.6361 12.1969 -0.3514 0.9513
-3.9122 11.7788 -0.3495 0.9515
-4.9929 12.0585 -0.3675 0.9491
-5.9370 11.8503 -0.3732 0.9483
-6.4729 11.8376 -0.3799 0.9474
-7.1027 11.9484 -0.3914 0.9459
-7.7315 12.0020 -0.4020 0.9445
-8.9403 11.9042 -0.4192 0.9422
-9.6886 11.9786 -0.4338 0.9402
-10.2560 11.7873 -0.4400 0.9394
-11.1682 11.9407 -0.4604 0.9367
-11.8823 11.8224 -0.4720 0.9351
-12.9435 11.9841 -0.4967 0.9318
-14.8084 11.8541 -0.5341 0.9269
-17.2283 11.8666 -0.5891 0.9197
-18.6363 11.8723 -0.6222 0.9154
-21.8425 11.8006 -0.6991 0.9054
-23.9483 11.8471 -0.7523 0.8986
-26.9970 -22.3158 -0.9863 0.8692
-25.0772 -22.2933 -0.9448 0.8744
-23.3110 -22.2733 -0.9078 0.8790
-21.6765 -22.2557 -0.8748 0.8831
-17.2700 -22.0516 -0.7887 0.8940
-16.3915 -22.5548 -0.7851 0.8944
-15.1860 -22.5582 -0.7657 0.8969
-13.6100 -21.8749 -0.7254 0.9020
-8.8220 -22.2909 -0.6750 0.9085
-6.1595 -22.3404 -0.6525 0.9114
-5.3070 -22.3545 -0.6469 0.9122
-3.6388 -22.3771 -0.6384 0.9133
-2.0054 -22.3928 -0.6331 0.9140
-1.1966 -22.3981 -0.6316 0.9142
-0.3906 -22.4018 -0.6309 0.9142
0.3205 -17.3144 -0.4876 0.9330
1.2212 -22.4044 -0.6318 0.9141
32.8081 -36.1225 -1.3740 0.8226
38.7032 -25.4597 -1.3044 0.8308
44.8960 12.9470 -1.3157 0.8295
35.9493 14.7177 -1.0938 0.8560
35.0470 17.3845 -1.1016 0.8551
33.4596 18.1234 -1.0715 0.8588
33.6608 21.4947 -1.1246 0.8523
7.6179 16.7237 -0.5175 0.9291
4.6415 15.9218 -0.4670 0.9358
2.3089 12.9954 -0.3717 0.9486
1.3258 12.7083 -0.3598 0.9502
0.3901 12.1618 -0.3426 0.9525
-0.0471 12.1399 -0.3418 0.9526
-0.9095 11.9824 -0.3384 0.9531
-1.3309 11.8649 -0.3362 0.9533
-1.8250 12.2705 -0.3493 0.9516
-2.2134 11.9204 -0.3414 0.9526
-3.5472 11.8258 -0.3476 0.9518
-4.0374 11.8897 -0.3536 0.9510
-4.5199 11.8892 -0.3581 0.9504
-5.5517 11.9416 -0.3708 0.9487
-6.0041 11.7871 -0.3725 0.9484
-7.2096 11.9458 -0.3929 0.9457
-7.7858 11.9109 -0.4007 0.9446
-9.0111 11.8331 -0.4188 0.9422
-9.7591 11.9024 -0.4334 0.9403
-11.2951 11.9159 -0.4623 0.9364
-13.0194 11.8939 -0.4965 0.9319
-14.9405 11.7971 -0.5360 0.9267
-16.1803 11.8575 -0.5648 0.9229
-17.5906 11.9439 -0.5987 0.9184
-20.5114 11.8697 -0.6673 0.9095
-22.3213 11.8675 -0.7118 0.9038
-24.3580 11.8479 -0.7627 0.8973
-21.3859 -22.2526 -0.8690 0.8838
-17.1470 -19.1760 -0.7242 0.9022
-18.4789 -22.2236 -0.8138 0.8908
-17.0346 -22.0528 -0.7846 0.8945
-16.1629 -22.5555 -0.7813 0.8949
-14.7000 -22.1542 -0.7486 0.8991
-13.4618 -21.9623 -0.7253 0.9021
-9.5778 -22.2727 -0.6827 0.9075
-8.6519 -22.2948 -0.6734 0.9087
-7.7474 -22.3098 -0.6650 0.9098
-6.8650 -22.3275 -0.6577 0.9108
-6.0000 -22.3432 -0.6514 0.9116
-5.1501 -22.3569 -0.6460 0.9123
-4.3404 -22.5120 -0.6456 0.9123
-1.8548 -22.3939 -0.6327 0.9140
-1.0467 -22.3989 -0.6314 0.9142
-0.2410 -22.4023 -0.6308 0.9143
2.2482 -4.1904 -0.1339 0.9812
32.8229 -33.1813 -1.3142 0.8296
32.8323 -30.8874 -1.2693 0.8350
32.6265 -26.5461 -1.1844 0.8451
33.6773 -25.4457 -1.1885 0.8446
28.7989 -22.3699 -1.8494 0.8641
29.5841 -21.3206 -1.8494 0.8641
30.3311 -20.2438 -1.8494 0.8641
31.7068 -18.0130 -1.8494 0.8641
34.0971 -16.2509 -1.9156 0.8596
36.2150 -15.6892 -2.0016 0.8538
37.2483 -13.0477 -2.0016 0.8538
38.0892 -10.3388 -2.0016 0.8538
38.4361 -8.9634 -2.0016 0.8538
38.7334 -7.5764 -2.0016 0.8538
38.9806 -6.1797 -2.0016 0.8538
32.9028 -4.0102 -1.6810 0.8757
39.4193 -1.9488 -2.0016 0.8538
39.2918 3.7191 -2.0016 0.8538
39.1328 5.1286 -2.0016 0.8538
35.4371 8.6023 -1.8494 0.8641
32.7542 9.2091 -1.7255 0.8726
34.7278 11.1252 -1.8494 0.8641
34.3056 12.3659 -1.8494 0.8641
32.7756 15.9860 -1.8494 0.8641
32.1800 17.1534 -1.8494 0.8641
29.6402 17.1950 -1.7378 0.8718
30.8648 19.4204 -1.8494 0.8641
30.1471 20.5169 -1.8494 0.8641
29.3903 21.5870 -1.8494 0.8641
27.2688 24.9654 -1.8750 0.8624
26.0729 29.6291 -2.0016 0.8538
24.9913 30.5469 -2.0016 0.8538
22.7328 32.2629 -2.0016 0.8538
19.1288 34.5220 -2.0016 0.8538
17.8759 35.1870 -2.0016 0.8538
15.3025 36.3801 -2.0016 0.8538
13.9853 36.9065 -2.0016 0.8538
12.6501 37.3852 -2.0016 0.8538
3.5192 13.5339 -0.7092 0.9455
2.9293 13.1951 -0.6855 0.9473
2.4173 13.0976 -0.6754 0.9481
1.4028 12.6285 -0.6444 0.9504
-0.3963 11.9520 -0.6065 0.9532
-1.2442 11.8035 -0.6019 0.9536
-2.5519 11.8072 -0.6126 0.9528
-3.9735 11.9633 -0.6393 0.9508
-4.4447 11.9306 -0.6457 0.9503
-5.8816 11.7397 -0.6659 0.9488
-7.6148 11.8209 -0.7131 0.9452
-8.4302 12.1077 -0.7482 0.9426
-11.1745 11.9474 -0.8296 0.9366
-12.9039 11.9474 -0.8918 0.9320
-16.0441 11.9232 -1.0137 0.9231
-18.7042 11.9155 -1.1247 0.9150
-21.8838 11.8229 -1.2614 0.9052
-23.3727 11.5623 -1.3224 0.9008
-28.3054 12.7577 -1.5746 0.8831
-37.0534 13.5913 -2.0016 0.8538
-37.9338 10.8950 -2.0016 0.8538
-38.3008 9.5248 -2.0016 0.8538
-38.6184 8.1424 -2.0016 0.8538
-38.8860 6.7494 -2.0016 0.8538
-39.1034 5.3477 -2.0016 0.8538
-39.3865 2.5254 -2.0016 0.8538
-39.4518 1.1084 -2.0016 0.8538
-39.4662 -0.3100 -2.0016 0.8538
-39.3420 -3.1438 -2.0016 0.8538
-38.7752 -7.3594 -2.0016 0.8538
-38.1465 -10.1253 -2.0016 0.8538
-37.7580 -11.4895 -2.0016 0.8538
-37.3208 -12.8389 -2.0016 0.8538
-35.7223 -16.7807 -2.0016 0.8538
-34.4248 -19.3030 -2.0016 0.8538
-31.1457 -18.9667 -1.8494 0.8641
-30.4440 -20.0736 -1.8494 0.8641
-29.7031 -21.1546 -1.8494 0.8641
-28.9237 -22.2083 -1.8494 0.8641
-23.4014 -22.3597 -1.6414 0.8784
-21.7822 -22.3642 -1.5832 0.8825
-18.8567 -22.3724 -1.4839 0.8894
-17.2178 -21.9849 -1.4162 0.8942
-16.3915 -22.5548 -1.4140 0.8943
-13.6100 -21.8749 -1.3066 0.9020
-12.8376 -22.3891 -1.3089 0.9018
-10.7830 -22.3948 -1.2605 0.9052
-9.8092 -22.3975 -1.2400 0.9067
-6.1767 -22.4026 -1.1785 0.9111
-5.3190 -22.4050 -1.1678 0.9119
-2.8221 -22.4119 -1.1456 0.9135
-0.3908 -22.4187 -1.1371 0.9141
1.2222 -22.4232 -1.1389 0.9140
5.8917 -35.9872 -1.8494 0.8641
9.1575 -38.3903 -2.0016 0.8538
15.8721 -36.1352 -2.0016 0.8538
17.1604 -35.5415 -2.0016 0.8538
2.2209 -4.2066 -0.2412 0.9811
26.5276 -29.2076 -2.0010 0.8538
26.9824 -25.7258 -1.8907 0.8613
27.2800 -24.1990 -1.8494 0.8641
28.1320 -23.2030 -1.8494 0.8641
28.9476 -22.1772 -1.8494 0.8641
29.7258 -21.1226 -1.8494 0.8641
34.5790 -16.1982 -1.9365 0.8582
36.8505 -14.1320 -2.0016 0.8538
37.3346 -12.7987 -2.0016 0.8538
38.1574 -10.0842 -2.0016 0.8538
34.0656 -3.9212 -1.7390 0.8717
39.4314 -1.6855 -2.0016 0.8538
39.4665 -0.2675 -2.0016 0.8538
39.2661 3.9814 -2.0016 0.8538
39.0977 5.3898 -2.0016 0.8538
38.8787 6.7913 -2.0016 0.8538
35.0385 10.1043 -1.8494 0.8641
34.6527 11.3568 -1.8494 0.8641
34.2223 12.5948 -1.8494 0.8641
32.6681 16.2044 -1.8494 0.8641
30.7345 19.6260 -1.8494 0.8641
29.2455 21.7827 -1.8494 0.8641
26.9155 28.8393 -2.0006 0.8539
25.8745 29.8025 -2.0016 0.8538
23.6672 31.5839 -2.0016 0.8538
22.5169 32.4139 -2.0016 0.8538
21.3376 33.2021 -2.0016 0.8538
20.1307 33.9474 -2.0016 0.8538
7.6170 16.7219 -0.9319 0.9290
13.7386 36.9990 -2.0016 0.8538
4.4775 15.3591 -0.8113 0.9379
2.8260 13.1440 -0.6818 0.9476
0.3949 12.3126 -0.6247 0.9519
-0.0462 11.9278 -0.6049 0.9534
-0.4748 11.9167 -0.6048 0.9534
-0.9027 11.8924 -0.6049 0.9534
-1.3334 11.8876 -0.6067 0.9532
-1.7776 11.9522 -0.6128 0.9528
-2.6537 11.8932 -0.6180 0.9524
-3.5850 11.9518 -0.6328 0.9513
-5.0747 12.0283 -0.6621 0.9491
-7.2552 12.0213 -0.7121 0.9453
-9.7447 11.8848 -0.7794 0.9403
-10.5136 11.9217 -0.8061 0.9383
-11.2548 11.8734 -0.8297 0.9366
-12.0855 11.8650 -0.8589 0.9344
-13.0065 11.8822 -0.8934 0.9319
-13.9721 11.8719 -0.9298 0.9292
-15.0920 11.9166 -0.9752 0.9259
-16.2432 11.9036 -1.0213 0.9225
-17.2912 11.7405 -1.0599 0.9197
-18.8564 11.8363 -1.1291 0.9147
-20.6286 11.9375 -1.2087 0.9090
-22.3515 11.8835 -1.2838 0.9036
-23.7762 11.5649 -1.3409 0.8995
-36.6398 14.6697 -2.0016 0.8538
-37.1433 13.3434 -2.0016 0.8538
-39.1383 5.0865 -2.0016 0.8538
-39.4025 2.2623 -2.0016 0.8538
-39.4632 -0.5735 -2.0016 0.8538
-39.4171 -1.9912 -2.0016 0.8538
-39.1723 -4.8171 -2.0016 0.8538
-38.4264 -9.0048 -2.0016 0.8538
-38.0780 -10.3797 -2.0016 0.8538
-37.6804 -11.7414 -2.0016 0.8538
-37.2342 -13.0878 -2.0016 0.8538
-36.7399 -14.4173 -2.0016 0.8538
-35.6095 -17.0188 -2.0016 0.8538
-34.2952 -19.5325 -2.0016 0.8538
-30.3093 -20.2765 -1.8494 0.8641
-22.8583 -16.5109 -1.4300 0.8932
-28.7748 -22.4009 -1.8494 0.8641
-26.6744 -22.3506 -1.7649 0.8699
-23.0917 -22.3606 -1.6301 0.8792
-21.4939 -22.3650 -1.5731 0.8832
-17.1470 -19.1759 -1.3044 0.9021
-16.9827 -21.9856 -1.4089 0.8947
-16.1629 -22.5554 -1.4073 0.8948
-13.4618 -21.9623 -1.3064 0.9020
-12.6401 -22.3896 -1.3039 0.9021
-11.6010 -22.3925 -1.2790 0.9039
-10.5997 -22.3953 -1.2566 0.9055
-9.6317 -22.3980 -1.2365 0.9070
-8.6929 -22.4006 -1.2186 0.9082
-6.8874 -22.4006 -1.1885 0.9104
-6.0161 -22.4031 -1.1764 0.9113
-4.3404 -22.5120 -1.1627 0.9123
-3.4907 -22.4101 -1.1502 0.9132
-2.6702 -22.4124 -1.1447 0.9136
-1.8566 -22.4146 -1.1406 0.9139
-1.0476 -22.4169 -1.1381 0.9140
-0.2412 -22.4191 -1.1370 0.9141
0.5432 -21.5611 -1.0938 0.9172
1.3724 -22.4236 -1.1393 0.9140
3.5342 -36.2946 -1.8494 0.8641
4.8362 -36.1442 -1.8494 0.8641
6.1319 -35.9470 -1.8494 0.8641
7.4196 -35.7035 -1.8494 0.8641
9.4137 -38.3283 -2.0016 0.8538
10.7849 -37.9653 -2.0016 0.8538
12.1421 -37.5532 -2.0016 0.8538
13.4837 -37.0926 -2.0016 0.8538
14.8079 -36.5842 -2.0016 0.8538
16.1130 -36.0284 -2.0016 0.8538
17.3973 -35.4261 -2.0016 0.8538
19.8967 -34.0851 -2.0016 0.8538
23.4493 -31.7459 -2.0016 0.8538
26.6864 -28.9911 -1.9983 0.8540
26.9639 -27.2583 -1.9445 0.8576
26.9865 -25.3879 -1.8790 0.8621
28.2862 -23.0147 -1.8494 0.8641
29.0950 -21.9834 -1.8494 0.8641
31.2918 -18.7246 -1.8494 0.8641
32.7744 -16.5391 -1.8618 0.8633
21.5585 -16.7458 -2.0016 0.8963
22.7055 -15.1542 -2.0016 0.8963
23.7353 -13.4843 -2.0016 0.8963
25.4223 -9.9446 -2.0016 0.8963
26.0709 -8.0930 -2.0016 0.8963
26.5849 -6.1996 -2.0016 0.8963
26.7905 -5.2403 -2.0016 0.8963
26.9615 -4.2742 -2.0016 0.8963
27.2957 -0.3673 -2.0016 0.8963
27.1767 2.5724 -2.0016 0.8963
26.9218 4.5176 -2.0016 0.8963
26.7420 5.4821 -2.0016 0.8963
25.3315 10.1738 -2.0016 0.8963
24.9495 11.0775 -2.0016 0.8963
24.0895 12.8408 -2.0016 0.8963
23.6125 13.6982 -2.0016 0.8963
23.1050 14.5378 -2.0016 0.8963
22.5677 15.3587 -2.0016 0.8963
21.4063 16.9399 -2.0016 0.8963
20.7838 17.6982 -2.0016 0.8963
18.7584 19.8321 -2.0016 0.8963
17.2856 21.1282 -2.0016 0.8963
16.5152 21.7357 -2.0016 0.8963
13.2307 23.8776 -2.0016 0.8963
12.3641 24.3376 -2.0016 0.8963
7.7104 16.6317 -1.3441 0.9291
9.6732 25.5269 -2.0016 0.8963
8.0843 23.8917 -1.8494 0.9038
4.7901 16.0321 -1.2269 0.9351
3.5105 13.5005 -1.0228 0.9456
2.3965 12.9846 -0.9681 0.9484
1.4050 12.6485 -0.9331 0.9502
0.9185 12.2753 -0.9026 0.9518
-0.8233 11.8986 -0.8745 0.9533
-1.2509 8.8148 -0.6528 0.9649
-2.5875 11.9720 -0.8981 0.9521
-3.0167 11.8741 -0.8983 0.9521
-5.9856 11.9474 -0.9798 0.9478
-7.0537 11.8659 -1.0122 0.9461
-8.2411 11.8362 -1.0575 0.9438
-8.8759 11.8184 -1.0837 0.9424
-9.6037 11.8737 -1.1197 0.9406
-10.4097 11.9640 -1.1628 0.9384
-11.2617 12.0406 -1.2088 0.9360
-12.9006 11.9443 -1.2891 0.9319
-13.5890 11.7035 -1.3150 0.9306
-15.4890 11.5106 -1.4150 0.9255
-16.7232 11.5187 -1.4889 0.9218
-19.6343 11.5378 -1.6698 0.9127
-22.6074 11.1837 -1.8494 0.9038
-21.0304 8.5834 -1.6655 0.9129
-26.2374 7.5357 -2.0016 0.8963
-26.8961 4.6683 -2.0016 0.8963
-27.1619 2.7245 -2.0016 0.8963
-27.2422 1.7467 -2.0016 0.8963
-27.2874 0.7666 -2.0016 0.8963
-27.2973 -0.2144 -2.0016 0.8963
-27.2720 -1.1952 -2.0016 0.8963
-27.2114 -2.1744 -2.0016 0.8963
-25.1571 -2.9233 -1.8570 0.9034
-25.0358 -3.8254 -1.8570 0.9034
-26.6192 -6.0507 -2.0016 0.8963
-25.8134 -8.8802 -2.0016 0.8963
-24.7078 -11.6066 -2.0016 0.8963
-24.2748 -12.4870 -2.0016 0.8963
-23.8104 -13.3512 -2.0016 0.8963
-23.3153 -14.1982 -2.0016 0.8963
-22.7900 -15.0269 -2.0016 0.8963
-21.0658 -16.1748 -1.9474 0.8990
-19.5867 -16.1904 -1.8633 0.9031
-17.5983 -18.0685 -1.8494 0.9038
-16.9377 -18.6892 -1.8494 0.9038
-15.5516 -19.8574 -1.8494 0.9038
-14.0852 -20.9231 -1.8494 0.9038
-12.5461 -21.8807 -1.8494 0.9038
-11.7517 -22.3174 -1.8494 0.9038
-10.7831 -22.3948 -1.8225 0.9051
-8.8653 -22.4001 -1.7664 0.9079
-5.2231 -16.5925 -1.2754 0.9326
-5.3190 -22.4050 -1.6884 0.9118
-4.4087 -22.0724 -1.6504 0.9137
-3.6441 -22.4096 -1.6647 0.9130
-2.8221 -22.4119 -1.6563 0.9134
-1.1976 -22.4164 -1.6460 0.9139
-0.3909 -22.4187 -1.6440 0.9140
0.3190 -17.2328 -1.2638 0.9332
3.1780 -25.0214 -1.8494 0.9038
4.0752 -24.8910 -1.8494 0.9038
4.9671 -24.7285 -1.8494 0.9038
7.5993 -24.0504 -1.8494 0.9038
9.1547 -25.7173 -2.0016 0.8963
10.0730 -25.3717 -2.0016 0.8963
10.9782 -24.9934 -2.0016 0.8963
13.6041 -23.6668 -2.0016 0.8963
14.4458 -23.1627 -2.0016 0.8963
15.2688 -22.6286 -2.0016 0.8963
17.6154 -20.8540 -2.0016 0.8963
19.0676 -19.5350 -2.0016 0.8963
20.4214 -18.1150 -2.0016 0.8963
21.0592 -17.3695 -2.0016 0.8963
21.6698 -16.6015 -2.0016 0.8963
22.2523 -15.8121 -2.0016 0.8963
23.3305 -14.1731 -2.0016 0.8963
23.8248 -13.3256 -2.0016 0.8963
25.4882 -9.7746 -2.0016 0.8963
26.3921 -6.9749 -2.0016 0.8963
26.8249 -5.0613 -2.0016 0.8963
26.9894 -4.0941 -2.0016 0.8963
27.2733 -1.1658 -2.0016 0.8963
27.2866 0.7960 -2.0016 0.8963
27.1589 2.7538 -2.0016 0.8963
26.7048 5.6605 -2.0016 0.8963
26.4842 6.6165 -2.0016 0.8963
25.6183 9.4282 -2.0016 0.8963
24.8750 11.2438 -2.0016 0.8963
23.5205 13.8555 -2.0016 0.8963
23.0074 14.6918 -2.0016 0.8963
21.2927 17.0824 -2.0016 0.8963
20.6651 17.8366 -2.0016 0.8963
19.3307 19.2747 -2.0016 0.8963
18.6256 19.9569 -2.0016 0.8963
17.1441 21.2431 -2.0016 0.8963
14.7585 22.9647 -2.0016 0.8963
10.4160 25.2329 -2.0016 0.8963
9.5025 25.5909 -2.0016 0.8963
7.9246 23.9452 -1.8494 0.9038
4.6527 15.9600 -1.2189 0.9355
3.4073 13.4722 -1.0189 0.9458
2.3113 13.0091 -0.9688 0.9484
1.8379 13.0523 -0.9665 0.9485
1.3127 12.5828 -0.9276 0.9505
-1.3368 11.9178 -0.8793 0.9530
-1.7660 11.8744 -0.8802 0.9530
-2.2286 12.0026 -0.8951 0.9522
-2.6572 11.9089 -0.8947 0.9522
-3.0793 11.7899 -0.8935 0.9523
-4.0805 12.0167 -0.9305 0.9504
-4.5121 11.8685 -0.9310 0.9503
-4.9878 11.8223 -0.9408 0.9498
-5.5135 11.8593 -0.9589 0.9489
-8.3151 11.7740 -1.0569 0.9438
-9.0189 11.8433 -1.0915 0.9420
-9.8439 12.0058 -1.1384 0.9396
-11.3114 11.9331 -1.2056 0.9362
-14.5701 11.5046 -1.3612 0.9282
-18.3677 11.5295 -1.5901 0.9167
-23.0634 10.2103 -1.8494 0.9038
-21.3073 8.5310 -1.6828 0.9121
-23.7371 8.5275 -1.8494 0.9038
-26.2872 7.3603 -2.0016 0.8963
-26.5347 6.4110 -2.0016 0.8963
-26.9266 4.4886 -2.0016 0.8963
-27.0705 3.5181 -2.0016 0.8963
-27.2533 1.5648 -2.0016 0.8963
-27.2919 0.5844 -2.0016 0.8963
-27.2953 -0.3967 -2.0016 0.8963
-26.0712 -2.2586 -1.9188 0.9004
-25.1370 -3.0911 -1.8570 0.9034
-24.8500 -4.8886 -1.8570 0.9034
-26.0622 -8.1211 -2.0016 0.8963
-25.7535 -9.0524 -2.0016 0.8963
-24.6298 -11.7713 -2.0016 0.8963
-24.1909 -12.6488 -2.0016 0.8963
-22.6891 -15.1787 -2.0016 0.8963
-20.7810 -16.1779 -1.9310 0.8998
-19.3328 -16.1991 -1.8494 0.9038
-17.4773 -18.1856 -1.8494 0.9038
-15.4187 -19.9608 -1.8494 0.9038
-13.1810 -21.5042 -1.8494 0.9038
-12.3997 -21.9640 -1.8494 0.9038
-10.5997 -22.3953 -1.8167 0.9054
-9.6317 -22.3980 -1.7877 0.9068
-8.6929 -22.4006 -1.7618 0.9081
-7.7780 -22.3981 -1.7385 0.9093
-6.8874 -22.4006 -1.7183 0.9103
-6.0161 -22.4031 -1.7008 0.9112
-5.1613 -22.4054 -1.6858 0.9119
-2.6702 -22.4124 -1.6549 0.9135
-1.0476 -22.4169 -1.6454 0.9139
-0.2412 -22.4191 -1.6439 0.9140
0.4341 -17.2331 -1.2640 0.9332
5.1321 -24.6948 -1.8494 0.9038
6.0160 -24.4944 -1.8494 0.9038
6.8923 -24.2624 -1.8494 0.9038
11.1448 -24.9196 -2.0016 0.8963
13.7619 -23.5754 -2.0016 0.8963
14.6001 -23.0657 -2.0016 0.8963
15.4196 -22.5261 -2.0016 0.8963
16.2190 -21.9575 -2.0016 0.8963
18.4879 -20.0845 -2.0016 0.8963
19.1977 -19.4072 -2.0016 0.8963
20.5419 -17.9783 -2.0016 0.8963
21.7801 -16.4565 -2.0016 0.8963
22.3574 -15.6632 -2.0016 0.8963
23.9132 -13.1662 -2.0016 0.8963
24.7971 -11.4147 -2.0016 0.8963
25.1912 -10.5163 -2.0016 0.8963
16.4649 -12.7893 -2.0016 0.9196
16.9138 -12.1894 -2.0016 0.9196
17.3409 -11.5738 -2.0016 0.9196
17.7456 -10.9432 -2.0016 0.9196
18.1274 -10.2984 -2.0016 0.9196
18.4858 -9.6404 -2.0016 0.9196
19.1304 -8.2878 -2.0016 0.9196
19.4159 -7.5950 -2.0016 0.9196
19.9112 -6.1809 -2.0016 0.9196
20.4607 -4.0022 -2.0016 0.9196
20.5914 -3.2644 -2.0016 0.9196
20.6954 -2.5223 -2.0016 0.9196
20.7726 -1.7770 -2.0016 0.9196
20.8432 0.4688 -2.0016 0.9196
20.7557 1.9646 -2.0016 0.9196
20.6718 2.7092 -2.0016 0.9196
20.0703 5.6429 -2.0016 0.9196
19.8546 6.3605 -2.0016 0.9196
19.6132 7.0698 -2.0016 0.9196
19.3465 7.7701 -2.0016 0.9196
18.7384 9.1395 -2.0016 0.9196
18.3979 9.8070 -2.0016 0.9196
18.0336 10.4617 -2.0016 0.9196
17.6460 11.1030 -2.0016 0.9196
16.3487 12.9375 -2.0016 0.9196
15.8732 13.5167 -2.0016 0.9196
15.3773 14.0783 -2.0016 0.9196
14.8614 14.6218 -2.0016 0.9196
13.7729 15.6514 -2.0016 0.9196
13.2016 16.1363 -2.0016 0.9196
11.3884 17.4632 -2.0016 0.9196
7.6968 16.6022 -1.7569 0.9291
6.8259 18.0132 -1.8494 0.9255
6.1742 18.2469 -1.8494 0.9255
4.7143 15.7785 -1.5810 0.9360
2.9055 13.0879 -1.2871 0.9476
2.4465 13.2554 -1.2941 0.9473
1.8890 12.7961 -1.2418 0.9494
1.3750 12.3788 -1.1957 0.9512
0.9172 12.2576 -1.1801 0.9518
0.4792 12.3619 -1.1877 0.9515
0.0339 12.1225 -1.1638 0.9525
-0.3970 11.9754 -1.1503 0.9530
-0.8215 11.8718 -1.1425 0.9533
-1.2479 11.8380 -1.1428 0.9533
-2.1087 11.7950 -1.1503 0.9530
-3.0411 11.9703 -1.1857 0.9516
-3.9848 11.9972 -1.2137 0.9505
-4.8956 11.8235 -1.2286 0.9499
-5.4203 11.8654 -1.2524 0.9489
-6.5567 11.9908 -1.3120 0.9466
-7.4175 11.5146 -1.3150 0.9464
-9.2771 11.4699 -1.4163 0.9424
-11.5429 11.4847 -1.5633 0.9367
-12.4103 11.4904 -1.6237 0.9343
-15.8641 10.9270 -1.8494 0.9255
-16.2465 10.3499 -1.8494 0.9255
-17.2660 8.5413 -1.8494 0.9255
-18.2942 8.2455 -1.9265 0.9225
-19.2881 7.8723 -2.0001 0.9197
-19.5733 7.1796 -2.0016 0.9196
-20.2323 5.0315 -2.0016 0.9196
-20.4000 4.3012 -2.0016 0.9196
-20.5414 3.5653 -2.0016 0.9196
-20.8058 1.3340 -2.0016 0.9196
-20.8403 0.5855 -2.0016 0.9196
-20.8285 -0.9128 -2.0016 0.9196
-20.7823 -1.6607 -2.0016 0.9196
-20.7092 -2.4064 -2.0016 0.9196
-20.4828 -3.8876 -2.0016 0.9196
-20.3299 -4.6211 -2.0016 0.9196
-19.9455 -6.0693 -2.0016 0.9196
-19.7146 -6.7821 -2.0016 0.9196
-19.4581 -7.4862 -2.0016 0.9196
-19.1765 -8.1805 -2.0016 0.9196
-18.8702 -8.8643 -2.0016 0.9196
-18.1848 -10.1967 -2.0016 0.9196
-17.4055 -11.4765 -2.0016 0.9196
-16.9818 -12.0945 -2.0016 0.9196
-15.5816 -13.8518 -2.0016 0.9196
-14.5465 -14.9352 -2.0016 0.9196
-14.0004 -15.4482 -2.0016 0.9196
-12.6640 -16.1703 -1.9719 0.9208
-11.7586 -16.1799 -1.9202 0.9228
-10.8980 -16.1885 -1.8735 0.9246
-7.0888 -17.9114 -1.8494 0.9255
-3.0918 -19.0134 -1.8494 0.9255
-1.0277 -19.2357 -1.8494 0.9255
-0.3358 -19.2602 -1.8494 0.9255
0.3181 -17.1821 -1.6499 0.9333
1.0484 -19.2346 -1.8494 0.9255
1.7389 -19.1845 -1.8494 0.9255
2.4272 -19.1096 -1.8494 0.9255
3.7934 -18.8860 -1.8494 0.9255
5.2673 -19.0245 -1.8952 0.9237
6.9918 -19.6412 -2.0016 0.9196
2.2209 -4.2066 -0.4567 0.9811
11.0327 -17.6901 -2.0016 0.9196
12.2748 -16.8520 -2.0016 0.9196
12.8724 -16.4000 -2.0016 0.9196
13.4534 -15.9269 -2.0016 0.9196
14.0171 -15.4331 -2.0016 0.9196
18.1957 -10.1772 -2.0016 0.9196
18.5497 -9.5167 -2.0016 0.9196
18.8797 -8.8440 -2.0016 0.9196
19.9520 -6.0478 -2.0016 0.9196
20.1565 -5.3270 -2.0016 0.9196
20.3349 -4.5992 -2.0016 0.9196
20.8480 -0.1413 -2.0016 0.9196
20.8043 1.3564 -2.0016 0.9196
20.6532 2.8471 -2.0016 0.9196
20.5375 3.5875 -2.0016 0.9196
20.3953 4.3231 -2.0016 0.9196
20.2268 5.0532 -2.0016 0.9196
20.0322 5.7768 -2.0016 0.9196
19.8116 6.4929 -2.0016 0.9196
19.5655 7.2006 -2.0016 0.9196
18.6770 9.2644 -2.0016 0.9196
18.3320 9.9296 -2.0016 0.9196
17.9634 10.5819 -2.0016 0.9196
17.1570 11.8448 -2.0016 0.9196
16.7203 12.4536 -2.0016 0.9196
16.2620 13.0464 -2.0016 0.9196
14.7635 14.7207 -2.0016 0.9196
13.6681 15.7430 -2.0016 0.9196
13.0935 16.2240 -2.0016 0.9196
12.5021 16.6841 -2.0016 0.9196
11.2715 17.5389 -2.0016 0.9196
10.6340 17.9326 -2.0016 0.9196
7.5643 16.6061 -1.7519 0.9293
6.0523 18.2877 -1.8494 0.9255
3.3583 13.2787 -1.3150 0.9464
2.8326 13.1747 -1.2937 0.9473
2.2789 12.8266 -1.2507 0.9490
1.8050 12.8188 -1.2428 0.9493
1.2912 12.3770 -1.1947 0.9512
-1.3378 11.9266 -1.1522 0.9529
-1.7812 11.9761 -1.1624 0.9525
-2.6751 11.9894 -1.1793 0.9518
-3.1392 12.0195 -1.1926 0.9513
-3.5713 11.9063 -1.1934 0.9513
-4.0569 11.9470 -1.2113 0.9506
-4.5148 11.8756 -1.2197 0.9502
-5.0525 11.9757 -1.2479 0.9491
-5.5423 11.9214 -1.2622 0.9485
-6.1005 11.9763 -1.2904 0.9474
-7.0774 11.7267 -1.3150 0.9464
-7.4942 11.4648 -1.3150 0.9464
-8.0949 11.4621 -1.3472 0.9452
-8.7318 11.4663 -1.3837 0.9437
-10.8823 11.4804 -1.5187 0.9384
-11.6992 11.4858 -1.5740 0.9362
-15.5376 11.3865 -1.8494 0.9255
-16.3153 10.2412 -1.8494 0.9255
-16.6727 9.6483 -1.8494 0.9255
-20.0764 5.6213 -2.0016 0.9196
-20.4283 4.1649 -2.0016 0.9196
-20.7578 1.9422 -2.0016 0.9196
-20.8142 1.1951 -2.0016 0.9196
-20.8438 0.4464 -2.0016 0.9196
-20.8463 -0.3029 -2.0016 0.9196
-20.8220 -1.0519 -2.0016 0.9196
-20.7707 -1.7994 -2.0016 0.9196
-20.6926 -2.5446 -2.0016 0.9196
-20.5879 -3.2866 -2.0016 0.9196
-20.4564 -4.0242 -2.0016 0.9196
-20.2986 -4.7567 -2.0016 0.9196
-20.1146 -5.4831 -2.0016 0.9196
-19.9046 -6.2023 -2.0016 0.9196
-19.1215 -8.3084 -2.0016 0.9196
-18.4754 -9.6603 -2.0016 0.9196
-16.4511 -12.8071 -2.0016 0.9196
-15.4888 -13.9556 -2.0016 0.9196
-14.9773 -14.5031 -2.0016 0.9196
-12.4921 -16.1722 -1.9619 0.9212
-11.5955 -16.1815 -1.9112 0.9231
-10.7426 -16.1900 -1.8654 0.9249
-10.0668 -16.4235 -1.8494 0.9255
-8.8612 -17.1041 -1.8494 0.9255
-8.2408 -17.4114 -1.8494 0.9255
-7.6099 -17.6963 -1.8494 0.9255
-6.9690 -17.9584 -1.8494 0.9255
-4.9959 -18.6041 -1.8494 0.9255
-4.3242 -18.7715 -1.8494 0.9255
-2.9648 -19.0336 -1.8494 0.9255
-0.2072 -19.2620 -1.8494 0.9255
0.4329 -17.1824 -1.6501 0.9333
1.1768 -19.2272 -1.8494 0.9255
2.5547 -19.0930 -1.8494 0.9255
4.5946 -18.7072 -1.8494 0.9255
5.4648 -19.2373 -1.9200 0.9228
7.8222 -19.3254 -2.0016 0.9196
8.5116 -19.0319 -2.0016 0.9196
9.1900 -18.7137 -2.0016 0.9196
