ply
format ascii 1.0
element vertex 1596
property float32 x
property float32 y
property float32 z
property float32 I
end_header
1.1178 -10.5900 -2.0016 0.9576
1.4974 -10.5430 -2.0016 0.9576
4.7696 -9.5209 -2.0016 0.9576
2.2882 -4.1852 -0.8965 0.9808
8.8636 -3.3315 -2.0016 0.9620
8.9776 -3.0109 -2.0016 0.9620
9.0799 -2.6866 -2.0016 0.9620
9.2494 -2.0278 -2.0016 0.9620
9.3162 -1.6943 -2.0016 0.9620
9.3711 -1.3585 -2.0016 0.9620
9.4138 -1.0211 -2.0016 0.9620
9.4444 -0.6823 -2.0016 0.9620
9.4628 -0.3426 -2.0016 0.9620
9.3718 1.3535 -2.0016 0.9620
9.3171 1.6893 -2.0016 0.9620
9.2504 2.0229 -2.0016 0.9620
9.1718 2.3538 -2.0016 0.9620
9.0813 2.6817 -2.0016 0.9620
8.9792 3.0062 -2.0016 0.9620
8.8654 3.3267 -2.0016 0.9620
8.7402 3.6430 -2.0016 0.9620
8.6037 3.9546 -2.0016 0.9620
8.2976 4.5620 -2.0016 0.9620
8.1284 4.8571 -2.0016 0.9620
7.7587 5.4281 -2.0016 0.9620
7.3490 5.9711 -2.0016 0.9620
6.9014 6.4833 -2.0016 0.9620
6.4182 6.9620 -2.0016 0.9620
6.1640 7.1880 -2.0016 0.9620
5.9018 7.4048 -2.0016 0.9620
5.3550 7.8094 -2.0016 0.9620
4.7805 8.1737 -2.0016 0.9620
4.4839 8.3401 -2.0016 0.9620
3.8717 8.6363 -2.0006 0.9620
2.8017 8.6373 -1.9194 0.9636
1.7886 8.5642 -1.8494 0.9649
1.1692 8.6705 -1.8494 0.9649
0.8570 8.7069 -1.8494 0.9649
-0.0845 8.7486 -1.8494 0.9649
-0.3987 8.7399 -1.8494 0.9649
-1.0251 8.6887 -1.8494 0.9649
-1.6462 8.5927 -1.8494 0.9649
-2.5610 8.3658 -1.8494 0.9649
-2.8598 8.2684 -1.8494 0.9649
-3.5356 8.2509 -1.8975 0.9640
-5.2199 7.8901 -1.9998 0.9621
-5.7781 7.5018 -2.0016 0.9620
-6.7928 6.5970 -2.0016 0.9620
-7.0254 6.3487 -2.0016 0.9620
-7.2489 6.0923 -2.0016 0.9620
-7.6675 5.5562 -2.0016 0.9620
-8.2207 4.6992 -2.0016 0.9620
-8.6785 3.7876 -2.0016 0.9620
-8.9280 3.1548 -2.0016 0.9620
-9.0356 2.8321 -2.0016 0.9620
-9.2156 2.1761 -2.0016 0.9620
-9.3480 1.5089 -2.0016 0.9620
-9.3962 1.1722 -2.0016 0.9620
-9.4561 0.4946 -2.0016 0.9620
-9.4672 -0.1855 -2.0016 0.9620
-9.4544 -0.5254 -2.0016 0.9620
-9.4295 -0.8647 -2.0016 0.9620
-9.3923 -1.2028 -2.0016 0.9620
-9.2817 -1.8740 -2.0016 0.9620
-9.2084 -2.2061 -2.0016 0.9620
-8.4642 -2.3523 -1.8570 0.9647
-8.3743 -2.6548 -1.8570 0.9647
-8.1621 -3.2491 -1.8570 0.9647
-8.0401 -3.5402 -1.8570 0.9647
-7.7652 -4.1083 -1.8570 0.9647
-7.6127 -4.3845 -1.8570 0.9647
-7.0969 -5.1780 -1.8570 0.9647
-6.0200 -7.3090 -2.0016 0.9620
-5.4798 -7.7223 -2.0016 0.9620
-5.1989 -7.9142 -2.0016 0.9620
-4.6173 -8.2670 -2.0016 0.9620
-4.0119 -8.5771 -2.0016 0.9620
-3.3858 -8.8430 -2.0016 0.9620
-3.0660 -8.9589 -2.0016 0.9620
-2.4149 -9.1559 -2.0016 0.9620
-0.7403 -9.4400 -2.0016 0.9620
-0.4007 -9.4605 -2.0016 0.9620
-0.0607 -9.4688 -2.0016 0.9620
0.9582 -9.4204 -2.0016 0.9620
1.2960 -9.3799 -2.0016 0.9620
1.6320 -9.3273 -2.0016 0.9620
2.2974 -9.1861 -2.0016 0.9620
2.9510 -8.9974 -2.0016 0.9620
3.9017 -8.6278 -2.0016 0.9620
2.2682 -4.1862 -1.0064 0.9807
4.8071 -8.1581 -2.0016 0.9620
5.0971 -7.9801 -2.0016 0.9620
5.6568 -7.5936 -2.0016 0.9620
5.9259 -7.3855 -2.0016 0.9620
6.1873 -7.1679 -2.0016 0.9620
6.6859 -6.7053 -2.0016 0.9620
6.9225 -6.4608 -2.0016 0.9620
7.5773 -5.6787 -2.0016 0.9620
8.6165 -3.9266 -2.0016 0.9620
8.7520 -3.6145 -2.0016 0.9620
8.8762 -3.2978 -2.0016 0.9620
8.9889 -2.9769 -2.0016 0.9620
9.0900 -2.6521 -2.0016 0.9620
9.2570 -1.9927 -2.0016 0.9620
9.3226 -1.6589 -2.0016 0.9620
9.4690 0.0333 -2.0016 0.9620
9.4617 0.3734 -2.0016 0.9620
9.4421 0.7130 -2.0016 0.9620
9.4104 1.0517 -2.0016 0.9620
8.9677 3.0402 -2.0016 0.9620
8.7263 3.6761 -2.0016 0.9620
8.4399 4.2931 -2.0016 0.9620
7.7381 5.4575 -2.0016 0.9620
7.5371 5.7319 -2.0016 0.9620
6.6385 6.7522 -2.0016 0.9620
6.3917 6.9863 -2.0016 0.9620
6.1367 7.2113 -2.0016 0.9620
5.3254 7.8296 -2.0016 0.9620
5.0407 8.0158 -2.0016 0.9620
4.7495 8.1917 -2.0016 0.9620
4.4522 8.3570 -2.0016 0.9620
4.1492 8.5115 -2.0016 0.9620
3.8381 8.6490 -2.0001 0.9621
3.5178 8.7634 -1.9961 0.9621
3.1537 8.7536 -1.9668 0.9627
2.7613 8.6239 -1.9141 0.9637
2.3955 8.5242 -1.8716 0.9644
2.0629 8.5023 -1.8494 0.9649
1.7562 8.5709 -1.8494 0.9649
1.4472 8.6285 -1.8494 0.9649
1.1363 8.6749 -1.8494 0.9649
-0.1177 8.7482 -1.8494 0.9649
-0.4318 8.7383 -1.8494 0.9649
-0.7454 8.7172 -1.8494 0.9649
-1.0560 8.6679 -1.8458 0.9649
-1.3693 8.6412 -1.8494 0.9649
-1.9861 8.5206 -1.8494 0.9649
-2.2908 8.4437 -1.8494 0.9649
-2.5927 8.3560 -1.8494 0.9649
-2.8935 8.2644 -1.8509 0.9648
-4.6587 8.2048 -1.9944 0.9622
-6.0714 7.2664 -2.0016 0.9620
-6.3284 7.0437 -2.0016 0.9620
-6.5773 6.8118 -2.0016 0.9620
-7.0494 6.3221 -2.0016 0.9620
-7.6885 5.5271 -2.0016 0.9620
-7.8821 5.2474 -2.0016 0.9620
-8.0655 4.9609 -2.0016 0.9620
-8.4008 4.3690 -2.0016 0.9620
-8.8220 3.4400 -2.0016 0.9620
-8.9399 3.1210 -2.0016 0.9620
-9.0462 2.7978 -2.0016 0.9620
-9.1409 2.4711 -2.0016 0.9620
-9.2947 1.8085 -2.0016 0.9620
-9.4006 1.1366 -2.0016 0.9620
-9.4683 0.1188 -2.0016 0.9620
-9.4261 -0.9004 -2.0016 0.9620
-9.3877 -1.2384 -2.0016 0.9620
-9.2746 -1.9091 -2.0016 0.9620
-8.4553 -2.3844 -1.8570 0.9647
-8.3642 -2.6865 -1.8570 0.9647
-8.2623 -2.9852 -1.8570 0.9647
-8.1497 -3.2800 -1.8570 0.9647
-7.8932 -3.8566 -1.8570 0.9647
-7.7496 -4.1377 -1.8570 0.9647
-7.5960 -4.4133 -1.8570 0.9647
-7.4326 -4.6833 -1.8570 0.9647
-6.5032 -6.8827 -2.0016 0.9620
-6.2518 -7.1118 -2.0016 0.9620
-5.4505 -7.7430 -2.0016 0.9620
-5.1689 -7.9338 -2.0016 0.9620
-4.8805 -8.1143 -2.0016 0.9620
-4.5859 -8.2844 -2.0016 0.9620
-4.2854 -8.4438 -2.0016 0.9620
-3.6682 -8.7296 -2.0016 0.9620
-3.0320 -8.9705 -2.0016 0.9620
-2.7079 -9.0736 -2.0016 0.9620
-1.7161 -9.3122 -2.0016 0.9620
-1.3806 -9.3678 -2.0016 0.9620
-1.0432 -9.4114 -2.0016 0.9620
-0.3649 -9.4620 -2.0016 0.9620
0.6550 -9.4463 -2.0016 0.9620
0.9939 -9.4167 -2.0016 0.9620
2.6604 -9.0876 -2.0016 0.9620
2.9850 -8.9862 -2.0016 0.9620
3.6224 -8.7487 -2.0016 0.9620
3.9344 -8.6130 -2.0016 0.9620
4.2412 -8.4661 -2.0016 0.9620
2.2882 -4.1851 -1.0082 0.9807
7.9719 -2.9963 -2.0016 0.9656
8.2480 -2.1214 -2.0016 0.9656
8.3189 -1.8238 -2.0016 0.9656
8.3790 -1.5238 -2.0016 0.9656
8.4668 -0.9184 -2.0016 0.9656
8.5109 -0.3082 -2.0016 0.9656
8.5164 -0.0023 -2.0016 0.9656
8.4673 0.9138 -2.0016 0.9656
8.4290 1.2174 -2.0016 0.9656
8.3798 1.5193 -2.0016 0.9656
8.3198 1.8194 -2.0016 0.9656
8.2491 2.1170 -2.0016 0.9656
8.1678 2.4119 -2.0016 0.9656
8.0759 2.7037 -2.0016 0.9656
7.3107 4.3685 -2.0016 0.9656
7.1491 4.6283 -2.0016 0.9656
6.9782 4.8821 -2.0016 0.9656
6.7984 5.1295 -2.0016 0.9656
6.4126 5.6044 -2.0016 0.9656
5.9937 6.0503 -2.0016 0.9656
5.5439 6.4649 -2.0016 0.9656
5.3081 6.6599 -2.0016 0.9656
4.8163 7.0238 -2.0016 0.9656
4.5609 7.1922 -2.0016 0.9656
4.0328 7.5011 -2.0016 0.9656
3.7608 7.6411 -2.0016 0.9656
3.4839 7.7712 -2.0016 0.9656
2.9170 8.0013 -2.0016 0.9656
2.6276 8.1006 -2.0015 0.9656
2.3321 8.1795 -1.9990 0.9657
1.4260 8.3092 -1.9814 0.9660
1.1155 8.2723 -1.9618 0.9663
-0.3760 8.2431 -1.9393 0.9667
-0.6733 8.2423 -1.9436 0.9666
-1.2736 8.2394 -1.9594 0.9663
-3.0672 7.9334 -1.9990 0.9657
-3.9077 7.5670 -2.0016 0.9656
-4.4409 7.2669 -2.0016 0.9656
-4.6990 7.1028 -2.0016 0.9656
-5.1968 6.7471 -2.0016 0.9656
-5.4358 6.5561 -2.0016 0.9656
-5.6678 6.3566 -2.0016 0.9656
-6.1095 5.9333 -2.0016 0.9656
-6.3186 5.7100 -2.0016 0.9656
-7.0712 4.7463 -2.0016 0.9656
-7.3937 4.2264 -2.0016 0.9656
-7.5408 3.9581 -2.0016 0.9656
-7.6781 3.6847 -2.0016 0.9656
-7.9228 3.1240 -2.0016 0.9656
-8.0299 2.8374 -2.0016 0.9656
-8.3534 1.6583 -2.0016 0.9656
-8.4076 1.3571 -2.0016 0.9656
-8.4834 0.7501 -2.0016 0.9656
-8.5048 0.4449 -2.0016 0.9656
-8.5153 0.1391 -2.0016 0.9656
-8.5033 -0.4726 -2.0016 0.9656
-8.4809 -0.7777 -2.0016 0.9656
-7.5572 -2.3958 -1.8632 0.9679
-7.2313 -3.1841 -1.8570 0.9681
-7.1123 -3.4417 -1.8570 0.9681
-6.9841 -3.6950 -1.8570 0.9681
-6.7008 -4.1868 -1.8570 0.9681
-6.5461 -4.4248 -1.8570 0.9681
-6.2115 -4.8833 -1.8570 0.9681
-6.0321 -5.1033 -1.8570 0.9681
-5.6502 -5.5232 -1.8570 0.9681
-5.6470 -6.3750 -2.0016 0.9656
-5.4144 -6.5737 -2.0016 0.9656
-5.1748 -6.7640 -2.0016 0.9656
-4.9285 -6.9455 -2.0016 0.9656
-4.6759 -7.1180 -2.0016 0.9656
-4.1528 -7.4353 -2.0016 0.9656
-3.6083 -7.7143 -2.0016 0.9656
-3.0452 -7.9534 -2.0016 0.9656
-2.7576 -8.0576 -2.0016 0.9656
-0.9703 -8.4610 -2.0016 0.9656
-0.6658 -8.4904 -2.0016 0.9656
-0.3604 -8.5088 -2.0016 0.9656
1.1656 -8.4363 -2.0016 0.9656
1.4679 -8.3890 -2.0016 0.9656
2.9431 -7.9918 -2.0016 0.9656
3.2282 -7.8809 -2.0016 0.9656
3.5092 -7.7599 -2.0016 0.9656
2.2513 -4.1550 -1.1106 0.9808
4.5843 -7.1773 -2.0016 0.9656
4.8391 -7.0080 -2.0016 0.9656
5.0877 -6.8297 -2.0016 0.9656
5.3298 -6.6426 -2.0016 0.9656
5.7929 -6.2428 -2.0016 0.9656
6.0133 -6.0307 -2.0016 0.9656
6.2261 -5.8108 -2.0016 0.9656
6.6272 -5.3489 -2.0016 0.9656
6.8150 -5.1074 -2.0016 0.9656
7.3249 -4.3447 -2.0016 0.9656
7.7497 -3.5316 -2.0016 0.9656
7.9832 -2.9661 -2.0016 0.9656
8.4966 -0.5815 -2.0016 0.9656
8.4923 0.6413 -2.0016 0.9656
8.4637 0.9459 -2.0016 0.9656
8.3740 1.5511 -2.0016 0.9656
8.2410 2.1482 -2.0016 0.9656
8.1586 2.4429 -2.0016 0.9656
7.9622 3.0223 -2.0016 0.9656
7.5908 3.8612 -2.0016 0.9656
7.4473 4.1313 -2.0016 0.9656
7.2941 4.3962 -2.0016 0.9656
7.1315 4.6553 -2.0016 0.9656
6.7789 5.1553 -2.0016 0.9656
6.3913 5.6286 -2.0016 0.9656
5.5193 6.4859 -2.0016 0.9656
5.2828 6.6799 -2.0016 0.9656
5.0395 6.8654 -2.0016 0.9656
4.7896 7.0420 -2.0016 0.9656
4.5336 7.2095 -2.0016 0.9656
4.2717 7.3676 -2.0016 0.9656
4.0043 7.5163 -2.0016 0.9656
3.4544 7.7844 -2.0016 0.9656
3.1726 7.9034 -2.0016 0.9656
2.8867 8.0123 -2.0016 0.9656
2.0029 8.2549 -1.9964 0.9657
1.7035 8.3137 -1.9945 0.9657
0.7813 8.2581 -1.9495 0.9665
-0.1109 8.2435 -1.9376 0.9667
-0.4074 8.2431 -1.9397 0.9667
-1.9194 8.2343 -1.9871 0.9659
-2.5167 8.1113 -1.9960 0.9657
-2.8086 8.0218 -1.9975 0.9657
-3.0975 7.9224 -1.9992 0.9657
-3.3832 7.8133 -2.0011 0.9656
-3.6626 7.6887 -2.0016 0.9656
-3.9364 7.5521 -2.0016 0.9656
-4.4684 7.2501 -2.0016 0.9656
-4.7259 7.0849 -2.0016 0.9656
-5.2223 6.7273 -2.0016 0.9656
-5.4606 6.5354 -2.0016 0.9656
-6.5404 5.4547 -2.0016 0.9656
-6.7321 5.2162 -2.0016 0.9656
-7.0892 4.7195 -2.0016 0.9656
-7.4097 4.1984 -2.0016 0.9656
-7.5557 3.9295 -2.0016 0.9656
-7.9346 3.0940 -2.0016 0.9656
-8.1362 2.5164 -2.0016 0.9656
-8.2213 2.2225 -2.0016 0.9656
-8.4861 0.7179 -2.0016 0.9656
-8.5158 0.1068 -2.0016 0.9656
-8.5015 -0.5048 -2.0016 0.9656
-8.4433 -1.1138 -2.0016 0.9656
-8.3416 -1.7171 -2.0016 0.9656
-7.9070 -2.2297 -1.9308 0.9668
-7.5228 -2.4163 -1.8570 0.9681
-6.9700 -3.7214 -1.8570 0.9681
-6.8319 -3.9694 -1.8570 0.9681
-6.6849 -4.2122 -1.8570 0.9681
-6.5293 -4.4496 -1.8570 0.9681
-6.3652 -4.6812 -1.8570 0.9681
-6.1930 -4.9068 -1.8570 0.9681
-6.0127 -5.1261 -1.8570 0.9681
-5.8247 -5.3388 -1.8570 0.9681
-5.6307 -5.5459 -1.8575 0.9680
-5.8489 -6.1903 -2.0016 0.9656
-5.6228 -6.3964 -2.0016 0.9656
-5.3895 -6.5942 -2.0016 0.9656
-5.1491 -6.7835 -2.0016 0.9656
-4.9022 -6.9641 -2.0016 0.9656
-4.6489 -7.1357 -2.0016 0.9656
-4.1246 -7.4510 -2.0016 0.9656
-3.2992 -7.8514 -2.0016 0.9656
-3.0150 -7.9649 -2.0016 0.9656
-2.7270 -8.0680 -2.0016 0.9656
-2.1408 -8.2430 -2.0016 0.9656
-1.5435 -8.3754 -2.0016 0.9656
-0.9383 -8.4646 -2.0016 0.9656
-0.6336 -8.4928 -2.0016 0.9656
-0.3282 -8.5101 -2.0016 0.9656
0.2836 -8.5117 -2.0016 0.9656
0.5892 -8.4960 -2.0016 0.9656
1.1976 -8.4318 -2.0016 0.9656
1.7998 -8.3241 -2.0016 0.9656
2.0976 -8.2541 -2.0016 0.9656
2.3927 -8.1734 -2.0016 0.9656
2.6847 -8.0822 -2.0016 0.9656
3.2580 -7.8686 -2.0016 0.9656
3.5386 -7.7465 -2.0016 0.9656
2.1441 -4.2800 -1.1250 0.9805
7.3293 -2.4581 -2.0016 0.9686
7.4128 -2.1933 -2.0016 0.9686
7.6505 -1.1091 -2.0016 0.9686
7.6854 -0.8336 -2.0016 0.9686
7.7104 -0.5570 -2.0016 0.9686
7.7254 -0.2797 -2.0016 0.9686
7.7305 -0.0021 -2.0016 0.9686
7.7256 0.2756 -2.0016 0.9686
7.7107 0.5529 -2.0016 0.9686
7.6065 1.3791 -2.0016 0.9686
7.5520 1.6514 -2.0016 0.9686
7.4140 2.1893 -2.0016 0.9686
7.3306 2.4542 -2.0016 0.9686
7.1355 2.9741 -2.0016 0.9686
6.3342 4.4315 -2.0016 0.9686
6.1709 4.6562 -2.0016 0.9686
5.9997 4.8748 -2.0016 0.9686
5.8208 5.0872 -2.0016 0.9686
5.6343 5.2929 -2.0016 0.9686
5.4405 5.4919 -2.0016 0.9686
4.8182 6.0453 -2.0016 0.9686
4.1400 6.5285 -2.0016 0.9686
3.9028 6.6730 -2.0016 0.9686
3.6606 6.8088 -2.0016 0.9686
3.4137 6.9359 -2.0016 0.9686
2.9070 7.1631 -2.0016 0.9686
2.6478 7.2629 -2.0016 0.9686
1.8512 7.5056 -2.0016 0.9686
0.7573 7.6933 -2.0016 0.9686
0.4804 7.7155 -2.0016 0.9686
0.2030 7.7278 -2.0016 0.9686
-0.3523 7.7225 -2.0016 0.9686
-0.6294 7.7048 -2.0016 0.9686
-1.4546 7.5924 -2.0016 0.9686
-1.7264 7.5353 -2.0016 0.9686
-1.9959 7.4684 -2.0016 0.9686
-2.2628 7.3919 -2.0016 0.9686
-3.0448 7.1056 -2.0016 0.9686
-4.0310 6.5963 -2.0016 0.9686
-4.7172 6.1244 -2.0016 0.9686
-5.1447 5.7700 -2.0016 0.9686
-5.7355 5.1831 -2.0016 0.9686
-6.0928 4.7580 -2.0016 0.9686
-6.4187 4.3083 -2.0016 0.9686
-6.5693 4.0750 -2.0016 0.9686
-6.7114 3.8364 -2.0016 0.9686
-6.8448 3.5929 -2.0016 0.9686
-6.9695 3.3447 -2.0016 0.9686
-7.1916 2.8357 -2.0016 0.9686
-7.3766 2.3121 -2.0016 0.9686
-7.4549 2.0457 -2.0016 0.9686
-7.5236 1.7766 -2.0016 0.9686
-7.6317 1.2319 -2.0016 0.9686
-7.6710 0.9570 -2.0016 0.9686
-7.7290 -0.1514 -2.0016 0.9686
-7.7186 -0.4289 -2.0016 0.9686
-7.6982 -0.7059 -2.0016 0.9686
-7.6679 -0.9820 -2.0016 0.9686
-7.6277 -1.2567 -2.0016 0.9686
-7.5177 -1.8011 -2.0016 0.9686
-7.4482 -2.0699 -2.0016 0.9686
-7.0438 -2.2330 -1.9132 0.9699
-6.7545 -2.4115 -1.8570 0.9708
-6.5640 -2.8902 -1.8570 0.9708
-6.4559 -3.1241 -1.8570 0.9708
-6.2150 -3.5795 -1.8570 0.9708
-6.0824 -3.8004 -1.8570 0.9708
-5.6383 -4.4327 -1.8570 0.9708
-5.3055 -4.8260 -1.8570 0.9708
-4.9454 -5.1944 -1.8570 0.9708
-4.5661 -5.5438 -1.8596 0.9708
-4.4737 -6.3045 -2.0016 0.9686
-4.2443 -6.4611 -2.0016 0.9686
-4.0095 -6.6094 -2.0016 0.9686
-3.7696 -6.7491 -2.0016 0.9686
-3.5247 -6.8802 -2.0016 0.9686
-3.0217 -7.1155 -2.0016 0.9686
-2.7642 -7.2194 -2.0016 0.9686
-2.2388 -7.3992 -2.0016 0.9686
-1.9716 -7.4749 -2.0016 0.9686
-1.7018 -7.5408 -2.0016 0.9686
-1.4298 -7.5971 -2.0016 0.9686
-0.8808 -7.6802 -2.0016 0.9686
-0.6044 -7.7068 -2.0016 0.9686
0.2282 -7.7271 -2.0016 0.9686
1.8756 -7.4995 -2.0016 0.9686
2.6714 -7.2542 -2.0016 0.9686
4.1612 -6.5150 -2.0016 0.9686
4.3925 -6.3613 -2.0016 0.9686
4.8379 -6.0295 -2.0016 0.9686
5.2582 -5.6667 -2.0016 0.9686
5.6515 -5.2746 -2.0016 0.9686
5.8373 -5.0682 -2.0016 0.9686
6.0156 -4.8552 -2.0016 0.9686
6.1861 -4.6360 -2.0016 0.9686
6.5029 -4.1800 -2.0016 0.9686
6.6489 -3.9437 -2.0016 0.9686
6.7862 -3.7024 -2.0016 0.9686
7.0345 -3.2056 -2.0016 0.9686
7.1451 -2.9509 -2.0016 0.9686
7.2465 -2.6924 -2.0016 0.9686
7.4211 -2.1652 -2.0016 0.9686
7.4941 -1.8973 -2.0016 0.9686
7.6109 -1.3544 -2.0016 0.9686
7.6885 -0.8045 -2.0016 0.9686
7.7124 -0.5278 -2.0016 0.9686
7.7085 0.5821 -2.0016 0.9686
7.6012 1.4079 -2.0016 0.9686
7.4805 1.9500 -2.0016 0.9686
7.2273 2.7433 -2.0016 0.9686
7.0118 3.2551 -2.0016 0.9686
6.7600 3.7501 -2.0016 0.9686
6.6209 3.9905 -2.0016 0.9686
6.4733 4.2257 -2.0016 0.9686
6.3174 4.4555 -2.0016 0.9686
5.9812 4.8975 -2.0016 0.9686
5.8014 5.1092 -2.0016 0.9686
5.6142 5.3143 -2.0016 0.9686
5.4197 5.5125 -2.0016 0.9686
5.2182 5.7036 -2.0016 0.9686
4.5744 6.2318 -2.0016 0.9686
4.3476 6.3921 -2.0016 0.9686
3.8775 6.6877 -2.0016 0.9686
2.8798 7.1741 -2.0016 0.9686
2.6203 7.2729 -2.0016 0.9686
2.3574 7.3623 -2.0016 0.9686
1.2787 7.6240 -2.0016 0.9686
0.4512 7.7173 -2.0016 0.9686
0.1737 7.7285 -2.0016 0.9686
-0.1040 7.7298 -2.0016 0.9686
-0.3816 7.7211 -2.0016 0.9686
-0.6586 7.7024 -2.0016 0.9686
-1.2099 7.6352 -2.0016 0.9686
-1.4833 7.5868 -2.0016 0.9686
-2.0242 7.4608 -2.0016 0.9686
-2.2908 7.3833 -2.0016 0.9686
-2.8150 7.1998 -2.0016 0.9686
-3.3246 6.9791 -2.0016 0.9686
-3.5731 6.8552 -2.0016 0.9686
-3.8170 6.7224 -2.0016 0.9686
-4.2898 6.4310 -2.0016 0.9686
-4.5180 6.2728 -2.0016 0.9686
-4.7404 6.1065 -2.0016 0.9686
-5.7551 5.1613 -2.0016 0.9686
-5.9368 4.9513 -2.0016 0.9686
-6.2769 4.5123 -2.0016 0.9686
-6.4349 4.2839 -2.0016 0.9686
-6.7259 3.8109 -2.0016 0.9686
-6.8584 3.5669 -2.0016 0.9686
-6.9821 3.3182 -2.0016 0.9686
-7.0968 3.0653 -2.0016 0.9686
-7.3853 2.2842 -2.0016 0.9686
-7.4626 2.0174 -2.0016 0.9686
-7.5302 1.7481 -2.0016 0.9686
-7.5882 1.4765 -2.0016 0.9686
-7.6363 1.2030 -2.0016 0.9686
-7.6746 0.9279 -2.0016 0.9686
-7.7214 0.3746 -2.0016 0.9686
-7.7299 0.0970 -2.0016 0.9686
-6.9635 -2.2366 -1.8937 0.9702
-6.5530 -2.9151 -1.8570 0.9708
-6.4440 -3.1486 -1.8570 0.9708
-6.3268 -3.3780 -1.8570 0.9708
-6.2014 -3.6030 -1.8570 0.9708
-5.9267 -4.0389 -1.8570 0.9708
-5.6215 -4.4540 -1.8570 0.9708
-5.2872 -4.8461 -1.8570 0.9708
-4.7353 -5.3867 -1.8570 0.9708
-4.6739 -6.1575 -2.0016 0.9686
-4.4498 -6.3214 -2.0016 0.9686
-4.2198 -6.4771 -2.0016 0.9686
-3.7440 -6.7634 -2.0016 0.9686
-3.4986 -6.8935 -2.0016 0.9686
-2.7368 -7.2298 -2.0016 0.9686
-2.2107 -7.4076 -2.0016 0.9686
-1.9432 -7.4823 -2.0016 0.9686
-1.4011 -7.6025 -2.0016 0.9686
-0.5751 -7.7091 -2.0016 0.9686
0.2574 -7.7262 -2.0016 0.9686
1.0871 -7.6537 -2.0016 0.9686
1.6337 -7.5559 -2.0016 0.9686
2.1719 -7.4191 -2.0016 0.9686
3.2120 -7.0316 -2.0016 0.9686
2.1109 -4.2138 -1.2203 0.9807
2.2478 -4.1112 -1.2132 0.9808
6.6183 -2.4875 -2.0016 0.9710
6.7034 -2.2482 -2.0016 0.9710
6.8475 -1.7612 -2.0016 0.9710
6.9063 -1.5141 -2.0016 0.9710
7.0657 -0.2558 -2.0016 0.9710
7.0658 0.2521 -2.0016 0.9710
7.0522 0.5057 -2.0016 0.9710
6.7809 2.0024 -2.0016 0.9710
6.7046 2.2446 -2.0016 0.9710
6.6196 2.4840 -2.0016 0.9710
6.5261 2.7202 -2.0016 0.9710
6.4242 2.9528 -2.0016 0.9710
6.3140 3.1816 -2.0016 0.9710
6.1956 3.4064 -2.0016 0.9710
6.0693 3.6267 -2.0016 0.9710
5.9351 3.8424 -2.0016 0.9710
5.6440 4.2585 -2.0016 0.9710
5.4874 4.4585 -2.0016 0.9710
5.3237 4.6527 -2.0016 0.9710
4.6025 5.3672 -2.0016 0.9710
4.4068 5.5290 -2.0016 0.9710
4.2053 5.6837 -2.0016 0.9710
3.5695 6.1031 -2.0016 0.9710
2.8923 6.4517 -2.0016 0.9710
2.6587 6.5514 -2.0016 0.9710
2.4217 6.6427 -2.0016 0.9710
1.9386 6.7994 -2.0016 0.9710
1.6931 6.8646 -2.0016 0.9710
1.4455 6.9210 -2.0016 0.9710
1.1959 6.9684 -2.0016 0.9710
0.6926 7.0363 -2.0016 0.9710
0.4394 7.0567 -2.0016 0.9710
-0.0683 7.0700 -2.0016 0.9710
-0.3222 7.0630 -2.0016 0.9710
-0.5757 7.0469 -2.0016 0.9710
-0.8284 7.0216 -2.0016 0.9710
-1.0801 6.9873 -2.0016 0.9710
-1.5789 6.8918 -2.0016 0.9710
-1.8254 6.8306 -2.0016 0.9710
-2.3111 6.6819 -2.0016 0.9710
-2.7848 6.4988 -2.0016 0.9710
-3.4677 6.1615 -2.0016 0.9710
-3.6868 6.0330 -2.0016 0.9710
-3.9011 5.8967 -2.0016 0.9710
-4.3144 5.6014 -2.0016 0.9710
-5.0721 4.9258 -2.0016 0.9710
-5.5725 4.3516 -2.0016 0.9710
-5.7252 4.1487 -2.0016 0.9710
-5.8705 3.9404 -2.0016 0.9710
-6.0083 3.7270 -2.0016 0.9710
-6.1383 3.5088 -2.0016 0.9710
-6.4801 2.8281 -2.0016 0.9710
-6.5775 2.5936 -2.0016 0.9710
-6.6664 2.3556 -2.0016 0.9710
-6.7467 2.1147 -2.0016 0.9710
-6.9350 1.3767 -2.0016 0.9710
-6.9800 1.1267 -2.0016 0.9710
-7.0690 -0.1385 -2.0016 0.9710
-6.9763 -1.1494 -2.0016 0.9710
-6.9305 -1.3992 -2.0016 0.9710
-6.8122 -1.8932 -2.0016 0.9710
-6.0945 -2.4261 -1.8570 0.9731
-5.9046 -2.8573 -1.8570 0.9731
-5.6842 -3.2738 -1.8570 0.9731
-5.5630 -3.4759 -1.8570 0.9731
-5.4345 -3.6735 -1.8570 0.9731
-5.1568 -4.0541 -1.8570 0.9731
-4.5231 -4.7508 -1.8570 0.9731
-3.9858 -5.2098 -1.8570 0.9731
-3.6015 -5.4825 -1.8570 0.9731
-3.4022 -5.6083 -1.8570 0.9731
-3.4476 -6.1728 -2.0016 0.9710
-2.5281 -6.6029 -2.0016 0.9710
-1.5565 -6.8969 -2.0016 0.9710
-1.3078 -6.9483 -2.0016 0.9710
-1.0573 -6.9908 -2.0016 0.9710
-0.8056 -7.0243 -2.0016 0.9710
0.4624 -7.0552 -2.0016 0.9710
0.7155 -7.0340 -2.0016 0.9710
1.9607 -6.7930 -2.0016 0.9710
2.6800 -6.5427 -2.0016 0.9710
4.4247 -5.5146 -2.0016 0.9710
5.1689 -4.8241 -2.0016 0.9710
5.3388 -4.6354 -2.0016 0.9710
6.0811 -3.6069 -2.0016 0.9710
6.4338 -2.9319 -2.0016 0.9710
6.7118 -2.2228 -2.0016 0.9710
6.7874 -1.9803 -2.0016 0.9710
6.8541 -1.7352 -2.0016 0.9710
6.9610 -1.2387 -2.0016 0.9710
7.0010 -0.9879 -2.0016 0.9710
7.0319 -0.7358 -2.0016 0.9710
7.0538 -0.4827 -2.0016 0.9710
7.0666 -0.2291 -2.0016 0.9710
7.0703 0.0249 -2.0016 0.9710
7.0266 0.7853 -2.0016 0.9710
6.9521 1.2877 -2.0016 0.9710
6.9013 1.5366 -2.0016 0.9710
6.8417 1.7835 -2.0016 0.9710
6.7732 2.0281 -2.0016 0.9710
6.6102 2.5091 -2.0016 0.9710
6.5158 2.7449 -2.0016 0.9710
6.3019 3.2056 -2.0016 0.9710
6.1827 3.4298 -2.0016 0.9710
6.0555 3.6497 -2.0016 0.9710
5.7779 4.0750 -2.0016 0.9710
5.6278 4.2799 -2.0016 0.9710
5.3060 4.6729 -2.0016 0.9710
5.1348 4.8604 -2.0016 0.9710
4.9569 5.0417 -2.0016 0.9710
4.1838 5.6996 -2.0016 0.9710
3.9764 5.8462 -2.0016 0.9710
3.3244 6.2400 -2.0016 0.9710
2.8679 6.4626 -2.0016 0.9710
2.1560 6.7336 -2.0016 0.9710
1.9128 6.8067 -2.0016 0.9710
0.6659 7.0389 -2.0016 0.9710
0.4127 7.0583 -2.0016 0.9710
0.1589 7.0685 -2.0016 0.9710
-0.3490 7.0617 -2.0016 0.9710
-0.6024 7.0446 -2.0016 0.9710
-0.8550 7.0184 -2.0016 0.9710
-1.1066 6.9832 -2.0016 0.9710
-1.6050 6.8857 -2.0016 0.9710
-2.0952 6.7528 -2.0016 0.9710
-3.0407 6.3831 -2.0016 0.9710
-3.2680 6.2698 -2.0016 0.9710
-3.4910 6.1483 -2.0016 0.9710
-3.7096 6.0190 -2.0016 0.9710
-3.9234 5.8819 -2.0016 0.9710
-4.1322 5.7371 -2.0016 0.9710
-4.3356 5.5850 -2.0016 0.9710
-4.7253 5.2594 -2.0016 0.9710
-4.9112 5.0863 -2.0016 0.9710
-5.2636 4.7206 -2.0016 0.9710
-5.8854 3.9181 -2.0016 0.9710
-6.1515 3.4855 -2.0016 0.9710
-6.4907 2.8036 -2.0016 0.9710
-6.5873 2.5686 -2.0016 0.9710
-6.8253 1.8451 -2.0016 0.9710
-6.8872 1.5988 -2.0016 0.9710
-6.9402 1.3504 -2.0016 0.9710
-7.0192 0.8487 -2.0016 0.9710
-7.0579 -0.4191 -2.0016 0.9710
-7.0096 -0.9247 -2.0016 0.9710
-6.9719 -1.1758 -2.0016 0.9710
-6.2039 -2.2415 -1.8674 0.9730
-6.0852 -2.4491 -1.8570 0.9731
-5.9934 -2.6661 -1.8570 0.9731
-5.8937 -2.8797 -1.8570 0.9731
-5.6718 -3.2954 -1.8570 0.9731
-5.5498 -3.4969 -1.8570 0.9731
-5.4206 -3.6940 -1.8570 0.9731
-5.2844 -3.8863 -1.8570 0.9731
-5.1414 -4.0736 -1.8570 0.9731
-4.9918 -4.2557 -1.8570 0.9731
-4.5050 -4.7679 -1.8570 0.9731
-4.3309 -4.9267 -1.8570 0.9731
-3.7758 -5.3639 -1.8570 0.9731
-3.5807 -5.4961 -1.8570 0.9731
-2.5031 -6.6124 -2.0016 0.9710
-2.2640 -6.6981 -2.0016 0.9710
-2.0219 -6.7751 -2.0016 0.9710
-1.7773 -6.8433 -2.0016 0.9710
-1.2814 -6.9532 -2.0016 0.9710
-1.0308 -6.9948 -2.0016 0.9710
-0.7789 -7.0273 -2.0016 0.9710
-0.2724 -7.0651 -2.0016 0.9710
-0.0185 -7.0703 -2.0016 0.9710
0.4891 -7.0534 -2.0016 0.9710
0.7421 -7.0313 -2.0016 0.9710
0.9942 -7.0001 -2.0016 0.9710
1.7414 -6.8525 -2.0016 0.9710
2.4684 -6.6254 -2.0016 0.9710
2.9377 -6.4311 -2.0016 0.9710
6.0914 -2.2895 -2.0016 0.9731
6.2401 -1.8463 -2.0016 0.9731
6.3024 -1.6210 -2.0016 0.9731
6.4695 -0.7017 -2.0016 0.9731
6.4906 -0.4689 -2.0016 0.9731
6.5032 -0.2355 -2.0016 0.9731
6.5075 -0.0017 -2.0016 0.9731
6.5033 0.2320 -2.0016 0.9731
6.2410 1.8430 -2.0016 0.9731
6.1708 2.0659 -2.0016 0.9731
6.0926 2.2863 -2.0016 0.9731
6.0066 2.5036 -2.0016 0.9731
5.4626 3.5365 -2.0016 0.9731
5.3321 3.7304 -2.0016 0.9731
5.1947 3.9195 -2.0016 0.9731
4.8999 4.2823 -2.0016 0.9731
4.7429 4.4556 -2.0016 0.9731
4.4108 4.7846 -2.0016 0.9731
3.6802 5.3669 -2.0016 0.9731
2.8736 5.8386 -2.0016 0.9731
2.6621 5.9381 -2.0016 0.9731
1.3304 6.3700 -2.0016 0.9731
1.1007 6.4137 -2.0016 0.9731
0.8696 6.4491 -2.0016 0.9731
0.4044 6.4949 -2.0016 0.9731
0.1709 6.5052 -2.0016 0.9731
-0.0629 6.5072 -2.0016 0.9731
-1.4532 6.3431 -2.0016 0.9731
-1.9048 6.2224 -2.0016 0.9731
-2.1271 6.1500 -2.0016 0.9731
-2.5631 5.9814 -2.0016 0.9731
-2.7763 5.8855 -2.0016 0.9731
-3.1917 5.6710 -2.0016 0.9731
-3.3933 5.5527 -2.0016 0.9731
-3.5906 5.4273 -2.0016 0.9731
-4.1535 5.0095 -2.0016 0.9731
-4.5024 4.6984 -2.0016 0.9731
-4.6683 4.5337 -2.0016 0.9731
-4.8281 4.3631 -2.0016 0.9731
-4.9817 4.1869 -2.0016 0.9731
-5.5300 3.4303 -2.0016 0.9731
-5.6496 3.2294 -2.0016 0.9731
-5.8669 2.8155 -2.0016 0.9731
-6.0539 2.3871 -2.0016 0.9731
-6.1357 2.1681 -2.0016 0.9731
-6.2096 1.9463 -2.0016 0.9731
-6.2755 1.7220 -2.0016 0.9731
-6.3829 1.2671 -2.0016 0.9731
-6.4243 1.0370 -2.0016 0.9731
-6.4986 0.3399 -2.0016 0.9731
-6.4975 -0.3611 -2.0016 0.9731
-6.3788 -1.2879 -2.0016 0.9731
-6.3284 -1.5161 -2.0016 0.9731
-6.2032 -1.9665 -2.0016 0.9731
-5.6321 -2.2420 -1.8645 0.9750
-5.5255 -2.4330 -1.8570 0.9751
-5.0019 -3.3810 -1.8570 0.9751
-4.6092 -3.8995 -1.8570 0.9751
-3.8383 -4.6602 -1.8570 0.9751
-3.6685 -4.7951 -1.8570 0.9751
-2.9440 -5.2710 -1.8570 0.9751
-2.3599 -5.5571 -1.8570 0.9751
-1.8846 -6.2286 -2.0016 0.9731
-0.7414 -6.4651 -2.0016 0.9731
-0.0417 -6.5073 -2.0016 0.9731
0.1921 -6.5046 -2.0016 0.9731
0.4256 -6.4935 -2.0016 0.9731
0.8906 -6.4462 -2.0016 0.9731
1.3511 -6.3657 -2.0016 0.9731
2.0280 -6.1834 -2.0016 0.9731
2.2488 -6.1066 -2.0016 0.9731
2.4877 -5.5011 -1.8570 0.9751
2.0821 -4.1958 -1.4407 0.9806
2.4039 -4.0797 -1.4565 0.9804
3.5029 -5.4843 -2.0016 0.9731
3.8876 -5.2186 -2.0016 0.9731
4.0725 -5.0756 -2.0016 0.9731
4.5948 -4.6081 -2.0016 0.9731
4.7574 -4.4401 -2.0016 0.9731
5.0639 -4.0871 -2.0016 0.9731
5.2074 -3.9026 -2.0016 0.9731
5.5970 -3.3198 -2.0016 0.9731
5.7126 -3.1166 -2.0016 0.9731
5.9216 -2.6985 -2.0016 0.9731
6.0147 -2.4841 -2.0016 0.9731
6.1000 -2.2664 -2.0016 0.9731
6.1775 -2.0458 -2.0016 0.9731
6.3085 -1.5971 -2.0016 0.9731
6.3618 -1.3695 -2.0016 0.9731
6.4068 -1.1401 -2.0016 0.9731
6.4923 -0.4443 -2.0016 0.9731
6.5041 -0.2108 -2.0016 0.9731
6.5024 0.2566 -2.0016 0.9731
6.4890 0.4900 -2.0016 0.9731
6.4672 0.7228 -2.0016 0.9731
6.4371 0.9546 -2.0016 0.9731
6.3986 1.1852 -2.0016 0.9731
6.3519 1.4143 -2.0016 0.9731
6.2340 1.8666 -2.0016 0.9731
6.0839 2.3093 -2.0016 0.9731
5.8002 2.9504 -2.0016 0.9731
5.6905 3.1568 -2.0016 0.9731
5.5735 3.3591 -2.0016 0.9731
5.3179 3.7506 -2.0016 0.9731
5.1798 3.9392 -2.0016 0.9731
5.0350 4.1227 -2.0016 0.9731
4.8836 4.3009 -2.0016 0.9731
4.7260 4.4735 -2.0016 0.9731
4.5623 4.6404 -2.0016 0.9731
4.2174 4.9559 -2.0016 0.9731
3.6598 5.3808 -2.0016 0.9731
3.2641 5.6297 -2.0016 0.9731
2.6396 5.9481 -2.0016 0.9731
2.2057 6.1223 -2.0016 0.9731
1.9844 6.1975 -2.0016 0.9731
1.7605 6.2648 -2.0016 0.9731
1.3062 6.3750 -2.0016 0.9731
1.0764 6.4178 -2.0016 0.9731
0.1462 6.5058 -2.0016 0.9731
-0.5544 6.4838 -2.0016 0.9731
-0.7869 6.4597 -2.0016 0.9731
-1.0185 6.4273 -2.0016 0.9731
-1.2487 6.3866 -2.0016 0.9731
-1.7039 6.2804 -2.0016 0.9731
-1.9284 6.2152 -2.0016 0.9731
-2.1504 6.1419 -2.0016 0.9731
-2.3696 6.0607 -2.0016 0.9731
-2.5858 5.9717 -2.0016 0.9731
-2.7986 5.8750 -2.0016 0.9731
-3.2131 5.6589 -2.0016 0.9731
-3.8032 5.2804 -2.0016 0.9731
-3.9904 5.1404 -2.0016 0.9731
-4.1725 4.9938 -2.0016 0.9731
-4.3491 4.8407 -2.0016 0.9731
-4.8446 4.3448 -2.0016 0.9731
-4.9975 4.1680 -2.0016 0.9731
-5.2839 3.7984 -2.0016 0.9731
-5.4169 3.6062 -2.0016 0.9731
-5.5429 3.4093 -2.0016 0.9731
-5.6618 3.2080 -2.0016 0.9731
-5.9740 2.5804 -2.0016 0.9731
-6.0629 2.3641 -2.0016 0.9731
-6.1439 2.1448 -2.0016 0.9731
-6.2820 1.6982 -2.0016 0.9731
-6.3389 1.4715 -2.0016 0.9731
-6.3877 1.2429 -2.0016 0.9731
-6.4604 0.7811 -2.0016 0.9731
-6.4843 0.5486 -2.0016 0.9731
-6.4998 0.3153 -2.0016 0.9731
-6.5057 -0.1521 -2.0016 0.9731
-6.4780 -0.6188 -2.0016 0.9731
-6.3738 -1.3120 -2.0016 0.9731
-5.6008 -2.2542 -1.8570 0.9751
-5.5162 -2.4539 -1.8570 0.9751
-5.4245 -2.6504 -1.8570 0.9751
-5.2203 -3.0330 -1.8570 0.9751
-5.1080 -3.2186 -1.8570 0.9751
-4.9891 -3.4000 -1.8570 0.9751
-4.8637 -3.5770 -1.8570 0.9751
-4.3013 -4.2366 -1.8570 0.9751
-3.9861 -4.5345 -1.8570 0.9751
-3.8207 -4.6747 -1.8570 0.9751
-3.6503 -4.8089 -1.8570 0.9751
-3.4752 -4.9369 -1.8570 0.9751
-3.1118 -5.1737 -1.8570 0.9751
-2.9240 -5.2821 -1.8570 0.9751
-2.7324 -5.3837 -1.8570 0.9751
-2.1374 -5.6464 -1.8570 0.9751
-2.0837 -6.1648 -2.0016 0.9731
-1.4085 -6.3532 -2.0016 0.9731
-0.7169 -6.4679 -2.0016 0.9731
-0.2508 -6.5026 -2.0016 0.9731
0.2167 -6.5039 -2.0016 0.9731
0.4502 -6.4919 -2.0016 0.9731
0.6831 -6.4715 -2.0016 0.9731
1.3752 -6.3605 -2.0016 0.9731
1.8283 -6.2454 -2.0016 0.9731
2.0514 -6.1757 -2.0016 0.9731
2.5085 -5.4916 -1.8570 0.9751
2.0835 -4.1589 -1.4307 0.9807
5.6365 -2.1185 -2.0016 0.9749
5.7089 -1.9147 -2.0016 0.9749
5.7740 -1.7084 -2.0016 0.9749
5.8316 -1.4999 -2.0016 0.9749
5.8817 -1.2895 -2.0016 0.9749
5.9243 -1.0774 -2.0016 0.9749
5.9863 -0.6493 -2.0016 0.9749
6.0060 0.4307 -2.0016 0.9749
5.9248 1.0742 -2.0016 0.9749
5.7749 1.7053 -2.0016 0.9749
5.7099 1.9116 -2.0016 0.9749
5.2765 2.9010 -2.0016 0.9749
5.1689 3.0887 -2.0016 0.9749
4.9338 3.4518 -2.0016 0.9749
4.8067 3.6268 -2.0016 0.9749
4.2378 4.2778 -2.0016 0.9749
4.0814 4.4272 -2.0016 0.9749
3.9197 4.5709 -2.0016 0.9749
3.7530 4.7088 -2.0016 0.9749
3.4053 4.9661 -2.0016 0.9749
3.0400 5.1977 -2.0016 0.9749
2.6590 5.4025 -2.0016 0.9749
2.4633 5.4946 -2.0016 0.9749
2.2643 5.5795 -2.0016 0.9749
2.0624 5.6572 -2.0016 0.9749
1.8579 5.7276 -2.0016 0.9749
1.4419 5.8462 -2.0016 0.9749
1.2310 5.8943 -2.0016 0.9749
0.8047 5.9674 -2.0016 0.9749
0.5899 5.9925 -2.0016 0.9749
0.1581 6.0194 -2.0016 0.9749
-0.0582 6.0212 -2.0016 0.9749
-0.2744 6.0152 -2.0016 0.9749
-0.4903 6.0014 -2.0016 0.9749
-0.7055 5.9800 -2.0016 0.9749
-0.9199 5.9508 -2.0016 0.9749
-1.1330 5.9139 -2.0016 0.9749
-1.3447 5.8694 -2.0016 0.9749
-1.7626 5.7577 -2.0016 0.9749
-2.1714 5.6163 -2.0016 0.9749
-2.9533 5.2475 -2.0016 0.9749
-3.1399 5.1380 -2.0016 0.9749
-3.3224 5.0219 -2.0016 0.9749
-3.5006 4.8993 -2.0016 0.9749
-3.6743 4.7704 -2.0016 0.9749
-4.0073 4.4943 -2.0016 0.9749
-4.3196 4.1951 -2.0016 0.9749
-4.6096 3.8742 -2.0016 0.9749
-5.2276 2.9882 -2.0016 0.9749
-5.4287 2.6052 -2.0016 0.9749
-5.6017 2.2088 -2.0016 0.9749
-5.6774 2.0062 -2.0016 0.9749
-5.7458 1.8010 -2.0016 0.9749
-5.8603 1.3838 -2.0016 0.9749
-5.9445 0.9596 -2.0016 0.9749
-5.9751 0.7454 -2.0016 0.9749
-6.0206 0.0984 -2.0016 0.9749
-5.9727 -0.7649 -2.0016 0.9749
-5.9413 -0.9789 -2.0016 0.9749
-5.9023 -1.1917 -2.0016 0.9749
-5.6709 -2.0246 -2.0016 0.9749
-5.5721 -2.2181 -1.9936 0.9750
-5.1128 -2.2512 -1.8570 0.9767
-5.0286 -2.4334 -1.8570 0.9767
-4.8410 -2.7882 -1.8570 0.9767
-4.7377 -2.9602 -1.8570 0.9767
-4.6283 -3.1285 -1.8570 0.9767
-4.3918 -3.4527 -1.8570 0.9767
-3.8521 -4.0460 -1.8570 0.9767
-3.7043 -4.1818 -1.8570 0.9767
-3.3945 -4.4369 -1.8570 0.9767
-3.2329 -4.5560 -1.8570 0.9767
-3.0672 -4.6692 -1.8570 0.9767
-2.7241 -4.8773 -1.8570 0.9767
-1.9975 -5.2172 -1.8570 0.9767
-1.8089 -5.2855 -1.8570 0.9767
-1.4248 -5.4018 -1.8570 0.9767
-1.2298 -5.4494 -1.8570 0.9767
-1.0333 -5.4901 -1.8570 0.9767
-0.8354 -5.5237 -1.8570 0.9767
-0.6365 -5.5501 -1.8570 0.9767
-0.4367 -5.5694 -1.8570 0.9767
0.7659 -5.5433 -1.8601 0.9767
0.9629 -5.5029 -1.8570 0.9767
1.1599 -5.4647 -1.8570 0.9767
2.0682 -4.1679 -1.5466 0.9806
3.0071 -4.7081 -1.8570 0.9767
3.1743 -4.5970 -1.8570 0.9767
3.9346 -4.5582 -2.0016 0.9749
4.4021 -4.1085 -2.0016 0.9749
4.5468 -3.9477 -2.0016 0.9749
4.8185 -3.6111 -2.0016 0.9749
4.9451 -3.4357 -2.0016 0.9749
5.0653 -3.2559 -2.0016 0.9749
5.1790 -3.0718 -2.0016 0.9749
5.4793 -2.4969 -2.0016 0.9749
5.7804 -1.6865 -2.0016 0.9749
5.8373 -1.4778 -2.0016 0.9749
5.9283 -1.0549 -2.0016 0.9749
5.9887 -0.6266 -2.0016 0.9749
6.0074 -0.4111 -2.0016 0.9749
6.0183 -0.1951 -2.0016 0.9749
6.0168 0.2375 -2.0016 0.9749
5.9842 0.6688 -2.0016 0.9749
5.9207 1.0967 -2.0016 0.9749
5.8267 1.5189 -2.0016 0.9749
5.7684 1.7272 -2.0016 0.9749
5.7027 1.9333 -2.0016 0.9749
5.5492 2.3377 -2.0016 0.9749
5.4616 2.5355 -2.0016 0.9749
5.3670 2.7300 -2.0016 0.9749
5.0422 3.2915 -2.0016 0.9749
4.9207 3.4705 -2.0016 0.9749
4.6589 3.8148 -2.0016 0.9749
4.5189 3.9796 -2.0016 0.9749
4.3730 4.1394 -2.0016 0.9749
3.9024 4.5858 -2.0016 0.9749
3.7351 4.7230 -2.0016 0.9749
3.5631 4.8541 -2.0016 0.9749
2.4424 5.5039 -2.0016 0.9749
2.0410 5.6650 -2.0016 0.9749
1.8362 5.7346 -2.0016 0.9749
1.2087 5.8989 -2.0016 0.9749
0.9960 5.9385 -2.0016 0.9749
0.3515 6.0112 -2.0016 0.9749
-0.0810 6.0209 -2.0016 0.9749
-1.5767 5.8114 -2.0016 0.9749
-1.7844 5.7510 -2.0016 0.9749
-2.7832 5.3396 -2.0016 0.9749
-3.5191 4.8860 -2.0016 0.9749
-3.8608 4.6208 -2.0016 0.9749
-4.7598 3.6881 -2.0016 0.9749
-4.8892 3.5147 -2.0016 0.9749
-5.0123 3.3369 -2.0016 0.9749
-5.1289 3.1547 -2.0016 0.9749
-5.2389 2.9684 -2.0016 0.9749
-5.3422 2.7783 -2.0016 0.9749
-5.6100 2.1876 -2.0016 0.9749
-5.6850 1.9846 -2.0016 0.9749
-5.7526 1.7792 -2.0016 0.9749
-5.8128 1.5714 -2.0016 0.9749
-5.8655 1.3616 -2.0016 0.9749
-5.9106 1.1501 -2.0016 0.9749
-6.0210 0.0755 -2.0016 0.9749
-6.0198 -0.1408 -2.0016 0.9749
-5.9942 -0.5726 -2.0016 0.9749
-5.9697 -0.7875 -2.0016 0.9749
-5.9376 -1.0014 -2.0016 0.9749
-5.8978 -1.2140 -2.0016 0.9749
-5.8504 -1.4251 -2.0016 0.9749
-5.7330 -1.8414 -2.0016 0.9749
-5.6631 -2.0461 -2.0016 0.9749
-5.5187 -2.2211 -1.9774 0.9752
-5.1042 -2.2706 -1.8570 0.9767
-5.0194 -2.4525 -1.8570 0.9767
-4.9281 -2.6312 -1.8570 0.9767
-4.6164 -3.1460 -1.8570 0.9767
-4.5005 -3.3098 -1.8570 0.9767
-3.9801 -3.9202 -1.8570 0.9767
-3.8367 -4.0606 -1.8570 0.9767
-3.6884 -4.1958 -1.8570 0.9767
-3.5353 -4.3256 -1.8570 0.9767
-3.3777 -4.4498 -1.8570 0.9767
-3.0495 -4.6808 -1.8570 0.9767
-2.3477 -5.0692 -1.8570 0.9767
-2.1641 -5.1503 -1.8570 0.9767
-1.7888 -5.2923 -1.8570 0.9767
-1.5976 -5.3532 -1.8570 0.9767
-1.2092 -5.4541 -1.8570 0.9767
-0.8145 -5.5268 -1.8570 0.9767
-0.6155 -5.5525 -1.8570 0.9767
-0.4156 -5.5710 -1.8570 0.9767
-0.2153 -5.5823 -1.8570 0.9767
0.1860 -5.5834 -1.8570 0.9767
0.7856 -5.5310 -1.8570 0.9767
0.9837 -5.4992 -1.8570 0.9767
1.1806 -5.4603 -1.8570 0.9767
1.3760 -5.4144 -1.8570 0.9767
1.5696 -5.3615 -1.8570 0.9767
1.7611 -5.3016 -1.8570 0.9767
5.4672 -1.1986 -2.0016 0.9765
5.5068 -1.0015 -2.0016 0.9765
5.5645 -0.6036 -2.0016 0.9765
5.5934 -0.2025 -2.0016 0.9765
5.5971 -0.0015 -2.0016 0.9765
5.5935 0.1995 -2.0016 0.9765
5.5396 0.8001 -2.0016 0.9765
5.3679 1.5851 -2.0016 0.9765
5.3075 1.7769 -2.0016 0.9765
5.1663 2.1534 -2.0016 0.9765
5.0856 2.3375 -2.0016 0.9765
4.8046 2.8710 -2.0016 0.9765
4.5861 3.2085 -2.0016 0.9765
4.4679 3.3712 -2.0016 0.9765
4.2144 3.6832 -2.0016 0.9765
3.9391 3.9763 -2.0016 0.9765
3.6435 4.2488 -2.0016 0.9765
3.1653 4.6161 -2.0016 0.9765
2.9975 4.7268 -2.0016 0.9765
2.8258 4.8314 -2.0016 0.9765
2.6504 4.9298 -2.0016 0.9765
2.4716 5.0218 -2.0016 0.9765
2.2897 5.1073 -2.0016 0.9765
1.9171 5.2585 -2.0016 0.9765
1.7270 5.3240 -2.0016 0.9765
1.5346 5.3826 -2.0016 0.9765
1.3403 5.4342 -2.0016 0.9765
0.7480 5.5469 -2.0016 0.9765
0.5483 5.5702 -2.0016 0.9765
0.3479 5.5863 -2.0016 0.9765
-0.0541 5.5968 -2.0016 0.9765
-0.4557 5.5785 -2.0016 0.9765
-0.8550 5.5314 -2.0016 0.9765
-1.2499 5.4557 -2.0016 0.9765
-1.6384 5.3519 -2.0016 0.9765
-1.8295 5.2896 -2.0016 0.9765
-2.0183 5.2205 -2.0016 0.9765
-2.2046 5.1446 -2.0016 0.9765
-2.3879 5.0621 -2.0016 0.9765
-2.7452 4.8777 -2.0016 0.9765
-2.9186 4.7759 -2.0016 0.9765
-4.0152 3.8994 -2.0016 0.9765
-4.1527 3.7527 -2.0016 0.9765
-4.2848 3.6011 -2.0016 0.9765
-4.7563 2.9504 -2.0016 0.9765
-4.8592 2.7777 -2.0016 0.9765
-5.0461 2.4216 -2.0016 0.9765
-5.2069 2.0531 -2.0016 0.9765
-5.2773 1.8648 -2.0016 0.9765
-5.3409 1.6740 -2.0016 0.9765
-5.3976 1.4811 -2.0016 0.9765
-5.4900 1.0898 -2.0016 0.9765
-5.5256 0.8919 -2.0016 0.9765
-5.5963 0.0914 -2.0016 0.9765
-5.5960 -0.1096 -2.0016 0.9765
-5.5885 -0.3106 -2.0016 0.9765
-5.5226 -0.9099 -2.0016 0.9765
-5.4864 -1.1077 -2.0016 0.9765
-5.3927 -1.4987 -2.0016 0.9765
-5.3354 -1.6914 -2.0016 0.9765
-5.2712 -1.8820 -2.0016 0.9765
-5.0467 -2.2221 -1.9719 0.9768
-4.5900 -2.4284 -1.8570 0.9782
-4.0823 -3.2094 -1.8570 0.9782
-3.4432 -3.8871 -1.8570 0.9782
-3.3014 -4.0083 -1.8570 0.9782
-3.1553 -4.1242 -1.8570 0.9782
-3.0051 -4.2349 -1.8570 0.9782
-2.8510 -4.3401 -1.8570 0.9782
-2.2001 -4.7037 -1.8570 0.9782
-2.0298 -4.7797 -1.8570 0.9782
-1.8568 -4.8495 -1.8570 0.9782
-1.6814 -4.9130 -1.8570 0.9782
-1.5038 -4.9703 -1.8570 0.9782
-1.3244 -5.0211 -1.8570 0.9782
-0.9605 -5.1032 -1.8570 0.9782
-0.7766 -5.1344 -1.8570 0.9782
-0.5916 -5.1590 -1.8570 0.9782
-0.4060 -5.1769 -1.8570 0.9782
-0.2198 -5.1881 -1.8570 0.9782
0.3396 -5.1817 -1.8570 0.9782
0.5255 -5.1661 -1.8570 0.9782
0.7107 -5.1439 -1.8570 0.9782
0.8950 -5.1151 -1.8570 0.9782
1.6183 -4.9342 -1.8570 0.9782
1.7945 -4.8729 -1.8570 0.9782
1.9684 -4.8053 -1.8570 0.9782
2.0005 -4.4237 -1.7362 0.9796
2.1965 -4.0538 -1.6488 0.9806
2.3842 -4.0461 -1.6794 0.9802
2.7952 -4.3763 -1.8570 0.9782
2.9506 -4.2731 -1.8570 0.9782
3.3931 -3.9309 -1.8570 0.9782
4.0918 -3.8189 -2.0016 0.9765
4.2264 -3.6695 -2.0016 0.9765
4.3554 -3.5153 -2.0016 0.9765
4.7083 -3.0264 -2.0016 0.9765
4.8140 -2.8554 -2.0016 0.9765
4.9134 -2.6806 -2.0016 0.9765
5.0932 -2.3210 -2.0016 0.9765
5.1733 -2.1365 -2.0016 0.9765
5.2467 -1.9493 -2.0016 0.9765
5.3133 -1.7596 -2.0016 0.9765
5.3731 -1.5677 -2.0016 0.9765
5.4717 -1.1779 -2.0016 0.9765
5.5105 -0.9806 -2.0016 0.9765
5.5422 -0.7820 -2.0016 0.9765
5.5667 -0.5825 -2.0016 0.9765
5.5942 -0.1813 -2.0016 0.9765
5.5971 0.0197 -2.0016 0.9765
5.5625 0.6217 -2.0016 0.9765
5.5365 0.8211 -2.0016 0.9765
5.5035 1.0194 -2.0016 0.9765
5.3619 1.6055 -2.0016 0.9765
5.3008 1.7970 -2.0016 0.9765
5.0767 2.3568 -2.0016 0.9765
4.8944 2.7152 -2.0016 0.9765
4.5740 3.2259 -2.0016 0.9765
4.3306 3.5459 -2.0016 0.9765
4.2004 3.6992 -2.0016 0.9765
4.0648 3.8477 -2.0016 0.9765
3.9240 3.9912 -2.0016 0.9765
3.3120 4.5120 -2.0016 0.9765
3.1478 4.6280 -2.0016 0.9765
2.4526 5.0311 -2.0016 0.9765
2.2703 5.1160 -2.0016 0.9765
2.0851 5.1942 -2.0016 0.9765
1.8972 5.2658 -2.0016 0.9765
1.5142 5.3884 -2.0016 0.9765
0.7270 5.5497 -2.0016 0.9765
0.3267 5.5875 -2.0016 0.9765
-0.6769 5.5560 -2.0016 0.9765
-0.8760 5.5281 -2.0016 0.9765
-1.0740 5.4931 -2.0016 0.9765
-1.2706 5.4510 -2.0016 0.9765
-1.4656 5.4018 -2.0016 0.9765
-1.6586 5.3457 -2.0016 0.9765
-1.8496 5.2827 -2.0016 0.9765
-2.0381 5.2128 -2.0016 0.9765
-2.2240 5.1363 -2.0016 0.9765
-2.4071 5.0531 -2.0016 0.9765
-3.1059 4.6563 -2.0016 0.9765
-3.2711 4.5417 -2.0016 0.9765
-3.4322 4.4213 -2.0016 0.9765
-3.8878 4.0264 -2.0016 0.9765
-4.2984 3.5849 -2.0016 0.9765
-4.4244 3.4282 -2.0016 0.9765
-4.5447 3.2670 -2.0016 0.9765
-4.6591 3.1017 -2.0016 0.9765
-4.7675 2.9323 -2.0016 0.9765
-4.9657 2.5825 -2.0016 0.9765
-5.3472 1.6538 -2.0016 0.9765
-5.4521 1.2657 -2.0016 0.9765
-5.4941 1.0690 -2.0016 0.9765
-5.5289 0.8710 -2.0016 0.9765
-5.5772 0.4718 -2.0016 0.9765
-5.5191 -0.9308 -2.0016 0.9765
-5.4822 -1.1285 -2.0016 0.9765
-5.3870 -1.5191 -2.0016 0.9765
-5.2640 -1.9019 -2.0016 0.9765
-5.1923 -2.0898 -2.0016 0.9765
-4.5808 -2.4458 -1.8570 0.9782
-4.4900 -2.6087 -1.8570 0.9782
-4.2911 -2.9243 -1.8570 0.9782
-3.8281 -3.5087 -1.8570 0.9782
-3.5663 -3.7745 -1.8570 0.9782
-3.1396 -4.1362 -1.8570 0.9782
-2.3501 -4.6306 -1.8570 0.9782
-1.6628 -4.9194 -1.8570 0.9782
-1.3053 -5.0261 -1.8570 0.9782
-1.1240 -5.0697 -1.8570 0.9782
-0.2001 -5.1889 -1.8570 0.9782
-0.0136 -5.1928 -1.8570 0.9782
0.3592 -5.1804 -1.8570 0.9782
0.7302 -5.1412 -1.8570 0.9782
0.9144 -5.1117 -1.8570 0.9782
1.2790 -5.0328 -1.8570 0.9782
1.4589 -4.9836 -1.8570 0.9782
1.6370 -4.9280 -1.8570 0.9782
1.8129 -4.8660 -1.8570 0.9782
2.0006 -4.3797 -1.7219 0.9798
4.8891 -1.8376 -2.0016 0.9779
4.9519 -1.6608 -2.0016 0.9779
5.0584 -1.3010 -2.0016 0.9779
5.1387 -0.9345 -2.0016 0.9779
5.1690 -0.7494 -2.0016 0.9779
5.2095 -0.3763 -2.0016 0.9779
5.2196 -0.1890 -2.0016 0.9779
5.2097 0.3736 -2.0016 0.9779
5.1929 0.5604 -2.0016 0.9779
5.1694 0.7466 -2.0016 0.9779
5.0092 1.4792 -2.0016 0.9779
4.9528 1.6582 -2.0016 0.9779
4.8210 2.0095 -2.0016 0.9779
4.7457 2.1813 -2.0016 0.9779
4.6643 2.3504 -2.0016 0.9779
4.4836 2.6792 -2.0016 0.9779
4.3844 2.8385 -2.0016 0.9779
4.1693 3.1459 -2.0016 0.9779
3.5402 3.8402 -2.0016 0.9779
3.4000 3.9649 -2.0016 0.9779
3.1066 4.1987 -2.0016 0.9779
2.7971 4.4109 -2.0016 0.9779
2.6369 4.5085 -2.0016 0.9779
1.7890 4.9071 -2.0016 0.9779
1.6116 4.9682 -2.0016 0.9779
1.0678 5.1127 -2.0016 0.9779
0.6980 5.1762 -2.0016 0.9779
-0.0505 5.2228 -2.0016 0.9779
-0.2380 5.2176 -2.0016 0.9779
-0.4253 5.2057 -2.0016 0.9779
-0.7979 5.1617 -2.0016 0.9779
-0.9828 5.1297 -2.0016 0.9779
-1.1664 5.0911 -2.0016 0.9779
-2.5617 4.5517 -2.0016 0.9779
-2.7235 4.4567 -2.0016 0.9779
-3.1871 4.1379 -2.0016 0.9779
-3.3337 4.0208 -2.0016 0.9779
-3.7469 3.6388 -2.0016 0.9779
-3.8751 3.5019 -2.0016 0.9779
-4.1165 3.2147 -2.0016 0.9779
-4.2294 3.0647 -2.0016 0.9779
-4.4385 2.7532 -2.0016 0.9779
-4.6247 2.4275 -2.0016 0.9779
-4.7870 2.0892 -2.0016 0.9779
-4.9839 1.5622 -2.0016 0.9779
-5.1231 1.0170 -2.0016 0.9779
-5.1829 0.6466 -2.0016 0.9779
-5.2223 0.0853 -2.0016 0.9779
-5.2150 -0.2898 -2.0016 0.9779
-5.1535 -0.8491 -2.0016 0.9779
-5.0323 -1.3985 -2.0016 0.9779
-4.9189 -1.7562 -2.0016 0.9779
-4.7802 -2.1048 -2.0016 0.9779
-4.5976 -2.2248 -1.9573 0.9784
-4.2832 -2.2661 -1.8570 0.9795
-4.1991 -2.4185 -1.8570 0.9795
-4.0146 -2.7137 -1.8570 0.9795
-3.6994 -3.1298 -1.8570 0.9795
-2.9444 -3.8486 -1.8570 0.9795
-2.8043 -3.9519 -1.8570 0.9795
-2.6605 -4.0501 -1.8570 0.9795
-2.5133 -4.1430 -1.8570 0.9795
-2.3629 -4.2306 -1.8570 0.9795
-2.0531 -4.3893 -1.8570 0.9795
-1.8941 -4.4602 -1.8570 0.9795
-1.5690 -4.5847 -1.8570 0.9795
-1.4033 -4.6381 -1.8570 0.9795
-1.0667 -4.7269 -1.8570 0.9795
-0.8963 -4.7621 -1.8570 0.9795
-0.3788 -4.8309 -1.8570 0.9795
0.3169 -4.8354 -1.8570 0.9795
1.5102 -4.6044 -1.8570 0.9795
1.6746 -4.5472 -1.8570 0.9795
1.8368 -4.4841 -1.8570 0.9795
1.9967 -4.4153 -1.8570 0.9795
2.8948 -3.8860 -1.8570 0.9795
3.0326 -3.7795 -1.8570 0.9795
3.4215 -3.4314 -1.8570 0.9795
3.9439 -3.4243 -2.0016 0.9779
4.2894 -2.9802 -2.0016 0.9779
4.4923 -2.6645 -2.0016 0.9779
4.8275 -1.9937 -2.0016 0.9779
4.8960 -1.8191 -2.0016 0.9779
4.9582 -1.6420 -2.0016 0.9779
5.0140 -1.4629 -2.0016 0.9779
5.0633 -1.2819 -2.0016 0.9779
5.1061 -1.0992 -2.0016 0.9779
5.1947 -0.5435 -2.0016 0.9779
5.2108 -0.3566 -2.0016 0.9779
5.2203 -0.1692 -2.0016 0.9779
5.2190 0.2060 -2.0016 0.9779
5.2082 0.3933 -2.0016 0.9779
5.1907 0.5801 -2.0016 0.9779
5.1357 0.9513 -2.0016 0.9779
5.0541 1.3175 -2.0016 0.9779
4.9465 1.6769 -2.0016 0.9779
4.8831 1.8535 -2.0016 0.9779
4.8134 2.0277 -2.0016 0.9779
4.5673 2.5337 -2.0016 0.9779
3.5256 3.8536 -2.0016 0.9779
3.3849 3.9777 -2.0016 0.9779
3.2399 4.0967 -2.0016 0.9779
2.9374 4.3187 -2.0016 0.9779
2.7804 4.4215 -2.0016 0.9779
2.2887 4.6949 -2.0016 0.9779
1.9457 4.8471 -2.0016 0.9779
1.7704 4.9139 -2.0016 0.9779
1.5927 4.9743 -2.0016 0.9779
1.4130 5.0283 -2.0016 0.9779
1.0484 5.1167 -2.0016 0.9779
0.8640 5.1511 -2.0016 0.9779
0.6784 5.1788 -2.0016 0.9779
0.4919 5.1998 -2.0016 0.9779
0.3049 5.2141 -2.0016 0.9779
-0.0702 5.2226 -2.0016 0.9779
-0.8174 5.1587 -2.0016 0.9779
-1.1857 5.0867 -2.0016 0.9779
-1.5478 4.9884 -2.0016 0.9779
-1.7260 4.9296 -2.0016 0.9779
-2.0754 4.7930 -2.0016 0.9779
-2.7404 4.4464 -2.0016 0.9779
-3.0525 4.2382 -2.0016 0.9779
-4.3477 2.8944 -2.0016 0.9779
-4.7174 2.2419 -2.0016 0.9779
-4.7949 2.0711 -2.0016 0.9779
-5.1594 0.8128 -2.0016 0.9779
-5.1853 0.6269 -2.0016 0.9779
-5.2216 -0.1221 -2.0016 0.9779
-5.2139 -0.3096 -2.0016 0.9779
-5.1782 -0.6831 -2.0016 0.9779
-5.1503 -0.8686 -2.0016 0.9779
-4.9122 -1.7748 -2.0016 0.9779
-4.8453 -1.9501 -2.0016 0.9779
-4.5584 -2.2273 -1.9442 0.9785
-4.0043 -2.7289 -1.8570 0.9795
-3.7981 -3.0093 -1.8570 0.9795
-3.6875 -3.1438 -1.8570 0.9795
-3.5723 -3.2742 -1.8570 0.9795
-3.4523 -3.4004 -1.8570 0.9795
-3.3280 -3.5222 -1.8570 0.9795
-3.1993 -3.6395 -1.8570 0.9795
-3.0665 -3.7520 -1.8570 0.9795
-2.9298 -3.8597 -1.8570 0.9795
-2.7893 -3.9625 -1.8570 0.9795
-2.6452 -4.0601 -1.8570 0.9795
-2.3468 -4.2395 -1.8570 0.9795
-2.1931 -4.3211 -1.8570 0.9795
-1.8772 -4.4674 -1.8570 0.9795
-1.5516 -4.5906 -1.8570 0.9795
-1.2181 -4.6902 -1.8570 0.9795
-1.0488 -4.7309 -1.8570 0.9795
-0.8782 -4.7655 -1.8570 0.9795
-0.7065 -4.7940 -1.8570 0.9795
-0.1867 -4.8422 -1.8570 0.9795
-0.0127 -4.8457 -1.8570 0.9795
0.1614 -4.8431 -1.8570 0.9795
0.3352 -4.8341 -1.8570 0.9795
0.5086 -4.8190 -1.8570 0.9795
0.8533 -4.7700 -1.8570 0.9795
1.0241 -4.7363 -1.8570 0.9795
1.1935 -4.6965 -1.8570 0.9795
1.5276 -4.5987 -1.8570 0.9795
1.6918 -4.5408 -1.8570 0.9795
1.8538 -4.4771 -1.8570 0.9795
4.5778 -1.7206 -2.0016 0.9791
4.7771 -1.0473 -2.0016 0.9791
4.8116 -0.8750 -2.0016 0.9791
4.8399 -0.7017 -2.0016 0.9791
4.8778 -0.3524 -2.0016 0.9791
4.8873 -0.1770 -2.0016 0.9791
4.8905 -0.0013 -2.0016 0.9791
4.7776 1.0447 -2.0016 0.9791
4.7370 1.2157 -2.0016 0.9791
4.6903 1.3850 -2.0016 0.9791
4.6375 1.5526 -2.0016 0.9791
4.5787 1.7182 -2.0016 0.9791
4.5141 1.8815 -2.0016 0.9791
4.4436 2.0424 -2.0016 0.9791
4.3674 2.2007 -2.0016 0.9791
4.2855 2.3562 -2.0016 0.9791
4.0072 2.8035 -2.0016 0.9791
3.9039 2.9456 -2.0016 0.9791
3.5644 3.3484 -2.0016 0.9791
3.4418 3.4743 -2.0016 0.9791
3.3148 3.5957 -2.0016 0.9791
3.1835 3.7124 -2.0016 0.9791
3.0481 3.8244 -2.0016 0.9791
2.9088 3.9314 -2.0016 0.9791
2.6191 4.1301 -2.0016 0.9791
2.0006 4.4626 -2.0016 0.9791
1.8390 4.5316 -2.0016 0.9791
1.3409 4.7031 -2.0016 0.9791
1.1711 4.7482 -2.0016 0.9791
0.9998 4.7872 -2.0016 0.9791
0.8272 4.8200 -2.0016 0.9791
0.6536 4.8466 -2.0016 0.9791
0.3039 4.8811 -2.0016 0.9791
-0.2229 4.8854 -2.0016 0.9791
-0.9202 4.8032 -2.0016 0.9791
-1.2626 4.7247 -2.0016 0.9791
-1.5986 4.6219 -2.0016 0.9791
-1.7635 4.5615 -2.0016 0.9791
-1.9262 4.4952 -2.0016 0.9791
-2.0865 4.4231 -2.0016 0.9791
-2.2440 4.3453 -2.0016 0.9791
-2.3986 4.2619 -2.0016 0.9791
-2.5501 4.1730 -2.0016 0.9791
-2.6984 4.0787 -2.0016 0.9791
-2.9842 3.8745 -2.0016 0.9791
-3.1215 3.7648 -2.0016 0.9791
-3.2547 3.6502 -2.0016 0.9791
-3.3837 3.5310 -2.0016 0.9791
-3.5083 3.4072 -2.0016 0.9791
-3.6284 3.2790 -2.0016 0.9791
-3.7439 3.1465 -2.0016 0.9791
-3.9601 2.8696 -2.0016 0.9791
-4.2458 2.4270 -2.0016 0.9791
-4.4091 2.1159 -2.0016 0.9791
-4.4822 1.9562 -2.0016 0.9791
-4.6666 1.4627 -2.0016 0.9791
-4.7969 0.9522 -2.0016 0.9791
-1.9578 0.1731 -0.8044 0.9915
-1.9423 0.1016 -0.7960 0.9916
-1.9443 -0.1081 -0.7970 0.9916
-1.9579 -0.1795 -0.8047 0.9915
-4.7559 -1.1394 -2.0016 0.9791
-4.7119 -1.3095 -2.0016 0.9791
-4.4758 -1.9708 -2.0016 0.9791
-4.4022 -2.1303 -2.0016 0.9791
-3.8479 -2.4043 -1.8570 0.9806
-3.6654 -2.6743 -1.8570 0.9806
-3.5669 -2.8042 -1.8570 0.9806
-3.3564 -3.0530 -1.8570 0.9806
-3.2446 -3.1716 -1.8570 0.9806
-3.1286 -3.2861 -1.8570 0.9806
-2.7569 -3.6036 -1.8570 0.9806
-2.6257 -3.7003 -1.8570 0.9806
-2.2125 -3.9613 -1.8570 0.9806
-2.0687 -4.0382 -1.8570 0.9806
-1.9224 -4.1099 -1.8570 0.9806
-1.7735 -4.1763 -1.8570 0.9806
-1.4691 -4.2928 -1.8570 0.9806
-0.9988 -4.4259 -1.8570 0.9806
-0.8392 -4.4590 -1.8570 0.9806
-0.6785 -4.4862 -1.8570 0.9806
-0.3547 -4.5234 -1.8570 0.9806
-0.1920 -4.5332 -1.8570 0.9806
-0.0291 -4.5372 -1.8570 0.9806
0.2967 -4.5275 -1.8570 0.9806
0.6210 -4.4945 -1.8570 0.9806
1.1009 -4.4017 -1.8570 0.9806
1.2582 -4.3593 -1.8570 0.9806
1.4140 -4.3113 -1.8570 0.9806
1.5679 -4.2577 -1.8570 0.9806
2.0073 -4.0451 -1.8482 0.9807
2.3034 -3.9091 -1.8570 0.9806
2.4423 -3.8238 -1.8570 0.9806
2.5781 -3.7336 -1.8570 0.9806
2.7105 -3.6386 -1.8570 0.9806
2.8395 -3.5389 -1.8570 0.9806
2.9648 -3.4346 -1.8570 0.9806
3.2037 -3.2129 -1.8570 0.9806
3.6928 -3.2063 -2.0016 0.9791
3.8056 -3.0716 -2.0016 0.9791
4.0163 -2.7904 -2.0016 0.9791
4.1139 -2.6444 -2.0016 0.9791
4.2062 -2.4949 -2.0016 0.9791
4.2931 -2.3422 -2.0016 0.9791
4.3745 -2.1865 -2.0016 0.9791
4.4502 -2.0280 -2.0016 0.9791
4.5202 -1.8668 -2.0016 0.9791
4.6948 -1.3698 -2.0016 0.9791
4.7409 -1.2003 -2.0016 0.9791
4.7810 -1.0292 -2.0016 0.9791
4.8425 -0.6833 -2.0016 0.9791
4.8640 -0.5089 -2.0016 0.9791
4.8087 0.8907 -2.0016 0.9791
4.7736 1.0628 -2.0016 0.9791
4.6316 1.5702 -2.0016 0.9791
4.5722 1.7355 -2.0016 0.9791
4.5069 1.8986 -2.0016 0.9791
4.4358 2.0593 -2.0016 0.9791
4.3590 2.2173 -2.0016 0.9791
4.2765 2.3724 -2.0016 0.9791
4.1886 2.5245 -2.0016 0.9791
4.0952 2.6733 -2.0016 0.9791
3.9965 2.8186 -2.0016 0.9791
3.4286 3.4873 -2.0016 0.9791
3.3012 3.6082 -2.0016 0.9791
3.1694 3.7245 -2.0016 0.9791
2.8939 3.9424 -2.0016 0.9791
2.6034 4.1400 -2.0016 0.9791
2.2995 4.3162 -2.0016 0.9791
2.1430 4.3960 -2.0016 0.9791
1.9837 4.4701 -2.0016 0.9791
1.8218 4.5385 -2.0016 0.9791
1.3231 4.7081 -2.0016 0.9791
1.1531 4.7526 -2.0016 0.9791
0.9817 4.7910 -2.0016 0.9791
0.8090 4.8231 -2.0016 0.9791
0.4606 4.8688 -2.0016 0.9791
0.2854 4.8822 -2.0016 0.9791
-0.0658 4.8901 -2.0016 0.9791
-0.2414 4.8845 -2.0016 0.9791
-0.5914 4.8546 -2.0016 0.9791
-1.1102 4.7628 -2.0016 0.9791
-1.6161 4.6158 -2.0016 0.9791
-1.7808 4.5547 -2.0016 0.9791
-2.1032 4.4152 -2.0016 0.9791
-2.2604 4.3368 -2.0016 0.9791
-2.4147 4.2528 -2.0016 0.9791
-2.5659 4.1633 -2.0016 0.9791
-2.8582 3.9684 -2.0016 0.9791
-2.9989 3.8631 -2.0016 0.9791
-3.2685 3.6379 -2.0016 0.9791
-3.3970 3.5181 -2.0016 0.9791
-3.5212 3.3938 -2.0016 0.9791
-3.6408 3.2652 -2.0016 0.9791
-3.8658 2.9954 -2.0016 0.9791
-3.9709 2.8546 -2.0016 0.9791
-4.1656 2.5622 -2.0016 0.9791
-4.3388 2.2565 -2.0016 0.9791
