ply
format ascii 1.0
element vertex 1575
property float32 x
property float32 y
property float32 z
property float32 I
end_header
-16.0206 -13.3416 -2.0016 0.9196
-15.5319 -13.9075 -2.0016 0.9196
-14.4953 -14.9849 -2.0016 0.9196
-12.5817 -16.1712 -1.9671 0.9210
-11.6824 -16.1807 -1.9160 0.9229
-10.8272 -16.1892 -1.8698 0.9247
-9.5338 -16.7385 -1.8494 0.9255
-8.9274 -17.0696 -1.8494 0.9255
-7.6812 -17.6655 -1.8494 0.9255
-7.0428 -17.9295 -1.8494 0.9255
-6.3954 -18.1705 -1.8494 0.9255
-5.1800 -16.5948 -1.6690 0.9325
-4.4072 -18.7523 -1.8494 0.9255
-3.7319 -18.8982 -1.8494 0.9255
-3.0519 -19.0199 -1.8494 0.9255
-1.6810 -19.1897 -1.8494 0.9255
-0.3014 -19.2608 -1.8494 0.9255
0.3474 -17.1822 -1.6499 0.9333
10.5916 -13.1052 -2.0016 0.9344
11.0547 -12.7170 -2.0016 0.9344
11.9377 -11.8920 -2.0016 0.9344
12.7592 -11.0059 -2.0016 0.9344
13.1457 -10.5413 -2.0016 0.9344
13.5152 -10.0632 -2.0016 0.9344
13.8673 -9.5721 -2.0016 0.9344
14.2016 -9.0687 -2.0016 0.9344
14.5177 -8.5537 -2.0016 0.9344
15.0933 -7.4912 -2.0016 0.9344
15.3522 -6.9452 -2.0016 0.9344
16.0093 -5.2565 -2.0016 0.9344
16.1875 -4.6791 -2.0016 0.9344
16.3448 -4.0956 -2.0016 0.9344
16.4812 -3.5069 -2.0016 0.9344
16.5963 -2.9137 -2.0016 0.9344
16.6901 -2.3168 -2.0016 0.9344
16.8132 -1.1147 -2.0016 0.9344
16.8424 -0.5111 -2.0016 0.9344
16.8499 0.0931 -2.0016 0.9344
16.8357 0.6972 -2.0016 0.9344
16.7999 1.3005 -2.0016 0.9344
16.7425 1.9020 -2.0016 0.9344
16.5631 3.0970 -2.0016 0.9344
16.4414 3.6889 -2.0016 0.9344
16.2986 4.2761 -2.0016 0.9344
15.0096 7.6576 -2.0016 0.9344
14.4222 8.7136 -2.0016 0.9344
14.1005 9.2251 -2.0016 0.9344
13.4031 10.2120 -2.0016 0.9344
13.0283 10.6860 -2.0016 0.9344
12.6368 11.1463 -2.0016 0.9344
11.8055 12.0232 -2.0016 0.9344
11.3668 12.4388 -2.0016 0.9344
9.9653 13.5875 -2.0016 0.9344
8.9659 14.2667 -2.0016 0.9344
8.4438 14.5707 -2.0004 0.9344
7.3181 13.7417 -1.8494 0.9392
6.8207 13.9953 -1.8494 0.9392
6.3145 14.2308 -1.8494 0.9392
5.8002 14.4481 -1.8494 0.9392
4.7498 14.8266 -1.8494 0.9392
2.1343 12.6946 -1.5291 0.9495
1.6394 12.4714 -1.4942 0.9506
1.1660 12.2579 -1.4626 0.9516
0.7117 12.0529 -1.4342 0.9525
0.2741 11.8555 -1.4086 0.9534
-0.1488 11.6648 -1.3857 0.9541
-0.5552 11.4127 -1.3573 0.9550
-0.9666 11.4154 -1.3608 0.9549
-1.3807 11.4181 -1.3662 0.9547
-1.7987 11.4209 -1.3734 0.9545
-2.6505 11.4265 -1.3933 0.9538
-3.0870 11.4293 -1.4063 0.9534
-3.9876 11.4352 -1.4386 0.9524
-4.9355 11.4414 -1.4801 0.9510
-5.4316 11.4447 -1.5048 0.9503
-5.9452 11.4481 -1.5323 0.9494
-7.0344 11.4552 -1.5968 0.9473
-8.2258 11.4630 -1.6760 0.9448
-9.5486 11.4717 -1.7730 0.9416
-10.2711 11.4764 -1.8295 0.9398
-11.5685 10.4192 -1.8494 0.9392
-12.9392 8.6583 -1.8494 0.9392
-14.9259 7.8110 -2.0011 0.9344
-15.6821 6.1644 -2.0016 0.9344
-15.8930 5.5982 -2.0016 0.9344
-16.0835 5.0247 -2.0016 0.9344
-16.2534 4.4448 -2.0016 0.9344
-16.5301 3.2685 -2.0016 0.9344
-16.7855 1.4745 -2.0016 0.9344
-16.8276 0.8717 -2.0016 0.9344
-16.8480 0.2678 -2.0016 0.9344
-16.8239 -0.9403 -2.0016 0.9344
-16.7794 -1.5430 -2.0016 0.9344
-16.3864 -3.9260 -2.0016 0.9344
-16.2351 -4.5110 -2.0016 0.9344
-16.0629 -5.0903 -2.0016 0.9344
-15.8701 -5.6629 -2.0016 0.9344
-15.6568 -6.2283 -2.0016 0.9344
-15.4234 -6.7857 -2.0016 0.9344
-15.1702 -7.3344 -2.0016 0.9344
-14.8974 -7.8736 -2.0016 0.9344
-14.2949 -8.9210 -2.0016 0.9344
-13.9658 -9.4278 -2.0016 0.9344
-13.2542 -10.4045 -2.0016 0.9344
-12.8726 -10.8730 -2.0016 0.9344
-11.6306 -12.1925 -2.0016 0.9344
-10.7269 -12.9947 -2.0016 0.9344
-10.2541 -13.3709 -2.0016 0.9344
-8.7589 -14.3947 -2.0016 0.9344
-8.2371 -14.6996 -2.0016 0.9344
-7.7048 -14.9855 -2.0016 0.9344
-7.1625 -15.2521 -2.0016 0.9344
-6.6110 -15.4991 -2.0016 0.9344
-6.0506 -15.7251 -2.0014 0.9344
-5.4744 -15.9073 -1.9983 0.9345
-4.2961 -16.1675 -1.9871 0.9348
-3.6816 -16.1707 -1.9700 0.9354
-3.0768 -16.1733 -1.9556 0.9358
-1.8893 -16.1772 -1.9347 0.9365
-1.3038 -16.1816 -1.9284 0.9367
-0.7223 -16.2082 -1.9272 0.9367
1.0422 -16.5057 -1.9645 0.9356
2.2602 -16.6675 -1.9980 0.9345
2.8615 -16.6054 -2.0016 0.9344
4.0442 -16.3576 -2.0016 0.9344
4.6281 -16.2021 -2.0016 0.9344
5.2061 -16.0257 -2.0016 0.9344
5.7774 -15.8288 -2.0016 0.9344
6.3412 -15.6114 -2.0016 0.9344
6.8969 -15.3740 -2.0016 0.9344
2.2530 -4.1893 -0.5650 0.9810
8.5080 -14.5445 -2.0016 0.9344
9.0240 -14.2301 -2.0016 0.9344
10.0206 -13.5468 -2.0016 0.9344
12.6821 -11.0946 -2.0016 0.9344
13.4446 -10.1572 -2.0016 0.9344
13.8002 -9.6686 -2.0016 0.9344
14.4576 -8.6548 -2.0016 0.9344
14.7587 -8.1308 -2.0016 0.9344
15.3034 -7.0522 -2.0016 0.9344
15.5464 -6.4989 -2.0016 0.9344
15.7695 -5.9373 -2.0016 0.9344
15.9722 -5.3680 -2.0016 0.9344
16.1544 -4.7919 -2.0016 0.9344
16.4563 -3.6218 -2.0016 0.9344
16.8051 -1.2319 -2.0016 0.9344
16.8384 -0.6286 -2.0016 0.9344
16.8402 0.5798 -2.0016 0.9344
16.8086 1.1832 -2.0016 0.9344
16.7553 1.7852 -2.0016 0.9344
16.3280 4.1623 -2.0016 0.9344
16.1683 4.7450 -2.0016 0.9344
15.7866 5.8915 -2.0016 0.9344
15.0627 7.5527 -2.0016 0.9344
14.4827 8.6128 -2.0016 0.9344
13.8282 9.6286 -2.0016 0.9344
11.8891 11.9406 -2.0016 0.9344
9.5687 13.8697 -2.0016 0.9344
9.0652 14.2038 -2.0016 0.9344
8.5501 14.5197 -2.0016 0.9344
7.4138 13.6903 -1.8494 0.9392
6.9182 13.9473 -1.8494 0.9392
5.3805 14.6096 -1.8494 0.9392
2.2333 12.7393 -1.5363 0.9492
0.3580 11.8934 -1.4134 0.9532
-0.0676 11.7014 -1.3900 0.9540
-1.2999 11.4176 -1.3650 0.9548
-3.0014 11.4288 -1.4036 0.9535
-3.4448 11.4317 -1.4182 0.9530
-3.8981 11.4346 -1.4350 0.9525
-4.3629 11.4377 -1.4541 0.9519
-5.3338 11.4441 -1.4998 0.9504
-5.8438 11.4474 -1.5267 0.9495
-7.5005 11.4583 -1.6268 0.9463
-9.4132 11.4708 -1.7626 0.9420
-10.1269 11.4755 -1.8180 0.9402
-10.7135 11.2965 -1.8494 0.9392
-11.1117 10.9051 -1.8494 0.9392
-11.4955 10.4996 -1.8494 0.9392
-12.2184 9.6488 -1.8494 0.9392
-12.8785 8.7483 -1.8494 0.9392
-13.1839 8.2809 -1.8494 0.9392
-14.8588 7.9084 -1.9994 0.9344
-15.6387 6.2737 -2.0016 0.9344
-16.0481 5.1368 -2.0016 0.9344
-16.2220 4.5581 -2.0016 0.9344
-16.5069 3.3838 -2.0016 0.9344
-16.8211 0.9891 -2.0016 0.9344
-16.8458 0.3853 -2.0016 0.9344
-16.7897 -1.4259 -2.0016 0.9344
-16.0980 -4.9781 -2.0016 0.9344
-15.6999 -6.1189 -2.0016 0.9344
-15.4704 -6.6780 -2.0016 0.9344
-15.2210 -7.2284 -2.0016 0.9344
-14.9520 -7.7695 -2.0016 0.9344
-14.0312 -9.3302 -2.0016 0.9344
-12.9482 -10.7830 -2.0016 0.9344
-12.5532 -11.2403 -2.0016 0.9344
-12.1421 -11.6832 -2.0016 0.9344
-10.3471 -13.2991 -2.0016 0.9344
-9.3674 -14.0064 -2.0016 0.9344
-7.8091 -14.9313 -2.0016 0.9344
-6.1606 -15.6836 -2.0016 0.9344
-5.5869 -15.8733 -1.9989 0.9345
-3.8003 -16.1701 -1.9731 0.9353
-2.5955 -16.1751 -1.9460 0.9361
-0.2544 -16.2543 -1.9310 0.9366
7.2176 -12.1434 -2.0016 0.9445
7.6484 -11.8768 -2.0016 0.9445
8.0693 -11.5949 -2.0016 0.9445
8.4799 -11.2981 -2.0016 0.9445
8.8795 -10.9868 -2.0016 0.9445
10.0080 -9.9697 -2.0016 0.9445
10.3590 -9.6045 -2.0016 0.9445
10.6968 -9.2268 -2.0016 0.9445
11.0207 -8.8374 -2.0016 0.9445
11.3305 -8.4365 -2.0016 0.9445
11.6257 -8.0248 -2.0016 0.9445
11.9060 -7.6028 -2.0016 0.9445
12.1709 -7.1710 -2.0016 0.9445
12.6536 -6.2803 -2.0016 0.9445
13.0711 -5.3573 -2.0016 0.9445
13.4215 -4.4068 -2.0016 0.9445
13.5708 -3.9227 -2.0016 0.9445
13.7028 -3.4336 -2.0016 0.9445
13.8171 -2.9401 -2.0016 0.9445
13.9136 -2.4427 -2.0016 0.9445
14.0529 -1.4393 -2.0016 0.9445
14.0955 -0.9345 -2.0016 0.9445
14.1199 -0.4285 -2.0016 0.9445
14.1262 0.0781 -2.0016 0.9445
14.1143 0.5845 -2.0016 0.9445
14.0843 1.0903 -2.0016 0.9445
14.0361 1.5946 -2.0016 0.9445
13.9699 2.0968 -2.0016 0.9445
13.6640 3.5849 -2.0016 0.9445
13.3719 4.5549 -2.0016 0.9445
13.2000 5.0314 -2.0016 0.9445
13.0111 5.5015 -2.0016 0.9445
12.8055 5.9645 -2.0016 0.9445
12.3451 6.8669 -2.0016 0.9445
12.0909 7.3051 -2.0016 0.9445
10.9224 8.9586 -2.0016 0.9445
10.2522 9.7184 -2.0016 0.9445
9.8972 10.0797 -2.0016 0.9445
9.1494 10.7631 -2.0016 0.9445
8.3545 11.3911 -2.0016 0.9445
6.1352 11.5204 -1.8494 0.9486
5.2938 11.9305 -1.8494 0.9486
4.8626 12.1126 -1.8494 0.9486
4.4252 12.2792 -1.8494 0.9486
3.9820 12.4300 -1.8494 0.9486
3.0810 12.6834 -1.8494 0.9486
2.1343 12.6946 -1.8239 0.9493
1.1660 12.2579 -1.7446 0.9515
0.7117 12.0529 -1.7107 0.9524
-0.1487 11.6648 -1.6529 0.9540
-0.5552 11.4127 -1.6190 0.9549
-1.0803 8.9333 -1.2750 0.9643
-2.2215 11.4237 -1.6489 0.9541
-2.6505 11.4265 -1.6620 0.9537
-3.9876 11.4352 -1.7159 0.9523
-4.4548 11.4383 -1.7393 0.9516
-6.8301 11.1225 -1.8494 0.9486
-7.2245 10.8704 -1.8494 0.9486
-8.3501 10.0318 -1.8494 0.9486
-8.7044 9.7259 -1.8494 0.9486
-9.6985 8.7350 -1.8494 0.9486
-11.3977 8.2333 -1.9922 0.9448
-11.7336 7.8515 -2.0004 0.9446
-12.0145 7.4301 -2.0016 0.9445
-12.5162 6.5499 -2.0016 0.9445
-12.7430 6.0969 -2.0016 0.9445
-13.1471 5.1680 -2.0016 0.9445
-13.3240 4.6933 -2.0016 0.9445
-13.4837 4.2125 -2.0016 0.9445
-13.6261 3.7263 -2.0016 0.9445
-13.7509 3.2353 -2.0016 0.9445
-13.8581 2.7402 -2.0016 0.9445
-14.0188 1.7400 -2.0016 0.9445
-14.0722 1.2362 -2.0016 0.9445
-14.1075 0.7308 -2.0016 0.9445
-14.1246 0.2245 -2.0016 0.9445
-14.0116 -1.7971 -2.0016 0.9445
-13.8468 -2.7967 -2.0016 0.9445
-12.7453 -3.0536 -1.8570 0.9484
-12.6276 -3.5087 -1.8570 0.9484
-12.3437 -4.4046 -1.8570 0.9484
-12.1778 -4.8444 -1.8570 0.9484
-11.9963 -5.2779 -1.8570 0.9484
-12.4893 -6.6009 -2.0016 0.9445
-11.9842 -7.4790 -2.0016 0.9445
-10.1108 -9.8654 -2.0016 0.9445
-9.7506 -10.2216 -2.0016 0.9445
-9.3778 -10.5647 -2.0016 0.9445
-8.9929 -10.8941 -2.0016 0.9445
-7.7711 -11.7968 -2.0016 0.9445
-7.3431 -12.0679 -2.0016 0.9445
-6.9056 -12.3234 -2.0016 0.9445
-6.0047 -12.7867 -2.0016 0.9445
-4.1150 -13.5138 -2.0016 0.9445
-3.6278 -13.6526 -2.0016 0.9445
-2.6400 -13.8775 -2.0016 0.9445
-2.1407 -13.9633 -2.0016 0.9445
-1.1345 -14.0808 -2.0016 0.9445
-0.1225 -14.1259 -2.0016 0.9445
2.3990 -13.9212 -2.0016 0.9445
3.3905 -13.7135 -2.0016 0.9445
3.8800 -13.5831 -2.0016 0.9445
4.3646 -13.4352 -2.0016 0.9445
4.8435 -13.2701 -2.0016 0.9445
5.3162 -13.0879 -2.0016 0.9445
6.2405 -12.6733 -2.0016 0.9445
7.9882 -11.6509 -2.0016 0.9445
8.4008 -11.3570 -2.0016 0.9445
9.1932 -10.7257 -2.0016 0.9445
9.5718 -10.3892 -2.0016 0.9445
9.9382 -10.0393 -2.0016 0.9445
10.6321 -9.3012 -2.0016 0.9445
11.8527 -7.6857 -2.0016 0.9445
12.1206 -7.2557 -2.0016 0.9445
12.3730 -6.8165 -2.0016 0.9445
12.6094 -6.3685 -2.0016 0.9445
13.0334 -5.4484 -2.0016 0.9445
13.2204 -4.9776 -2.0016 0.9445
13.3904 -4.5003 -2.0016 0.9445
13.5431 -4.0173 -2.0016 0.9445
13.8962 -2.5397 -2.0016 0.9445
14.0425 -1.5373 -2.0016 0.9445
14.0886 -1.0328 -2.0016 0.9445
14.1166 -0.5270 -2.0016 0.9445
14.1264 -0.0205 -2.0016 0.9445
14.0469 1.4966 -2.0016 0.9445
13.9842 1.9993 -2.0016 0.9445
13.9035 2.4994 -2.0016 0.9445
13.6886 3.4894 -2.0016 0.9445
13.5547 3.9780 -2.0016 0.9445
13.4034 4.4615 -2.0016 0.9445
13.2348 4.9392 -2.0016 0.9445
12.6279 6.3319 -2.0016 0.9445
12.3927 6.7806 -2.0016 0.9445
12.1416 7.2206 -2.0016 0.9445
11.2960 8.4826 -2.0016 0.9445
10.6591 9.2704 -2.0016 0.9445
10.3198 9.6466 -2.0016 0.9445
9.9673 10.0104 -2.0016 0.9445
9.2242 10.6990 -2.0016 0.9445
8.4337 11.3326 -2.0016 0.9445
7.1452 12.1340 -1.9952 0.9447
6.2154 11.4773 -1.8494 0.9486
5.7999 11.6928 -1.8494 0.9486
5.3769 11.8933 -1.8494 0.9486
4.9470 12.0784 -1.8494 0.9486
4.5107 12.2480 -1.8494 0.9486
4.0686 12.4019 -1.8494 0.9486
3.6214 12.5398 -1.8494 0.9486
2.7134 12.7671 -1.8494 0.9486
2.2333 12.7393 -1.8325 0.9491
1.7339 12.5140 -1.7900 0.9502
-0.0676 11.7014 -1.6580 0.9538
-0.8864 11.4149 -1.6222 0.9548
-1.3127 8.7315 -1.2511 0.9650
-3.4448 11.4317 -1.6917 0.9529
-3.8981 11.4346 -1.7117 0.9524
-5.8438 11.4474 -1.8211 0.9494
-6.3475 11.4048 -1.8494 0.9486
-6.7524 11.1699 -1.8494 0.9486
-7.1485 10.9206 -1.8494 0.9486
-7.5355 10.6572 -1.8494 0.9486
-8.6364 9.7864 -1.8494 0.9486
-8.9817 9.4705 -1.8494 0.9486
-12.4702 6.6371 -2.0016 0.9445
-12.9137 5.7263 -2.0016 0.9445
-13.1108 5.2596 -2.0016 0.9445
-13.5998 3.8213 -2.0016 0.9445
-13.7280 3.3312 -2.0016 0.9445
-14.0064 1.8377 -2.0016 0.9445
-14.0632 1.3343 -2.0016 0.9445
-14.1020 0.8292 -2.0016 0.9445
-14.1227 0.3230 -2.0016 0.9445
-14.1252 -0.1836 -2.0016 0.9445
-14.0757 -1.1954 -2.0016 0.9445
-14.0238 -1.6993 -2.0016 0.9445
-12.6518 -3.4205 -1.8570 0.9484
-12.2113 -4.7593 -1.8570 0.9484
-12.0328 -5.1941 -1.8570 0.9484
-12.0360 -7.3952 -2.0016 0.9445
-11.4751 -8.2388 -2.0016 0.9445
-11.1723 -8.6449 -2.0016 0.9445
-10.8552 -9.0400 -2.0016 0.9445
-10.5240 -9.4234 -2.0016 0.9445
-9.0687 -10.8311 -2.0016 0.9445
-8.2692 -11.4532 -2.0016 0.9445
-7.4271 -12.0164 -2.0016 0.9445
-6.9915 -12.2750 -2.0016 0.9445
-4.2092 -13.4847 -2.0016 0.9445
-3.2319 -13.7517 -2.0016 0.9445
-2.7368 -13.8588 -2.0016 0.9445
-2.2381 -13.9480 -2.0016 0.9445
-1.2327 -14.0725 -2.0016 0.9445
0.2856 -14.1235 -2.0016 0.9445
8.9096 -8.2606 -2.0016 0.9519
9.2001 -7.9358 -2.0016 0.9519
9.4787 -7.6009 -2.0016 0.9519
9.7452 -7.2561 -2.0016 0.9519
9.9991 -6.9020 -2.0016 0.9519
10.2401 -6.5390 -2.0016 0.9519
10.4680 -6.1677 -2.0016 0.9519
10.8831 -5.4016 -2.0016 0.9519
11.4002 -4.2017 -2.0016 0.9519
11.5436 -3.7902 -2.0016 0.9519
11.7855 -2.9532 -2.0016 0.9519
11.8838 -2.5287 -2.0016 0.9519
11.9669 -2.1010 -2.0016 0.9519
12.0345 -1.6705 -2.0016 0.9519
12.1233 -0.8037 -2.0016 0.9519
12.1497 0.0671 -2.0016 0.9519
12.1136 0.9377 -2.0016 0.9519
12.0722 1.3715 -2.0016 0.9519
12.0153 1.8034 -2.0016 0.9519
11.7521 3.0833 -2.0016 0.9519
11.5010 3.9176 -2.0016 0.9519
11.3531 4.3274 -2.0016 0.9519
11.1906 4.7317 -2.0016 0.9519
10.8227 5.5216 -2.0016 0.9519
10.6178 5.9061 -2.0016 0.9519
10.1672 6.6518 -2.0016 0.9519
9.1118 8.0371 -2.0016 0.9519
8.5124 8.6694 -2.0016 0.9519
8.1961 8.9691 -2.0016 0.9519
7.5322 9.5334 -2.0016 0.9519
7.1855 9.7973 -2.0016 0.9519
6.4649 10.2871 -2.0016 0.9519
6.0790 10.4900 -1.9973 0.9520
4.5531 10.2612 -1.8494 0.9555
3.4249 10.6908 -1.8494 0.9555
2.6499 10.9087 -1.8494 0.9555
1.8613 11.0706 -1.8494 0.9555
1.0631 11.1755 -1.8494 0.9555
-0.5455 11.2127 -1.8494 0.9555
-1.0580 8.7489 -1.4518 0.9649
-2.1429 11.0196 -1.8494 0.9555
-2.9272 10.8376 -1.8494 0.9555
-4.0740 10.4606 -1.8494 0.9555
-4.4465 10.3078 -1.8494 0.9555
-4.8132 10.1418 -1.8494 0.9555
-5.1738 9.9627 -1.8494 0.9555
-5.5277 9.7708 -1.8494 0.9555
-6.5450 9.1207 -1.8494 0.9555
-6.8678 8.8801 -1.8494 0.9555
-7.1818 8.6282 -1.8494 0.9555
-7.4865 8.3651 -1.8494 0.9555
-7.9371 8.2529 -1.8863 0.9546
-8.5149 8.2408 -1.9521 0.9531
-9.0031 8.1087 -1.9960 0.9521
-9.5875 7.4632 -2.0016 0.9519
-10.0977 6.7569 -2.0016 0.9519
-10.3335 6.3905 -2.0016 0.9519
-10.7649 5.6335 -2.0016 0.9519
-11.1410 4.8475 -2.0016 0.9519
-11.3076 4.4449 -2.0016 0.9519
-11.4597 4.0366 -2.0016 0.9519
-11.7196 3.2049 -2.0016 0.9519
-11.9191 2.3568 -2.0016 0.9519
-11.9959 1.9279 -2.0016 0.9519
-12.0573 1.4965 -2.0016 0.9519
-12.1033 1.0632 -2.0016 0.9519
-12.1483 0.1931 -2.0016 0.9519
-12.1475 -0.2426 -2.0016 0.9519
-11.0998 -2.2418 -1.8655 0.9551
-10.8608 -3.0177 -1.8570 0.9553
-10.7456 -3.4052 -1.8570 0.9553
-10.1484 -4.9065 -1.8570 0.9553
-9.9659 -5.2672 -1.8570 0.9553
-9.7707 -5.6212 -1.8570 0.9553
-9.8199 -7.1547 -2.0016 0.9519
-9.2819 -7.8400 -2.0016 0.9519
-8.9948 -8.1678 -2.0016 0.9519
-8.6961 -8.4851 -2.0016 0.9519
-8.3863 -8.7914 -2.0016 0.9519
-8.0657 -9.0865 -2.0016 0.9519
-7.7347 -9.3699 -2.0016 0.9519
-7.3937 -9.6412 -2.0016 0.9519
-7.0433 -9.9001 -2.0016 0.9519
-6.6838 -10.1463 -2.0016 0.9519
-5.5556 -10.8053 -2.0016 0.9519
-4.7669 -11.1757 -2.0016 0.9519
-4.3631 -11.3394 -2.0016 0.9519
-3.1202 -11.7424 -2.0016 0.9519
-2.6972 -11.8467 -2.0016 0.9519
-2.2707 -11.9358 -2.0016 0.9519
-1.4094 -12.0678 -2.0016 0.9519
-0.9758 -12.1106 -2.0016 0.9519
-0.5409 -12.1378 -2.0016 0.9519
0.3303 -12.1454 -2.0016 0.9519
1.1999 -12.0905 -2.0016 0.9519
3.3371 -11.6826 -2.0016 0.9519
3.7539 -11.5554 -2.0016 0.9519
4.1658 -11.4134 -2.0016 0.9519
4.5724 -11.2567 -2.0016 0.9519
5.3673 -10.9001 -2.0016 0.9519
2.2530 -4.1893 -0.7836 0.9809
6.5068 -10.2606 -2.0016 0.9519
7.5710 -9.5026 -2.0016 0.9519
8.2326 -8.9356 -2.0016 0.9519
8.8518 -8.3226 -2.0016 0.9519
9.6943 -7.3239 -2.0016 0.9519
9.9507 -6.9716 -2.0016 0.9519
10.4247 -6.2405 -2.0016 0.9519
11.0346 -5.0850 -2.0016 0.9519
11.3706 -4.2811 -2.0016 0.9519
11.5168 -3.8706 -2.0016 0.9519
11.7646 -3.0353 -2.0016 0.9519
12.0225 -1.7544 -2.0016 0.9519
12.0777 -1.3222 -2.0016 0.9519
12.1414 -0.4533 -2.0016 0.9519
12.1499 -0.0176 -2.0016 0.9519
12.0276 1.7196 -2.0016 0.9519
11.9582 2.1497 -2.0016 0.9519
11.8734 2.5771 -2.0016 0.9519
11.7734 3.0012 -2.0016 0.9519
11.6582 3.4214 -2.0016 0.9519
11.2234 4.6535 -2.0016 0.9519
10.4428 6.2103 -2.0016 0.9519
10.2134 6.5807 -2.0016 0.9519
9.4477 7.6394 -2.0016 0.9519
9.1677 7.9733 -2.0016 0.9519
8.5727 8.6098 -2.0016 0.9519
8.2584 8.9117 -2.0016 0.9519
7.9336 9.2020 -2.0016 0.9519
7.5985 9.4806 -2.0016 0.9519
6.8996 10.0008 -2.0016 0.9519
5.5707 10.2868 -1.9272 0.9537
4.2548 10.3884 -1.8494 0.9555
3.8796 10.5343 -1.8494 0.9555
3.4994 10.6666 -1.8494 0.9555
3.1147 10.7853 -1.8494 0.9555
2.3337 10.9807 -1.8494 0.9555
1.9385 11.0574 -1.8494 0.9555
1.5408 11.1198 -1.8494 0.9555
0.7399 11.2016 -1.8494 0.9555
0.3378 11.2209 -1.8494 0.9555
-0.4673 11.2163 -1.8494 0.9555
-0.8691 11.1923 -1.8494 0.9555
-1.3098 8.7121 -1.4514 0.9649
-2.4603 10.9531 -1.8494 0.9555
-2.8515 10.8578 -1.8494 0.9555
-4.0010 10.4888 -1.8494 0.9555
-4.7423 10.1751 -1.8494 0.9555
-5.8076 9.6070 -1.8494 0.9555
-6.4812 9.1661 -1.8494 0.9555
-7.8291 8.2552 -1.8743 0.9549
-8.3994 8.2432 -1.9388 0.9534
-8.9419 8.1672 -1.9951 0.9521
-9.2530 7.8617 -2.0002 0.9520
-9.5352 7.5299 -2.0016 0.9519
-9.7991 7.1831 -2.0016 0.9519
-10.7254 5.7084 -2.0016 0.9519
-10.9231 5.3202 -2.0016 0.9519
-11.1069 4.9251 -2.0016 0.9519
-11.4313 4.1164 -2.0016 0.9519
-12.0466 1.5806 -2.0016 0.9519
-12.1354 -0.5934 -2.0016 0.9519
-12.0617 -1.4616 -2.0016 0.9519
-12.0015 -1.8931 -2.0016 0.9519
-10.7691 -3.3302 -1.8570 0.9553
-10.6428 -3.7142 -1.8570 0.9553
-10.5027 -4.0934 -1.8570 0.9553
-10.3492 -4.4673 -1.8570 0.9553
-10.1173 -6.7276 -2.0016 0.9519
-8.4474 -8.7327 -2.0016 0.9519
-6.7544 -10.0994 -2.0016 0.9519
-5.6308 -10.7663 -2.0016 0.9519
-4.8448 -11.1422 -2.0016 0.9519
-3.6202 -11.5980 -2.0016 0.9519
-3.2021 -11.7203 -2.0016 0.9519
-2.3539 -11.9197 -2.0016 0.9519
-1.9250 -11.9964 -2.0016 0.9519
-1.0603 -12.1035 -2.0016 0.9519
-0.6256 -12.1338 -2.0016 0.9519
-0.1901 -12.1484 -2.0016 0.9519
6.0828 -8.7405 -2.0016 0.9576
6.3923 -8.5168 -2.0016 0.9576
6.6936 -8.2821 -2.0016 0.9576
6.9863 -8.0368 -2.0016 0.9576
8.0635 -6.9554 -2.0016 0.9576
8.3077 -6.6618 -2.0016 0.9576
8.7638 -6.0493 -2.0016 0.9576
8.9750 -5.7312 -2.0016 0.9576
9.1747 -5.4057 -2.0016 0.9576
9.3627 -5.0732 -2.0016 0.9576
9.7022 -4.3892 -2.0016 0.9576
9.9918 -3.6826 -2.0016 0.9576
10.1174 -3.3219 -2.0016 0.9576
10.2300 -2.9570 -2.0016 0.9576
10.3295 -2.5883 -2.0016 0.9576
10.4156 -2.2163 -2.0016 0.9576
10.4884 -1.8414 -2.0016 0.9576
10.5934 -1.0850 -2.0016 0.9576
10.6255 -0.7045 -2.0016 0.9576
10.6487 0.0589 -2.0016 0.9576
10.6397 0.4406 -2.0016 0.9576
10.5808 1.2020 -2.0016 0.9576
10.5309 1.5806 -2.0016 0.9576
10.4674 1.9572 -2.0016 0.9576
10.3905 2.3313 -2.0016 0.9576
10.3002 2.7023 -2.0016 0.9576
9.9505 3.7928 -2.0016 0.9576
9.8081 4.1472 -2.0016 0.9576
9.4857 4.8394 -2.0016 0.9576
9.3060 5.1764 -2.0016 0.9576
8.6963 6.1458 -2.0016 0.9576
7.9861 7.0441 -2.0016 0.9576
7.4607 7.5983 -2.0016 0.9576
7.1835 7.8610 -2.0016 0.9576
6.8970 8.1135 -2.0016 0.9576
6.6016 8.3556 -2.0016 0.9576
6.2978 8.5869 -2.0016 0.9576
5.9859 8.8072 -2.0016 0.9576
5.6662 9.0162 -2.0016 0.9576
5.3393 9.2135 -2.0016 0.9576
5.0000 9.3888 -1.9994 0.9576
4.6407 9.5222 -1.9910 0.9578
4.0848 9.2059 -1.8930 0.9598
3.6656 9.1308 -1.8494 0.9607
3.3358 9.2563 -1.8494 0.9607
3.0018 9.3700 -1.8494 0.9607
2.6639 9.4716 -1.8494 0.9607
2.3225 9.5610 -1.8494 0.9607
1.9782 9.6382 -1.8494 0.9607
1.6313 9.7029 -1.8494 0.9607
1.2824 9.7551 -1.8494 0.9607
0.5800 9.8220 -1.8494 0.9607
0.2274 9.8364 -1.8494 0.9607
-0.4781 9.8275 -1.8494 0.9607
-0.8302 9.8040 -1.8494 0.9607
-1.3686 8.6900 -1.6535 0.9648
-2.9045 9.4006 -1.8494 0.9607
-3.2397 9.2904 -1.8494 0.9607
-3.5707 9.1683 -1.8494 0.9607
-4.8448 8.5636 -1.8494 0.9607
-5.9193 8.2489 -1.9084 0.9595
-6.3725 8.2397 -1.9579 0.9585
-6.7909 8.1586 -1.9952 0.9577
-7.6520 7.4057 -2.0016 0.9576
-7.9126 7.1265 -2.0016 0.9576
-8.1631 6.8382 -2.0016 0.9576
-9.2519 5.2726 -2.0016 0.9576
-9.4350 4.9375 -2.0016 0.9576
-9.7646 4.2486 -2.0016 0.9576
-9.9106 3.8958 -2.0016 0.9576
-10.1643 3.1755 -2.0016 0.9576
-10.2717 2.8090 -2.0016 0.9576
-10.3658 2.4389 -2.0016 0.9576
-10.4466 2.0656 -2.0016 0.9576
-10.6080 0.9319 -2.0016 0.9576
-10.6346 0.5509 -2.0016 0.9576
-10.6475 0.1692 -2.0016 0.9576
-10.6467 -0.2127 -2.0016 0.9576
-10.6322 -0.5943 -2.0016 0.9576
-10.6041 -0.9751 -2.0016 0.9576
-10.4381 -2.1082 -2.0016 0.9576
-9.6077 -2.3019 -1.8570 0.9606
-9.5190 -2.6449 -1.8570 0.9606
-9.3050 -3.3203 -1.8570 0.9606
-9.1799 -3.6518 -1.8570 0.9606
-8.7347 -4.6165 -1.8570 0.9606
-8.5635 -4.9267 -1.8570 0.9606
-8.3814 -5.2306 -1.8570 0.9606
-8.1884 -5.5278 -1.8570 0.9606
-8.6067 -6.2708 -2.0016 0.9576
-7.6218 -7.4368 -2.0016 0.9576
-6.7791 -8.2123 -2.0016 0.9576
-6.4803 -8.4501 -2.0016 0.9576
-6.1731 -8.6770 -2.0016 0.9576
-5.8580 -8.8927 -2.0016 0.9576
-5.5354 -9.0971 -2.0016 0.9576
-5.2056 -9.2897 -2.0016 0.9576
-3.8241 -9.9385 -2.0016 0.9576
-3.1020 -10.1870 -2.0016 0.9576
-1.6137 -10.5258 -2.0016 0.9576
-1.2353 -10.5769 -2.0016 0.9576
-0.8552 -10.6144 -2.0016 0.9576
-0.4741 -10.6383 -2.0016 0.9576
-0.0923 -10.6484 -2.0016 0.9576
1.0517 -10.5968 -2.0016 0.9576
1.4310 -10.5522 -2.0016 0.9576
1.8084 -10.4941 -2.0016 0.9576
2.1835 -10.4225 -2.0016 0.9576
2.5558 -10.3376 -2.0016 0.9576
3.2901 -10.1278 -2.0016 0.9576
3.6512 -10.0033 -2.0016 0.9576
4.0075 -9.8660 -2.0016 0.9576
6.3327 -8.5612 -2.0016 0.9576
6.9300 -8.0853 -2.0016 0.9576
7.2155 -7.8316 -2.0016 0.9576
7.4916 -7.5679 -2.0016 0.9576
8.9348 -5.7936 -2.0016 0.9576
9.1368 -5.4696 -2.0016 0.9576
9.5053 -4.8007 -2.0016 0.9576
9.8249 -4.1071 -2.0016 0.9576
10.0940 -3.3924 -2.0016 0.9576
10.2091 -3.0283 -2.0016 0.9576
10.3999 -2.2889 -2.0016 0.9576
10.5856 -1.1589 -2.0016 0.9576
10.6414 -0.3973 -2.0016 0.9576
10.6488 -0.0154 -2.0016 0.9576
10.6425 0.3664 -2.0016 0.9576
10.6225 0.7478 -2.0016 0.9576
10.5889 1.1282 -2.0016 0.9576
10.5416 1.5071 -2.0016 0.9576
10.4808 1.8841 -2.0016 0.9576
10.4065 2.2587 -2.0016 0.9576
9.9767 3.7233 -2.0016 0.9576
9.8368 4.0786 -2.0016 0.9576
9.6842 4.4287 -2.0016 0.9576
9.5192 4.7731 -2.0016 0.9576
9.3419 5.1114 -2.0016 0.9576
9.1526 5.4430 -2.0016 0.9576
8.0350 6.9882 -2.0016 0.9576
6.9534 8.0652 -2.0016 0.9576
6.6598 8.3093 -2.0016 0.9576
6.3576 8.5428 -2.0016 0.9576
6.0471 8.7652 -2.0016 0.9576
5.7290 8.9764 -2.0016 0.9576
5.0682 9.3588 -2.0005 0.9576
4.7161 9.5079 -1.9949 0.9577
4.1881 9.2637 -1.9109 0.9595
3.7292 9.1050 -1.8494 0.9607
3.0670 9.3488 -1.8494 0.9607
2.3892 9.5446 -1.8494 0.9607
1.6990 9.6913 -1.8494 0.9607
1.0001 9.7881 -1.8494 0.9607
-0.4096 9.8305 -1.8494 0.9607
-0.7618 9.8095 -1.8494 0.9607
-1.1130 9.7759 -1.8494 0.9607
-1.8108 9.6710 -1.8494 0.9607
-2.1564 9.5999 -1.8494 0.9607
-3.8340 9.0613 -1.8494 0.9607
-4.4736 8.7633 -1.8494 0.9607
-4.7849 8.5972 -1.8494 0.9607
-6.7313 8.2027 -1.9945 0.9577
-7.3278 7.7266 -2.0016 0.9576
-7.8627 7.1816 -2.0016 0.9576
-8.1152 6.8950 -2.0016 0.9576
-8.3572 6.5996 -2.0016 0.9576
-8.5884 6.2957 -2.0016 0.9576
-9.0176 5.6640 -2.0016 0.9576
-9.2149 5.3370 -2.0016 0.9576
-9.5736 4.6629 -2.0016 0.9576
-9.8832 3.9648 -2.0016 0.9576
-10.1419 3.2463 -2.0016 0.9576
-10.2518 2.8806 -2.0016 0.9576
-10.3485 2.5111 -2.0016 0.9576
-10.6012 1.0059 -2.0016 0.9576
-10.6304 0.6251 -2.0016 0.9576
-10.6479 -0.1384 -2.0016 0.9576
-10.6361 -0.5201 -2.0016 0.9576
-10.5715 -1.2810 -2.0016 0.9576
-10.4525 -2.0353 -2.0016 0.9576
-9.6584 -2.2429 -1.8637 0.9604
-9.4386 -2.9187 -1.8570 0.9606
-9.2052 -3.5877 -1.8570 0.9606
-8.5977 -4.8668 -1.8570 0.9606
-8.4177 -5.1720 -1.8570 0.9606
-8.6502 -6.2106 -2.0016 0.9576
-7.9333 -7.1036 -2.0016 0.9576
-7.4038 -7.6538 -2.0016 0.9576
-7.1246 -7.9144 -2.0016 0.9576
-6.8362 -8.1648 -2.0016 0.9576
-6.2335 -8.6337 -2.0016 0.9576
-5.9199 -8.8517 -2.0016 0.9576
-5.2703 -9.2532 -2.0016 0.9576
-4.5936 -9.6071 -2.0016 0.9576
-4.2462 -9.7656 -2.0016 0.9576
-2.8065 -10.2723 -2.0016 0.9576
-2.0631 -10.4471 -2.0016 0.9576
-1.6871 -10.5143 -2.0016 0.9576
-1.3090 -10.5680 -2.0016 0.9576
-0.1666 -10.6475 -2.0016 0.9576
4.8380 -8.1398 -2.0016 0.9620
5.1268 -7.9611 -2.0016 0.9620
5.4089 -7.7721 -2.0016 0.9620
5.6841 -7.5732 -2.0016 0.9620
5.9520 -7.3645 -2.0016 0.9620
6.4645 -6.9190 -2.0016 0.9620
6.7084 -6.6828 -2.0016 0.9620
6.9437 -6.4379 -2.0016 0.9620
7.5949 -5.6550 -2.0016 0.9620
7.7928 -5.3791 -2.0016 0.9620
7.9807 -5.0962 -2.0016 0.9620
8.1583 -4.8068 -2.0016 0.9620
8.3254 -4.5112 -2.0016 0.9620
8.4818 -4.2097 -2.0016 0.9620
8.6273 -3.9029 -2.0016 0.9620
8.8848 -3.2746 -2.0016 0.9620
8.9965 -2.9539 -2.0016 0.9620
9.0966 -2.6294 -2.0016 0.9620
9.1851 -2.3016 -2.0016 0.9620
9.2617 -1.9707 -2.0016 0.9620
9.3791 -1.3019 -2.0016 0.9620
9.4197 -0.9648 -2.0016 0.9620
9.4483 -0.6264 -2.0016 0.9620
9.4647 -0.2872 -2.0016 0.9620
9.4408 0.7308 -2.0016 0.9620
9.3641 1.4055 -2.0016 0.9620
9.2393 2.0730 -2.0016 0.9620
9.1591 2.4030 -2.0016 0.9620
9.0670 2.7298 -2.0016 0.9620
8.9633 3.0532 -2.0016 0.9620
8.7214 3.6877 -2.0016 0.9620
8.2750 4.6029 -2.0016 0.9620
7.9238 5.1841 -2.0016 0.9620
7.7329 5.4649 -2.0016 0.9620
7.5319 5.7387 -2.0016 0.9620
7.3213 6.0050 -2.0016 0.9620
7.1013 6.2637 -2.0016 0.9620
6.8721 6.5143 -2.0016 0.9620
6.6341 6.7565 -2.0016 0.9620
5.3227 7.8314 -2.0016 0.9620
4.4509 8.3577 -2.0016 0.9620
4.1484 8.5120 -2.0016 0.9620
3.1547 8.7539 -1.9669 0.9627
1.4506 8.6279 -1.8494 0.9649
-0.4251 8.7387 -1.8494 0.9649
-0.7382 8.7178 -1.8494 0.9649
-1.6701 8.5881 -1.8494 0.9649
-1.9770 8.5227 -1.8494 0.9649
-2.2813 8.4463 -1.8494 0.9649
-2.8821 8.2651 -1.8503 0.9648
-3.2152 8.2555 -1.8727 0.9644
-3.5590 8.2505 -1.8993 0.9639
-3.9130 8.2450 -1.9291 0.9634
-4.2786 8.2389 -1.9624 0.9628
-4.6456 8.2116 -1.9943 0.9622
-5.2369 7.8798 -1.9999 0.9621
-5.7929 7.4903 -2.0016 0.9620
-6.0577 7.2778 -2.0016 0.9620
-6.5637 6.8249 -2.0016 0.9620
-6.8042 6.5852 -2.0016 0.9620
-7.2587 6.0806 -2.0016 0.9620
-7.4721 5.8164 -2.0016 0.9620
-7.6758 5.5448 -2.0016 0.9620
-8.0534 4.9804 -2.0016 0.9620
-8.2268 4.6884 -2.0016 0.9620
-8.3897 4.3904 -2.0016 0.9620
-8.5417 4.0868 -2.0016 0.9620
-8.8126 3.4641 -2.0016 0.9620
-9.2892 1.8368 -2.0016 0.9620
-9.4678 0.1505 -2.0016 0.9620
-9.4671 -0.1891 -2.0016 0.9620
-9.3429 -1.5406 -2.0016 0.9620
-9.2816 -1.8746 -2.0016 0.9620
-9.2084 -2.2062 -2.0016 0.9620
-8.1629 -3.2472 -1.8570 0.9647
-8.0412 -3.5378 -1.8570 0.9647
-7.9092 -3.8239 -1.8570 0.9647
-7.7670 -4.1050 -1.8570 0.9647
-7.2812 -4.9153 -1.8570 0.9647
-6.9103 -5.4245 -1.8570 0.9647
-6.7113 -5.6688 -1.8570 0.9647
-7.0101 -6.3656 -2.0016 0.9620
-6.5359 -6.8516 -2.0016 0.9620
-6.0280 -7.3024 -2.0016 0.9620
-5.7623 -7.5139 -2.0016 0.9620
-5.4892 -7.7156 -2.0016 0.9620
-5.2090 -7.9075 -2.0016 0.9620
-4.9221 -8.0892 -2.0016 0.9620
-4.6289 -8.2605 -2.0016 0.9620
-4.3297 -8.4211 -2.0016 0.9620
-3.4004 -8.8374 -2.0016 0.9620
-2.4317 -9.1514 -2.0016 0.9620
-2.1020 -9.2328 -2.0016 0.9620
-1.0984 -9.4051 -2.0016 0.9620
-0.4216 -9.4596 -2.0016 0.9620
-0.0821 -9.4687 -2.0016 0.9620
1.9416 -9.2678 -2.0016 0.9620
2.2727 -9.1922 -2.0016 0.9620
2.6008 -9.1048 -2.0016 0.9620
3.2466 -8.8950 -2.0016 0.9620
3.5635 -8.7729 -2.0016 0.9620
2.2530 -4.1892 -1.0055 0.9807
4.7811 -8.1733 -2.0016 0.9620
5.6311 -7.6127 -2.0016 0.9620
5.9005 -7.4059 -2.0016 0.9620
6.1622 -7.1895 -2.0016 0.9620
6.8987 -6.4862 -2.0016 0.9620
7.1268 -6.2347 -2.0016 0.9620
7.5553 -5.7079 -2.0016 0.9620
7.9449 -5.1518 -2.0016 0.9620
8.1245 -4.8636 -2.0016 0.9620
8.4522 -4.2688 -2.0016 0.9620
8.5998 -3.9630 -2.0016 0.9620
8.7364 -3.6521 -2.0016 0.9620
8.8617 -3.3365 -2.0016 0.9620
9.2477 -2.0353 -2.0016 0.9620
9.3147 -1.7024 -2.0016 0.9620
9.4624 -0.3532 -2.0016 0.9620
9.4690 -0.0137 -2.0016 0.9620
9.4634 0.3258 -2.0016 0.9620
9.4456 0.6649 -2.0016 0.9620
9.3196 1.6754 -2.0016 0.9620
9.1756 2.3390 -2.0016 0.9620
9.0858 2.6665 -2.0016 0.9620
8.8714 3.3108 -2.0016 0.9620
8.6113 3.9380 -2.0016 0.9620
8.4645 4.2443 -2.0016 0.9620
8.3069 4.5451 -2.0016 0.9620
8.1386 4.8400 -2.0016 0.9620
7.9598 5.1287 -2.0016 0.9620
7.5718 5.6860 -2.0016 0.9620
7.3631 5.9538 -2.0016 0.9620
6.4362 6.9453 -2.0016 0.9620
5.6532 7.5963 -2.0016 0.9620
5.0942 7.9819 -2.0016 0.9620
4.5091 8.3265 -2.0016 0.9620
3.5805 8.7420 -1.9969 0.9621
3.2335 8.7799 -1.9777 0.9625
2.4664 8.5405 -1.8791 0.9643
1.8188 8.5579 -1.8494 0.9649
0.2632 8.7450 -1.8494 0.9649
-0.9897 8.6928 -1.8494 0.9649
-1.9175 8.5363 -1.8494 0.9649
-2.2223 8.4620 -1.8494 0.9649
-2.5243 8.3769 -1.8494 0.9649
-3.4914 8.2515 -1.8939 0.9640
-3.8433 8.2461 -1.9231 0.9635
-4.2065 8.2401 -1.9556 0.9629
-4.5824 8.2334 -1.9918 0.9622
-4.8862 8.0829 -1.9965 0.9621
-5.1803 7.9138 -1.9993 0.9621
-6.0068 7.3199 -2.0016 0.9620
-6.7581 6.6325 -2.0016 0.9620
-6.9916 6.3859 -2.0016 0.9620
-7.2161 6.1311 -2.0016 0.9620
-7.4313 5.8684 -2.0016 0.9620
-7.8328 5.3208 -2.0016 0.9620
-8.0185 5.0365 -2.0016 0.9620
-8.5130 4.1463 -2.0016 0.9620
-8.7882 3.5255 -2.0016 0.9620
-9.2020 2.2329 -2.0016 0.9620
-9.2761 1.9015 -2.0016 0.9620
-9.4267 0.8944 -2.0016 0.9620
-9.4527 0.5558 -2.0016 0.9620
-9.4665 0.2165 -2.0016 0.9620
-9.4682 -0.1230 -2.0016 0.9620
-9.4351 -0.8013 -2.0016 0.9620
-9.4002 -1.1391 -2.0016 0.9620
-9.2945 -1.8098 -2.0016 0.9620
-9.2236 -2.1419 -2.0016 0.9620
-8.4806 -2.2928 -1.8570 0.9647
-8.3929 -2.5954 -1.8570 0.9647
-8.2944 -2.8946 -1.8570 0.9647
-7.9357 -3.7686 -1.8570 0.9647
-7.6452 -4.3276 -1.8570 0.9647
-7.3154 -4.8644 -1.8570 0.9647
-7.1362 -5.1236 -1.8570 0.9647
-6.7507 -5.6218 -1.8570 0.9647
-7.0543 -6.3165 -2.0016 0.9620
-6.0788 -7.2602 -2.0016 0.9620
-5.5429 -7.6772 -2.0016 0.9620
-4.9784 -8.0547 -2.0016 0.9620
-4.6864 -8.2280 -2.0016 0.9620
-4.3884 -8.3907 -2.0016 0.9620
-3.7758 -8.6837 -2.0016 0.9620
-3.1437 -8.9319 -2.0016 0.9620
-2.8214 -9.0389 -2.0016 0.9620
-2.4955 -9.1343 -2.0016 0.9620
-1.1640 -9.3972 -2.0016 0.9620
-0.1482 -9.4679 -2.0016 0.9620
4.3513 -7.3209 -2.0016 0.9656
5.1123 -6.8113 -2.0016 0.9656
5.3532 -6.6236 -2.0016 0.9656
6.0336 -6.0105 -2.0016 0.9656
6.6441 -5.3278 -2.0016 0.9656
6.8309 -5.0862 -2.0016 0.9656
7.0089 -4.8380 -2.0016 0.9656
7.1778 -4.5835 -2.0016 0.9656
7.3376 -4.3232 -2.0016 0.9656
8.0914 -2.6567 -2.0016 0.9656
8.1815 -2.3649 -2.0016 0.9656
8.3300 -1.7725 -2.0016 0.9656
8.4356 -1.1709 -2.0016 0.9656
8.5092 0.3524 -2.0016 0.9656
8.4910 0.6573 -2.0016 0.9656
8.4620 0.9613 -2.0016 0.9656
8.4221 1.2641 -2.0016 0.9656
8.3714 1.5653 -2.0016 0.9656
8.1549 2.4552 -2.0016 0.9656
7.9579 3.0333 -2.0016 0.9656
7.7201 3.5958 -2.0016 0.9656
7.4425 4.1399 -2.0016 0.9656
7.2893 4.4041 -2.0016 0.9656
6.7742 5.1614 -2.0016 0.9656
6.3869 5.6336 -2.0016 0.9656
5.9667 6.0768 -2.0016 0.9656
5.5159 6.4888 -2.0016 0.9656
3.7310 7.6557 -2.0016 0.9656
3.1728 7.9034 -2.0016 0.9656
2.8874 8.0121 -2.0016 0.9656
2.5978 8.1091 -2.0012 0.9656
2.3025 8.1868 -1.9987 0.9657
1.7063 8.3132 -1.9945 0.9657
0.7856 8.2583 -1.9496 0.9665
-0.4010 8.2431 -1.9396 0.9667
-0.6979 8.2423 -1.9441 0.9666
-1.2976 8.2392 -1.9603 0.9663
-1.9101 8.2344 -1.9866 0.9659
-3.6515 7.6939 -2.0016 0.9656
-3.9250 7.5580 -2.0016 0.9656
-4.1935 7.4125 -2.0016 0.9656
-5.2101 6.7368 -2.0016 0.9656
-5.6796 6.3461 -2.0016 0.9656
-6.3282 5.6995 -2.0016 0.9656
-6.5285 5.4689 -2.0016 0.9656
-6.9036 4.9870 -2.0016 0.9656
-7.0780 4.7362 -2.0016 0.9656
-7.6824 3.6757 -2.0016 0.9656
-7.8093 3.3978 -2.0016 0.9656
-8.2148 2.2465 -2.0016 0.9656
-8.2901 1.9505 -2.0016 0.9656
-8.4516 1.0490 -2.0016 0.9656
-8.4838 0.7453 -2.0016 0.9656
-8.5050 0.4406 -2.0016 0.9656
-8.5154 0.1354 -2.0016 0.9656
-8.5032 -0.4753 -2.0016 0.9656
-8.4473 -1.0834 -2.0016 0.9656
-8.2821 -1.9843 -2.0016 0.9656
-7.5321 -2.3869 -1.8570 0.9681
-7.4417 -2.6554 -1.8570 0.9681
-7.3417 -2.9206 -1.8570 0.9681
-7.2323 -3.1819 -1.8570 0.9681
-6.9856 -3.6920 -1.8570 0.9681
-6.8487 -3.9402 -1.8570 0.9681
-6.5488 -4.4208 -1.8570 0.9681
-6.0362 -5.0985 -1.8570 0.9681
-5.8495 -5.3117 -1.8570 0.9681
-5.6536 -6.3692 -2.0016 0.9656
-4.9370 -6.9395 -2.0016 0.9656
-3.8942 -7.5740 -2.0016 0.9656
-3.6201 -7.7087 -2.0016 0.9656
-3.0583 -7.9484 -2.0016 0.9656
-2.7714 -8.0529 -2.0016 0.9656
-2.1871 -8.2308 -2.0016 0.9656
-0.9879 -8.4590 -2.0016 0.9656
-0.6840 -8.4889 -2.0016 0.9656
-0.3792 -8.5080 -2.0016 0.9656
-0.0738 -8.5161 -2.0016 0.9656
0.2316 -8.5133 -2.0016 0.9656
0.5367 -8.4995 -2.0016 0.9656
1.1444 -8.4392 -2.0016 0.9656
1.7463 -8.3355 -2.0016 0.9656
3.2050 -7.8904 -2.0016 0.9656
2.2363 -4.1583 -1.1097 0.9808
4.8159 -7.0240 -2.0016 0.9656
5.0647 -6.8468 -2.0016 0.9656
5.5423 -6.4663 -2.0016 0.9656
5.9915 -6.0524 -2.0016 0.9656
6.2046 -5.8337 -2.0016 0.9656
7.3072 -4.3743 -2.0016 0.9656
7.6019 -3.8394 -2.0016 0.9656
7.8575 -3.2847 -2.0016 0.9656
7.9702 -3.0008 -2.0016 0.9656
8.0727 -2.7131 -2.0016 0.9656
8.1648 -2.4219 -2.0016 0.9656
8.3777 -1.5311 -2.0016 0.9656
8.4937 -0.6227 -2.0016 0.9656
8.5105 -0.3177 -2.0016 0.9656
8.5164 -0.0123 -2.0016 0.9656
8.4954 0.5980 -2.0016 0.9656
8.4685 0.9023 -2.0016 0.9656
8.2525 2.1037 -2.0016 0.9656
8.1718 2.3983 -2.0016 0.9656
8.0806 2.6897 -2.0016 0.9656
7.8670 3.2619 -2.0016 0.9656
7.7450 3.5419 -2.0016 0.9656
7.3199 4.3531 -2.0016 0.9656
7.1591 4.6128 -2.0016 0.9656
6.9891 4.8665 -2.0016 0.9656
6.8101 5.1140 -2.0016 0.9656
6.4261 5.5889 -2.0016 0.9656
6.0090 6.0350 -2.0016 0.9656
5.7887 6.2466 -2.0016 0.9656
5.5610 6.4502 -2.0016 0.9656
5.3262 6.6454 -2.0016 0.9656
4.8362 7.0100 -2.0016 0.9656
4.5818 7.1789 -2.0016 0.9656
4.3214 7.3386 -2.0016 0.9656
3.5084 7.7602 -2.0016 0.9656
2.0631 8.2420 -1.9968 0.9657
1.7645 8.3025 -1.9949 0.9657
1.4575 8.3134 -1.9836 0.9659
-0.0476 8.2435 -1.9374 0.9667
-1.2388 8.2396 -1.9583 0.9663
-2.1555 8.2075 -1.9944 0.9657
-2.4500 8.1303 -1.9957 0.9657
-3.3170 7.8395 -2.0006 0.9656
-3.5977 7.7192 -2.0016 0.9656
-4.1417 7.4415 -2.0016 0.9656
-4.6644 7.1256 -2.0016 0.9656
-5.4026 6.5835 -2.0016 0.9656
-5.6351 6.3855 -2.0016 0.9656
-5.8605 6.1794 -2.0016 0.9656
-6.8687 5.0350 -2.0016 0.9656
-7.0448 4.7855 -2.0016 0.9656
-7.7854 3.4522 -2.0016 0.9656
-8.1110 2.5963 -2.0016 0.9656
-8.1989 2.3037 -2.0016 0.9656
-8.2763 2.0083 -2.0016 0.9656
-8.3430 1.7102 -2.0016 0.9656
-8.3989 1.4100 -2.0016 0.9656
-8.4441 1.1079 -2.0016 0.9656
-8.4784 0.8044 -2.0016 0.9656
-8.3594 -1.6278 -2.0016 0.9656
-8.2957 -1.9265 -2.0016 0.9656
-7.5486 -2.3343 -1.8570 0.9681
-7.4600 -2.6034 -1.8570 0.9681
-7.3619 -2.8693 -1.8570 0.9681
-7.0112 -3.6432 -1.8570 0.9681
-6.7321 -4.1363 -1.8570 0.9681
-6.5794 -4.3751 -1.8570 0.9681
-6.0716 -5.0563 -1.8570 0.9681
-5.4935 -5.6790 -1.8570 0.9681
-5.4673 -6.5298 -2.0016 0.9656
-4.9853 -6.9048 -2.0016 0.9656
-4.4776 -7.2444 -2.0016 0.9656
-3.6738 -7.6833 -2.0016 0.9656
-3.3959 -7.8101 -2.0016 0.9656
-2.8275 -8.0334 -2.0016 0.9656
-2.5376 -8.1296 -2.0016 0.9656
-1.6499 -8.3551 -2.0016 0.9656
-1.0469 -8.4519 -2.0016 0.9656
0.1722 -8.5147 -2.0016 0.9656
3.9497 -6.6453 -2.0016 0.9686
4.1855 -6.4994 -2.0016 0.9686
4.4158 -6.3451 -2.0016 0.9686
5.2776 -5.6487 -2.0016 0.9686
5.4767 -5.4558 -2.0016 0.9686
5.8537 -5.0493 -2.0016 0.9686
6.0309 -4.8361 -2.0016 0.9686
6.5154 -4.1605 -2.0016 0.9686
6.6604 -3.9242 -2.0016 0.9686
6.9245 -3.4368 -2.0016 0.9686
7.0433 -3.1863 -2.0016 0.9686
7.2535 -2.6734 -2.0016 0.9686
7.3447 -2.4116 -2.0016 0.9686
7.4987 -1.8790 -2.0016 0.9686
7.6140 -1.3368 -2.0016 0.9686
7.6571 -1.0629 -2.0016 0.9686
7.6903 -0.7876 -2.0016 0.9686
7.7269 -0.2345 -2.0016 0.9686
7.7304 0.0427 -2.0016 0.9686
7.7074 0.5966 -2.0016 0.9686
7.6811 0.8726 -2.0016 0.9686
7.5988 1.4208 -2.0016 0.9686
7.5430 1.6924 -2.0016 0.9686
7.4774 1.9618 -2.0016 0.9686
7.3176 2.4926 -2.0016 0.9686
7.2235 2.7534 -2.0016 0.9686
6.6166 3.9976 -2.0016 0.9686
6.4690 4.2323 -2.0016 0.9686
6.1491 4.6850 -2.0016 0.9686
5.7975 5.1137 -2.0016 0.9686
5.6104 5.3182 -2.0016 0.9686
4.7924 6.0657 -2.0016 0.9686
4.3454 6.3936 -2.0016 0.9686
4.1134 6.5453 -2.0016 0.9686
3.3867 6.9491 -2.0016 0.9686
3.1354 7.0661 -2.0016 0.9686
2.6209 7.2726 -2.0016 0.9686
1.8248 7.5120 -2.0016 0.9686
1.2817 7.6235 -2.0016 0.9686
1.0076 7.6645 -2.0016 0.9686
0.7321 7.6957 -2.0016 0.9686
0.4557 7.7170 -2.0016 0.9686
-0.0986 7.7299 -2.0016 0.9686
-0.6523 7.7029 -2.0016 0.9686
-1.2026 7.6364 -2.0016 0.9686
-1.7468 7.5305 -2.0016 0.9686
-2.0157 7.4631 -2.0016 0.9686
-2.2820 7.3860 -2.0016 0.9686
-2.8055 7.2034 -2.0016 0.9686
-3.0620 7.0982 -2.0016 0.9686
-3.3145 6.9839 -2.0016 0.9686
-3.5628 6.8605 -2.0016 0.9686
-4.2789 6.4383 -2.0016 0.9686
-4.5070 6.2807 -2.0016 0.9686
-4.7293 6.1151 -2.0016 0.9686
-4.9455 5.9416 -2.0016 0.9686
-5.1554 5.7604 -2.0016 0.9686
-5.9260 4.9642 -2.0016 0.9686
-6.1002 4.7485 -2.0016 0.9686
-6.8493 3.5843 -2.0016 0.9686
-6.9734 3.3364 -2.0016 0.9686
-7.4567 2.0392 -2.0016 0.9686
-7.5250 1.7705 -2.0016 0.9686
-7.5837 1.4995 -2.0016 0.9686
-7.6325 1.2267 -2.0016 0.9686
-7.7289 -0.1544 -2.0016 0.9686
-7.6980 -0.7079 -2.0016 0.9686
-7.6677 -0.9834 -2.0016 0.9686
-7.6275 -1.2578 -2.0016 0.9686
-7.5177 -1.8012 -2.0016 0.9686
-7.4483 -2.0696 -2.0016 0.9686
-5.9444 -4.0129 -1.8570 0.9708
-5.7967 -4.2234 -1.8570 0.9708
-5.6415 -4.4286 -1.8570 0.9708
-5.1333 -5.0088 -1.8570 0.9708
-4.7612 -5.3638 -1.8570 0.9708
-4.5658 -5.5310 -1.8570 0.9708
-4.4814 -6.2990 -2.0016 0.9686
-4.0184 -6.6040 -2.0016 0.9686
-3.7790 -6.7438 -2.0016 0.9686
-3.0330 -7.1107 -2.0016 0.9686
-2.5156 -7.3097 -2.0016 0.9686
-2.2519 -7.3952 -2.0016 0.9686
-1.9853 -7.4712 -2.0016 0.9686
-1.7161 -7.5376 -2.0016 0.9686
-1.4447 -7.5943 -2.0016 0.9686
-0.6209 -7.7055 -2.0016 0.9686
-0.3442 -7.7228 -2.0016 0.9686
-0.0670 -7.7302 -2.0016 0.9686
0.2102 -7.7276 -2.0016 0.9686
0.7635 -7.6927 -2.0016 0.9686
2.1233 -7.4332 -2.0016 0.9686
2.3885 -7.3523 -2.0016 0.9686
2.9092 -7.1622 -2.0016 0.9686
2.1087 -4.2824 -1.2359 0.9805
2.2112 -4.1116 -1.2088 0.9809
2.4040 -4.1097 -1.2328 0.9805
4.5972 -6.2150 -2.0016 0.9686
5.4385 -5.4939 -2.0016 0.9686
5.8183 -5.0900 -2.0016 0.9686
5.9971 -4.8781 -2.0016 0.9686
6.1681 -4.6599 -2.0016 0.9686
6.6328 -3.9706 -2.0016 0.9686
6.9004 -3.4850 -2.0016 0.9686
7.0209 -3.2354 -2.0016 0.9686
7.2347 -2.7239 -2.0016 0.9686
7.3277 -2.4627 -2.0016 0.9686
7.4113 -2.1984 -2.0016 0.9686
7.4854 -1.9313 -2.0016 0.9686
7.5498 -1.6616 -2.0016 0.9686
7.6495 -1.1163 -2.0016 0.9686
7.7098 -0.5652 -2.0016 0.9686
7.7251 -0.2884 -2.0016 0.9686
7.7305 -0.0112 -2.0016 0.9686
7.5546 1.6397 -2.0016 0.9686
7.4909 1.9096 -2.0016 0.9686
7.4176 2.1769 -2.0016 0.9686
7.3348 2.4415 -2.0016 0.9686
7.1410 2.9609 -2.0016 0.9686
7.0302 3.2150 -2.0016 0.9686
6.4984 4.1871 -2.0016 0.9686
6.3441 4.4174 -2.0016 0.9686
5.6474 5.2790 -2.0016 0.9686
5.4545 5.4781 -2.0016 0.9686
5.2545 5.6701 -2.0016 0.9686
4.8346 6.0321 -2.0016 0.9686
4.6152 6.2016 -2.0016 0.9686
4.3899 6.3631 -2.0016 0.9686
4.1589 6.5164 -2.0016 0.9686
3.6812 6.7977 -2.0016 0.9686
3.4351 6.9253 -2.0016 0.9686
3.1846 7.0441 -2.0016 0.9686
2.9300 7.1537 -2.0016 0.9686
2.6716 7.2542 -2.0016 0.9686
2.1448 7.4270 -2.0016 0.9686
1.6071 7.5616 -2.0016 0.9686
1.0610 7.6573 -2.0016 0.9686
0.7858 7.6905 -2.0016 0.9686
-0.0446 7.7304 -2.0016 0.9686
-0.8745 7.6809 -2.0016 0.9686
-1.1493 7.6446 -2.0016 0.9686
-1.4227 7.5984 -2.0016 0.9686
-2.4944 7.3170 -2.0016 0.9686
-2.7552 7.2229 -2.0016 0.9686
-3.2657 7.0068 -2.0016 0.9686
-3.5148 6.8852 -2.0016 0.9686
-3.7595 6.7548 -2.0016 0.9686
-3.9993 6.6156 -2.0016 0.9686
-4.4631 6.3120 -2.0016 0.9686
-4.6865 6.1479 -2.0016 0.9686
-4.9040 5.9759 -2.0016 0.9686
-5.1151 5.7962 -2.0016 0.9686
-5.3196 5.6091 -2.0016 0.9686
-5.7079 5.2134 -2.0016 0.9686
-5.8912 5.0054 -2.0016 0.9686
-6.8241 3.6320 -2.0016 0.9686
-6.9500 3.3850 -2.0016 0.9686
-7.4423 2.0911 -2.0016 0.9686
-7.5730 1.5524 -2.0016 0.9686
-7.6238 1.2799 -2.0016 0.9686
-7.7172 0.4538 -2.0016 0.9686
-7.7298 -0.1005 -2.0016 0.9686
-7.7213 -0.3776 -2.0016 0.9686
-7.6743 -0.9299 -2.0016 0.9686
-7.6361 -1.2045 -2.0016 0.9686
-7.5301 -1.7487 -2.0016 0.9686
-7.4626 -2.0175 -2.0016 0.9686
-6.7716 -2.3632 -1.8570 0.9708
-6.6825 -2.6045 -1.8570 0.9708
-6.5848 -2.8424 -1.8570 0.9708
-6.3642 -3.3070 -1.8570 0.9708
-6.1108 -3.7546 -1.8570 0.9708
-5.9722 -3.9713 -1.8570 0.9708
-5.6723 -4.3891 -1.8570 0.9708
-5.1682 -4.9728 -1.8570 0.9708
-4.6043 -5.4990 -1.8570 0.9708
-4.4041 -5.6606 -1.8570 0.9708
-4.2975 -6.4258 -2.0016 0.9686
-3.8260 -6.7173 -2.0016 0.9686
-3.5827 -6.8502 -2.0016 0.9686
-2.8263 -7.1953 -2.0016 0.9686
-2.5665 -7.2920 -2.0016 0.9686
-2.3034 -7.3793 -2.0016 0.9686
-1.7686 -7.5253 -2.0016 0.9686
-1.4977 -7.5840 -2.0016 0.9686
-0.6746 -7.7010 -2.0016 0.9686
2.4371 -4.1003 -1.3503 0.9804
3.8280 -5.9444 -2.0016 0.9710
4.2442 -5.6547 -2.0016 0.9710
4.4442 -5.4989 -2.0016 0.9710
4.8269 -5.1663 -2.0016 0.9710
5.1847 -4.8071 -2.0016 0.9710
5.3538 -4.6181 -2.0016 0.9710
5.5159 -4.4231 -2.0016 0.9710
5.6710 -4.2225 -2.0016 0.9710
5.9590 -3.8052 -2.0016 0.9710
6.3332 -3.1433 -2.0016 0.9710
6.5422 -2.6814 -2.0016 0.9710
6.6341 -2.4451 -2.0016 0.9710
6.8583 -1.7185 -2.0016 0.9710
6.9155 -1.4715 -2.0016 0.9710
6.9638 -1.2226 -2.0016 0.9710
7.0548 -0.4677 -2.0016 0.9710
7.0643 0.2926 -2.0016 0.9710
7.0251 0.7981 -2.0016 0.9710
6.9920 1.0495 -2.0016 0.9710
6.9499 1.2995 -2.0016 0.9710
6.8988 1.5479 -2.0016 0.9710
6.7702 2.0383 -2.0016 0.9710
6.6067 2.5182 -2.0016 0.9710
6.4092 2.9853 -2.0016 0.9710
6.2980 3.2131 -2.0016 0.9710
6.0516 3.6562 -2.0016 0.9710
5.7740 4.0805 -2.0016 0.9710
5.4667 4.4838 -2.0016 0.9710
4.9536 5.0450 -2.0016 0.9710
4.7695 5.2193 -2.0016 0.9710
4.5793 5.3870 -2.0016 0.9710
3.9743 5.8476 -2.0016 0.9710
3.7621 5.9863 -2.0016 0.9710
3.5450 6.1174 -2.0016 0.9710
3.0975 6.3557 -2.0016 0.9710
2.1571 6.7333 -2.0016 0.9710
1.6690 6.8705 -2.0016 0.9710
1.4215 6.9260 -2.0016 0.9710
1.1723 6.9725 -2.0016 0.9710
0.9215 7.0100 -2.0016 0.9710
-0.0901 7.0698 -2.0016 0.9710
-0.5966 7.0451 -2.0016 0.9710
-1.0999 6.9842 -2.0016 0.9710
-1.5976 6.8875 -2.0016 0.9710
-2.8005 6.4921 -2.0016 0.9710
-3.0315 6.3875 -2.0016 0.9710
-3.4814 6.1538 -2.0016 0.9710
-3.9135 5.8885 -2.0016 0.9710
-4.1221 5.7444 -2.0016 0.9710
-4.3254 5.5929 -2.0016 0.9710
-4.9010 5.0961 -2.0016 0.9710
-5.5792 4.3430 -2.0016 0.9710
-5.7314 4.1402 -2.0016 0.9710
-6.0133 3.7188 -2.0016 0.9710
-6.2644 3.2783 -2.0016 0.9710
-6.3779 3.0515 -2.0016 0.9710
-6.5802 2.5866 -2.0016 0.9710
-6.7487 2.1084 -2.0016 0.9710
-6.8824 1.6193 -2.0016 0.9710
-6.9360 1.3715 -2.0016 0.9710
-6.9808 1.1219 -2.0016 0.9710
-7.0694 0.1124 -2.0016 0.9710
-7.0689 -0.1412 -2.0016 0.9710
-7.0593 -0.3946 -2.0016 0.9710
-7.0406 -0.6474 -2.0016 0.9710
-6.9761 -1.1503 -2.0016 0.9710
-6.2724 -2.2382 -1.8853 0.9727
-6.0951 -2.4246 -1.8570 0.9731
-6.0042 -2.6416 -1.8570 0.9731
-5.7994 -3.0651 -1.8570 0.9731
-5.5649 -3.4729 -1.8570 0.9731
-5.3017 -3.8628 -1.8570 0.9731
-5.1598 -4.0504 -1.8570 0.9731
-5.0112 -4.2328 -1.8570 0.9731
-4.8562 -4.4097 -1.8570 0.9731
-4.5277 -4.7464 -1.8570 0.9731
-4.3546 -4.9057 -1.8570 0.9731
-4.1759 -5.0587 -1.8570 0.9731
-3.9918 -5.2052 -1.8570 0.9731
-3.8026 -5.3450 -1.8570 0.9731
-3.6085 -5.4779 -1.8570 0.9731
-3.4098 -5.6037 -1.8570 0.9731
-3.2329 -6.2879 -2.0016 0.9710
-3.0054 -6.3998 -2.0016 0.9710
-2.5390 -6.5987 -2.0016 0.9710
-2.0596 -6.7637 -2.0016 0.9710
-1.5696 -6.8939 -2.0016 0.9710
-1.0715 -6.9887 -2.0016 0.9710
-0.8202 -7.0226 -2.0016 0.9710
-0.3148 -7.0633 -2.0016 0.9710
0.1922 -7.0677 -2.0016 0.9710
0.4455 -7.0563 -2.0016 0.9710
0.6983 -7.0358 -2.0016 0.9710
1.2007 -6.9676 -2.0016 0.9710
1.4498 -6.9201 -2.0016 0.9710
1.6970 -6.8637 -2.0016 0.9710
1.9420 -6.7984 -2.0016 0.9710
2.0948 -4.2541 -1.3424 0.9805
2.3952 -4.0945 -1.3429 0.9805
3.9981 -5.8313 -2.0016 0.9710
4.4058 -5.5298 -2.0016 0.9710
4.6012 -5.3683 -2.0016 0.9710
4.7907 -5.1998 -2.0016 0.9710
5.1511 -4.8431 -2.0016 0.9710
5.9323 -3.8467 -2.0016 0.9710
6.3111 -3.1874 -2.0016 0.9710
6.6169 -2.4913 -2.0016 0.9710
6.7019 -2.2524 -2.0016 0.9710
6.9051 -1.5197 -2.0016 0.9710
6.9962 -1.0210 -2.0016 0.9710
7.0514 -0.5169 -2.0016 0.9710
7.0654 -0.2638 -2.0016 0.9710
7.0703 -0.0102 -2.0016 0.9710
6.9992 1.0007 -2.0016 0.9710
6.9588 1.2510 -2.0016 0.9710
6.9095 1.4997 -2.0016 0.9710
6.8512 1.7465 -2.0016 0.9710
6.7842 1.9910 -2.0016 0.9710
6.7085 2.2330 -2.0016 0.9710
6.6241 2.4721 -2.0016 0.9710
6.4299 2.9405 -2.0016 0.9710
6.3203 3.1691 -2.0016 0.9710
5.9434 3.8295 -2.0016 0.9710
5.8023 4.0402 -2.0016 0.9710
5.6537 4.2456 -2.0016 0.9710
5.4978 4.4456 -2.0016 0.9710
5.3349 4.6399 -2.0016 0.9710
5.1651 4.8282 -2.0016 0.9710
4.9887 5.0103 -2.0016 0.9710
4.8058 5.1859 -2.0016 0.9710
4.6168 5.3549 -2.0016 0.9710
4.4218 5.5170 -2.0016 0.9710
3.8038 5.9599 -2.0016 0.9710
3.3669 6.2172 -2.0016 0.9710
3.1418 6.3339 -2.0016 0.9710
2.9126 6.4425 -2.0016 0.9710
1.9617 6.7928 -2.0016 0.9710
1.7169 6.8587 -2.0016 0.9710
1.4698 6.9159 -2.0016 0.9710
0.9704 7.0034 -2.0016 0.9710
0.7187 7.0337 -2.0016 0.9710
0.4660 7.0550 -2.0016 0.9710
0.2127 7.0671 -2.0016 0.9710
-0.0408 7.0702 -2.0016 0.9710
-1.0512 6.9918 -2.0016 0.9710
-1.5496 6.8984 -2.0016 0.9710
-2.5199 6.6060 -2.0016 0.9710
-2.7551 6.5114 -2.0016 0.9710
-2.9868 6.4085 -2.0016 0.9710
-3.2147 6.2973 -2.0016 0.9710
-3.6577 6.0507 -2.0016 0.9710
-4.0819 5.7730 -2.0016 0.9710
-4.2863 5.6229 -2.0016 0.9710
-5.3881 4.5780 -2.0016 0.9710
-5.5488 4.3818 -2.0016 0.9710
-5.8485 3.9729 -2.0016 0.9710
-5.9873 3.7606 -2.0016 0.9710
-6.1182 3.5435 -2.0016 0.9710
-6.5620 2.6325 -2.0016 0.9710
-6.6522 2.3955 -2.0016 0.9710
-6.7338 2.1554 -2.0016 0.9710
-6.8709 1.6673 -2.0016 0.9710
-6.9263 1.4198 -2.0016 0.9710
-7.0697 -0.0919 -2.0016 0.9710
-7.0190 -0.8505 -2.0016 0.9710
-6.9840 -1.1017 -2.0016 0.9710
-6.9400 -1.3514 -2.0016 0.9710
-6.8871 -1.5993 -2.0016 0.9710
-6.8253 -1.8453 -2.0016 0.9710
-6.7547 -2.0888 -2.0016 0.9710
-6.3961 -2.2322 -1.9178 0.9722
-6.1118 -2.3821 -1.8570 0.9731
-5.8207 -3.0246 -1.8570 0.9731
-5.3285 -3.8257 -1.8570 0.9731
-5.1879 -4.0143 -1.8570 0.9731
-4.5607 -4.7147 -1.8570 0.9731
-4.0280 -5.1772 -1.8570 0.9731
-3.8398 -5.3183 -1.8570 0.9731
-3.6466 -5.4526 -1.8570 0.9731
-3.0500 -6.3787 -2.0016 0.9710
-2.8193 -6.4839 -2.0016 0.9710
-1.3698 -6.9364 -2.0016 0.9710
-0.8692 -7.0167 -2.0016 0.9710
-0.1106 -7.0695 -2.0016 0.9710
2.4250 -4.0799 -1.4598 0.9803
3.5233 -5.4712 -2.0016 0.9731
4.4427 -4.7550 -2.0016 0.9731
4.7720 -4.4244 -2.0016 0.9731
5.0768 -4.0710 -2.0016 0.9731
5.2195 -3.8864 -2.0016 0.9731
5.3555 -3.6967 -2.0016 0.9731
5.4846 -3.5023 -2.0016 0.9731
5.6067 -3.3034 -2.0016 0.9731
5.9290 -2.6822 -2.0016 0.9731
6.1060 -2.2504 -2.0016 0.9731
6.1827 -2.0300 -2.0016 0.9731
6.2515 -1.8070 -2.0016 0.9731
6.3123 -1.5817 -2.0016 0.9731
6.3650 -1.3544 -2.0016 0.9731
6.4094 -1.1253 -2.0016 0.9731
6.4457 -0.8947 -2.0016 0.9731
6.4736 -0.6630 -2.0016 0.9731
6.5045 -0.1974 -2.0016 0.9731
6.5074 0.0360 -2.0016 0.9731
6.5019 0.2693 -2.0016 0.9731
6.4881 0.5022 -2.0016 0.9731
6.4354 0.9659 -2.0016 0.9731
6.3966 1.1960 -2.0016 0.9731
6.2945 1.6514 -2.0016 0.9731
5.8990 2.7476 -2.0016 0.9731
5.6869 3.1633 -2.0016 0.9731
5.4456 3.5627 -2.0016 0.9731
5.1762 3.9438 -2.0016 0.9731
5.0315 4.1269 -2.0016 0.9731
4.2148 4.9581 -2.0016 0.9731
3.8486 5.2475 -2.0016 0.9731
3.4626 5.5098 -2.0016 0.9731
3.2628 5.6304 -2.0016 0.9731
2.6393 5.9482 -2.0016 0.9731
1.9853 6.1972 -2.0016 0.9731
1.7619 6.2644 -2.0016 0.9731
1.5361 6.3236 -2.0016 0.9731
0.6163 6.4782 -2.0016 0.9731
0.1504 6.5057 -2.0016 0.9731
-0.0830 6.5070 -2.0016 0.9731
-0.5491 6.4843 -2.0016 0.9731
-0.7812 6.4604 -2.0016 0.9731
-1.2422 6.3878 -2.0016 0.9731
-1.4705 6.3392 -2.0016 0.9731
-1.9210 6.2175 -2.0016 0.9731
-2.7901 5.8790 -2.0016 0.9731
-3.6020 5.4197 -2.0016 0.9731
-4.1631 5.0016 -2.0016 0.9731
-4.3398 4.8491 -2.0016 0.9731
-4.6761 4.5256 -2.0016 0.9731
-4.8354 4.3550 -2.0016 0.9731
-4.9885 4.1788 -2.0016 0.9731
-5.1351 3.9973 -2.0016 0.9731
-5.4083 3.6190 -2.0016 0.9731
-5.5346 3.4227 -2.0016 0.9731
-5.9671 2.5963 -2.0016 0.9731
-6.0564 2.3807 -2.0016 0.9731
-6.1378 2.1620 -2.0016 0.9731
-6.3839 1.2623 -2.0016 0.9731
-6.5062 -0.1300 -2.0016 0.9731
-6.4546 -0.8279 -2.0016 0.9731
-6.4208 -1.0588 -2.0016 0.9731
-6.3787 -1.2883 -2.0016 0.9731
-6.3284 -1.5162 -2.0016 0.9731
-6.2034 -1.9658 -2.0016 0.9731
-6.1290 -2.1870 -2.0016 0.9731
-5.6356 -2.2418 -1.8655 0.9749
-5.2332 -3.0107 -1.8570 0.9751
-5.0040 -3.3780 -1.8570 0.9751
-4.4696 -4.0587 -1.8570 0.9751
