ply
format ascii 1.0
element vertex 1598
property float32 x
property float32 y
property float32 z
property float32 I
end_header
-3.2590 6.2744 -2.0016 0.9710
-3.4820 6.1535 -2.0016 0.9710
-3.7004 6.0246 -2.0016 0.9710
-4.1228 5.7439 -2.0016 0.9710
-5.0815 4.9161 -2.0016 0.9710
-5.2545 4.7307 -2.0016 0.9710
-5.4208 4.5392 -2.0016 0.9710
-6.2653 3.2765 -2.0016 0.9710
-6.3788 3.0497 -2.0016 0.9710
-6.4841 2.8189 -2.0016 0.9710
-6.5810 2.5846 -2.0016 0.9710
-6.9365 1.3689 -2.0016 0.9710
-7.0610 0.3628 -2.0016 0.9710
-7.0695 0.1093 -2.0016 0.9710
-7.0688 -0.1443 -2.0016 0.9710
-7.0591 -0.3978 -2.0016 0.9710
-7.0403 -0.6507 -2.0016 0.9710
-6.9756 -1.1538 -2.0016 0.9710
-6.9297 -1.4032 -2.0016 0.9710
-6.2627 -2.2386 -1.8828 0.9727
-6.0937 -2.4281 -1.8570 0.9731
-6.0027 -2.6451 -1.8570 0.9731
-5.9039 -2.8587 -1.8570 0.9731
-5.6838 -3.2746 -1.8570 0.9731
-5.5627 -3.4763 -1.8570 0.9731
-4.5243 -4.7496 -1.8570 0.9731
-4.1722 -5.0618 -1.8570 0.9731
-3.9879 -5.2082 -1.8570 0.9731
-3.4514 -6.1707 -2.0016 0.9710
-3.2279 -6.2905 -2.0016 0.9710
-2.7686 -6.5057 -2.0016 0.9710
-2.5335 -6.6008 -2.0016 0.9710
-2.2951 -6.6875 -2.0016 0.9710
-2.0537 -6.7655 -2.0016 0.9710
-1.8098 -6.8348 -2.0016 0.9710
-1.0651 -6.9896 -2.0016 0.9710
-0.8137 -7.0234 -2.0016 0.9710
0.4525 -7.0558 -2.0016 0.9710
0.9571 -7.0052 -2.0016 0.9710
1.4569 -6.9186 -2.0016 0.9710
2.4314 -6.6391 -2.0016 0.9710
2.6679 -6.5477 -2.0016 0.9710
2.9011 -6.4477 -2.0016 0.9710
2.2095 -4.0973 -1.3178 0.9808
2.4014 -4.0944 -1.3438 0.9805
4.0049 -5.8267 -2.0016 0.9710
4.6077 -5.3627 -2.0016 0.9710
4.9803 -5.0186 -2.0016 0.9710
5.1571 -4.8368 -2.0016 0.9710
5.4905 -4.4546 -2.0016 0.9710
5.6468 -4.2548 -2.0016 0.9710
5.9373 -3.8390 -2.0016 0.9710
6.0712 -3.6236 -2.0016 0.9710
6.1972 -3.4035 -2.0016 0.9710
6.3153 -3.1790 -2.0016 0.9710
6.4253 -2.9505 -2.0016 0.9710
6.6203 -2.4822 -2.0016 0.9710
6.7051 -2.2432 -2.0016 0.9710
6.7812 -2.0012 -2.0016 0.9710
6.8486 -1.7567 -2.0016 0.9710
6.9072 -1.5099 -2.0016 0.9710
7.0295 -0.7592 -2.0016 0.9710
7.0522 -0.5066 -2.0016 0.9710
7.0658 0.2539 -2.0016 0.9710
7.0521 0.5071 -2.0016 0.9710
6.9071 1.5105 -2.0016 0.9710
6.8485 1.7572 -2.0016 0.9710
6.7810 2.0018 -2.0016 0.9710
6.7049 2.2437 -2.0016 0.9710
6.6201 2.4827 -2.0016 0.9710
6.5268 2.7186 -2.0016 0.9710
5.3269 4.6491 -2.0016 0.9710
4.7967 5.1944 -2.0016 0.9710
4.4119 5.5249 -2.0016 0.9710
4.0045 5.8270 -2.0016 0.9710
3.7929 5.9669 -2.0016 0.9710
3.3554 6.2234 -2.0016 0.9710
2.9006 6.4480 -2.0016 0.9710
2.6674 6.5478 -2.0016 0.9710
2.4309 6.6393 -2.0016 0.9710
2.1912 6.7222 -2.0016 0.9710
1.9486 6.7965 -2.0016 0.9710
1.7036 6.8620 -2.0016 0.9710
1.4564 6.9187 -2.0016 0.9710
0.7047 7.0351 -2.0016 0.9710
0.4519 7.0559 -2.0016 0.9710
-0.0551 7.0701 -2.0016 0.9710
-0.3086 7.0636 -2.0016 0.9710
-0.5618 7.0480 -2.0016 0.9710
-0.8142 7.0233 -2.0016 0.9710
-1.0656 6.9896 -2.0016 0.9710
-1.3156 6.9469 -2.0016 0.9710
-1.5640 6.8952 -2.0016 0.9710
-1.8103 6.8347 -2.0016 0.9710
-2.0542 6.7653 -2.0016 0.9710
-3.0007 6.4020 -2.0016 0.9710
-3.2284 6.2903 -2.0016 0.9710
-4.0948 5.7639 -2.0016 0.9710
-4.2989 5.6133 -2.0016 0.9710
-4.4974 5.4555 -2.0016 0.9710
-4.6902 5.2907 -2.0016 0.9710
-4.8770 5.1191 -2.0016 0.9710
-5.0574 4.9408 -2.0016 0.9710
-5.3986 4.5656 -2.0016 0.9710
-5.5589 4.3690 -2.0016 0.9710
-5.9961 3.7466 -2.0016 0.9710
-6.2492 3.3071 -2.0016 0.9710
-6.4702 2.8505 -2.0016 0.9710
-6.5683 2.6166 -2.0016 0.9710
-6.7390 2.1390 -2.0016 0.9710
-6.8750 1.6504 -2.0016 0.9710
-6.9298 1.4027 -2.0016 0.9710
-4.4470 -4.0835 -1.8570 0.9751
-4.2976 -4.2404 -1.8570 0.9751
-3.2927 -5.0605 -1.8570 0.9751
-2.9215 -5.2835 -1.8570 0.9751
-2.7301 -5.3849 -1.8570 0.9751
-2.5352 -5.4794 -1.8570 0.9751
-2.3370 -5.5668 -1.8570 0.9751
-2.0823 -6.1653 -2.0016 0.9731
-1.8598 -6.2360 -2.0016 0.9731
-1.4080 -6.3533 -2.0016 0.9731
-0.9489 -6.4379 -2.0016 0.9731
0.2150 -6.5039 -2.0016 0.9731
0.4481 -6.4920 -2.0016 0.9731
0.6807 -6.4718 -2.0016 0.9731
1.1429 -6.4063 -2.0016 0.9731
1.3720 -6.3612 -2.0016 0.9731
1.5992 -6.3079 -2.0016 0.9731
2.0473 -6.1770 -2.0016 0.9731
2.2676 -6.0996 -2.0016 0.9731
2.5041 -5.4936 -1.8570 0.9751
2.2273 -4.0826 -1.4304 0.9807
3.5181 -5.4745 -2.0016 0.9731
3.7122 -5.3448 -2.0016 0.9731
4.6063 -4.5967 -2.0016 0.9731
4.7682 -4.4285 -2.0016 0.9731
5.4818 -3.5067 -2.0016 0.9731
5.6041 -3.3078 -2.0016 0.9731
5.9270 -2.6867 -2.0016 0.9731
6.1043 -2.2549 -2.0016 0.9731
6.1813 -2.0345 -2.0016 0.9731
6.3641 -1.3587 -2.0016 0.9731
6.4087 -1.1296 -2.0016 0.9731
6.4451 -0.8990 -2.0016 0.9731
6.4929 -0.4346 -2.0016 0.9731
6.5044 -0.2014 -2.0016 0.9731
6.5074 0.0320 -2.0016 0.9731
6.4884 0.4984 -2.0016 0.9731
6.4663 0.7308 -2.0016 0.9731
6.3504 1.4212 -2.0016 0.9731
6.2953 1.6481 -2.0016 0.9731
6.2322 1.8728 -2.0016 0.9731
6.0819 2.3148 -2.0016 0.9731
5.9949 2.5314 -2.0016 0.9731
5.7980 2.9547 -2.0016 0.9731
5.6883 3.1608 -2.0016 0.9731
5.5713 3.3628 -2.0016 0.9731
5.3159 3.7535 -2.0016 0.9731
4.7244 4.4752 -2.0016 0.9731
4.0358 5.1048 -2.0016 0.9731
3.8501 5.2463 -2.0016 0.9731
3.6595 5.3810 -2.0016 0.9731
3.4641 5.5088 -2.0016 0.9731
2.8523 5.8491 -2.0016 0.9731
2.6407 5.9476 -2.0016 0.9731
2.4257 6.0385 -2.0016 0.9731
2.2075 6.1216 -2.0016 0.9731
1.9865 6.1969 -2.0016 0.9731
1.7630 6.2641 -2.0016 0.9731
0.8490 6.4519 -2.0016 0.9731
0.6170 6.4782 -2.0016 0.9731
0.3843 6.4961 -2.0016 0.9731
0.1510 6.5057 -2.0016 0.9731
-0.3158 6.4998 -2.0016 0.9731
-0.5487 6.4843 -2.0016 0.9731
-1.2421 6.3878 -2.0016 0.9731
-2.3618 6.0637 -2.0016 0.9731
-2.9996 5.7749 -2.0016 0.9731
-3.2048 5.6636 -2.0016 0.9731
-3.6025 5.4193 -2.0016 0.9731
-3.7946 5.2866 -2.0016 0.9731
-4.3405 4.8484 -2.0016 0.9731
-4.5117 4.6896 -2.0016 0.9731
-4.9893 4.1778 -2.0016 0.9731
-5.1359 3.9962 -2.0016 0.9731
-5.2760 3.8094 -2.0016 0.9731
-5.6546 3.2206 -2.0016 0.9731
-5.7665 3.0157 -2.0016 0.9731
-5.9679 2.5945 -2.0016 0.9731
-6.0571 2.3788 -2.0016 0.9731
-6.4989 0.3339 -2.0016 0.9731
-6.4542 -0.8310 -2.0016 0.9731
-6.4202 -1.0619 -2.0016 0.9731
-6.3780 -1.2915 -2.0016 0.9731
-6.3276 -1.5195 -2.0016 0.9731
-6.2024 -1.9692 -2.0016 0.9731
-5.6289 -2.2429 -1.8637 0.9750
-5.4339 -2.6311 -1.8570 0.9751
-5.2313 -3.0139 -1.8570 0.9751
-5.1199 -3.1996 -1.8570 0.9751
-5.0018 -3.3812 -1.8570 0.9751
-4.7465 -3.7311 -1.8570 0.9751
-4.6097 -3.8989 -1.8570 0.9751
-4.3183 -4.2193 -1.8570 0.9751
-4.1642 -4.3715 -1.8570 0.9751
-2.5619 -5.4669 -1.8570 0.9751
-2.3641 -5.5553 -1.8570 0.9751
-2.1633 -5.6365 -1.8570 0.9751
-1.2104 -6.3939 -2.0016 0.9731
-0.7489 -6.4642 -2.0016 0.9731
-0.5166 -6.4869 -2.0016 0.9731
-0.0502 -6.5073 -2.0016 0.9731
0.4165 -6.4941 -2.0016 0.9731
0.8809 -6.4476 -2.0016 0.9731
1.1116 -6.4118 -2.0016 0.9731
1.7940 -6.2553 -2.0016 0.9731
2.0172 -6.1869 -2.0016 0.9731
2.2018 -4.0830 -1.4268 0.9808
2.3928 -4.0798 -1.4548 0.9804
3.8761 -5.2272 -2.0016 0.9731
4.0611 -5.0848 -2.0016 0.9731
4.2408 -4.9358 -2.0016 0.9731
4.7465 -4.4517 -2.0016 0.9731
4.9031 -4.2786 -2.0016 0.9731
5.4646 -3.5334 -2.0016 0.9731
5.5879 -3.3351 -2.0016 0.9731
5.7039 -3.1326 -2.0016 0.9731
5.8126 -2.9260 -2.0016 0.9731
5.9138 -2.7156 -2.0016 0.9731
6.0933 -2.2846 -2.0016 0.9731
6.3573 -1.3897 -2.0016 0.9731
6.4908 -0.4663 -2.0016 0.9731
6.5075 0.0002 -2.0016 0.9731
6.4907 0.4668 -2.0016 0.9731
6.4698 0.6993 -2.0016 0.9731
6.3572 1.3902 -2.0016 0.9731
6.3033 1.6174 -2.0016 0.9731
6.1711 2.0651 -2.0016 0.9731
6.0072 2.5022 -2.0016 0.9731
5.9136 2.7160 -2.0016 0.9731
5.5876 3.3356 -2.0016 0.9731
5.0531 4.1004 -2.0016 0.9731
4.9028 4.2790 -2.0016 0.9731
4.2405 4.9362 -2.0016 0.9731
4.0607 5.0851 -2.0016 0.9731
3.8757 5.2275 -2.0016 0.9731
2.8808 5.8351 -2.0016 0.9731
2.0167 6.1871 -2.0016 0.9731
1.5680 6.3157 -2.0016 0.9731
1.3404 6.3679 -2.0016 0.9731
0.8805 6.4476 -2.0016 0.9731
0.6486 6.4751 -2.0016 0.9731
0.4160 6.4942 -2.0016 0.9731
0.1828 6.5049 -2.0016 0.9731
-0.0507 6.5073 -2.0016 0.9731
-0.2840 6.5013 -2.0016 0.9731
-0.5171 6.4869 -2.0016 0.9731
-0.7494 6.4642 -2.0016 0.9731
-1.2109 6.3938 -2.0016 0.9731
-1.4394 6.3463 -2.0016 0.9731
-3.3788 5.5616 -2.0016 0.9731
-3.5761 5.4368 -2.0016 0.9731
-3.9566 5.1665 -2.0016 0.9731
-4.1394 5.0212 -2.0016 0.9731
-4.3168 4.8695 -2.0016 0.9731
-4.6548 4.5475 -2.0016 0.9731
-4.8149 4.3776 -2.0016 0.9731
-4.9689 4.2021 -2.0016 0.9731
-5.1164 4.0212 -2.0016 0.9731
-5.3915 3.6440 -2.0016 0.9731
-5.6389 3.2481 -2.0016 0.9731
-5.7517 3.0438 -2.0016 0.9731
-5.8572 2.8355 -2.0016 0.9731
-5.9552 2.6236 -2.0016 0.9731
-6.0454 2.4083 -2.0016 0.9731
-6.2025 1.9687 -2.0016 0.9731
-6.2692 1.7450 -2.0016 0.9731
-6.3277 1.5190 -2.0016 0.9731
-6.3781 1.2911 -2.0016 0.9731
-6.4203 1.0615 -2.0016 0.9731
-4.1148 -3.7785 -1.8570 0.9767
-3.5322 -4.3281 -1.8570 0.9767
-3.3746 -4.4520 -1.8570 0.9767
-3.2128 -4.5702 -1.8570 0.9767
-2.8769 -4.7888 -1.8570 0.9767
-2.7033 -4.8889 -1.8570 0.9767
-2.5262 -4.9827 -1.8570 0.9767
-2.1625 -5.1510 -1.8570 0.9767
-1.9763 -5.2252 -1.8570 0.9767
-1.5966 -5.3535 -1.8570 0.9767
-1.4036 -5.4073 -1.8570 0.9767
-1.2087 -5.4542 -1.8570 0.9767
-0.8146 -5.5268 -1.8570 0.9767
-0.4163 -5.5710 -1.8570 0.9767
-0.2162 -5.5823 -1.8570 0.9767
-0.0158 -5.5865 -1.8570 0.9767
0.3847 -5.5732 -1.8570 0.9767
0.5844 -5.5558 -1.8570 0.9767
1.1778 -5.4609 -1.8570 0.9767
1.3729 -5.4152 -1.8570 0.9767
1.5663 -5.3624 -1.8570 0.9767
1.7576 -5.3028 -1.8570 0.9767
1.9467 -5.2364 -1.8570 0.9767
2.1332 -5.1632 -1.8570 0.9767
2.0694 -4.1397 -1.5384 0.9807
2.2194 -4.0681 -1.5404 0.9807
3.1868 -4.5883 -1.8570 0.9767
3.3494 -4.4711 -1.8570 0.9767
3.7807 -4.6866 -2.0016 0.9749
3.9463 -4.5480 -2.0016 0.9749
4.2622 -4.2534 -2.0016 0.9749
4.8267 -3.6001 -2.0016 0.9749
4.9527 -3.4247 -2.0016 0.9749
5.2919 -2.8728 -2.0016 0.9749
5.3916 -2.6811 -2.0016 0.9749
5.4843 -2.4860 -2.0016 0.9749
5.8398 -1.4676 -2.0016 0.9749
5.9300 -1.0452 -2.0016 0.9749
5.9637 -0.8318 -2.0016 0.9749
6.0080 -0.4022 -2.0016 0.9749
6.0164 0.2456 -2.0016 0.9749
5.9195 1.1035 -2.0016 0.9749
5.8761 1.3151 -2.0016 0.9749
5.8251 1.5250 -2.0016 0.9749
5.7667 1.7329 -2.0016 0.9749
5.5472 2.3424 -2.0016 0.9749
4.9188 3.4732 -2.0016 0.9749
4.7911 3.6474 -2.0016 0.9749
4.6572 3.8169 -2.0016 0.9749
4.5173 3.9815 -2.0016 0.9749
4.3716 4.1409 -2.0016 0.9749
4.2202 4.2951 -2.0016 0.9749
3.9014 4.5866 -2.0016 0.9749
3.0205 5.2091 -2.0016 0.9749
2.8317 5.3140 -2.0016 0.9749
2.6393 5.4122 -2.0016 0.9749
2.4435 5.5034 -2.0016 0.9749
2.2445 5.5875 -2.0016 0.9749
1.8382 5.7340 -2.0016 0.9749
1.6313 5.7963 -2.0016 0.9749
1.4224 5.8510 -2.0016 0.9749
1.2116 5.8983 -2.0016 0.9749
0.1398 6.0198 -2.0016 0.9749
-0.0763 6.0210 -2.0016 0.9749
-0.2922 6.0144 -2.0016 0.9749
-0.5077 6.0000 -2.0016 0.9749
-0.7226 5.9779 -2.0016 0.9749
-0.9365 5.9482 -2.0016 0.9749
-1.1493 5.9107 -2.0016 0.9749
-1.7776 5.7531 -2.0016 0.9749
-1.9828 5.6856 -2.0016 0.9749
-2.3853 5.5288 -2.0016 0.9749
-2.5821 5.4397 -2.0016 0.9749
-2.7755 5.3436 -2.0016 0.9749
-2.9654 5.2406 -2.0016 0.9749
-3.6844 4.7627 -2.0016 0.9749
-4.0163 4.4863 -2.0016 0.9749
-4.4750 4.0289 -2.0016 0.9749
-4.7523 3.6977 -2.0016 0.9749
-4.8819 3.5249 -2.0016 0.9749
-5.2323 2.9800 -2.0016 0.9749
-5.4325 2.5973 -2.0016 0.9749
-5.6047 2.2011 -2.0016 0.9749
-5.6801 1.9987 -2.0016 0.9749
-5.7481 1.7937 -2.0016 0.9749
-5.9075 1.1658 -2.0016 0.9749
-5.9455 0.9532 -2.0016 0.9749
-5.9759 0.7393 -2.0016 0.9749
-6.0135 0.3090 -2.0016 0.9749
-6.0119 -0.3388 -2.0016 0.9749
-5.9959 -0.5542 -2.0016 0.9749
-5.8008 -1.6151 -2.0016 0.9749
-5.1122 -2.2527 -1.8570 0.9767
-4.8406 -2.7888 -1.8570 0.9767
-4.7375 -2.9606 -1.8570 0.9767
-4.6282 -3.1286 -1.8570 0.9767
-4.5130 -3.2926 -1.8570 0.9767
-4.3920 -3.4524 -1.8570 0.9767
-3.9958 -3.9042 -1.8570 0.9767
-3.7056 -4.1806 -1.8570 0.9767
-3.3963 -4.4355 -1.8570 0.9767
-2.9002 -4.7747 -1.8570 0.9767
-2.3705 -5.0586 -1.8570 0.9767
-2.1876 -5.1404 -1.8570 0.9767
-2.0018 -5.2155 -1.8570 0.9767
-1.8134 -5.2840 -1.8570 0.9767
-1.2353 -5.4482 -1.8570 0.9767
-1.0391 -5.4890 -1.8570 0.9767
-0.8415 -5.5227 -1.8570 0.9767
-0.6429 -5.5494 -1.8570 0.9767
-0.0431 -5.5863 -1.8570 0.9767
0.1573 -5.5843 -1.8570 0.9767
0.3575 -5.5750 -1.8570 0.9767
0.7574 -5.5436 -1.8598 0.9767
2.1080 -5.1735 -1.8570 0.9767
2.2922 -5.0946 -1.8570 0.9767
2.0674 -4.1868 -1.5521 0.9805
2.1940 -4.0686 -1.5365 0.9807
2.3842 -4.0651 -1.5665 0.9803
3.3291 -4.4895 -1.8578 0.9767
3.4863 -4.3651 -1.8570 0.9767
3.9241 -4.5672 -2.0016 0.9749
4.5369 -3.9590 -2.0016 0.9749
4.6760 -3.7938 -2.0016 0.9749
4.8091 -3.6236 -2.0016 0.9749
5.0565 -3.2695 -2.0016 0.9749
5.7104 -1.9104 -2.0016 0.9749
5.8825 -1.2859 -2.0016 0.9749
5.9596 -0.8609 -2.0016 0.9749
5.9866 -0.6466 -2.0016 0.9749
5.9248 1.0746 -2.0016 0.9749
5.8824 1.2864 -2.0016 0.9749
5.4719 2.5132 -2.0016 0.9749
5.3782 2.7078 -2.0016 0.9749
4.9357 3.4491 -2.0016 0.9749
4.8088 3.6240 -2.0016 0.9749
4.6757 3.7941 -2.0016 0.9749
4.5366 3.9594 -2.0016 0.9749
3.9238 4.5675 -2.0016 0.9749
3.7574 4.7053 -2.0016 0.9749
3.4104 4.9625 -2.0016 0.9749
3.2302 5.0817 -2.0016 0.9749
3.0459 5.1943 -2.0016 0.9749
2.4703 5.4914 -2.0016 0.9749
1.8661 5.7250 -2.0016 0.9749
1.4509 5.8440 -2.0016 0.9749
1.0282 5.9330 -2.0016 0.9749
0.8147 5.9661 -2.0016 0.9749
0.1691 6.0191 -2.0016 0.9749
-0.2628 6.0157 -2.0016 0.9749
-0.4784 6.0024 -2.0016 0.9749
-0.6934 5.9814 -2.0016 0.9749
-0.9075 5.9527 -2.0016 0.9749
-1.3319 5.8723 -2.0016 0.9749
-2.5555 5.4523 -2.0016 0.9749
-2.9398 5.2550 -2.0016 0.9749
-3.4873 4.9088 -2.0016 0.9749
-3.6611 4.7806 -2.0016 0.9749
-3.9944 4.5058 -2.0016 0.9749
-4.3072 4.2079 -2.0016 0.9749
-4.4553 4.0507 -2.0016 0.9749
-4.8647 3.5486 -2.0016 0.9749
-5.1065 3.1907 -2.0016 0.9749
-5.2177 3.0055 -2.0016 0.9749
-5.3222 2.8164 -2.0016 0.9749
-5.5939 2.2284 -2.0016 0.9749
-5.8551 1.4055 -2.0016 0.9749
-5.9017 1.1946 -2.0016 0.9749
-5.9408 0.9822 -2.0016 0.9749
-3.6964 -3.6471 -1.8570 0.9782
-3.4254 -3.9028 -1.8570 0.9782
-3.1368 -4.1383 -1.8570 0.9782
-2.6742 -4.4513 -1.8570 0.9782
-2.5128 -4.5444 -1.8570 0.9782
-2.1805 -4.7128 -1.8570 0.9782
-1.6616 -4.9198 -1.8570 0.9782
-1.4841 -4.9762 -1.8570 0.9782
-1.3047 -5.0262 -1.8570 0.9782
-0.9410 -5.1068 -1.8570 0.9782
-0.5724 -5.1611 -1.8570 0.9782
-0.3870 -5.1784 -1.8570 0.9782
-0.0147 -5.1928 -1.8570 0.9782
0.1716 -5.1900 -1.8570 0.9782
0.3576 -5.1805 -1.8570 0.9782
0.5432 -5.1643 -1.8570 0.9782
0.7281 -5.1415 -1.8570 0.9782
1.4559 -4.9845 -1.8570 0.9782
1.6337 -4.9291 -1.8570 0.9782
1.8095 -4.8673 -1.8570 0.9782
2.2115 -4.0535 -1.6513 0.9806
2.3996 -4.0461 -1.6822 0.9802
3.1133 -4.1560 -1.8570 0.9782
3.4033 -3.9221 -1.8570 0.9782
3.9619 -3.9536 -2.0016 0.9765
4.2351 -3.6594 -2.0016 0.9765
4.3636 -3.5052 -2.0016 0.9765
4.9190 -2.6704 -2.0016 0.9765
5.0116 -2.4922 -2.0016 0.9765
5.1774 -2.1265 -2.0016 0.9765
5.3759 -1.5580 -2.0016 0.9765
5.4283 -1.3642 -2.0016 0.9765
5.4737 -1.1686 -2.0016 0.9765
5.5676 -0.5739 -2.0016 0.9765
5.5846 -0.3738 -2.0016 0.9765
5.5944 -0.1733 -2.0016 0.9765
5.5970 0.0275 -2.0016 0.9765
5.5617 0.6286 -2.0016 0.9765
5.5356 0.8277 -2.0016 0.9765
5.5023 1.0257 -2.0016 0.9765
5.4620 1.2224 -2.0016 0.9765
5.3603 1.6108 -2.0016 0.9765
5.2991 1.8020 -2.0016 0.9765
5.2310 1.9910 -2.0016 0.9765
4.9869 2.5413 -2.0016 0.9765
4.8925 2.7186 -2.0016 0.9765
4.5722 3.2284 -2.0016 0.9765
4.3290 3.5479 -2.0016 0.9765
4.0635 3.8491 -2.0016 0.9765
3.9228 3.9924 -2.0016 0.9765
3.7771 4.1305 -2.0016 0.9765
3.3115 4.5123 -2.0016 0.9765
2.8076 4.8420 -2.0016 0.9765
2.6322 4.9396 -2.0016 0.9765
2.2713 5.1155 -2.0016 0.9765
1.7086 5.3299 -2.0016 0.9765
1.5163 5.3878 -2.0016 0.9765
1.1262 5.4826 -2.0016 0.9765
0.9288 5.5195 -2.0016 0.9765
0.7302 5.5493 -2.0016 0.9765
0.5307 5.5719 -2.0016 0.9765
-0.0709 5.5966 -2.0016 0.9765
-0.2716 5.5905 -2.0016 0.9765
-0.4719 5.5772 -2.0016 0.9765
-1.0683 5.4942 -2.0016 0.9765
-1.2647 5.4523 -2.0016 0.9765
-1.6523 5.3476 -2.0016 0.9765
-1.8431 5.2849 -2.0016 0.9765
-2.0314 5.2154 -2.0016 0.9765
-2.2172 5.1392 -2.0016 0.9765
-2.5799 4.9670 -2.0016 0.9765
-2.7564 4.8713 -2.0016 0.9765
-2.9294 4.7693 -2.0016 0.9765
-3.4247 4.4270 -2.0016 0.9765
-4.0227 3.8917 -2.0016 0.9765
-4.2913 3.5933 -2.0016 0.9765
-4.4174 3.4371 -2.0016 0.9765
-4.6525 3.1116 -2.0016 0.9765
-4.7611 2.9427 -2.0016 0.9765
-4.9598 2.5938 -2.0016 0.9765
-5.0496 2.4142 -2.0016 0.9765
-5.2097 2.0460 -2.0016 0.9765
-5.3430 1.6673 -2.0016 0.9765
-5.3994 1.4745 -2.0016 0.9765
-5.4488 1.2799 -2.0016 0.9765
-5.4912 1.0837 -2.0016 0.9765
-5.5265 0.8860 -2.0016 0.9765
-5.5758 0.4875 -2.0016 0.9765
-5.5882 -0.3149 -2.0016 0.9765
-5.5733 -0.5151 -2.0016 0.9765
-5.5513 -0.7147 -2.0016 0.9765
-5.5221 -0.9134 -2.0016 0.9765
-5.4858 -1.1108 -2.0016 0.9765
-5.1995 -2.0718 -2.0016 0.9765
-4.5896 -2.4292 -1.8570 0.9782
-4.4995 -2.5923 -1.8570 0.9782
-4.3021 -2.9082 -1.8570 0.9782
-4.1950 -3.0606 -1.8570 0.9782
-4.0825 -3.2091 -1.8570 0.9782
-3.9648 -3.3535 -1.8570 0.9782
-3.8419 -3.4935 -1.8570 0.9782
-3.7142 -3.6291 -1.8570 0.9782
-3.5816 -3.7600 -1.8570 0.9782
-3.4444 -3.8860 -1.8570 0.9782
-3.3028 -4.0070 -1.8570 0.9782
-2.5349 -4.5320 -1.8570 0.9782
-2.3707 -4.6200 -1.8570 0.9782
-2.2035 -4.7021 -1.8570 0.9782
-2.0334 -4.7781 -1.8570 0.9782
-1.8607 -4.8480 -1.8570 0.9782
-1.6856 -4.9116 -1.8570 0.9782
-1.5084 -4.9689 -1.8570 0.9782
-1.3292 -5.0198 -1.8570 0.9782
-0.9659 -5.1022 -1.8570 0.9782
-0.7823 -5.1335 -1.8570 0.9782
-0.4122 -5.1764 -1.8570 0.9782
-0.0400 -5.1926 -1.8570 0.9782
0.1462 -5.1907 -1.8570 0.9782
0.3323 -5.1821 -1.8570 0.9782
0.8871 -5.1165 -1.8570 0.9782
1.0700 -5.0814 -1.8570 0.9782
1.2516 -5.0397 -1.8570 0.9782
1.4315 -4.9916 -1.8570 0.9782
1.6097 -4.9370 -1.8570 0.9782
1.7857 -4.8761 -1.8570 0.9782
2.0004 -4.4460 -1.7435 0.9795
2.1861 -4.0540 -1.6471 0.9806
2.3730 -4.0460 -1.6774 0.9803
2.7860 -4.3821 -1.8570 0.9782
2.9414 -4.2794 -1.8570 0.9782
3.2406 -4.0575 -1.8570 0.9782
4.0825 -3.8289 -2.0016 0.9765
4.4702 -3.3682 -2.0016 0.9765
4.5881 -3.2057 -2.0016 0.9765
4.7001 -3.0391 -2.0016 0.9765
4.9059 -2.6943 -2.0016 0.9765
5.1670 -2.1517 -2.0016 0.9765
5.2408 -1.9650 -2.0016 0.9765
5.3682 -1.5842 -2.0016 0.9765
5.4216 -1.3907 -2.0016 0.9765
5.5647 -0.6010 -2.0016 0.9765
5.5935 -0.2005 -2.0016 0.9765
5.5971 0.0002 -2.0016 0.9765
5.5827 0.4015 -2.0016 0.9765
5.5647 0.6015 -2.0016 0.9765
5.5072 0.9988 -2.0016 0.9765
5.4215 1.3911 -2.0016 0.9765
5.3681 1.5847 -2.0016 0.9765
5.3078 1.7762 -2.0016 0.9765
5.1668 2.1521 -2.0016 0.9765
5.0863 2.3361 -2.0016 0.9765
4.9992 2.5170 -2.0016 0.9765
4.6999 3.0394 -2.0016 0.9765
4.5879 3.2061 -2.0016 0.9765
4.4699 3.3686 -2.0016 0.9765
3.9422 3.9732 -2.0016 0.9765
3.6472 4.2456 -2.0016 0.9765
3.3335 4.4961 -2.0016 0.9765
3.1701 4.6128 -2.0016 0.9765
3.0026 4.7236 -2.0016 0.9765
2.6562 4.9267 -2.0016 0.9765
1.7346 5.3215 -2.0016 0.9765
1.5426 5.3803 -2.0016 0.9765
1.1529 5.4771 -2.0016 0.9765
0.5579 5.5692 -2.0016 0.9765
0.3578 5.5856 -2.0016 0.9765
-0.2443 5.5918 -2.0016 0.9765
-0.4447 5.5794 -2.0016 0.9765
-1.4331 5.4105 -2.0016 0.9765
-1.8173 5.2939 -2.0016 0.9765
-2.1921 5.1500 -2.0016 0.9765
-2.3754 5.0680 -2.0016 0.9765
-2.5557 4.9796 -2.0016 0.9765
-2.7326 4.8847 -2.0016 0.9765
-2.9061 4.7835 -2.0016 0.9765
-3.0758 4.6762 -2.0016 0.9765
-3.4031 4.4437 -2.0016 0.9765
-3.5603 4.3188 -2.0016 0.9765
-3.7129 4.1883 -2.0016 0.9765
-3.8608 4.0524 -2.0016 0.9765
-4.1413 3.7652 -2.0016 0.9765
-4.2737 3.6142 -2.0016 0.9765
-4.4006 3.4586 -2.0016 0.9765
-4.5218 3.2985 -2.0016 0.9765
-4.6372 3.1342 -2.0016 0.9765
-4.7467 2.9659 -2.0016 0.9765
-4.9471 2.6180 -2.0016 0.9765
-5.1997 2.0714 -2.0016 0.9765
-5.3348 1.6933 -2.0016 0.9765
-5.4858 1.1104 -2.0016 0.9765
-5.5221 0.9130 -2.0016 0.9765
-3.4494 -3.4034 -1.8570 0.9795
-2.4954 -4.1538 -1.8570 0.9795
-2.3448 -4.2406 -1.8570 0.9795
-2.1912 -4.3220 -1.8570 0.9795
-2.0348 -4.3978 -1.8570 0.9795
-1.8757 -4.4680 -1.8570 0.9795
-1.7143 -4.5324 -1.8570 0.9795
-1.3849 -4.6436 -1.8570 0.9795
-0.8781 -4.7655 -1.8570 0.9795
-0.7066 -4.7940 -1.8570 0.9795
-0.1875 -4.8421 -1.8570 0.9795
0.3337 -4.8343 -1.8570 0.9795
0.6794 -4.7979 -1.8570 0.9795
0.8511 -4.7704 -1.8570 0.9795
1.1909 -4.6971 -1.8570 0.9795
1.8504 -4.4785 -1.8570 0.9795
2.3727 -4.0007 -1.7825 0.9803
2.7643 -3.9800 -1.8570 0.9795
3.1758 -3.6600 -1.8570 0.9795
3.3050 -3.5437 -1.8570 0.9795
3.4300 -3.4229 -1.8570 0.9795
3.8270 -3.5544 -2.0016 0.9779
3.9521 -3.4149 -2.0016 0.9779
4.1867 -3.1227 -2.0016 0.9779
4.3998 -2.8146 -2.0016 0.9779
4.7571 -2.1564 -2.0016 0.9779
4.8314 -1.9844 -2.0016 0.9779
4.9612 -1.6329 -2.0016 0.9779
5.1079 -1.0905 -2.0016 0.9779
5.1955 -0.5355 -2.0016 0.9779
5.2205 -0.1617 -2.0016 0.9779
5.2230 0.0257 -2.0016 0.9779
5.2187 0.2130 -2.0016 0.9779
5.1656 0.7724 -2.0016 0.9779
4.9449 1.6816 -2.0016 0.9779
4.8814 1.8579 -2.0016 0.9779
4.8116 2.0318 -2.0016 0.9779
4.6536 2.3715 -2.0016 0.9779
4.3719 2.8577 -2.0016 0.9779
4.1558 3.1637 -2.0016 0.9779
4.0397 3.3108 -2.0016 0.9779
3.9183 3.4535 -2.0016 0.9779
3.7919 3.5919 -2.0016 0.9779
3.2393 4.0972 -2.0016 0.9779
2.6200 4.5184 -2.0016 0.9779
1.9469 4.8466 -2.0016 0.9779
1.4150 5.0277 -2.0016 0.9779
0.4953 5.1995 -2.0016 0.9779
0.1212 5.2216 -2.0016 0.9779
-0.2534 5.2169 -2.0016 0.9779
-0.4404 5.2044 -2.0016 0.9779
-0.6268 5.1853 -2.0016 0.9779
-1.1802 5.0880 -2.0016 0.9779
-1.7199 4.9317 -2.0016 0.9779
-1.8957 4.8669 -2.0016 0.9779
-2.0690 4.7958 -2.0016 0.9779
-2.2397 4.7185 -2.0016 0.9779
-2.7336 4.4506 -2.0016 0.9779
-3.4838 3.8914 -2.0016 0.9779
-3.6211 3.7640 -2.0016 0.9779
-3.7538 3.6317 -2.0016 0.9779
-4.2346 3.0575 -2.0016 0.9779
-4.3415 2.9036 -2.0016 0.9779
-4.4429 2.7460 -2.0016 0.9779
-4.6283 2.4205 -2.0016 0.9779
-4.7122 2.2529 -2.0016 0.9779
-4.8616 1.9093 -2.0016 0.9779
-4.9269 1.7337 -2.0016 0.9779
-5.1242 1.0112 -2.0016 0.9779
-5.1835 0.6413 -2.0016 0.9779
-5.2032 0.4550 -2.0016 0.9779
-5.2162 0.2680 -2.0016 0.9779
-5.2224 0.0808 -2.0016 0.9779
-5.2219 -0.1066 -2.0016 0.9779
-5.2148 -0.2939 -2.0016 0.9779
-5.2009 -0.4807 -2.0016 0.9779
-5.1803 -0.6669 -2.0016 0.9779
-5.1530 -0.8523 -2.0016 0.9779
-5.1191 -1.0366 -2.0016 0.9779
-5.0787 -1.2196 -2.0016 0.9779
-5.0316 -1.4009 -2.0016 0.9779
-4.9782 -1.5805 -2.0016 0.9779
-4.8520 -1.9333 -2.0016 0.9779
-4.2828 -2.2669 -1.8570 0.9795
-4.0146 -2.7138 -1.8570 0.9795
-3.8097 -2.9946 -1.8570 0.9795
-3.4659 -3.3865 -1.8570 0.9795
-2.9460 -3.8474 -1.8570 0.9795
-2.5157 -4.1416 -1.8570 0.9795
-2.3655 -4.2292 -1.8570 0.9795
-1.8975 -4.4588 -1.8570 0.9795
-1.7364 -4.5240 -1.8570 0.9795
-1.5730 -4.5833 -1.8570 0.9795
-1.4076 -4.6368 -1.8570 0.9795
-1.0715 -4.7258 -1.8570 0.9795
-0.9013 -4.7612 -1.8570 0.9795
-0.7300 -4.7905 -1.8570 0.9795
-0.2112 -4.8411 -1.8570 0.9795
-0.0374 -4.8456 -1.8570 0.9795
0.4834 -4.8216 -1.8570 0.9795
0.6560 -4.8011 -1.8570 0.9795
0.8278 -4.7745 -1.8570 0.9795
1.1679 -4.7029 -1.8570 0.9795
1.3359 -4.6580 -1.8570 0.9795
1.5021 -4.6071 -1.8570 0.9795
1.6664 -4.5502 -1.8570 0.9795
2.0038 -4.0579 -1.7343 0.9808
2.1571 -4.0001 -1.7416 0.9807
2.3463 -4.0006 -1.7773 0.9803
2.5998 -4.0893 -1.8570 0.9795
2.7448 -3.9934 -1.8570 0.9795
2.8863 -3.8924 -1.8570 0.9795
3.0241 -3.7863 -1.8570 0.9795
3.2877 -3.5598 -1.8570 0.9795
3.4133 -3.4396 -1.8570 0.9795
4.1714 -3.1431 -2.0016 0.9779
4.4849 -2.6768 -2.0016 0.9779
4.7465 -2.1796 -2.0016 0.9779
4.8906 -1.8337 -2.0016 0.9779
5.0592 -1.2977 -2.0016 0.9779
5.1393 -0.9317 -2.0016 0.9779
5.1928 -0.5609 -2.0016 0.9779
5.2096 -0.3742 -2.0016 0.9779
5.2096 0.3746 -2.0016 0.9779
5.1928 0.5613 -2.0016 0.9779
5.1392 0.9321 -2.0016 0.9779
5.0591 1.2981 -2.0016 0.9779
5.0093 1.4788 -2.0016 0.9779
4.9531 1.6575 -2.0016 0.9779
4.8904 1.8341 -2.0016 0.9779
4.7464 2.1799 -2.0016 0.9779
4.5779 2.5146 -2.0016 0.9779
4.4847 2.6772 -2.0016 0.9779
4.2813 2.9918 -2.0016 0.9779
4.1712 3.1434 -2.0016 0.9779
4.0558 3.2910 -2.0016 0.9779
3.6788 3.7077 -2.0016 0.9779
3.5434 3.8372 -2.0016 0.9779
3.2592 4.0814 -2.0016 0.9779
2.9582 4.3045 -2.0016 0.9779
2.6420 4.5055 -2.0016 0.9779
2.4787 4.5974 -2.0016 0.9779
2.1427 4.7633 -2.0016 0.9779
1.9705 4.8371 -2.0016 0.9779
1.7957 4.9046 -2.0016 0.9779
1.4395 5.0207 -2.0016 0.9779
1.2585 5.0692 -2.0016 0.9779
1.0759 5.1110 -2.0016 0.9779
0.8918 5.1463 -2.0016 0.9779
0.7067 5.1750 -2.0016 0.9779
0.5206 5.1970 -2.0016 0.9779
0.3339 5.2124 -2.0016 0.9779
0.1467 5.2210 -2.0016 0.9779
-0.7872 5.1634 -2.0016 0.9779
-2.0456 4.8058 -2.0016 0.9779
-2.2167 4.7293 -2.0016 0.9779
-2.5500 4.5582 -2.0016 0.9779
-2.7119 4.4638 -2.0016 0.9779
-2.8702 4.3637 -2.0016 0.9779
-3.0249 4.2579 -2.0016 0.9779
-3.3224 4.0301 -2.0016 0.9779
-3.4648 3.9084 -2.0016 0.9779
-3.8646 3.5136 -2.0016 0.9779
-3.9881 3.3727 -2.0016 0.9779
-4.2196 3.0781 -2.0016 0.9779
-4.5259 2.6070 -2.0016 0.9779
-4.7011 2.2758 -2.0016 0.9779
-4.8522 1.9330 -2.0016 0.9779
-4.9184 1.7577 -2.0016 0.9779
-4.9783 1.5801 -2.0016 0.9779
-5.0317 1.4006 -2.0016 0.9779
-5.1192 1.0362 -2.0016 0.9779
-5.1531 0.8519 -2.0016 0.9779
-3.2298 -3.1867 -1.8570 0.9806
-3.1134 -3.3005 -1.8570 0.9806
-2.9930 -3.4101 -1.8570 0.9806
-2.7408 -3.6159 -1.8570 0.9806
-2.6094 -3.7118 -1.8570 0.9806
-2.3366 -3.8894 -1.8570 0.9806
-1.6051 -4.2438 -1.8570 0.9806
-1.4519 -4.2987 -1.8570 0.9806
-1.2968 -4.3480 -1.8570 0.9806
-1.1400 -4.3917 -1.8570 0.9806
-0.9817 -4.4298 -1.8570 0.9806
-0.1756 -4.5338 -1.8570 0.9806
0.1499 -4.5348 -1.8570 0.9806
0.4746 -4.5124 -1.8570 0.9806
0.6362 -4.4924 -1.8570 0.9806
0.7969 -4.4667 -1.8570 0.9806
1.1151 -4.3981 -1.8570 0.9806
1.2721 -4.3553 -1.8570 0.9806
1.4275 -4.3068 -1.8570 0.9806
1.5810 -4.2529 -1.8570 0.9806
1.7326 -4.1934 -1.8570 0.9806
1.8819 -4.1286 -1.8570 0.9806
2.1730 -3.9830 -1.8570 0.9806
2.3145 -3.9025 -1.8570 0.9806
2.4530 -3.8170 -1.8570 0.9806
3.0946 -3.3181 -1.8570 0.9806
3.2117 -3.2050 -1.8570 0.9806
3.3245 -3.0877 -1.8570 0.9806
3.7004 -3.1974 -2.0016 0.9791
3.9202 -2.9239 -2.0016 0.9791
4.0225 -2.7814 -2.0016 0.9791
4.1197 -2.6354 -2.0016 0.9791
4.2116 -2.4859 -2.0016 0.9791
4.2980 -2.3332 -2.0016 0.9791
4.4542 -2.0191 -2.0016 0.9791
4.5238 -1.8580 -2.0016 0.9791
4.6454 -1.5290 -2.0016 0.9791
4.6972 -1.3614 -2.0016 0.9791
4.7430 -1.1920 -2.0016 0.9791
4.8163 -0.8489 -2.0016 0.9791
4.8436 -0.6756 -2.0016 0.9791
4.8647 -0.5014 -2.0016 0.9791
4.8796 -0.3266 -2.0016 0.9791
4.8882 -0.1514 -2.0016 0.9791
4.8904 0.0240 -2.0016 0.9791
4.8761 0.3746 -2.0016 0.9791
4.8596 0.5492 -2.0016 0.9791
4.7724 1.0681 -2.0016 0.9791
4.6836 1.4075 -2.0016 0.9791
4.5053 1.9024 -2.0016 0.9791
4.4342 2.0628 -2.0016 0.9791
4.1869 2.5272 -2.0016 0.9791
3.9950 2.8209 -2.0016 0.9791
3.8912 2.9623 -2.0016 0.9791
3.7825 3.1000 -2.0016 0.9791
3.5505 3.3632 -2.0016 0.9791
2.7502 4.0439 -2.0016 0.9791
2.6034 4.1400 -2.0016 0.9791
2.2999 4.3160 -2.0016 0.9791
2.1436 4.3957 -2.0016 0.9791
1.8229 4.5381 -2.0016 0.9791
1.6590 4.6005 -2.0016 0.9791
0.9840 4.7905 -2.0016 0.9791
0.6380 4.8487 -2.0016 0.9791
0.1135 4.8892 -2.0016 0.9791
-0.0619 4.8901 -2.0016 0.9791
-0.4123 4.8731 -2.0016 0.9791
-0.7606 4.8310 -2.0016 0.9791
-0.9334 4.8006 -2.0016 0.9791
-1.1050 4.7640 -2.0016 0.9791
-1.2752 4.7213 -2.0016 0.9791
-1.6104 4.6178 -2.0016 0.9791
-1.7750 4.5570 -2.0016 0.9791
-1.9373 4.4904 -2.0016 0.9791
-2.8517 3.9730 -2.0016 0.9791
-3.6345 3.2722 -2.0016 0.9791
-3.9650 2.8628 -2.0016 0.9791
-4.0651 2.7188 -2.0016 0.9791
-4.2496 2.4203 -2.0016 0.9791
-4.4122 2.1095 -2.0016 0.9791
-4.4850 1.9498 -2.0016 0.9791
-4.6132 1.6233 -2.0016 0.9791
-4.6685 1.4568 -2.0016 0.9791
-2.0399 0.3270 -0.8455 0.9911
-1.9577 0.1712 -0.8043 0.9915
-1.9134 0.0296 -0.7832 0.9918
-1.9448 -0.1096 -0.7972 0.9916
-1.9515 -0.2513 -0.8053 0.9915
-2.0814 -0.3443 -0.8635 0.9909
-4.7932 -0.9706 -2.0016 0.9791
-4.7553 -1.1419 -2.0016 0.9791
-4.7113 -1.3117 -2.0016 0.9791
-4.6051 -1.6461 -2.0016 0.9791
-4.5431 -1.8102 -2.0016 0.9791
-4.4753 -1.9720 -2.0016 0.9791
-4.4017 -2.1313 -2.0016 0.9791
-4.2067 -2.2266 -1.9480 0.9796
-3.8477 -2.4046 -1.8570 0.9806
-3.7590 -2.5410 -1.8570 0.9806
-3.6654 -2.6742 -1.8570 0.9806
-3.4643 -2.9301 -1.8570 0.9806
-3.3569 -3.0525 -1.8570 0.9806
-2.6274 -3.6991 -1.8570 0.9806
-2.4931 -3.7909 -1.8570 0.9806
-2.3555 -3.8779 -1.8570 0.9806
-2.2149 -3.9599 -1.8570 0.9806
-1.7767 -4.1749 -1.8570 0.9806
-1.3179 -4.3416 -1.8570 0.9806
-0.1977 -4.5329 -1.8570 0.9806
-0.0350 -4.5371 -1.8570 0.9806
0.2904 -4.5279 -1.8570 0.9806
1.5603 -4.2605 -1.8570 0.9806
1.7121 -4.2018 -1.8570 0.9806
2.0038 -4.0579 -1.8523 0.9806
2.4343 -3.8289 -1.8570 0.9806
2.5701 -3.7392 -1.8570 0.9806
2.7025 -3.6446 -1.8570 0.9806
2.9569 -3.4414 -1.8570 0.9806
3.3094 -3.1039 -1.8570 0.9806
3.6848 -3.2155 -2.0016 0.9791
3.7978 -3.0812 -2.0016 0.9791
3.9058 -2.9430 -2.0016 0.9791
4.1068 -2.6554 -2.0016 0.9791
4.1994 -2.5064 -2.0016 0.9791
4.2866 -2.3542 -2.0016 0.9791
4.3683 -2.1989 -2.0016 0.9791
4.4443 -2.0408 -2.0016 0.9791
4.5147 -1.8801 -2.0016 0.9791
4.5792 -1.7170 -2.0016 0.9791
4.6378 -1.5516 -2.0016 0.9791
4.6905 -1.3842 -2.0016 0.9791
4.7371 -1.2151 -2.0016 0.9791
4.8121 -0.8724 -2.0016 0.9791
4.8403 -0.6992 -2.0016 0.9791
4.8779 -0.3504 -2.0016 0.9791
4.8905 0.0002 -2.0016 0.9791
4.8873 0.1756 -2.0016 0.9791
4.8779 0.3508 -2.0016 0.9791
4.8622 0.5255 -2.0016 0.9791
4.8120 0.8727 -2.0016 0.9791
4.5791 1.7173 -2.0016 0.9791
4.5145 1.8804 -2.0016 0.9791
4.3681 2.1992 -2.0016 0.9791
4.2864 2.3545 -2.0016 0.9791
4.1992 2.5067 -2.0016 0.9791
3.6846 3.2157 -2.0016 0.9791
3.4446 3.4716 -2.0016 0.9791
3.0517 3.8215 -2.0016 0.9791
2.6235 4.1272 -2.0016 0.9791
2.4738 4.2187 -2.0016 0.9791
2.0063 4.4600 -2.0016 0.9791
1.6814 4.5924 -2.0016 0.9791
1.3479 4.7011 -2.0016 0.9791
1.0074 4.7856 -2.0016 0.9791
0.4875 4.8661 -2.0016 0.9791
0.3126 4.8805 -2.0016 0.9791
-0.0381 4.8904 -2.0016 0.9791
-0.7371 4.8346 -2.0016 0.9791
-1.2521 4.7275 -2.0016 0.9791
-1.7527 4.5656 -2.0016 0.9791
-2.6875 4.0859 -2.0016 0.9791
-2.8323 3.9869 -2.0016 0.9791
-2.9735 3.8827 -2.0016 0.9791
-3.2442 3.6595 -2.0016 0.9791
-3.4982 3.4175 -2.0016 0.9791
-3.7342 3.1580 -2.0016 0.9791
-3.8451 3.0220 -2.0016 0.9791
-3.9510 2.8821 -2.0016 0.9791
-4.2377 2.4410 -2.0016 0.9791
-4.3226 2.2875 -2.0016 0.9791
-4.5433 1.8099 -2.0016 0.9791
-4.6613 1.4795 -2.0016 0.9791
-4.7114 1.3114 -2.0016 0.9791
-2.0808 0.3440 -0.8632 0.9909
-3.1385 -2.8819 -1.8570 0.9816
-2.9238 -3.0995 -1.8570 0.9816
-2.8107 -3.2024 -1.8570 0.9816
-2.6941 -3.3011 -1.8570 0.9816
-2.3239 -3.5714 -1.8570 0.9816
-2.0618 -3.7288 -1.8570 0.9816
-1.9268 -3.8004 -1.8570 0.9816
-1.6493 -3.9287 -1.8570 0.9816
-1.3635 -4.0369 -1.8570 0.9816
-1.2178 -4.0832 -1.8570 0.9816
-0.6213 -4.2154 -1.8570 0.9816
-0.1649 -4.2577 -1.8570 0.9816
-0.0121 -4.2609 -1.8570 0.9816
0.1408 -4.2586 -1.8570 0.9816
0.4457 -4.2375 -1.8570 0.9816
0.5974 -4.2188 -1.8570 0.9816
0.8983 -4.1651 -1.8570 0.9816
1.1946 -4.0900 -1.8570 0.9816
1.3406 -4.0445 -1.8570 0.9816
1.6271 -3.9380 -1.8570 0.9816
1.7673 -3.8771 -1.8570 0.9816
1.9052 -3.8113 -1.8570 0.9816
2.1735 -3.6649 -1.8570 0.9816
2.3036 -3.5845 -1.8570 0.9816
2.5546 -3.4102 -1.8570 0.9816
2.6753 -3.3164 -1.8570 0.9816
2.7925 -3.2183 -1.8570 0.9816
3.0161 -3.0098 -1.8570 0.9816
3.1221 -2.8997 -1.8570 0.9816
3.4751 -3.0027 -2.0016 0.9802
3.5806 -2.8761 -2.0016 0.9802
3.7775 -2.6121 -2.0016 0.9802
3.8688 -2.4749 -2.0016 0.9802
3.9551 -2.3345 -2.0016 0.9802
4.0363 -2.1911 -2.0016 0.9802
4.1123 -2.0450 -2.0016 0.9802
4.3081 -1.5914 -2.0016 0.9802
4.5230 -0.7972 -2.0016 0.9802
4.5486 -0.6345 -2.0016 0.9802
4.5685 -0.4709 -2.0016 0.9802
4.5905 -0.1422 -2.0016 0.9802
4.5792 0.3518 -2.0016 0.9802
4.5636 0.5158 -2.0016 0.9802
4.5422 0.6791 -2.0016 0.9802
4.5149 0.8416 -2.0016 0.9802
4.4429 1.1631 -2.0016 0.9802
4.3481 1.4787 -2.0016 0.9802
4.2309 1.7866 -2.0016 0.9802
4.0920 2.0853 -2.0016 0.9802
3.9319 2.3733 -2.0016 0.9802
3.5521 2.9112 -2.0016 0.9802
2.8483 3.6027 -2.0016 0.9802
2.5827 3.7977 -2.0016 0.9802
2.3038 3.9730 -2.0016 0.9802
2.0130 4.1280 -2.0016 0.9802
1.8637 4.1975 -2.0016 0.9802
1.5580 4.3203 -2.0016 0.9802
1.2442 4.4209 -2.0016 0.9802
1.0849 4.4627 -2.0016 0.9802
0.7621 4.5290 -2.0016 0.9802
0.5992 4.5534 -2.0016 0.9802
0.4355 4.5720 -2.0016 0.9802
0.2712 4.5846 -2.0016 0.9802
0.1066 4.5914 -2.0016 0.9802
-0.0582 4.5923 -2.0016 0.9802
-0.2228 4.5873 -2.0016 0.9802
-0.7143 4.5368 -2.0016 0.9802
-1.0377 4.4739 -2.0016 0.9802
-1.1975 4.4338 -2.0016 0.9802
-1.5123 4.3365 -2.0016 0.9802
-1.6669 4.2795 -2.0016 0.9802
-2.1169 4.0757 -2.0016 0.9802
-2.4037 3.9134 -2.0016 0.9802
-2.8101 3.6326 -2.0016 0.9802
-2.9386 3.5294 -2.0016 0.9802
-3.1841 3.3097 -2.0016 0.9802
-3.3008 3.1933 -2.0016 0.9802
-3.7235 2.6885 -2.0016 0.9802
-3.9067 2.4146 -2.0016 0.9802
-4.0697 2.1283 -2.0016 0.9802
-4.2748 1.6788 -2.0016 0.9802
-1.5594 0.4259 -0.7045 0.9930
-1.5047 0.2969 -0.6684 0.9933
-1.5212 0.1882 -0.6680 0.9933
-1.5280 0.1336 -0.6685 0.9933
-1.5295 0.0786 -0.6674 0.9933
-1.5264 -0.0312 -0.6654 0.9934
-1.5296 -0.0862 -0.6677 0.9933
-1.5274 -0.1412 -0.6685 0.9933
-1.5198 -0.1957 -0.6678 0.9933
-1.5091 -0.3056 -0.6710 0.9933
-1.5383 -0.3694 -0.6895 0.9931
-1.5625 -0.4350 -0.7069 0.9929
-4.1336 -2.0015 -2.0016 0.9802
-3.6133 -2.2581 -1.8570 0.9816
-3.5300 -2.3863 -1.8570 0.9816
-3.4422 -2.5114 -1.8570 0.9816
-3.3499 -2.6332 -1.8570 0.9816
-3.1525 -2.8666 -1.8570 0.9816
-3.0476 -2.9778 -1.8570 0.9816
-2.9389 -3.0852 -1.8570 0.9816
-2.8263 -3.1886 -1.8570 0.9816
-2.3412 -3.5601 -1.8570 0.9816
-1.8080 -3.8583 -1.8570 0.9816
-1.5268 -3.9780 -1.8570 0.9816
-1.3831 -4.0302 -1.8570 0.9816
-0.7925 -4.1866 -1.8570 0.9816
-0.6419 -4.2123 -1.8570 0.9816
-0.3382 -4.2475 -1.8570 0.9816
-0.0329 -4.2608 -1.8570 0.9816
0.1200 -4.2592 -1.8570 0.9816
0.2727 -4.2522 -1.8570 0.9816
0.4250 -4.2397 -1.8570 0.9816
0.7279 -4.1983 -1.8570 0.9816
1.0270 -4.1353 -1.8570 0.9816
1.1746 -4.0958 -1.8570 0.9816
1.3208 -4.0510 -1.8570 0.9816
1.4653 -4.0011 -1.8570 0.9816
1.7483 -3.8857 -1.8570 0.9816
2.0224 -3.7504 -1.8570 0.9816
2.2861 -3.5957 -1.8570 0.9816
2.4136 -3.5114 -1.8570 0.9816
2.5380 -3.4226 -1.8570 0.9816
2.6591 -3.3294 -1.8570 0.9816
3.0013 -3.0245 -1.8570 0.9816
3.4604 -3.0196 -2.0016 0.9802
3.6680 -2.7638 -2.0016 0.9802
3.7648 -2.6304 -2.0016 0.9802
4.1022 -2.0650 -2.0016 0.9802
4.3003 -1.6124 -2.0016 0.9802
4.3554 -1.4571 -2.0016 0.9802
4.4867 -0.9808 -2.0016 0.9802
4.5190 -0.8193 -2.0016 0.9802
4.5455 -0.6566 -2.0016 0.9802
4.5661 -0.4932 -2.0016 0.9802
4.5809 -0.3291 -2.0016 0.9802
4.5897 -0.1646 -2.0016 0.9802
4.5927 0.0002 -2.0016 0.9802
4.5808 0.3294 -2.0016 0.9802
4.5661 0.4935 -2.0016 0.9802
4.5189 0.8196 -2.0016 0.9802
4.4866 0.9812 -2.0016 0.9802
4.4486 1.1415 -2.0016 0.9802
4.4048 1.3003 -2.0016 0.9802
4.3553 1.4574 -2.0016 0.9802
4.3002 1.6127 -2.0016 0.9802
4.1021 2.0653 -2.0016 0.9802
3.9435 2.3541 -2.0016 0.9802
3.4602 3.0199 -2.0016 0.9802
3.2348 3.2602 -2.0016 0.9802
2.8658 3.5888 -2.0016 0.9802
2.3231 3.9618 -2.0016 0.9802
2.1796 4.0425 -2.0016 0.9802
1.7327 4.2533 -2.0016 0.9802
1.4233 4.3665 -2.0016 0.9802
1.2658 4.4148 -2.0016 0.9802
1.1066 4.4574 -2.0016 0.9802
0.7842 4.5252 -2.0016 0.9802
0.6214 4.5504 -2.0016 0.9802
0.1290 4.5909 -2.0016 0.9802
-0.0358 4.5925 -2.0016 0.9802
-0.5289 4.5621 -2.0016 0.9802
-1.6460 4.2876 -2.0016 0.9802
-2.0970 4.0860 -2.0016 0.9802
-2.2422 4.0081 -2.0016 0.9802
-2.3846 3.9251 -2.0016 0.9802
-2.5238 3.8370 -2.0016 0.9802
-2.6598 3.7441 -2.0016 0.9802
-2.7924 3.6462 -2.0016 0.9802
-2.9214 3.5437 -2.0016 0.9802
-3.0466 3.4367 -2.0016 0.9802
-3.3981 3.0895 -2.0016 0.9802
-3.8051 2.5718 -2.0016 0.9802
-3.9796 2.2924 -2.0016 0.9802
-4.0593 2.1482 -2.0016 0.9802
-4.1337 2.0012 -2.0016 0.9802
-4.2029 1.8516 -2.0016 0.9802
-1.5949 0.5700 -0.7382 0.9926
-1.5816 0.5020 -0.7232 0.9928
-1.5625 0.4349 -0.7068 0.9929
-1.5382 0.3693 -0.6894 0.9931
-2.8557 -2.8176 -1.8570 0.9825
-2.6464 -3.0151 -1.8570 0.9825
-2.4234 -3.1971 -1.8570 0.9825
-2.1880 -3.3626 -1.8570 0.9825
-1.8141 -3.5782 -1.8570 0.9825
-1.6846 -3.6409 -1.8570 0.9825
-1.0079 -3.8831 -1.8570 0.9825
-0.8680 -3.9167 -1.8570 0.9825
-0.5850 -3.9689 -1.8570 0.9825
-0.4423 -3.9873 -1.8570 0.9825
-0.2989 -4.0006 -1.8570 0.9825
-0.0114 -4.0117 -1.8570 0.9825
0.1325 -4.0096 -1.8570 0.9825
0.2763 -4.0022 -1.8570 0.9825
0.4196 -3.9897 -1.8570 0.9825
0.5625 -3.9721 -1.8570 0.9825
0.7046 -3.9494 -1.8570 0.9825
1.1248 -3.8509 -1.8570 0.9825
1.3979 -3.7603 -1.8570 0.9825
1.5319 -3.7078 -1.8570 0.9825
1.6639 -3.6504 -1.8570 0.9825
1.7938 -3.5884 -1.8570 0.9825
2.0464 -3.4506 -1.8570 0.9825
2.4052 -3.2108 -1.8570 0.9825
2.5188 -3.1224 -1.8570 0.9825
2.6292 -3.0301 -1.8570 0.9825
2.8397 -2.8338 -1.8570 0.9825
2.9395 -2.7301 -1.8570 0.9825
3.5566 -2.4593 -2.0016 0.9811
3.6426 -2.3302 -2.0016 0.9811
3.9999 -1.6429 -2.0016 0.9811
4.0562 -1.4983 -2.0016 0.9811
4.1532 -1.2037 -2.0016 0.9811
4.1937 -1.0539 -2.0016 0.9811
4.2288 -0.9028 -2.0016 0.9811
4.2585 -0.7506 -2.0016 0.9811
4.3013 -0.4434 -2.0016 0.9811
4.3220 -0.1339 -2.0016 0.9811
4.3205 0.1763 -2.0016 0.9811
4.3114 0.3312 -2.0016 0.9811
4.2967 0.4856 -2.0016 0.9811
4.2766 0.6394 -2.0016 0.9811
4.1831 1.0951 -2.0016 0.9811
4.0939 1.3922 -2.0016 0.9811
4.0413 1.5381 -2.0016 0.9811
3.8527 1.9633 -2.0016 0.9811
3.7798 2.1003 -2.0016 0.9811
3.5323 2.4942 -2.0016 0.9811
3.4406 2.6192 -2.0016 0.9811
3.2439 2.8592 -2.0016 0.9811
3.1393 2.9737 -2.0016 0.9811
3.0306 3.0844 -2.0016 0.9811
2.9180 3.1911 -2.0016 0.9811
2.8017 3.2937 -2.0016 0.9811
2.6817 3.3921 -2.0016 0.9811
2.5584 3.4861 -2.0016 0.9811
2.4317 3.5756 -2.0016 0.9811
2.3019 3.6605 -2.0016 0.9811
2.0335 3.8161 -2.0016 0.9811
1.7547 3.9521 -2.0016 0.9811
1.6118 4.0125 -2.0016 0.9811
1.4669 4.0677 -2.0016 0.9811
1.3200 4.1177 -2.0016 0.9811
1.1715 4.1624 -2.0016 0.9811
1.0214 4.2017 -2.0016 0.9811
0.4100 4.3046 -2.0016 0.9811
-0.2098 4.3190 -2.0016 0.9811
-0.6725 4.2715 -2.0016 0.9811
-0.9770 4.2123 -2.0016 0.9811
-1.2765 4.1314 -2.0016 0.9811
-1.4239 4.0829 -2.0016 0.9811
-1.5694 4.0292 -2.0016 0.9811
-1.8542 3.9064 -2.0016 0.9811
-1.9931 3.8373 -2.0016 0.9811
-2.1295 3.7634 -2.0016 0.9811
-2.5214 3.5129 -2.0016 0.9811
-2.6458 3.4202 -2.0016 0.9811
-3.4127 2.6554 -2.0016 0.9811
-3.5058 2.5313 -2.0016 0.9811
-3.7574 2.1400 -2.0016 0.9811
-3.8318 2.0039 -2.0016 0.9811
-1.3215 0.5745 -0.6670 0.9937
-1.3301 0.5224 -0.6615 0.9937
-1.3226 0.2120 -0.6200 0.9941
-1.3377 0.1170 -0.6216 0.9941
-1.3384 0.0688 -0.6203 0.9941
-1.3385 -0.0754 -0.6206 0.9941
-1.3309 -0.1714 -0.6212 0.9941
-1.3056 -0.3135 -0.6215 0.9941
-1.3196 -0.3674 -0.6341 0.9940
-1.3297 -0.4222 -0.6458 0.9939
-1.3292 -0.5296 -0.6623 0.9937
-1.3199 -0.5816 -0.6676 0.9937
-3.8919 -1.8844 -2.0016 0.9811
-3.7468 -2.1586 -2.0016 0.9811
-3.3260 -2.2483 -1.8583 0.9825
-3.2409 -2.3645 -1.8570 0.9825
-3.0630 -2.5908 -1.8570 0.9825
-2.4390 -3.1852 -1.8570 0.9825
-2.2043 -3.3519 -1.8570 0.9825
-1.9584 -3.5013 -1.8570 0.9825
-1.8315 -3.5693 -1.8570 0.9825
-1.5709 -3.6914 -1.8570 0.9825
-1.3022 -3.7945 -1.8570 0.9825
-0.7462 -3.9417 -1.8570 0.9825
-0.0309 -4.0116 -1.8570 0.9825
0.1130 -4.0102 -1.8570 0.9825
0.4002 -3.9917 -1.8570 0.9825
0.6853 -3.9528 -1.8570 0.9825
0.8267 -3.9257 -1.8570 0.9825
0.9669 -3.8935 -1.8570 0.9825
1.5138 -3.7152 -1.8570 0.9825
1.6461 -3.6585 -1.8570 0.9825
1.7763 -3.5971 -1.8570 0.9825
2.1524 -3.3855 -1.8570 0.9825
2.2724 -3.3061 -1.8570 0.9825
2.5036 -3.1347 -1.8570 0.9825
3.2581 -2.8431 -2.0016 0.9811
3.3579 -2.7244 -2.0016 0.9811
3.4535 -2.6022 -2.0016 0.9811
3.7130 -2.2161 -2.0016 0.9811
3.7901 -2.0815 -2.0016 0.9811
3.9918 -1.6623 -2.0016 0.9811
4.0489 -1.5181 -2.0016 0.9811
4.1885 -1.0744 -2.0016 0.9811
4.2548 -0.7713 -2.0016 0.9811
4.2991 -0.4643 -2.0016 0.9811
4.3130 -0.3098 -2.0016 0.9811
4.3213 -0.1549 -2.0016 0.9811
4.3213 0.1553 -2.0016 0.9811
4.3130 0.3102 -2.0016 0.9811
4.2991 0.4647 -2.0016 0.9811
4.2547 0.7717 -2.0016 0.9811
4.1884 1.0747 -2.0016 0.9811
4.1472 1.2242 -2.0016 0.9811
4.0487 1.5184 -2.0016 0.9811
3.9295 1.8048 -2.0016 0.9811
3.7900 2.0818 -2.0016 0.9811
3.5444 2.4769 -2.0016 0.9811
3.3577 2.7246 -2.0016 0.9811
3.1538 2.9583 -2.0016 0.9811
2.9336 3.1768 -2.0016 0.9811
2.6983 3.3789 -2.0016 0.9811
2.1873 3.7301 -2.0016 0.9811
2.0521 3.8061 -2.0016 0.9811
1.6314 4.0046 -2.0016 0.9811
1.4867 4.0605 -2.0016 0.9811
1.0419 4.1967 -2.0016 0.9811
0.8907 4.2314 -2.0016 0.9811
0.7384 4.2606 -2.0016 0.9811
0.4310 4.3026 -2.0016 0.9811
0.1214 4.3224 -2.0016 0.9811
-0.0337 4.3240 -2.0016 0.9811
-0.1887 4.3200 -2.0016 0.9811
-0.4980 4.2953 -2.0016 0.9811
-0.6517 4.2747 -2.0016 0.9811
-0.9565 4.2170 -2.0016 0.9811
-1.4039 4.0898 -2.0016 0.9811
-1.6935 3.9787 -2.0016 0.9811
-1.9744 3.8470 -2.0016 0.9811
-2.1111 3.7737 -2.0016 0.9811
-2.7506 3.3365 -2.0016 0.9811
-2.9827 3.1307 -2.0016 0.9811
-3.0930 3.0217 -2.0016 0.9811
-3.1994 2.9089 -2.0016 0.9811
-3.3017 2.7922 -2.0016 0.9811
-3.3997 2.6720 -2.0016 0.9811
-3.4934 2.5483 -2.0016 0.9811
-3.5826 2.4214 -2.0016 0.9811
-3.6671 2.2913 -2.0016 0.9811
-1.3199 0.5815 -0.6676 0.9937
-1.3297 0.4220 -0.6457 0.9939
-1.3056 0.3134 -0.6215 0.9941
-2.7884 -2.5605 -1.8570 0.9833
-2.2868 -3.0169 -1.8570 0.9833
-2.0647 -3.1731 -1.8570 0.9833
-1.9495 -3.2451 -1.8570 0.9833
-1.8319 -3.3130 -1.8570 0.9833
-1.7119 -3.3766 -1.8570 0.9833
-1.5897 -3.4358 -1.8570 0.9833
-1.4654 -3.4906 -1.8570 0.9833
-1.3393 -3.5409 -1.8570 0.9833
-1.2114 -3.5867 -1.8570 0.9833
-0.8191 -3.6960 -1.8570 0.9833
-0.6860 -3.7230 -1.8570 0.9833
-0.5520 -3.7452 -1.8570 0.9833
-0.4173 -3.7626 -1.8570 0.9833
-0.2821 -3.7752 -1.8570 0.9833
0.1251 -3.7836 -1.8570 0.9833
0.2607 -3.7767 -1.8570 0.9833
0.3960 -3.7649 -1.8570 0.9833
0.5308 -3.7483 -1.8570 0.9833
1.1910 -3.5935 -1.8570 0.9833
1.3192 -3.5484 -1.8570 0.9833
1.4456 -3.4988 -1.8570 0.9833
1.5702 -3.4447 -1.8570 0.9833
1.8131 -3.3233 -1.8570 0.9833
2.0467 -3.1848 -1.8570 0.9833
2.1596 -3.1093 -1.8570 0.9833
2.2697 -3.0299 -1.8570 0.9833
2.3769 -2.9465 -1.8570 0.9833
2.4811 -2.8593 -1.8570 0.9833
2.5820 -2.7685 -1.8570 0.9833
2.6797 -2.6741 -1.8570 0.9833
2.7739 -2.5763 -1.8570 0.9833
3.0875 -2.6678 -2.0016 0.9820
3.1812 -2.5554 -2.0016 0.9820
3.2708 -2.4396 -2.0016 0.9820
3.4373 -2.1989 -2.0016 0.9820
3.5140 -2.0742 -2.0016 0.9820
3.5861 -1.9468 -2.0016 0.9820
3.6536 -1.8169 -2.0016 0.9820
3.7165 -1.6847 -2.0016 0.9820
3.8277 -1.4139 -2.0016 0.9820
3.9574 -0.9946 -2.0016 0.9820
3.9905 -0.8520 -2.0016 0.9820
4.0185 -0.7083 -2.0016 0.9820
4.0413 -0.5637 -2.0016 0.9820
4.0590 -0.4184 -2.0016 0.9820
4.0546 0.4583 -2.0016 0.9820
3.9272 1.0281 -1.9913 0.9821
3.8868 1.1680 -1.9908 0.9821
3.8136 1.4515 -2.0016 0.9820
3.6997 1.7211 -2.0016 0.9820
3.5668 1.9819 -2.0016 0.9820
3.4934 2.1086 -2.0016 0.9820
3.1560 2.5865 -2.0016 0.9820
3.0612 2.6981 -2.0016 0.9820
2.9624 2.8061 -2.0016 0.9820
2.8598 2.9106 -2.0016 0.9820
2.7536 3.0113 -2.0016 0.9820
2.2947 3.3741 -2.0016 0.9820
1.9189 3.6011 -2.0016 0.9820
1.7885 3.6676 -2.0016 0.9820
1.3842 3.8385 -2.0016 0.9820
1.2456 3.8857 -2.0016 0.9820
1.1055 3.9279 -2.0016 0.9820
0.9639 3.9650 -2.0016 0.9820
0.8210 3.9970 -2.0016 0.9820
0.6771 4.0239 -2.0016 0.9820
-0.1980 4.0757 -2.0016 0.9820
-0.4897 4.0510 -2.0016 0.9820
-0.6346 4.0308 -2.0016 0.9820
-1.0640 3.9393 -2.0016 0.9820
-1.2046 3.8986 -2.0016 0.9820
-1.3436 3.8529 -2.0016 0.9820
-1.4810 3.8022 -2.0016 0.9820
-1.6164 3.7467 -2.0016 0.9820
-1.7497 3.6863 -2.0016 0.9820
-2.1356 3.4770 -2.0016 0.9820
-2.2589 3.3981 -2.0016 0.9820
-2.3794 3.3149 -2.0016 0.9820
-2.6109 3.1358 -2.0016 0.9820
-2.7217 3.0401 -2.0016 0.9820
-3.3083 2.3886 -2.0016 0.9820
-3.3918 2.2684 -2.0016 0.9820
-3.4710 2.1453 -2.0016 0.9820
-1.1215 0.5865 -0.6208 0.9944
-1.1446 0.4976 -0.6122 0.9945
-1.1587 0.3616 -0.5954 0.9946
-1.1643 0.2735 -0.5866 0.9947
-1.1942 0.1044 -0.5880 0.9947
-1.1963 -0.0244 -0.5869 0.9947
-1.1961 -0.0674 -0.5876 0.9947
-1.1937 -0.1103 -0.5880 0.9947
-1.1588 -0.3226 -0.5900 0.9947
-1.1510 -0.4586 -0.6077 0.9945
-1.1435 -0.5039 -0.6129 0.9944
-1.1335 -0.5488 -0.6177 0.9944
-1.1187 -0.5921 -0.6209 0.9944
-3.5356 -2.0370 -2.0016 0.9820
-3.4603 -2.1625 -2.0016 0.9820
-3.0727 -2.2418 -1.8657 0.9832
-2.7077 -2.6457 -1.8570 0.9833
-1.6064 -3.4280 -1.8570 0.9833
-1.3565 -3.5343 -1.8570 0.9833
-0.9690 -3.6596 -1.8570 0.9833
-0.7042 -3.7196 -1.8570 0.9833
-0.4357 -3.7606 -1.8570 0.9833
-0.3005 -3.7738 -1.8570 0.9833
0.2423 -3.7780 -1.8570 0.9833
0.3776 -3.7668 -1.8570 0.9833
0.9124 -3.6741 -1.8570 0.9833
1.1735 -3.5992 -1.8570 0.9833
1.3018 -3.5548 -1.8570 0.9833
1.4285 -3.5058 -1.8570 0.9833
1.6762 -3.3944 -1.8570 0.9833
1.7969 -3.3321 -1.8570 0.9833
2.2549 -3.0409 -1.8570 0.9833
2.5685 -2.7811 -1.8570 0.9833
2.6666 -2.6872 -1.8570 0.9833
2.7613 -2.5898 -1.8570 0.9833
3.1687 -2.5709 -2.0016 0.9820
3.5766 -1.9642 -2.0016 0.9820
3.7669 -1.5687 -2.0016 0.9820
3.8696 -1.2946 -2.0016 0.9820
3.9525 -1.0138 -2.0016 0.9820
4.0150 -0.7279 -2.0016 0.9820
4.0569 -0.4382 -2.0016 0.9820
4.0700 -0.2924 -2.0016 0.9820
4.0778 -0.1462 -2.0016 0.9820
4.0805 0.0002 -2.0016 0.9820
3.9661 0.8673 -1.9914 0.9821
3.9306 1.0086 -1.9905 0.9821
3.8696 1.2949 -2.0016 0.9820
3.8206 1.4328 -2.0016 0.9820
3.7668 1.5690 -2.0016 0.9820
3.7081 1.7031 -2.0016 0.9820
3.5764 1.9645 -2.0016 0.9820
3.3447 2.3373 -2.0016 0.9820
2.9761 2.7916 -2.0016 0.9820
2.6590 3.0952 -2.0016 0.9820
2.4302 3.2778 -2.0016 0.9820
2.3111 3.3629 -2.0016 0.9820
2.1890 3.4436 -2.0016 0.9820
2.0641 3.5199 -2.0016 0.9820
1.9365 3.5917 -2.0016 0.9820
1.8064 3.6588 -2.0016 0.9820
1.6740 3.7213 -2.0016 0.9820
1.5394 3.7789 -2.0016 0.9820
1.2646 3.8796 -2.0016 0.9820
0.5521 4.0429 -2.0016 0.9820
0.4067 4.0601 -2.0016 0.9820
0.1146 4.0788 -2.0016 0.9820
-0.3242 4.0676 -2.0016 0.9820
-0.4699 4.0533 -2.0016 0.9820
-0.9026 3.9794 -2.0016 0.9820
-1.8632 3.6303 -2.0016 0.9820
-1.9922 3.5611 -2.0016 0.9820
-2.1186 3.4873 -2.0016 0.9820
-2.2423 3.4091 -2.0016 0.9820
-2.5956 3.1485 -2.0016 0.9820
-2.7068 3.0534 -2.0016 0.9820
-3.0192 2.7450 -2.0016 0.9820
-3.2082 2.5214 -2.0016 0.9820
-3.2966 2.4047 -2.0016 0.9820
-3.4605 2.1622 -2.0016 0.9820
-1.1510 0.4585 -0.6077 0.9945
-1.1586 0.3677 -0.5962 0.9946
-1.1626 0.2791 -0.5865 0.9947
-1.1736 0.2376 -0.5874 0.9947
-1.1825 0.1955 -0.5879 0.9947
-2.6366 -2.4211 -1.8570 0.9840
-2.5480 -2.5141 -1.8570 0.9840
-2.4562 -2.6038 -1.8570 0.9840
-2.1623 -2.8526 -1.8570 0.9840
-1.8433 -3.0684 -1.8570 0.9840
-1.7321 -3.1325 -1.8570 0.9840
-1.6186 -3.1926 -1.8570 0.9840
-1.5031 -3.2486 -1.8570 0.9840
-1.3856 -3.3005 -1.8570 0.9840
-1.2663 -3.3480 -1.8570 0.9840
-1.0230 -3.4302 -1.8570 0.9840
-0.8993 -3.4647 -1.8570 0.9840
-0.6486 -3.5203 -1.8570 0.9840
-0.5219 -3.5413 -1.8570 0.9840
-0.2667 -3.5696 -1.8570 0.9840
-0.0101 -3.5795 -1.8570 0.9840
0.1182 -3.5776 -1.8570 0.9840
0.2465 -3.5710 -1.8570 0.9840
0.5019 -3.5442 -1.8570 0.9840
0.7547 -3.4991 -1.8570 0.9840
0.8797 -3.4697 -1.8570 0.9840
1.1262 -3.3977 -1.8570 0.9840
1.2473 -3.3552 -1.8570 0.9840
1.6005 -3.2018 -1.8570 0.9840
1.9352 -3.0113 -1.8570 0.9840
2.0419 -2.9400 -1.8570 0.9840
2.1461 -2.8648 -1.8570 0.9840
2.3459 -2.7036 -1.8570 0.9840
2.9194 -2.5225 -2.0016 0.9828
3.2501 -2.0791 -2.0016 0.9828
3.3226 -1.9612 -2.0016 0.9828
3.3908 -1.8407 -2.0016 0.9828
3.5140 -1.5929 -2.0016 0.9828
3.5689 -1.4658 -2.0016 0.9828
3.6192 -1.3369 -2.0016 0.9828
3.7419 -0.9404 -2.0016 0.9828
3.7996 -0.6697 -2.0016 0.9828
3.8379 -0.3956 -2.0016 0.9828
3.8564 -0.1194 -2.0016 0.9828
3.8582 0.0190 -2.0016 0.9828
3.8550 0.1573 -2.0016 0.9828
3.8469 0.2955 -2.0016 0.9828
3.8338 0.4333 -2.0016 0.9828
3.8158 0.5705 -2.0016 0.9828
3.7929 0.7070 -2.0016 0.9828
3.7483 0.8389 -1.9927 0.9828
3.5543 1.5009 -2.0016 0.9828
3.4982 1.6274 -2.0016 0.9828
3.3031 1.9937 -2.0016 0.9828
3.1517 2.2254 -2.0016 0.9828
2.9841 2.4456 -2.0016 0.9828
2.8944 2.5511 -2.0016 0.9828
2.3928 3.0266 -2.0016 0.9828
2.1697 3.1903 -2.0016 0.9828
2.0538 3.2661 -2.0016 0.9828
1.8144 3.4050 -2.0016 0.9828
1.6911 3.4678 -2.0016 0.9828
1.5656 3.5263 -2.0016 0.9828
1.4382 3.5802 -2.0016 0.9828
1.3088 3.6294 -2.0016 0.9828
1.0452 3.7139 -2.0016 0.9828
0.9114 3.7490 -2.0016 0.9828
0.7763 3.7793 -2.0016 0.9828
0.6402 3.8047 -2.0016 0.9828
0.5034 3.8252 -2.0016 0.9828
0.3658 3.8408 -2.0016 0.9828
0.2278 3.8515 -2.0016 0.9828
-0.7364 3.7873 -2.0016 0.9828
-1.0060 3.7247 -2.0016 0.9828
-1.1390 3.6863 -2.0016 0.9828
-1.2705 3.6430 -2.0016 0.9828
-1.6544 3.4855 -2.0016 0.9828
-1.7784 3.4239 -2.0016 0.9828
-1.9001 3.3579 -2.0016 0.9828
-2.0193 3.2876 -2.0016 0.9828
-2.1359 3.2130 -2.0016 0.9828
-2.3608 3.0517 -2.0016 0.9828
-2.4687 2.9650 -2.0016 0.9828
-2.5735 2.8746 -2.0016 0.9828
-2.6749 2.7804 -2.0016 0.9828
-2.8674 2.5815 -2.0016 0.9828
-2.9581 2.4770 -2.0016 0.9828
-1.0020 0.5707 -0.5982 0.9948
-1.0476 0.4554 -0.5926 0.9949
-1.0646 0.2907 -0.5725 0.9950
-1.1004 0.1361 -0.5752 0.9950
-1.1044 0.0966 -0.5751 0.9950
