ply
format ascii 1.0
element vertex 1570
property float32 x
property float32 y
property float32 z
property float32 I
end_header
3.8098 13.4504 -1.3421 0.9454
1.6901 12.7036 -1.2304 0.9498
1.2142 12.5668 -1.2121 0.9505
-0.1372 11.9344 -1.1458 0.9532
-0.9811 11.7392 -1.1310 0.9538
-2.3122 11.9456 -1.1681 0.9523
-2.7658 11.9667 -1.1791 0.9518
-3.6858 11.9568 -1.2012 0.9510
-4.1803 12.0098 -1.2208 0.9502
-4.5821 11.7825 -1.2137 0.9505
-5.1809 12.0243 -1.2570 0.9487
-5.6157 11.8431 -1.2583 0.9487
-6.7680 11.9685 -1.3200 0.9462
-7.6150 11.4590 -1.3209 0.9462
-8.2264 11.4630 -1.3546 0.9449
-9.5522 11.4717 -1.4332 0.9418
-10.2765 11.4764 -1.4790 0.9400
-11.8789 11.4869 -1.5864 0.9358
-13.7428 11.4992 -1.7203 0.9305
-16.0180 10.7001 -1.8494 0.9255
-16.3922 10.1176 -1.8494 0.9255
-17.0765 8.9143 -1.8494 0.9255
-17.3858 8.2949 -1.8494 0.9255
-18.9856 8.2343 -1.9868 0.9202
-20.1182 5.4699 -2.0016 0.9196
-20.6943 2.5313 -2.0016 0.9196
-20.8465 0.2896 -2.0016 0.9196
-20.7566 -1.9553 -2.0016 0.9196
-20.5626 -3.4410 -2.0016 0.9196
-20.0729 -5.6337 -2.0016 0.9196
-19.6165 -7.0608 -2.0016 0.9196
-19.3501 -7.7611 -2.0016 0.9196
-19.0587 -8.4513 -2.0016 0.9196
-18.4026 -9.7983 -2.0016 0.9196
-18.0386 -10.4532 -2.0016 0.9196
-17.6513 -11.0946 -2.0016 0.9196
-17.2413 -11.7217 -2.0016 0.9196
-16.8090 -12.3336 -2.0016 0.9196
-16.3550 -12.9296 -2.0016 0.9196
-15.8798 -13.5089 -2.0016 0.9196
-15.3842 -14.0708 -2.0016 0.9196
-14.8686 -14.6145 -2.0016 0.9196
-14.3339 -15.1393 -2.0016 0.9196
-13.7807 -15.6446 -2.0016 0.9196
-12.3023 -16.1742 -1.9509 0.9216
-9.9442 -16.4980 -1.8494 0.9255
-8.1111 -17.4723 -1.8494 0.9255
-6.8353 -18.0097 -1.8494 0.9255
-6.1838 -18.2437 -1.8494 0.9255
-4.8576 -18.6406 -1.8494 0.9255
-4.1847 -18.8031 -1.8494 0.9255
-3.5063 -18.9414 -1.8494 0.9255
-1.4477 -19.2087 -1.8494 0.9255
-0.7565 -19.2483 -1.8494 0.9255
-0.0644 -19.2630 -1.8494 0.9255
0.5598 -17.1685 -1.6491 0.9333
1.3192 -19.2180 -1.8494 0.9255
2.0089 -19.1581 -1.8494 0.9255
4.0588 -18.8307 -1.8494 0.9255
4.7328 -18.6727 -1.8494 0.9255
5.6925 -19.4898 -1.9493 0.9216
6.5605 -19.7894 -2.0016 0.9196
7.2673 -19.5409 -2.0016 0.9196
7.9648 -19.2671 -2.0016 0.9196
8.6519 -18.9685 -2.0016 0.9196
9.3279 -18.6454 -2.0016 0.9196
2.2850 -4.1846 -0.4578 0.9810
10.6429 -17.9274 -2.0016 0.9196
11.2802 -17.5333 -2.0016 0.9196
11.9029 -17.1167 -2.0016 0.9196
14.2323 -15.2349 -2.0016 0.9196
14.7705 -14.7136 -2.0016 0.9196
15.7891 -13.6149 -2.0016 0.9196
16.2681 -13.0387 -2.0016 0.9196
16.7261 -12.4458 -2.0016 0.9196
17.1625 -11.8367 -2.0016 0.9196
18.3366 -9.9211 -2.0016 0.9196
18.6813 -9.2559 -2.0016 0.9196
19.5688 -7.1918 -2.0016 0.9196
19.8146 -6.4841 -2.0016 0.9196
20.0348 -5.7679 -2.0016 0.9196
20.2291 -5.0443 -2.0016 0.9196
20.3972 -4.3141 -2.0016 0.9196
20.8049 -1.3475 -2.0016 0.9196
20.8480 0.1502 -2.0016 0.9196
20.7833 1.6470 -2.0016 0.9196
20.7107 2.3928 -2.0016 0.9196
20.6114 3.1354 -2.0016 0.9196
20.4854 3.8740 -2.0016 0.9196
20.3330 4.6075 -2.0016 0.9196
20.1543 5.3352 -2.0016 0.9196
19.7191 6.7688 -2.0016 0.9196
19.4631 7.4730 -2.0016 0.9196
19.1821 8.1675 -2.0016 0.9196
18.5460 9.5241 -2.0016 0.9196
18.1917 10.1843 -2.0016 0.9196
16.5451 12.6854 -2.0016 0.9196
16.0786 13.2718 -2.0016 0.9196
15.0839 14.3922 -2.0016 0.9196
14.5570 14.9249 -2.0016 0.9196
12.8664 16.4047 -2.0016 0.9196
12.2687 16.8564 -2.0016 0.9196
10.3835 18.0788 -2.0016 0.9196
7.1019 17.9062 -1.8494 0.9255
5.7976 18.3700 -1.8494 0.9255
3.7061 13.4036 -1.3351 0.9457
3.1186 13.0931 -1.2922 0.9474
2.0826 12.7474 -1.2400 0.9494
1.1073 12.2608 -1.1819 0.9517
0.6563 12.1126 -1.1646 0.9524
0.2189 12.0344 -1.1556 0.9528
-1.4863 11.7739 -1.1393 0.9534
-1.9389 11.8999 -1.1575 0.9527
-2.3805 11.8991 -1.1650 0.9524
-2.8627 12.0422 -1.1883 0.9515
-3.2869 11.9075 -1.1859 0.9516
-3.7037 11.7532 -1.1831 0.9517
-4.6930 11.8478 -1.2234 0.9501
-5.2062 11.8780 -1.2451 0.9492
-5.7353 11.9026 -1.2684 0.9483
-6.3104 11.9756 -1.2996 0.9471
-6.8611 11.9580 -1.3236 0.9461
-7.7192 11.4597 -1.3265 0.9460
-10.4073 11.4773 -1.4874 0.9396
-13.9202 11.5003 -1.7335 0.9300
-15.6934 11.1708 -1.8494 0.9255
-17.1319 8.8073 -1.8494 0.9255
-16.7124 2.1504 -2.0016 0.9344
-16.8237 0.9446 -2.0016 0.9344
-16.8467 0.3395 -2.0016 0.9344
-16.8481 -0.2661 -2.0016 0.9344
-16.8276 -0.8713 -2.0016 0.9344
-16.7854 -1.4754 -2.0016 0.9344
-16.7216 -2.0776 -2.0016 0.9344
-16.6361 -2.6771 -2.0016 0.9344
-16.5292 -3.2731 -2.0016 0.9344
-16.2514 -4.4517 -2.0016 0.9344
-16.0810 -5.0328 -2.0016 0.9344
-15.8898 -5.6074 -2.0016 0.9344
-15.4460 -6.7341 -2.0016 0.9344
-14.9225 -7.8260 -2.0016 0.9344
-12.9024 -10.8377 -2.0016 0.9344
-11.2167 -12.5744 -2.0016 0.9344
-8.7886 -14.3767 -2.0016 0.9344
-7.7334 -14.9707 -2.0016 0.9344
-7.1905 -15.2389 -2.0016 0.9344
-5.5003 -15.8995 -1.9985 0.9345
-4.3212 -16.1673 -1.9879 0.9348
-3.0987 -16.1732 -1.9561 0.9358
-2.5003 -16.1754 -1.9442 0.9362
-1.9083 -16.1772 -1.9349 0.9365
-1.3213 -16.1811 -1.9285 0.9367
1.0291 -16.5024 -1.9641 0.9356
2.2497 -16.6682 -1.9979 0.9345
2.8524 -16.6070 -2.0016 0.9344
3.4473 -16.4938 -2.0016 0.9344
4.0377 -16.3592 -2.0016 0.9344
5.2021 -16.0270 -2.0016 0.9344
5.7747 -15.8297 -2.0016 0.9344
7.4446 -15.1164 -2.0016 0.9344
2.2537 -4.1892 -0.5651 0.9810
8.5110 -14.5427 -2.0016 0.9344
9.5334 -13.8939 -2.0016 0.9344
10.5066 -13.1734 -2.0016 0.9344
12.6920 -11.0834 -2.0016 0.9344
13.0820 -10.6202 -2.0016 0.9344
13.4552 -10.1433 -2.0016 0.9344
13.8110 -9.6532 -2.0016 0.9344
14.1489 -9.1508 -2.0016 0.9344
14.4686 -8.6365 -2.0016 0.9344
14.7695 -8.1110 -2.0016 0.9344
15.0514 -7.5750 -2.0016 0.9344
16.3237 -4.1790 -2.0016 0.9344
16.4633 -3.5898 -2.0016 0.9344
16.7540 -1.7973 -2.0016 0.9344
16.8398 -0.5895 -2.0016 0.9344
16.8501 0.0160 -2.0016 0.9344
16.8387 0.6214 -2.0016 0.9344
16.7506 1.8291 -2.0016 0.9344
16.6740 2.4298 -2.0016 0.9344
16.5760 3.0274 -2.0016 0.9344
16.4565 3.6211 -2.0016 0.9344
15.9713 5.3709 -2.0016 0.9344
15.7680 5.9413 -2.0016 0.9344
15.3006 7.0584 -2.0016 0.9344
15.0371 7.6036 -2.0016 0.9344
14.7541 8.1390 -2.0016 0.9344
14.1315 9.1776 -2.0016 0.9344
13.7926 9.6795 -2.0016 0.9344
13.4359 10.1688 -2.0016 0.9344
13.0618 10.6450 -2.0016 0.9344
12.6709 11.1075 -2.0016 0.9344
11.4021 12.4065 -2.0016 0.9344
10.4816 13.1933 -2.0016 0.9344
9.5070 13.9120 -2.0016 0.9344
9.0010 14.2446 -2.0016 0.9344
6.8520 13.9800 -1.8494 0.9392
5.3078 14.6361 -1.8494 0.9392
3.2285 13.1881 -1.6128 0.9468
2.1573 12.7050 -1.5308 0.9494
1.6604 12.4808 -1.4956 0.9505
0.7291 12.0608 -1.4353 0.9525
-0.1342 11.6713 -1.3865 0.9541
-0.9540 11.4153 -1.3607 0.9549
-1.3689 11.4181 -1.3660 0.9547
-1.7875 11.4208 -1.3731 0.9545
-4.4482 11.4382 -1.4578 0.9518
-4.9298 11.4414 -1.4799 0.9511
-6.4756 11.4515 -1.5627 0.9484
-7.0326 11.4552 -1.5967 0.9473
-8.8706 11.4672 -1.7221 0.9433
-9.5522 11.4717 -1.7732 0.9416
-10.2765 11.4764 -1.8299 0.9398
-11.1919 10.8227 -1.8494 0.9392
-11.5736 10.4135 -1.8494 0.9392
-12.2916 9.5555 -1.8494 0.9392
-13.3768 8.2565 -1.8673 0.9386
-14.9357 7.7967 -2.0013 0.9344
-15.2079 7.2559 -2.0016 0.9344
-15.4588 6.7047 -2.0016 0.9344
-15.9004 5.5772 -2.0016 0.9344
-16.5354 3.2417 -2.0016 0.9344
-16.6412 2.6455 -2.0016 0.9344
-16.7255 2.0458 -2.0016 0.9344
-16.8292 0.8394 -2.0016 0.9344
-16.8461 -0.3715 -2.0016 0.9344
-16.8218 -0.9765 -2.0016 0.9344
-16.7759 -1.5803 -2.0016 0.9344
-16.7083 -2.1821 -2.0016 0.9344
-16.6191 -2.7811 -2.0016 0.9344
-16.5084 -3.3764 -2.0016 0.9344
-16.3764 -3.9674 -2.0016 0.9344
-16.2233 -4.5533 -2.0016 0.9344
-15.8544 -5.7067 -2.0016 0.9344
-15.6391 -6.2726 -2.0016 0.9344
-15.4036 -6.8305 -2.0016 0.9344
-14.5791 -8.4485 -2.0016 0.9344
-13.2184 -10.4500 -2.0016 0.9344
-12.8344 -10.9182 -2.0016 0.9344
-12.0172 -11.8118 -2.0016 0.9344
-11.5849 -12.2359 -2.0016 0.9344
-11.1378 -12.6443 -2.0016 0.9344
-10.6763 -13.0363 -2.0016 0.9344
-10.2010 -13.4115 -2.0016 0.9344
-9.2114 -14.1095 -2.0016 0.9344
-8.1743 -14.7346 -2.0016 0.9344
-7.0950 -15.2836 -2.0016 0.9344
-5.9774 -15.7493 -2.0010 0.9344
-5.3994 -15.9296 -1.9980 0.9345
-4.8169 -16.0912 -1.9952 0.9346
-3.5989 -16.1710 -1.9679 0.9354
-2.9940 -16.1736 -1.9538 0.9359
-2.3968 -16.1758 -1.9424 0.9363
-1.2197 -16.1840 -1.9279 0.9367
0.5343 -16.3849 -1.9473 0.9361
1.1346 -16.5289 -1.9680 0.9354
3.5503 -16.4719 -2.0016 0.9344
4.7242 -16.1744 -2.0016 0.9344
5.8736 -15.7933 -2.0016 0.9344
7.5390 -15.0696 -2.0016 0.9344
2.2850 -4.1846 -0.5664 0.9810
8.6018 -14.4892 -2.0016 0.9344
9.1168 -14.1708 -2.0016 0.9344
10.1110 -13.4794 -2.0016 0.9344
11.0530 -12.7185 -2.0016 0.9344
11.5028 -12.3131 -2.0016 0.9344
11.9378 -11.8918 -2.0016 0.9344
12.7610 -11.0038 -2.0016 0.9344
13.5183 -10.0589 -2.0016 0.9344
14.2059 -9.0621 -2.0016 0.9344
14.8200 -8.0184 -2.0016 0.9344
15.0985 -7.4808 -2.0016 0.9344
15.8159 -5.8126 -2.0016 0.9344
16.0145 -5.2405 -2.0016 0.9344
16.3495 -4.0769 -2.0016 0.9344
16.6001 -2.8922 -2.0016 0.9344
16.8432 -0.4842 -2.0016 0.9344
16.8345 0.7267 -2.0016 0.9344
16.7975 1.3312 -2.0016 0.9344
16.7388 1.9339 -2.0016 0.9344
16.5567 3.1310 -2.0016 0.9344
16.4335 3.7239 -2.0016 0.9344
16.1236 4.8945 -2.0016 0.9344
14.7029 8.2311 -2.0016 0.9344
14.0738 9.2658 -2.0016 0.9344
12.9950 10.7265 -2.0016 0.9344
12.1911 11.6321 -2.0016 0.9344
11.7652 12.0626 -2.0016 0.9344
9.9158 13.6237 -2.0016 0.9344
8.9117 14.3006 -2.0016 0.9344
7.2639 13.7705 -1.8494 0.9392
5.7399 14.4722 -1.8494 0.9392
5.2161 14.6691 -1.8494 0.9392
4.6857 14.8470 -1.8494 0.9392
3.1306 13.1440 -1.6050 0.9470
2.0692 12.6652 -1.5244 0.9496
1.5762 12.4429 -1.4898 0.9507
0.6515 12.0258 -1.4306 0.9526
-0.2067 11.6387 -1.3827 0.9542
-0.6134 11.4131 -1.3577 0.9550
-1.4414 11.4185 -1.3671 0.9547
-1.8609 11.4213 -1.3746 0.9545
-2.2855 11.4241 -1.3839 0.9542
-2.7164 11.4269 -1.3952 0.9538
-3.1550 11.4298 -1.4085 0.9534
-3.6027 11.4327 -1.4239 0.9529
-4.0608 11.4357 -1.4415 0.9523
-4.5310 11.4388 -1.4615 0.9516
-5.5150 11.4452 -1.5091 0.9501
-8.9864 11.4680 -1.7307 0.9430
-10.4073 11.4773 -1.8404 0.9395
-10.8658 11.1501 -1.8494 0.9392
-12.3511 9.4784 -1.8494 0.9392
-12.6837 9.0285 -1.8494 0.9392
-13.5603 8.2531 -1.8856 0.9381
-14.6465 8.2079 -1.9944 0.9346
-14.0109 1.8028 -2.0016 0.9445
-14.0666 1.2982 -2.0016 0.9445
-14.1235 0.2846 -2.0016 0.9445
-14.1246 -0.2231 -2.0016 0.9445
-14.1075 -0.7305 -2.0016 0.9445
-14.0721 -1.2369 -2.0016 0.9445
-14.0186 -1.7417 -2.0016 0.9445
-13.8573 -2.7440 -2.0016 0.9445
-12.5078 -3.9145 -1.8570 0.9484
-12.3590 -4.3614 -1.8570 0.9484
-12.5104 -6.5609 -2.0016 0.9445
-12.0069 -7.4425 -2.0016 0.9445
-11.7317 -7.8691 -2.0016 0.9445
-10.8168 -9.0858 -2.0016 0.9445
-10.1363 -9.8392 -2.0016 0.9445
-9.7762 -10.1971 -2.0016 0.9445
-9.4035 -10.5418 -2.0016 0.9445
-8.6222 -11.1899 -2.0016 0.9445
-8.2145 -11.4925 -2.0016 0.9445
-7.7963 -11.7802 -2.0016 0.9445
-7.3679 -12.0527 -2.0016 0.9445
-6.9301 -12.3097 -2.0016 0.9445
-6.4833 -12.5508 -2.0016 0.9445
-5.5652 -12.9840 -2.0016 0.9445
-5.0951 -13.1756 -2.0016 0.9445
-4.6184 -13.3501 -2.0016 0.9445
-4.1357 -13.5075 -2.0016 0.9445
-3.1550 -13.7696 -2.0016 0.9445
-1.6549 -14.0291 -2.0016 0.9445
-1.1497 -14.0795 -2.0016 0.9445
-0.6431 -14.1118 -2.0016 0.9445
0.8792 -14.0990 -2.0016 0.9445
1.3853 -14.0583 -2.0016 0.9445
1.8895 -13.9995 -2.0016 0.9445
2.3913 -13.9225 -2.0016 0.9445
3.3850 -13.7148 -2.0016 0.9445
4.3612 -13.4363 -2.0016 0.9445
5.7818 -12.8890 -2.0016 0.9445
7.5687 -11.9277 -2.0016 0.9445
8.8083 -11.0440 -2.0016 0.9445
9.5787 -10.3829 -2.0016 0.9445
10.6404 -9.2918 -2.0016 0.9445
10.9674 -8.9035 -2.0016 0.9445
11.5785 -8.0928 -2.0016 0.9445
11.8618 -7.6716 -2.0016 0.9445
12.6185 -6.3506 -2.0016 0.9445
13.6850 -3.5035 -2.0016 0.9445
13.8021 -3.0095 -2.0016 0.9445
13.9013 -2.5117 -2.0016 0.9445
13.9826 -2.0105 -2.0016 0.9445
14.0458 -1.5068 -2.0016 0.9445
14.1264 0.0134 -2.0016 0.9445
14.0890 1.0279 -2.0016 0.9445
13.9788 2.0371 -2.0016 0.9445
13.7964 3.0357 -2.0016 0.9445
13.6784 3.5295 -2.0016 0.9445
13.5427 4.0187 -2.0016 0.9445
13.3896 4.5027 -2.0016 0.9445
13.0316 5.4527 -2.0016 0.9445
12.3692 6.8234 -2.0016 0.9445
12.1160 7.2634 -2.0016 0.9445
11.8472 7.6941 -2.0016 0.9445
11.5631 8.1148 -2.0016 0.9445
10.6227 9.3120 -2.0016 0.9445
10.2813 9.6877 -2.0016 0.9445
9.1791 10.7378 -2.0016 0.9445
8.7873 11.0607 -2.0016 0.9445
5.7444 11.7202 -1.8494 0.9486
5.3195 11.9190 -1.8494 0.9486
4.0060 12.4222 -1.8494 0.9486
3.5571 12.5582 -1.8494 0.9486
3.1036 12.6779 -1.8494 0.9486
1.6604 12.4808 -1.7840 0.9504
0.2900 11.8627 -1.6813 0.9532
-0.5418 11.4126 -1.6189 0.9549
-0.9540 11.4153 -1.6231 0.9548
-2.2112 11.4236 -1.6486 0.9541
-3.9803 11.4352 -1.7156 0.9523
-5.9412 11.4480 -1.8275 0.9492
-7.2241 10.8707 -1.8494 0.9486
-7.6100 10.6041 -1.8494 0.9486
-8.7070 9.7237 -1.8494 0.9486
-9.0507 9.4045 -1.8494 0.9486
-10.0102 8.3760 -1.8494 0.9486
-10.6118 8.2496 -1.9045 0.9471
-11.4135 8.2324 -1.9940 0.9447
-12.2798 6.9829 -2.0016 0.9445
-12.7496 6.0830 -2.0016 0.9445
-12.9600 5.6209 -2.0016 0.9445
-13.4896 4.1937 -2.0016 0.9445
-13.6315 3.7063 -2.0016 0.9445
-13.9512 2.2178 -2.0016 0.9445
-14.0745 1.2102 -2.0016 0.9445
-14.1230 -0.3114 -2.0016 0.9445
-14.1027 -0.8187 -2.0016 0.9445
-13.9327 -2.3315 -2.0016 0.9445
-13.8399 -2.8306 -2.0016 0.9445
-12.7375 -3.0858 -1.8570 0.9484
-12.6184 -3.5415 -1.8570 0.9484
-12.4830 -3.9927 -1.8570 0.9484
-12.1640 -4.8788 -1.8570 0.9484
-11.9809 -5.3128 -1.8570 0.9484
-12.4691 -6.6390 -2.0016 0.9445
-11.9601 -7.5174 -2.0016 0.9445
-11.3893 -8.3569 -2.0016 0.9445
-10.7597 -9.1533 -2.0016 0.9445
-9.7123 -10.2580 -2.0016 0.9445
-8.9505 -10.9290 -2.0016 0.9445
-8.5520 -11.2436 -2.0016 0.9445
-7.2924 -12.0986 -2.0016 0.9445
-5.9482 -12.8131 -2.0016 0.9445
-5.4839 -13.0185 -2.0016 0.9445
-3.0688 -13.7890 -2.0016 0.9445
-2.0706 -13.9738 -2.0016 0.9445
-1.5671 -14.0392 -2.0016 0.9445
-0.0473 -14.1263 -2.0016 0.9445
1.9770 -13.9874 -2.0016 0.9445
2.4783 -13.9073 -2.0016 0.9445
3.9605 -13.5598 -2.0016 0.9445
4.9241 -13.2404 -2.0016 0.9445
5.3967 -13.0549 -2.0016 0.9445
2.2850 -4.1846 -0.6755 0.9809
7.2113 -12.1471 -2.0016 0.9445
7.6431 -11.8801 -2.0016 0.9445
8.0651 -11.5978 -2.0016 0.9445
8.4766 -11.3005 -2.0016 0.9445
10.3599 -9.6035 -2.0016 0.9445
10.6983 -9.2251 -2.0016 0.9445
11.3332 -8.4329 -2.0016 0.9445
11.6289 -8.0203 -2.0016 0.9445
11.9095 -7.5972 -2.0016 0.9445
12.1748 -7.1644 -2.0016 0.9445
12.4244 -6.7223 -2.0016 0.9445
12.8751 -5.8127 -2.0016 0.9445
13.0756 -5.3463 -2.0016 0.9445
13.2593 -4.8730 -2.0016 0.9445
13.4258 -4.3934 -2.0016 0.9445
13.8207 -2.9231 -2.0016 0.9445
13.9949 -1.9230 -2.0016 0.9445
14.0969 -0.9130 -2.0016 0.9445
14.1206 -0.4059 -2.0016 0.9445
14.0823 1.1160 -2.0016 0.9445
14.0331 1.6213 -2.0016 0.9445
13.9657 2.1245 -2.0016 0.9445
13.8804 2.6249 -2.0016 0.9445
13.7771 3.1219 -2.0016 0.9445
13.1877 5.0635 -2.0016 0.9445
12.9973 5.5341 -2.0016 0.9445
12.3263 6.9006 -2.0016 0.9445
12.0704 7.3391 -2.0016 0.9445
11.7989 7.7680 -2.0016 0.9445
11.5121 8.1870 -2.0016 0.9445
8.7180 11.1154 -2.0016 0.9445
8.3129 11.4215 -2.0016 0.9445
7.4699 11.9870 -2.0012 0.9445
4.8120 12.1328 -1.8494 0.9486
3.4785 12.5802 -1.8494 0.9486
2.5660 12.7975 -1.8494 0.9486
2.0692 12.6652 -1.8183 0.9495
-0.2067 11.6387 -1.6493 0.9541
-0.6134 11.4131 -1.6195 0.9549
-1.0260 11.4158 -1.6240 0.9548
-1.1033 8.7404 -1.2482 0.9650
-3.1550 11.4298 -1.6800 0.9532
-3.6027 11.4327 -1.6984 0.9527
-4.0608 11.4357 -1.7194 0.9522
-4.5310 11.4388 -1.7433 0.9515
-5.0151 11.4420 -1.7701 0.9508
-6.0328 11.4486 -1.8336 0.9491
-6.4957 11.3211 -1.8494 0.9486
-8.4145 9.9778 -1.8494 0.9486
-10.0624 8.3132 -1.8494 0.9486
-10.7463 8.2468 -1.9193 0.9467
-11.4713 8.1655 -1.9951 0.9447
-11.7955 7.7732 -2.0016 0.9445
-12.0672 7.3443 -2.0016 0.9445
-12.5635 6.4587 -2.0016 0.9445
-12.1308 0.6811 -2.0016 0.9519
-12.1484 -0.1919 -2.0016 0.9519
-12.1336 -0.6283 -2.0016 0.9519
-11.2924 -2.2361 -1.8964 0.9544
-10.9717 -2.5855 -1.8570 0.9553
-10.8717 -2.9781 -1.8570 0.9553
-10.4881 -4.1307 -1.8570 0.9553
-10.3329 -4.5049 -1.8570 0.9553
-10.1644 -4.8733 -1.8570 0.9553
-9.9827 -5.2353 -1.8570 0.9553
-10.3269 -6.4011 -2.0016 0.9519
-10.0902 -6.7681 -2.0016 0.9519
-9.0165 -8.1438 -2.0016 0.9519
-8.7181 -8.4625 -2.0016 0.9519
-8.4084 -8.7703 -2.0016 0.9519
-7.7568 -9.3515 -2.0016 0.9519
-7.0652 -9.8845 -2.0016 0.9519
-6.7054 -10.1320 -2.0016 0.9519
-5.1847 -10.9881 -2.0016 0.9519
-4.7866 -11.1673 -2.0016 0.9519
-3.9722 -11.4822 -2.0016 0.9519
-3.5570 -11.6175 -2.0016 0.9519
-2.2862 -11.9328 -2.0016 0.9519
-1.8560 -12.0073 -2.0016 0.9519
0.3200 -12.1457 -2.0016 0.9519
0.7562 -12.1263 -2.0016 0.9519
1.1914 -12.0913 -2.0016 0.9519
1.6251 -12.0407 -2.0016 0.9519
2.0567 -11.9745 -2.0016 0.9519
3.3334 -11.6837 -2.0016 0.9519
4.1639 -11.4141 -2.0016 0.9519
5.3679 -10.8998 -2.0016 0.9519
2.2536 -4.1892 -0.7836 0.9809
6.5097 -10.2588 -2.0016 0.9519
7.5758 -9.4987 -2.0016 0.9519
8.2385 -8.9301 -2.0016 0.9519
9.1516 -7.9917 -2.0016 0.9519
9.9584 -6.9605 -2.0016 0.9519
10.2021 -6.5982 -2.0016 0.9519
10.4326 -6.2274 -2.0016 0.9519
10.6496 -5.8485 -2.0016 0.9519
11.0422 -5.0685 -2.0016 0.9519
11.2172 -4.6685 -2.0016 0.9519
11.3777 -4.2624 -2.0016 0.9519
11.5235 -3.8509 -2.0016 0.9519
11.6544 -3.4343 -2.0016 0.9519
11.7703 -3.0133 -2.0016 0.9519
11.9563 -2.1602 -2.0016 0.9519
12.0806 -1.2960 -2.0016 0.9519
12.1193 -0.8611 -2.0016 0.9519
12.1424 -0.4250 -2.0016 0.9519
12.1499 0.0115 -2.0016 0.9519
12.0781 1.3189 -2.0016 0.9519
11.8660 2.6110 -2.0016 0.9519
11.7645 3.0357 -2.0016 0.9519
11.6479 3.4564 -2.0016 0.9519
11.0325 5.0895 -2.0016 0.9519
10.8425 5.4826 -2.0016 0.9519
10.6385 5.8687 -2.0016 0.9519
10.4208 6.2471 -2.0016 0.9519
10.1896 6.6176 -2.0016 0.9519
9.9452 6.9794 -2.0016 0.9519
9.6880 7.3323 -2.0016 0.9519
9.1364 8.0091 -2.0016 0.9519
8.5376 8.6446 -2.0016 0.9519
7.8947 9.2354 -2.0016 0.9519
7.5578 9.5131 -2.0016 0.9519
7.2111 9.7785 -2.0016 0.9519
6.8551 10.0313 -2.0016 0.9519
4.9406 10.0803 -1.8494 0.9555
4.2039 10.4091 -1.8494 0.9555
3.4455 10.6842 -1.8494 0.9555
3.0594 10.8011 -1.8494 0.9555
2.6693 10.9040 -1.8494 0.9555
1.0796 11.1740 -1.8494 0.9555
0.2744 11.2226 -1.8494 0.9555
-0.1291 11.2252 -1.8494 0.9555
-0.5323 11.2134 -1.8494 0.9555
-0.9349 11.1870 -1.8494 0.9555
-2.1333 11.0214 -1.8494 0.9555
-2.5280 10.9377 -1.8494 0.9555
-3.3069 10.7279 -1.8494 0.9555
-3.6903 10.6021 -1.8494 0.9555
-4.0689 10.4627 -1.8494 0.9555
-5.1711 9.9641 -1.8494 0.9555
-5.5258 9.7718 -1.8494 0.9555
-5.8733 9.5670 -1.8494 0.9555
-6.5453 9.1204 -1.8494 0.9555
-6.8687 8.8794 -1.8494 0.9555
-7.1834 8.6268 -1.8494 0.9555
-7.4887 8.3631 -1.8494 0.9555
-8.5218 8.2406 -1.9529 0.9531
-9.0074 8.1046 -1.9961 0.9521
-9.3172 7.7961 -2.0013 0.9519
-9.5923 7.4570 -2.0016 0.9519
-10.1031 6.7489 -2.0016 0.9519
-10.3390 6.3815 -2.0016 0.9519
-11.3131 4.4308 -2.0016 0.9519
-11.9992 1.9075 -2.0016 0.9519
-12.0600 1.4751 -2.0016 0.9519
-12.1052 1.0409 -2.0016 0.9519
-12.1348 0.6052 -2.0016 0.9519
-12.1487 0.1688 -2.0016 0.9519
-12.1294 -0.7041 -2.0016 0.9519
-12.0963 -1.1395 -2.0016 0.9519
-12.0476 -1.5734 -2.0016 0.9519
-11.9832 -2.0053 -2.0016 0.9519
-10.9553 -2.6541 -1.8570 0.9553
-10.8529 -3.0460 -1.8570 0.9553
-10.6061 -3.8176 -1.8570 0.9553
-10.4621 -4.1962 -1.8570 0.9553
-10.3046 -4.5694 -1.8570 0.9553
-9.7530 -5.6518 -1.8570 0.9553
-10.0477 -6.8310 -2.0016 0.9519
-9.7958 -7.1877 -2.0016 0.9519
-8.6650 -8.5169 -2.0016 0.9519
-8.3534 -8.8227 -2.0016 0.9519
-7.3554 -9.6704 -2.0016 0.9519
-6.2721 -10.4058 -2.0016 0.9519
-5.8941 -10.6244 -2.0016 0.9519
-5.5086 -10.8294 -2.0016 0.9519
-5.1159 -11.0203 -2.0016 0.9519
-4.7166 -11.1970 -2.0016 0.9519
-3.9003 -11.5068 -2.0016 0.9519
-2.6394 -11.8597 -2.0016 0.9519
-2.2116 -11.9469 -2.0016 0.9519
-1.3479 -12.0749 -2.0016 0.9519
-0.9131 -12.1155 -2.0016 0.9519
-0.0406 -12.1498 -2.0016 0.9519
0.3960 -12.1434 -2.0016 0.9519
0.8320 -12.1214 -2.0016 0.9519
1.7004 -12.0303 -2.0016 0.9519
2.5600 -11.8771 -2.0016 0.9519
3.4064 -11.6626 -2.0016 0.9519
3.8232 -11.5327 -2.0016 0.9519
4.2352 -11.3878 -2.0016 0.9519
5.4360 -10.8660 -2.0016 0.9519
2.2850 -4.1845 -0.7854 0.9809
6.2023 -10.4475 -2.0016 0.9519
7.2906 -9.7194 -2.0016 0.9519
7.6351 -9.4512 -2.0016 0.9519
7.9698 -9.1707 -2.0016 0.9519
8.9104 -8.2598 -2.0016 0.9519
9.2014 -7.9343 -2.0016 0.9519
9.4806 -7.5986 -2.0016 0.9519
9.7475 -7.2530 -2.0016 0.9519
10.0018 -6.8981 -2.0016 0.9519
10.6860 -5.7817 -2.0016 0.9519
10.8869 -5.3940 -2.0016 0.9519
11.0736 -4.9994 -2.0016 0.9519
11.2461 -4.5983 -2.0016 0.9519
11.5473 -3.7787 -2.0016 0.9519
11.6756 -3.3614 -2.0016 0.9519
11.8869 -2.5142 -2.0016 0.9519
11.9696 -2.0854 -2.0016 0.9519
12.1449 -0.3491 -2.0016 0.9519
12.1386 0.5240 -2.0016 0.9519
12.0117 1.8272 -2.0016 0.9519
11.9383 2.2577 -2.0016 0.9519
11.8494 2.6851 -2.0016 0.9519
11.7453 3.1092 -2.0016 0.9519
11.6260 3.5292 -2.0016 0.9519
11.4917 3.9447 -2.0016 0.9519
11.1787 4.7598 -2.0016 0.9519
11.0005 5.1584 -2.0016 0.9519
10.8080 5.5503 -2.0016 0.9519
10.3815 6.3122 -2.0016 0.9519
9.9014 7.0415 -2.0016 0.9519
9.6420 7.3927 -2.0016 0.9519
9.0861 8.0661 -2.0016 0.9519
8.7904 8.3874 -2.0016 0.9519
8.1654 8.9970 -2.0016 0.9519
7.1498 9.8234 -2.0016 0.9519
6.7922 10.0740 -2.0016 0.9519
6.0361 10.5095 -1.9966 0.9521
5.3083 10.0632 -1.8743 0.9549
4.5110 10.2798 -1.8494 0.9555
4.1388 10.4352 -1.8494 0.9555
3.7611 10.5772 -1.8494 0.9555
2.9918 10.8200 -1.8494 0.9555
2.6011 10.9205 -1.8494 0.9555
2.2070 11.0069 -1.8494 0.9555
1.0097 11.1805 -1.8494 0.9555
0.6073 11.2095 -1.8494 0.9555
0.2042 11.2241 -1.8494 0.9555
-0.1993 11.2242 -1.8494 0.9555
-0.6024 11.2098 -1.8494 0.9555
-1.0049 11.1809 -1.8494 0.9555
-2.2022 11.0079 -1.8494 0.9555
-2.5963 10.9216 -1.8494 0.9555
-3.3740 10.7070 -1.8494 0.9555
-3.7565 10.5788 -1.8494 0.9555
-4.5066 10.2817 -1.8494 0.9555
-5.2333 9.9315 -1.8494 0.9555
-6.2717 9.3107 -1.8494 0.9555
-6.6022 9.0793 -1.8494 0.9555
-7.5409 8.3161 -1.8494 0.9555
-9.3667 7.7385 -2.0016 0.9519
-9.8983 7.0458 -2.0016 0.9519
-10.1451 6.6856 -2.0016 0.9519
-10.8056 5.5550 -2.0016 0.9519
-10.6467 0.2145 -2.0016 0.9576
-10.6475 -0.1682 -2.0016 0.9576
-10.4460 -2.0685 -2.0016 0.9576
-9.6162 -2.2661 -1.8570 0.9606
-9.5286 -2.6102 -1.8570 0.9606
-9.4286 -2.9509 -1.8570 0.9606
-9.3165 -3.2877 -1.8570 0.9606
-9.0564 -3.9483 -1.8570 0.9606
-8.9086 -4.2712 -1.8570 0.9606
-8.7494 -4.5885 -1.8570 0.9606
-8.3973 -5.2050 -1.8570 0.9606
-8.1539 -6.8491 -2.0016 0.9576
-7.0886 -7.9466 -2.0016 0.9576
-6.1923 -8.6633 -2.0016 0.9576
-5.8770 -8.8802 -2.0016 0.9576
-5.2241 -9.2793 -2.0016 0.9576
-4.8873 -9.4611 -2.0016 0.9576
-3.8408 -9.9320 -2.0016 0.9576
-3.4814 -10.0636 -2.0016 0.9576
-3.1176 -10.1822 -2.0016 0.9576
-2.7497 -10.2877 -2.0016 0.9576
-2.3783 -10.3798 -2.0016 0.9576
-2.0038 -10.4586 -2.0016 0.9576
-1.6267 -10.5238 -2.0016 0.9576
0.2805 -10.6451 -2.0016 0.9576
1.8026 -10.4951 -2.0016 0.9576
2.1786 -10.4236 -2.0016 0.9576
3.2876 -10.1286 -2.0016 0.9576
3.6494 -10.0039 -2.0016 0.9576
4.0065 -9.8664 -2.0016 0.9576
4.3585 -9.7160 -2.0016 0.9576
2.2536 -4.1891 -0.8941 0.9808
6.9347 -8.0812 -2.0016 0.9576
8.2675 -6.7116 -2.0016 0.9576
8.7281 -6.1006 -2.0016 0.9576
9.1437 -5.4580 -2.0016 0.9576
9.6780 -4.4423 -2.0016 0.9576
10.0998 -3.3751 -2.0016 0.9576
10.6423 -0.3725 -2.0016 0.9576
10.5375 1.5356 -2.0016 0.9576
10.4000 2.2884 -2.0016 0.9576
10.3111 2.6606 -2.0016 0.9576
10.2088 3.0294 -2.0016 0.9576
9.9649 3.7548 -2.0016 0.9576
9.5030 4.8053 -2.0016 0.9576
9.3242 5.1436 -2.0016 0.9576
8.9307 5.8000 -2.0016 0.9576
8.4911 6.4264 -2.0016 0.9576
7.2058 7.8405 -2.0016 0.9576
6.9194 8.0944 -2.0016 0.9576
6.3202 8.5704 -2.0016 0.9576
6.0082 8.7920 -2.0016 0.9576
5.3612 9.2008 -2.0016 0.9576
4.6693 9.5267 -1.9942 0.9577
3.3544 9.2496 -1.8494 0.9607
3.0198 9.3642 -1.8494 0.9607
1.6471 9.7002 -1.8494 0.9607
0.9462 9.7935 -1.8494 0.9607
0.5937 9.8211 -1.8494 0.9607
0.2405 9.8361 -1.8494 0.9607
-0.1131 9.8384 -1.8494 0.9607
-1.0447 8.7141 -1.6496 0.9649
-2.8984 9.4025 -1.8494 0.9607
-3.5662 9.1701 -1.8494 0.9607
-4.5322 8.7331 -1.8494 0.9607
-4.8431 8.5646 -1.8494 0.9607
-5.1477 8.3850 -1.8494 0.9607
-5.9198 8.2489 -1.9084 0.9595
-6.3739 8.2397 -1.9580 0.9585
-7.0952 7.9237 -1.9992 0.9576
-7.9161 7.1227 -2.0016 0.9576
-8.6366 6.2294 -2.0016 0.9576
-8.8549 5.9151 -2.0016 0.9576
-9.0617 5.5931 -2.0016 0.9576
-9.4400 4.9279 -2.0016 0.9576
-9.7695 4.2372 -2.0016 0.9576
-9.9155 3.8834 -2.0016 0.9576
-10.1688 3.1613 -2.0016 0.9576
-10.4499 2.0487 -2.0016 0.9576
-10.5168 1.6719 -2.0016 0.9576
-10.5700 1.2929 -2.0016 0.9576
-10.6356 0.5305 -2.0016 0.9576
-10.6478 0.1479 -2.0016 0.9576
-10.5591 -1.3790 -2.0016 0.9576
-10.4329 -2.1338 -2.0016 0.9576
-9.6019 -2.3262 -1.8570 0.9606
-9.5121 -2.6697 -1.8570 0.9606
-9.4100 -3.0098 -1.8570 0.9606
-8.8817 -4.3268 -1.8570 0.9606
-8.7205 -4.6432 -1.8570 0.9606
-8.3646 -5.2575 -1.8570 0.9606
-8.1702 -5.5546 -1.8570 0.9606
-8.5855 -6.2997 -2.0016 0.9576
-8.3536 -6.6041 -2.0016 0.9576
-8.1109 -6.9000 -2.0016 0.9576
-6.4467 -8.4757 -2.0016 0.9576
-5.8214 -8.9168 -2.0016 0.9576
-5.4972 -9.1202 -2.0016 0.9576
-4.1339 -9.8137 -2.0016 0.9576
-3.0539 -10.2015 -2.0016 0.9576
-2.6853 -10.3047 -2.0016 0.9576
-2.3133 -10.3945 -2.0016 0.9576
-1.9383 -10.4709 -2.0016 0.9576
-0.8003 -10.6187 -2.0016 0.9576
-0.4182 -10.6406 -2.0016 0.9576
-0.0356 -10.6488 -2.0016 0.9576
1.4903 -10.5440 -2.0016 0.9576
2.2437 -10.4098 -2.0016 0.9576
2.6163 -10.3224 -2.0016 0.9576
3.7119 -9.9809 -2.0016 0.9576
4.4192 -9.6886 -2.0016 0.9576
2.2850 -4.1845 -0.8962 0.9808
5.4361 -9.1568 -2.0016 0.9576
5.7616 -8.9555 -2.0016 0.9576
6.6918 -8.2835 -2.0016 0.9576
6.9852 -8.0377 -2.0016 0.9576
7.2695 -7.7815 -2.0016 0.9576
7.5444 -7.5153 -2.0016 0.9576
7.8095 -7.2394 -2.0016 0.9576
8.3093 -6.6598 -2.0016 0.9576
8.7661 -6.0459 -2.0016 0.9576
8.9777 -5.7270 -2.0016 0.9576
9.5419 -4.7276 -2.0016 0.9576
9.7055 -4.3817 -2.0016 0.9576
9.8567 -4.0302 -2.0016 0.9576
9.9952 -3.6734 -2.0016 0.9576
10.1207 -3.3119 -2.0016 0.9576
10.3324 -2.5765 -2.0016 0.9576
10.4183 -2.2035 -2.0016 0.9576
10.5497 -1.4496 -2.0016 0.9576
10.6266 -0.6882 -2.0016 0.9576
10.6444 -0.3060 -2.0016 0.9576
10.6485 0.0767 -2.0016 0.9576
10.6389 0.4593 -2.0016 0.9576
10.4634 1.9787 -2.0016 0.9576
10.3855 2.3534 -2.0016 0.9576
10.2942 2.7251 -2.0016 0.9576
10.1897 3.0932 -2.0016 0.9576
10.0720 3.4573 -2.0016 0.9576
9.9412 3.8170 -2.0016 0.9576
9.7976 4.1717 -2.0016 0.9576
9.6414 4.5211 -2.0016 0.9576
9.4727 4.8646 -2.0016 0.9576
9.2918 5.2019 -2.0016 0.9576
9.0989 5.5324 -2.0016 0.9576
8.8943 5.8557 -2.0016 0.9576
8.4507 6.4794 -2.0016 0.9576
7.9636 7.0695 -2.0016 0.9576
7.7044 7.3511 -2.0016 0.9576
7.1566 7.8855 -2.0016 0.9576
6.8686 8.1375 -2.0016 0.9576
6.2665 8.6098 -2.0016 0.9576
5.6320 9.0376 -2.0016 0.9576
4.5725 9.4789 -1.9781 0.9581
3.6274 9.1460 -1.8494 0.9607
3.2965 9.2704 -1.8494 0.9607
2.9612 9.3829 -1.8494 0.9607
2.2797 9.5713 -1.8494 0.9607
1.9343 9.6471 -1.8494 0.9607
1.2365 9.7611 -1.8494 0.9607
0.5323 9.8247 -1.8494 0.9607
0.1789 9.8374 -1.8494 0.9607
-1.0964 8.6857 -1.6455 0.9650
-1.5822 9.7110 -1.8494 0.9607
-1.9301 9.6479 -1.8494 0.9607
-2.2756 9.5723 -1.8494 0.9607
-3.2924 9.2719 -1.8494 0.9607
-3.6234 9.1476 -1.8494 0.9607
-4.2710 8.8637 -1.8494 0.9607
-4.8966 8.5341 -1.8494 0.9607
-5.2001 8.3526 -1.8494 0.9607
-5.9971 8.2473 -1.9167 0.9593
-7.7012 7.3545 -2.0016 0.9576
-8.2095 6.7824 -2.0016 0.9576
-8.4479 6.4831 -2.0016 0.9576
-9.2896 5.2059 -2.0016 0.9576
-9.4706 4.8687 -2.0016 0.9576
-9.4541 0.5308 -2.0016 0.9620
-9.4671 0.1908 -2.0016 0.9620
-9.4678 -0.1495 -2.0016 0.9620
-9.3968 -1.1675 -2.0016 0.9620
-9.3488 -1.5044 -2.0016 0.9620
-9.2887 -1.8393 -2.0016 0.9620
-8.4729 -2.3210 -1.8570 0.9647
-8.1739 -3.2193 -1.8570 0.9647
-8.0530 -3.5109 -1.8570 0.9647
-7.9216 -3.7980 -1.8570 0.9647
-7.7800 -4.0802 -1.8570 0.9647
-7.6284 -4.3571 -1.8570 0.9647
-7.2958 -4.8937 -1.8570 0.9647
-7.1153 -5.1527 -1.8570 0.9647
-6.9255 -5.4050 -1.8570 0.9647
-6.7268 -5.6504 -1.8570 0.9647
-7.0270 -6.3469 -2.0016 0.9620
-6.3032 -7.0662 -2.0016 0.9620
-6.0453 -7.2881 -2.0016 0.9620
-5.7795 -7.5007 -2.0016 0.9620
-5.2259 -7.8963 -2.0016 0.9620
-4.6453 -8.2513 -2.0016 0.9620
-4.3458 -8.4129 -2.0016 0.9620
-3.4153 -8.8317 -2.0016 0.9620
-3.0957 -8.9487 -2.0016 0.9620
-2.4451 -9.1479 -2.0016 0.9620
-1.1093 -9.4038 -2.0016 0.9620
-0.7707 -9.4376 -2.0016 0.9620
-0.0909 -9.4686 -2.0016 0.9620
1.9372 -9.2687 -2.0016 0.9620
2.2690 -9.1931 -2.0016 0.9620
2.9234 -9.0065 -2.0016 0.9620
3.8756 -8.6396 -2.0016 0.9620
2.2536 -4.1891 -1.0055 0.9807
5.0733 -7.9952 -2.0016 0.9620
5.6344 -7.6102 -2.0016 0.9620
5.9042 -7.4028 -2.0016 0.9620
6.1664 -7.1859 -2.0016 0.9620
6.4207 -6.9597 -2.0016 0.9620
6.6666 -6.7245 -2.0016 0.9620
7.5612 -5.7001 -2.0016 0.9620
7.9510 -5.1423 -2.0016 0.9620
8.2998 -4.5580 -2.0016 0.9620
8.8672 -3.3219 -2.0016 0.9620
8.9808 -3.0012 -2.0016 0.9620
9.0829 -2.6765 -2.0016 0.9620
9.1732 -2.3484 -2.0016 0.9620
9.2516 -2.0173 -2.0016 0.9620
9.3181 -1.6836 -2.0016 0.9620
9.4150 -1.0100 -2.0016 0.9620
9.4439 0.6890 -2.0016 0.9620
9.4131 1.0279 -2.0016 0.9620
9.3700 1.3655 -2.0016 0.9620
9.3149 1.7013 -2.0016 0.9620
9.1687 2.3659 -2.0016 0.9620
9.0778 2.6938 -2.0016 0.9620
8.9751 3.0182 -2.0016 0.9620
8.8609 3.3388 -2.0016 0.9620
8.7352 3.6550 -2.0016 0.9620
8.4501 4.2729 -2.0016 0.9620
8.1214 4.8687 -2.0016 0.9620
7.9413 5.1574 -2.0016 0.9620
7.3402 5.9820 -2.0016 0.9620
7.1205 6.2419 -2.0016 0.9620
6.8916 6.4937 -2.0016 0.9620
6.6538 6.7372 -2.0016 0.9620
5.6200 7.6209 -2.0016 0.9620
5.0581 8.0048 -2.0016 0.9620
3.5367 8.7570 -1.9963 0.9621
2.7835 8.6313 -1.9170 0.9636
2.0803 8.4981 -1.8494 0.9649
1.7736 8.5673 -1.8494 0.9649
0.8414 8.7084 -1.8494 0.9649
0.5280 8.7330 -1.8494 0.9649
-0.1006 8.7484 -1.8494 0.9649
-0.4149 8.7391 -1.8494 0.9649
-0.7286 8.7186 -1.8494 0.9649
-1.0403 8.6777 -1.8474 0.9649
-1.6626 8.5896 -1.8494 0.9649
-1.9702 8.5243 -1.8494 0.9649
-2.2752 8.4480 -1.8494 0.9649
-2.8769 8.2654 -1.8500 0.9649
-3.9096 8.2451 -1.9288 0.9634
-4.2758 8.2389 -1.9621 0.9628
-5.2366 7.8800 -1.9999 0.9621
-5.5209 7.6930 -2.0016 0.9620
-5.7937 7.4897 -2.0016 0.9620
-6.0591 7.2767 -2.0016 0.9620
-6.5660 6.8227 -2.0016 0.9620
-7.4758 5.8116 -2.0016 0.9620
-7.6798 5.5393 -2.0016 0.9620
-8.0577 4.9734 -2.0016 0.9620
-8.2312 4.6807 -2.0016 0.9620
-8.5461 4.0775 -2.0016 0.9620
-8.6871 3.7678 -2.0016 0.9620
-9.0421 2.8110 -2.0016 0.9620
-9.2207 2.1544 -2.0016 0.9620
-9.3516 1.4866 -2.0016 0.9620
-9.3990 1.1497 -2.0016 0.9620
-9.4342 0.8112 -2.0016 0.9620
-9.4573 0.4717 -2.0016 0.9620
-9.4681 0.1316 -2.0016 0.9620
-9.4531 -0.5488 -2.0016 0.9620
-9.3893 -1.2262 -2.0016 0.9620
-9.3392 -1.5628 -2.0016 0.9620
-9.2770 -1.8974 -2.0016 0.9620
-9.1573 -2.2185 -1.9917 0.9622
-8.4582 -2.3739 -1.8570 0.9647
-8.3675 -2.6763 -1.8570 0.9647
-7.8977 -3.8474 -1.8570 0.9647
-7.2650 -4.9392 -1.8570 0.9647
-6.8916 -5.4482 -1.8570 0.9647
-6.7531 -6.6377 -2.0016 0.9620
-6.5102 -6.8760 -2.0016 0.9620
-6.2589 -7.1055 -2.0016 0.9620
-5.4580 -7.7378 -2.0016 0.9620
-5.1764 -7.9289 -2.0016 0.9620
-4.8882 -8.1098 -2.0016 0.9620
-4.5936 -8.2802 -2.0016 0.9620
-4.2931 -8.4399 -2.0016 0.9620
-3.3600 -8.8528 -2.0016 0.9620
-3.0397 -8.9679 -2.0016 0.9620
-2.3878 -9.1630 -2.0016 0.9620
-1.0505 -9.4106 -2.0016 0.9620
-0.7116 -9.4422 -2.0016 0.9620
-0.3719 -9.4617 -2.0016 0.9620
0.3086 -9.4640 -2.0016 0.9620
0.9875 -9.4174 -2.0016 0.9620
1.3252 -9.3758 -2.0016 0.9620
1.6612 -9.3222 -2.0016 0.9620
1.9951 -9.2564 -2.0016 0.9620
2.6548 -9.0893 -2.0016 0.9620
3.6174 -8.7508 -2.0016 0.9620
4.2366 -8.4684 -2.0016 0.9620
4.8338 -8.1423 -2.0016 0.9620
5.1233 -7.9633 -2.0016 0.9620
5.6819 -7.5748 -2.0016 0.9620
5.9504 -7.3658 -2.0016 0.9620
6.2113 -7.1472 -2.0016 0.9620
7.3887 -5.9220 -2.0016 0.9620
8.1609 -4.8023 -2.0016 0.9620
8.3282 -4.5060 -2.0016 0.9620
8.4847 -4.2038 -2.0016 0.9620
8.6303 -3.8963 -2.0016 0.9620
8.7647 -3.5837 -2.0016 0.9620
9.1877 -2.2910 -2.0016 0.9620
9.2641 -1.9594 -2.0016 0.9620
9.3285 -1.6253 -2.0016 0.9620
9.3809 -1.2890 -2.0016 0.9620
9.4651 -0.2721 -2.0016 0.9620
9.4688 0.0682 -2.0016 0.9620
9.4394 0.7481 -2.0016 0.9620
9.4065 1.0868 -2.0016 0.9620
9.3613 1.4241 -2.0016 0.9620
9.3041 1.7595 -2.0016 0.9620
8.9561 3.0743 -2.0016 0.9620
8.8398 3.3941 -2.0016 0.9620
8.5732 4.0202 -2.0016 0.9620
8.4232 4.3257 -2.0016 0.9620
8.2624 4.6255 -2.0016 0.9620
8.0908 4.9194 -2.0016 0.9620
7.9089 5.2070 -2.0016 0.9620
7.0813 6.2863 -2.0016 0.9620
6.8508 6.5367 -2.0016 0.9620
6.6115 6.7786 -2.0016 0.9620
6.3637 7.0118 -2.0016 0.9620
6.1076 7.2359 -2.0016 0.9620
5.8437 7.4507 -2.0016 0.9620
5.5722 7.6559 -2.0016 0.9620
4.7160 8.2111 -2.0016 0.9620
4.4179 8.3752 -2.0016 0.9620
3.8014 8.6627 -1.9997 0.9621
3.4806 8.7759 -1.9956 0.9621
3.1072 8.7382 -1.9604 0.9628
2.0272 8.5109 -1.8494 0.9649
1.7200 8.5783 -1.8494 0.9649
1.0995 8.6796 -1.8494 0.9649
0.7869 8.7135 -1.8494 0.9649
-0.7831 8.7139 -1.8494 0.9649
-1.0938 8.6650 -1.8461 0.9649
-1.4069 8.6351 -1.8494 0.9649
-3.2698 8.2547 -1.8768 0.9644
-3.6159 8.2497 -1.9040 0.9638
-3.9724 8.2440 -1.9344 0.9633
-4.3408 8.2378 -1.9683 0.9626
-4.9944 8.0222 -1.9975 0.9621
-5.2872 7.8491 -2.0004 0.9620
-5.5689 7.6583 -2.0016 0.9620
-5.8404 7.4533 -2.0016 0.9620
-6.3606 7.0146 -2.0016 0.9620
-7.5120 5.7648 -2.0016 0.9620
-7.7142 5.4912 -2.0016 0.9620
-8.2604 4.6291 -2.0016 0.9620
-8.4214 4.3293 -2.0016 0.9620
-8.4468 1.0869 -2.0016 0.9656
-8.5147 0.1716 -2.0016 0.9656
-8.4837 -0.7457 -2.0016 0.9656
-8.4515 -1.0501 -2.0016 0.9656
-8.4083 -1.3530 -2.0016 0.9656
-8.2894 -1.9534 -2.0016 0.9656
-8.1093 -2.2214 -1.9761 0.9660
-7.5406 -2.3600 -1.8570 0.9681
-6.9974 -3.6697 -1.8570 0.9681
-6.8610 -3.9188 -1.8570 0.9681
-6.7158 -4.1628 -1.8570 0.9681
-6.5619 -4.4014 -1.8570 0.9681
-6.2288 -4.8613 -1.8570 0.9681
-6.0501 -5.0820 -1.8570 0.9681
-5.8636 -5.2961 -1.8570 0.9681
-5.6695 -5.5033 -1.8570 0.9681
-5.8938 -6.1476 -2.0016 0.9656
-5.4371 -6.5550 -2.0016 0.9656
-4.7002 -7.1020 -2.0016 0.9656
-4.4419 -7.2663 -2.0016 0.9656
-3.6342 -7.7021 -2.0016 0.9656
-3.3551 -7.8277 -2.0016 0.9656
-2.7843 -8.0484 -2.0016 0.9656
-0.9977 -8.4578 -2.0016 0.9656
-0.6931 -8.4882 -2.0016 0.9656
0.2243 -8.5135 -2.0016 0.9656
0.5301 -8.4999 -2.0016 0.9656
1.4417 -8.3935 -2.0016 0.9656
2.3365 -8.1897 -2.0016 0.9656
2.6293 -8.1004 -2.0016 0.9656
2.9187 -8.0007 -2.0016 0.9656
3.4857 -7.7704 -2.0016 0.9656
2.1561 -4.3780 -1.1469 0.9801
2.2369 -4.1581 -1.1097 0.9808
4.5630 -7.1909 -2.0016 0.9656
5.3103 -6.6581 -2.0016 0.9656
5.7748 -6.2596 -2.0016 0.9656
5.9959 -6.0480 -2.0016 0.9656
6.6120 -5.3677 -2.0016 0.9656
6.8006 -5.1266 -2.0016 0.9656
6.9804 -4.8790 -2.0016 0.9656
7.1512 -4.6250 -2.0016 0.9656
7.3127 -4.3651 -2.0016 0.9656
7.4649 -4.0995 -2.0016 0.9656
7.6073 -3.8286 -2.0016 0.9656
7.8627 -3.2724 -2.0016 0.9656
8.0774 -2.6993 -2.0016 0.9656
8.1691 -2.4073 -2.0016 0.9656
8.2504 -2.1122 -2.0016 0.9656
8.4950 -0.6036 -2.0016 0.9656
8.5112 -0.2979 -2.0016 0.9656
8.5164 0.0081 -2.0016 0.9656
8.5107 0.3141 -2.0016 0.9656
8.4939 0.6197 -2.0016 0.9656
8.4661 0.9245 -2.0016 0.9656
8.4274 1.2281 -2.0016 0.9656
8.3779 1.5301 -2.0016 0.9656
8.3175 1.8302 -2.0016 0.9656
8.1646 2.4228 -2.0016 0.9656
7.6001 3.8430 -2.0016 0.9656
7.3044 4.3789 -2.0016 0.9656
6.4042 5.6140 -2.0016 0.9656
6.1983 5.8404 -2.0016 0.9656
5.9844 6.0594 -2.0016 0.9656
5.2976 6.6682 -2.0016 0.9656
4.0205 7.5077 -2.0016 0.9656
2.9034 8.0062 -2.0016 0.9656
2.6136 8.1046 -2.0014 0.9656
2.0199 8.2513 -1.9965 0.9657
1.7205 8.3106 -1.9946 0.9657
1.1004 8.2717 -1.9612 0.9663
0.7980 8.2588 -1.9500 0.9665
0.2015 8.2434 -1.9380 0.9667
-0.6888 8.2423 -1.9439 0.9666
-1.2896 8.2393 -1.9600 0.9663
-2.7938 8.0266 -1.9974 0.9657
-3.3690 7.8190 -2.0010 0.9656
-3.6488 7.6952 -2.0016 0.9656
-3.9230 7.5591 -2.0016 0.9656
-4.1921 7.4133 -2.0016 0.9656
-4.9655 6.9191 -2.0016 0.9656
-5.2109 6.7362 -2.0016 0.9656
-5.6812 6.3446 -2.0016 0.9656
-6.9072 4.9820 -2.0016 0.9656
-7.0817 4.7306 -2.0016 0.9656
-7.4032 4.2098 -2.0016 0.9656
-7.5497 3.9411 -2.0016 0.9656
-7.8132 3.3887 -2.0016 0.9656
-8.1325 2.5283 -2.0016 0.9656
-8.2181 2.2344 -2.0016 0.9656
-8.3574 1.6384 -2.0016 0.9656
-8.4108 1.3371 -2.0016 0.9656
-8.4534 1.0340 -2.0016 0.9656
-8.4851 0.7296 -2.0016 0.9656
-8.5059 0.4242 -2.0016 0.9656
-8.5021 -0.4936 -2.0016 0.9656
-8.4789 -0.7987 -2.0016 0.9656
-8.3437 -1.7065 -2.0016 0.9656
-8.2770 -2.0052 -2.0016 0.9656
-7.5257 -2.4071 -1.8570 0.9681
-7.2230 -3.2029 -1.8570 0.9681
-6.8364 -3.9616 -1.8570 0.9681
-6.5342 -4.4423 -1.8570 0.9681
-5.8304 -5.3326 -1.8570 0.9681
-5.6409 -5.5445 -1.8589 0.9680
-5.8553 -6.1843 -2.0016 0.9656
-5.6293 -6.3907 -2.0016 0.9656
-4.9089 -6.9594 -2.0016 0.9656
-4.6557 -7.1312 -2.0016 0.9656
-4.3964 -7.2939 -2.0016 0.9656
-1.5502 -8.3742 -2.0016 0.9656
-1.2483 -8.4245 -2.0016 0.9656
-0.3345 -8.5099 -2.0016 0.9656
0.8881 -8.4700 -2.0016 0.9656
1.4941 -8.3844 -2.0016 0.9656
2.0924 -8.2554 -2.0016 0.9656
2.9686 -7.9823 -2.0016 0.9656
3.2535 -7.8705 -2.0016 0.9656
4.6079 -7.1622 -2.0016 0.9656
4.8622 -6.9920 -2.0016 0.9656
5.8138 -6.2233 -2.0016 0.9656
6.0336 -6.0104 -2.0016 0.9656
6.8325 -5.0840 -2.0016 0.9656
7.0108 -4.8352 -2.0016 0.9656
7.1800 -4.5802 -2.0016 0.9656
8.0941 -2.6487 -2.0016 0.9656
8.1840 -2.3561 -2.0016 0.9656
8.2634 -2.0605 -2.0016 0.9656
8.3321 -1.7623 -2.0016 0.9656
8.3901 -1.4618 -2.0016 0.9656
8.4372 -1.1593 -2.0016 0.9656
8.4734 -0.8554 -2.0016 0.9656
8.5129 -0.2447 -2.0016 0.9656
8.4898 0.6728 -2.0016 0.9656
8.4196 1.2808 -2.0016 0.9656
8.3059 1.8821 -2.0016 0.9656
8.2329 2.1794 -2.0016 0.9656
7.9505 3.0527 -2.0016 0.9656
7.8357 3.3364 -2.0016 0.9656
7.5759 3.8905 -2.0016 0.9656
7.2769 4.4245 -2.0016 0.9656
7.1132 4.6831 -2.0016 0.9656
6.9404 4.9357 -2.0016 0.9656
6.5680 5.4214 -2.0016 0.9656
5.9464 6.0967 -2.0016 0.9656
5.7235 6.3064 -2.0016 0.9656
5.4932 6.5080 -2.0016 0.9656
5.0117 6.8857 -2.0016 0.9656
4.7610 7.0614 -2.0016 0.9656
4.5042 7.2279 -2.0016 0.9656
4.2416 7.3850 -2.0016 0.9656
3.9735 7.5327 -2.0016 0.9656
3.1398 7.9165 -2.0016 0.9656
2.5623 8.1190 -2.0009 0.9656
2.2661 8.1956 -1.9984 0.9657
1.3560 8.2998 -1.9765 0.9660
0.7457 8.2565 -1.9484 0.9665
0.4466 8.2433 -1.9402 0.9666
-0.4430 8.2430 -1.9401 0.9666
-0.7407 8.2421 -1.9449 0.9666
-1.0403 8.2408 -1.9521 0.9664
-2.2585 8.1817 -1.9948 0.9657
-3.6969 7.6722 -2.0016 0.9656
-4.5010 7.2298 -2.0016 0.9656
-4.7579 7.0634 -2.0016 0.9656
-5.0086 6.8879 -2.0016 0.9656
-5.9438 6.0993 -2.0016 0.9656
-6.1591 5.8818 -2.0016 0.9656
-6.5656 5.4243 -2.0016 0.9656
-6.7563 5.1849 -2.0016 0.9656
-6.9382 4.9387 -2.0016 0.9656
-7.1112 4.6862 -2.0016 0.9656
-7.4294 4.1634 -2.0016 0.9656
-7.6978 0.7104 -2.0016 0.9686
-7.7183 0.4334 -2.0016 0.9686
-7.7289 0.1557 -2.0016 0.9686
-7.7202 -0.3997 -2.0016 0.9686
-7.5832 -1.5016 -2.0016 0.9686
-7.4558 -2.0424 -2.0016 0.9686
-7.1235 -2.2294 -1.9326 0.9696
-6.7633 -2.3867 -1.8570 0.9708
-6.6732 -2.6282 -1.8570 0.9708
-6.4672 -3.1007 -1.8570 0.9708
-6.3516 -3.3310 -1.8570 0.9708
-6.0960 -3.7786 -1.8570 0.9708
-5.6540 -4.4126 -1.8570 0.9708
-5.3225 -4.8073 -1.8570 0.9708
-5.1463 -4.9954 -1.8570 0.9708
-4.7742 -5.3521 -1.8570 0.9708
-4.3775 -5.6812 -1.8570 0.9708
-4.4953 -6.2891 -2.0016 0.9686
-4.0320 -6.5957 -2.0016 0.9686
-3.7924 -6.7363 -2.0016 0.9686
-3.5479 -6.8682 -2.0016 0.9686
-3.0455 -7.1053 -2.0016 0.9686
-2.2632 -7.3918 -2.0016 0.9686
-1.7265 -7.5352 -2.0016 0.9686
-1.4546 -7.5924 -2.0016 0.9686
-0.6292 -7.7048 -2.0016 0.9686
0.2036 -7.7278 -2.0016 0.9686
0.4811 -7.7155 -2.0016 0.9686
1.3086 -7.6189 -2.0016 0.9686
1.8524 -7.5053 -2.0016 0.9686
2.6493 -7.2623 -2.0016 0.9686
2.9085 -7.1625 -2.0016 0.9686
2.2119 -4.1116 -1.2088 0.9809
4.1419 -6.5273 -2.0016 0.9686
5.0343 -5.8666 -2.0016 0.9686
5.8228 -5.0848 -2.0016 0.9686
6.6379 -3.9622 -2.0016 0.9686
6.9053 -3.4753 -2.0016 0.9686
7.0257 -3.2249 -2.0016 0.9686
7.2392 -2.7120 -2.0016 0.9686
7.3319 -2.4501 -2.0016 0.9686
7.6864 -0.8246 -2.0016 0.9686
7.7110 -0.5479 -2.0016 0.9686
7.7257 -0.2704 -2.0016 0.9686
7.7305 0.0073 -2.0016 0.9686
7.7100 0.5625 -2.0016 0.9686
7.6848 0.8392 -2.0016 0.9686
7.6497 1.1148 -2.0016 0.9686
7.4853 1.9315 -2.0016 0.9686
6.4832 4.2105 -2.0016 0.9686
6.3277 4.4407 -2.0016 0.9686
6.1641 4.6652 -2.0016 0.9686
5.6263 5.3015 -2.0016 0.9686
5.4322 5.5002 -2.0016 0.9686
5.2310 5.6918 -2.0016 0.9686
4.8087 6.0528 -2.0016 0.9686
4.3616 6.3825 -2.0016 0.9686
4.1295 6.5351 -2.0016 0.9686
3.6495 6.8148 -2.0016 0.9686
3.4022 6.9416 -2.0016 0.9686
3.1506 7.0593 -2.0016 0.9686
2.3727 7.3574 -2.0016 0.9686
1.8382 7.5088 -2.0016 0.9686
1.5672 7.5700 -2.0016 0.9686
1.0195 7.6630 -2.0016 0.9686
0.7435 7.6947 -2.0016 0.9686
-0.0889 7.7300 -2.0016 0.9686
-0.6438 7.7036 -2.0016 0.9686
-1.1954 7.6375 -2.0016 0.9686
-1.4690 7.5896 -2.0016 0.9686
-1.7408 7.5319 -2.0016 0.9686
-2.0103 7.4645 -2.0016 0.9686
-2.2772 7.3875 -2.0016 0.9686
-2.8019 7.2048 -2.0016 0.9686
-3.0590 7.0995 -2.0016 0.9686
-3.3121 6.9850 -2.0016 0.9686
-3.8052 6.7291 -2.0016 0.9686
-4.5072 6.2806 -2.0016 0.9686
-4.7300 6.1145 -2.0016 0.9686
-5.3605 5.5701 -2.0016 0.9686
-5.7467 5.1707 -2.0016 0.9686
-5.9288 4.9609 -2.0016 0.9686
-6.1032 4.7446 -2.0016 0.9686
-6.2697 4.5223 -2.0016 0.9686
-6.4282 4.2941 -2.0016 0.9686
-6.5783 4.0603 -2.0016 0.9686
-6.7200 3.8213 -2.0016 0.9686
-6.8529 3.5774 -2.0016 0.9686
-7.0922 3.0760 -2.0016 0.9686
-7.2948 2.5587 -2.0016 0.9686
-7.3820 2.2949 -2.0016 0.9686
-7.4597 2.0282 -2.0016 0.9686
-7.6346 1.2137 -2.0016 0.9686
-7.6733 0.9386 -2.0016 0.9686
-7.7175 -0.4480 -2.0016 0.9686
-7.5737 -1.5490 -2.0016 0.9686
-6.9892 -2.2355 -1.8999 0.9701
-6.7483 -2.4290 -1.8570 0.9708
-6.6566 -2.6699 -1.8570 0.9708
-6.4477 -3.1410 -1.8570 0.9708
-6.3307 -3.3707 -1.8570 0.9708
-6.2055 -3.5960 -1.8570 0.9708
-6.0722 -3.8166 -1.8570 0.9708
-5.9312 -4.0324 -1.8570 0.9708
-5.7825 -4.2429 -1.8570 0.9708
-5.4628 -4.6472 -1.8570 0.9708
-5.2923 -4.8405 -1.8570 0.9708
-5.1150 -5.0275 -1.8570 0.9708
-4.7407 -5.3819 -1.8570 0.9708
-4.5442 -5.5488 -1.8570 0.9708
-4.6800 -6.1529 -2.0016 0.9686
-4.4559 -6.3171 -2.0016 0.9686
-4.2260 -6.4731 -2.0016 0.9686
-3.9907 -6.6208 -2.0016 0.9686
-3.5049 -6.8903 -2.0016 0.9686
-3.0010 -7.1242 -2.0016 0.9686
-2.7431 -7.2274 -2.0016 0.9686
-2.2169 -7.4058 -2.0016 0.9686
-1.9494 -7.4807 -2.0016 0.9686
-1.6794 -7.5459 -2.0016 0.9686
-1.1331 -7.6470 -2.0016 0.9686
-0.8576 -7.6828 -2.0016 0.9686
-0.3036 -7.7245 -2.0016 0.9686
0.5294 -7.7123 -2.0016 0.9686
0.8062 -7.6883 -2.0016 0.9686
1.0819 -7.6544 -2.0016 0.9686
1.6288 -7.5569 -2.0016 0.9686
1.8993 -7.4935 -2.0016 0.9686
2.4326 -7.3378 -2.0016 0.9686
2.6947 -7.2456 -2.0016 0.9686
2.9533 -7.1441 -2.0016 0.9686
4.1826 -6.5012 -2.0016 0.9686
4.6387 -6.1841 -2.0016 0.9686
4.8579 -6.0134 -2.0016 0.9686
5.0709 -5.8350 -2.0016 0.9686
5.4768 -5.4557 -2.0016 0.9686
5.8545 -5.0483 -2.0016 0.9686
6.0321 -4.8347 -2.0016 0.9686
6.5173 -4.1575 -2.0016 0.9686
6.6625 -3.9206 -2.0016 0.9686
6.7991 -3.6787 -2.0016 0.9686
6.9269 -3.4320 -2.0016 0.9686
7.0457 -3.1809 -2.0016 0.9686
7.1555 -2.9257 -2.0016 0.9686
7.2560 -2.6667 -2.0016 0.9686
7.4288 -2.1387 -2.0016 0.9686
7.5632 -1.5997 -2.0016 0.9686
7.6585 -1.0524 -2.0016 0.9686
7.6914 -0.7765 -2.0016 0.9686
7.7143 -0.4996 -2.0016 0.9686
7.7063 0.6107 -2.0016 0.9686
7.3972 2.2455 -2.0016 0.9686
7.3117 2.5098 -2.0016 0.9686
7.2168 2.7709 -2.0016 0.9686
6.9992 3.2821 -2.0016 0.9686
6.4568 4.2509 -2.0016 0.9686
6.2998 4.4802 -2.0016 0.9686
6.1348 4.7037 -2.0016 0.9686
5.9618 4.9211 -2.0016 0.9686
5.5930 5.3365 -2.0016 0.9686
5.1953 5.7244 -2.0016 0.9686
4.9863 5.9074 -2.0016 0.9686
4.7708 6.0828 -2.0016 0.9686
4.5491 6.2503 -2.0016 0.9686
3.8501 6.7035 -2.0016 0.9686
3.6068 6.8375 -2.0016 0.9686
2.8500 7.1859 -2.0016 0.9686
2.5900 7.2837 -2.0016 0.9686
2.0602 7.4509 -2.0016 0.9686
0.9715 7.6692 -2.0016 0.9686
0.6953 7.6992 -2.0016 0.9686
-0.1372 7.7293 -2.0016 0.9686
-0.6920 7.6995 -2.0016 0.9686
-0.9682 7.6696 -2.0016 0.9686
-1.7879 7.5209 -2.0016 0.9686
-2.5868 7.2848 -2.0016 0.9686
-3.1033 7.0802 -2.0016 0.9686
-3.3557 6.9642 -2.0016 0.9686
-3.8472 6.7052 -2.0016 0.9686
-4.0857 6.5626 -2.0016 0.9686
-4.3188 6.4116 -2.0016 0.9686
-4.5464 6.2522 -2.0016 0.9686
-4.7681 6.0848 -2.0016 0.9686
-4.9837 5.9096 -2.0016 0.9686
-5.1928 5.7267 -2.0016 0.9686
-5.5907 5.3390 -2.0016 0.9686
-5.9597 4.9237 -2.0016 0.9686
-6.2979 4.4830 -2.0016 0.9686
-6.4549 4.2538 -2.0016 0.9686
-6.7437 3.7792 -2.0016 0.9686
-6.8752 3.5344 -2.0016 0.9686
-7.0125 0.9023 -2.0016 0.9710
-7.0592 0.3963 -2.0016 0.9710
-7.0689 0.1424 -2.0016 0.9710
-7.0695 -0.1117 -2.0016 0.9710
-7.0432 -0.6191 -2.0016 0.9710
-7.0164 -0.8717 -2.0016 0.9710
-6.9805 -1.1233 -2.0016 0.9710
-6.9357 -1.3734 -2.0016 0.9710
-6.8818 -1.6217 -2.0016 0.9710
-6.0130 -2.6215 -1.8570 0.9731
-5.9149 -2.8359 -1.8570 0.9731
-5.8092 -3.0466 -1.8570 0.9731
-5.6960 -3.2534 -1.8570 0.9731
-4.7068 -4.5689 -1.8570 0.9731
-4.5396 -4.7350 -1.8570 0.9731
-4.3665 -4.8951 -1.8570 0.9731
-3.8144 -5.3365 -1.8570 0.9731
-3.6202 -5.4702 -1.8570 0.9731
-3.4213 -5.5967 -1.8570 0.9731
-3.4686 -6.1611 -2.0016 0.9710
-3.0171 -6.3943 -2.0016 0.9710
-2.7854 -6.4985 -2.0016 0.9710
-1.5791 -6.8917 -2.0016 0.9710
-1.0800 -6.9873 -2.0016 0.9710
-0.8283 -7.0216 -2.0016 0.9710
-0.5754 -7.0469 -2.0016 0.9710
-0.3219 -7.0630 -2.0016 0.9710
-0.0679 -7.0700 -2.0016 0.9710
0.4401 -7.0566 -2.0016 0.9710
1.4465 -6.9208 -2.0016 0.9710
1.9398 -6.7990 -2.0016 0.9710
2.4231 -6.6422 -2.0016 0.9710
2.6602 -6.5508 -2.0016 0.9710
2.2043 -4.0974 -1.3171 0.9808
3.7882 -5.9699 -2.0016 0.9710
4.7942 -5.1967 -2.0016 0.9710
5.4892 -4.4562 -2.0016 0.9710
5.7951 -4.0505 -2.0016 0.9710
6.1973 -3.4034 -2.0016 0.9710
6.6210 -2.4804 -2.0016 0.9710
6.7058 -2.2409 -2.0016 0.9710
6.7820 -1.9985 -2.0016 0.9710
6.9080 -1.5063 -2.0016 0.9710
7.0526 -0.5011 -2.0016 0.9710
7.0660 -0.2473 -2.0016 0.9710
7.0703 0.0067 -2.0016 0.9710
7.0655 0.2608 -2.0016 0.9710
6.9964 1.0196 -2.0016 0.9710
6.9553 1.2703 -2.0016 0.9710
6.8461 1.7665 -2.0016 0.9710
6.6162 2.4930 -2.0016 0.9710
6.4201 2.9617 -2.0016 0.9710
6.3096 3.1905 -2.0016 0.9710
6.1908 3.4151 -2.0016 0.9710
6.0641 3.6354 -2.0016 0.9710
5.9296 3.8509 -2.0016 0.9710
5.6377 4.2668 -2.0016 0.9710
5.1458 4.8487 -2.0016 0.9710
4.9683 5.0305 -2.0016 0.9710
4.7843 5.2058 -2.0016 0.9710
4.3981 5.5359 -2.0016 0.9710
4.1963 5.6904 -2.0016 0.9710
3.9892 5.8375 -2.0016 0.9710
3.7768 5.9771 -2.0016 0.9710
3.1117 6.3488 -2.0016 0.9710
2.8816 6.4565 -2.0016 0.9710
2.6477 6.5559 -2.0016 0.9710
2.4104 6.6468 -2.0016 0.9710
1.6812 6.8675 -2.0016 0.9710
1.4333 6.9235 -2.0016 0.9710
1.1836 6.9705 -2.0016 0.9710
0.6800 7.0376 -2.0016 0.9710
-0.0813 7.0699 -2.0016 0.9710
-0.5888 7.0458 -2.0016 0.9710
-1.0933 6.9853 -2.0016 0.9710
-1.5922 6.8887 -2.0016 0.9710
-2.0828 6.7566 -2.0016 0.9710
-2.3242 6.6774 -2.0016 0.9710
-2.5626 6.5896 -2.0016 0.9710
-3.0293 6.3885 -2.0016 0.9710
-3.4802 6.1545 -2.0016 0.9710
-3.6991 6.0254 -2.0016 0.9710
-4.1223 5.7442 -2.0016 0.9710
-4.5242 5.4333 -2.0016 0.9710
-5.4225 4.5372 -2.0016 0.9710
-5.7343 4.1361 -2.0016 0.9710
-6.0166 3.7136 -2.0016 0.9710
-6.6718 2.3402 -2.0016 0.9710
-6.9383 1.3602 -2.0016 0.9710
-7.0443 0.6057 -2.0016 0.9710
-7.0616 0.3522 -2.0016 0.9710
-7.0392 -0.6631 -2.0016 0.9710
-6.9269 -1.4167 -2.0016 0.9710
-6.8716 -1.6647 -2.0016 0.9710
-6.8073 -1.9106 -2.0016 0.9710
-6.2246 -2.2405 -1.8728 0.9729
-6.0882 -2.4419 -1.8570 0.9731
-5.7900 -3.0828 -1.8570 0.9731
-5.2887 -3.8806 -1.8570 0.9731
-5.1458 -4.0681 -1.8570 0.9731
-4.9963 -4.2504 -1.8570 0.9731
-4.8404 -4.4271 -1.8570 0.9731
-4.6782 -4.5982 -1.8570 0.9731
-4.5099 -4.7633 -1.8570 0.9731
-4.1562 -5.0749 -1.8570 0.9731
-3.9711 -5.2210 -1.8570 0.9731
-3.7810 -5.3603 -1.8570 0.9731
-2.5088 -6.6102 -2.0016 0.9710
-2.2697 -6.6961 -2.0016 0.9710
-2.0276 -6.7734 -2.0016 0.9710
-1.5359 -6.9015 -2.0016 0.9710
-0.5314 -7.0503 -2.0016 0.9710
-0.2777 -7.0649 -2.0016 0.9710
0.2304 -7.0666 -2.0016 0.9710
0.4842 -7.0537 -2.0016 0.9710
1.2404 -6.9607 -2.0016 0.9710
1.9823 -6.7868 -2.0016 0.9710
2.2248 -6.7112 -2.0016 0.9710
2.4646 -6.6269 -2.0016 0.9710
2.7011 -6.5340 -2.0016 0.9710
2.9341 -6.4328 -2.0016 0.9710
2.4337 -4.0995 -1.3496 0.9804
4.2426 -5.6560 -2.0016 0.9710
4.4431 -5.4999 -2.0016 0.9710
4.6378 -5.3367 -2.0016 0.9710
5.1852 -4.8066 -2.0016 0.9710
5.6723 -4.2207 -2.0016 0.9710
5.8203 -4.0142 -2.0016 0.9710
6.2185 -3.3645 -2.0016 0.9710
6.3354 -3.1389 -2.0016 0.9710
6.6363 -2.4390 -2.0016 0.9710
6.7197 -2.1989 -2.0016 0.9710
6.8603 -1.7107 -2.0016 0.9710
7.0346 -0.7102 -2.0016 0.9710
7.0556 -0.4570 -2.0016 0.9710
7.0674 -0.2032 -2.0016 0.9710
7.0638 0.3049 -2.0016 0.9710
7.0482 0.5586 -2.0016 0.9710
7.0236 0.8115 -2.0016 0.9710
6.9899 1.0633 -2.0016 0.9710
6.8955 1.5626 -2.0016 0.9710
