ply
format ascii 1.0
element vertex 1572
property float32 x
property float32 y
property float32 z
property float32 I
end_header
-15.7134 11.1426 -1.8494 0.9255
-16.1034 10.5712 -1.8494 0.9255
-17.1467 8.7783 -1.8494 0.9255
-17.6620 8.2556 -1.8717 0.9246
-19.1370 8.1212 -1.9958 0.9199
-19.4719 7.4501 -2.0016 0.9196
-19.9564 6.0335 -2.0016 0.9196
-20.1602 5.3131 -2.0016 0.9196
-20.3379 4.5858 -2.0016 0.9196
-20.4895 3.8526 -2.0016 0.9196
-20.6146 3.1144 -2.0016 0.9196
-20.7131 2.3722 -2.0016 0.9196
-20.8300 0.8796 -2.0016 0.9196
-20.8037 -1.3654 -2.0016 0.9196
-20.5363 -3.5945 -2.0016 0.9196
-20.3940 -4.3296 -2.0016 0.9196
-20.0307 -5.7820 -2.0016 0.9196
-19.5641 -7.2046 -2.0016 0.9196
-19.2928 -7.9024 -2.0016 0.9196
-18.9966 -8.5900 -2.0016 0.9196
-18.6759 -9.2666 -2.0016 0.9196
-18.3312 -9.9312 -2.0016 0.9196
-17.9628 -10.5830 -2.0016 0.9196
-17.1569 -11.8448 -2.0016 0.9196
-16.7206 -12.4532 -2.0016 0.9196
-15.7838 -13.6212 -2.0016 0.9196
-15.2846 -14.1790 -2.0016 0.9196
-14.2275 -15.2393 -2.0016 0.9196
-13.0480 -16.1602 -1.9940 0.9199
-12.1279 -16.1760 -1.9410 0.9220
-11.2500 -16.1850 -1.8923 0.9238
-9.2299 -16.9079 -1.8494 0.9255
-8.6168 -17.2284 -1.8494 0.9255
-7.3582 -17.8024 -1.8494 0.9255
-4.7338 -18.6725 -1.8494 0.9255
-3.3816 -18.9640 -1.8494 0.9255
-2.0119 -19.1578 -1.8494 0.9255
2.1309 -19.1449 -1.8494 0.9255
2.8169 -19.0561 -1.8494 0.9255
4.8497 -18.6427 -1.8494 0.9255
5.8905 -19.7098 -1.9749 0.9207
6.6833 -19.7482 -2.0016 0.9196
2.1907 -4.3129 -0.4644 0.9807
2.3242 -4.1954 -0.4605 0.9809
11.3857 -17.4650 -2.0016 0.9196
12.0055 -17.0449 -2.0016 0.9196
12.6097 -16.6029 -2.0016 0.9196
15.3723 -14.0838 -2.0016 0.9196
15.8681 -13.5227 -2.0016 0.9196
17.6405 -11.1118 -2.0016 0.9196
18.0281 -10.4712 -2.0016 0.9196
18.3925 -9.8171 -2.0016 0.9196
18.7331 -9.1504 -2.0016 0.9196
19.3415 -7.7824 -2.0016 0.9196
20.0662 -5.6575 -2.0016 0.9196
20.6694 -2.7265 -2.0016 0.9196
20.7540 -1.9826 -2.0016 0.9196
20.6980 2.5008 -2.0016 0.9196
20.5948 3.2424 -2.0016 0.9196
20.4651 3.9797 -2.0016 0.9196
20.3090 4.7120 -2.0016 0.9196
19.9185 6.1573 -2.0016 0.9196
19.4253 7.5709 -2.0016 0.9196
18.4985 9.6158 -2.0016 0.9196
17.7607 10.9186 -2.0016 0.9196
16.9314 12.1650 -2.0016 0.9196
15.0154 14.4636 -2.0016 0.9196
13.9387 15.5039 -2.0016 0.9196
13.3731 15.9944 -2.0016 0.9196
12.7901 16.4643 -2.0016 0.9196
11.5756 17.3397 -2.0016 0.9196
10.9456 17.7441 -2.0016 0.9196
9.6439 18.4839 -2.0016 0.9196
7.6620 17.6738 -1.8494 0.9255
7.0225 17.9375 -1.8494 0.9255
6.3739 18.1781 -1.8494 0.9255
5.7171 18.3952 -1.8494 0.9255
3.6347 13.3714 -1.3303 0.9458
1.5608 12.7552 -1.2337 0.9497
1.0533 12.2390 -1.1794 0.9518
-15.2530 7.1606 -2.0016 0.9344
-15.5003 6.6083 -2.0016 0.9344
-15.7275 6.0475 -2.0016 0.9344
-16.4313 3.7337 -2.0016 0.9344
-16.5548 3.1413 -2.0016 0.9344
-16.7966 1.3429 -2.0016 0.9344
-16.8339 0.7389 -2.0016 0.9344
-16.6952 -2.2796 -2.0016 0.9344
-16.4886 -3.4718 -2.0016 0.9344
-16.3533 -4.0616 -2.0016 0.9344
-16.0197 -5.2247 -2.0016 0.9344
-15.8217 -5.7966 -2.0016 0.9344
-15.1067 -7.4643 -2.0016 0.9344
-14.8289 -8.0019 -2.0016 0.9344
-14.5321 -8.5292 -2.0016 0.9344
-14.2164 -9.0455 -2.0016 0.9344
-12.3723 -11.4391 -2.0016 0.9344
-11.0705 -12.7032 -2.0016 0.9344
-10.6072 -13.0925 -2.0016 0.9344
-10.1303 -13.4650 -2.0016 0.9344
-9.1379 -14.1572 -2.0016 0.9344
-8.6236 -14.4762 -2.0016 0.9344
-7.0170 -15.3196 -2.0016 0.9344
-5.8965 -15.7758 -2.0006 0.9344
-5.3183 -15.9533 -1.9975 0.9345
-4.1277 -16.1684 -1.9822 0.9350
-3.5152 -16.1714 -1.9658 0.9355
-2.3161 -16.1760 -1.9411 0.9363
-1.7262 -16.1776 -1.9326 0.9366
0.0235 -16.2922 -1.9353 0.9365
3.0334 -16.5749 -2.0016 0.9344
3.6266 -16.4553 -2.0016 0.9344
4.2151 -16.3144 -2.0016 0.9344
4.7981 -16.1526 -2.0016 0.9344
5.3750 -15.9699 -2.0016 0.9344
2.3121 -4.1901 -0.5685 0.9809
10.6449 -13.0619 -2.0016 0.9344
11.1071 -12.6713 -2.0016 0.9344
11.5549 -12.2643 -2.0016 0.9344
12.4052 -11.4034 -2.0016 0.9344
12.8067 -10.9507 -2.0016 0.9344
13.5595 -10.0033 -2.0016 0.9344
13.9099 -9.5100 -2.0016 0.9344
14.2424 -9.0045 -2.0016 0.9344
15.3848 -6.8727 -2.0016 0.9344
15.6217 -6.3159 -2.0016 0.9344
15.8384 -5.7509 -2.0016 0.9344
16.2102 -4.5995 -2.0016 0.9344
16.7017 -2.2314 -2.0016 0.9344
16.8188 -1.0271 -2.0016 0.9344
16.7318 1.9933 -2.0016 0.9344
16.5456 3.1890 -2.0016 0.9344
16.4205 3.7810 -2.0016 0.9344
16.2741 4.3681 -2.0016 0.9344
16.1068 4.9497 -2.0016 0.9344
15.9187 5.5248 -2.0016 0.9344
15.4812 6.6529 -2.0016 0.9344
14.6760 8.2791 -2.0016 0.9344
14.0440 9.3110 -2.0016 0.9344
13.7006 9.8092 -2.0016 0.9344
13.3396 10.2948 -2.0016 0.9344
12.9613 10.7672 -2.0016 0.9344
12.5664 11.2256 -2.0016 0.9344
11.2864 12.5118 -2.0016 0.9344
10.8299 12.9090 -2.0016 0.9344
10.3594 13.2895 -2.0016 0.9344
9.8755 13.6529 -2.0016 0.9344
9.3789 13.9987 -2.0016 0.9344
7.2247 13.7911 -1.8494 0.9392
6.7248 14.0416 -1.8494 0.9392
5.6998 14.4880 -1.8494 0.9392
5.1759 14.6833 -1.8494 0.9392
3.0893 13.1254 -1.6017 0.9471
2.5474 12.8810 -1.5597 0.9485
1.5416 12.4273 -1.4875 0.9508
1.0717 12.2153 -1.4566 0.9518
0.1853 11.8155 -1.4037 0.9535
-0.2352 11.6258 -1.3813 0.9542
-1.4693 11.4187 -1.3676 0.9547
-3.1833 11.4300 -1.4094 0.9533
-5.0451 11.4422 -1.4854 0.9509
-6.6031 11.4524 -1.5703 0.9481
-7.7537 11.4599 -1.6436 0.9458
-9.0238 11.4682 -1.7334 0.9429
-9.7142 11.4728 -1.7857 0.9412
-10.4485 11.4776 -1.8437 0.9394
-12.0208 9.8939 -1.8494 0.9392
-12.3683 9.4558 -1.8494 0.9392
-13.6121 8.2521 -1.8908 0.9379
-14.6635 8.1844 -1.9948 0.9346
-14.9988 7.6787 -2.0016 0.9344
-15.5112 6.5825 -2.0016 0.9344
-15.7376 6.0213 -2.0016 0.9344
-16.1291 4.8764 -2.0016 0.9344
-16.4375 3.7063 -2.0016 0.9344
-16.5599 3.1137 -2.0016 0.9344
-16.6611 2.5171 -2.0016 0.9344
-16.8498 0.1060 -2.0016 0.9344
-16.7635 -1.7065 -2.0016 0.9344
-16.5978 -2.9052 -2.0016 0.9344
-16.4828 -3.4993 -2.0016 0.9344
-16.3465 -4.0888 -2.0016 0.9344
-13.8666 -9.5732 -2.0016 0.9344
-13.1438 -10.5436 -2.0016 0.9344
-12.7567 -11.0088 -2.0016 0.9344
-12.3533 -11.4597 -2.0016 0.9344
-11.4990 -12.3167 -2.0016 0.9344
-11.0493 -12.7216 -2.0016 0.9344
-10.1079 -13.4818 -2.0016 0.9344
-9.6173 -13.8360 -2.0016 0.9344
-9.1143 -14.1724 -2.0016 0.9344
-7.5374 -15.0703 -2.0016 0.9344
-6.9915 -15.3312 -2.0016 0.9344
-4.0991 -16.1686 -1.9814 0.9350
-1.6989 -16.1777 -1.9322 0.9366
-1.1141 -16.1871 -1.9273 0.9367
-0.5325 -16.2239 -1.9282 0.9367
0.6405 -16.4060 -1.9503 0.9360
1.2434 -16.5623 -1.9729 0.9353
1.8579 -16.6927 -1.9951 0.9346
2.4616 -16.6526 -1.9996 0.9344
3.0610 -16.5698 -2.0016 0.9344
3.6540 -16.4492 -2.0016 0.9344
4.2422 -16.3074 -2.0016 0.9344
4.8250 -16.1446 -2.0016 0.9344
6.5331 -15.5321 -2.0016 0.9344
2.1907 -4.3128 -0.5746 0.9807
2.3241 -4.1953 -0.5697 0.9809
8.6894 -14.4368 -2.0016 0.9344
10.6666 -13.0442 -2.0016 0.9344
11.5753 -12.2450 -2.0016 0.9344
12.8249 -10.9293 -2.0016 0.9344
13.9258 -9.4869 -2.0016 0.9344
14.2574 -8.9808 -2.0016 0.9344
14.5707 -8.4630 -2.0016 0.9344
15.1405 -7.3955 -2.0016 0.9344
15.3962 -6.8471 -2.0016 0.9344
15.6322 -6.2899 -2.0016 0.9344
15.8479 -5.7246 -2.0016 0.9344
16.0433 -5.1518 -2.0016 0.9344
16.7054 -2.2036 -2.0016 0.9344
16.8205 -0.9991 -2.0016 0.9344
16.7903 1.4192 -2.0016 0.9344
16.7285 2.0212 -2.0016 0.9344
16.4142 3.8083 -2.0016 0.9344
16.2668 4.3952 -2.0016 0.9344
16.0985 4.9765 -2.0016 0.9344
15.9095 5.5513 -2.0016 0.9344
15.6999 6.1189 -2.0016 0.9344
15.4701 6.6787 -2.0016 0.9344
14.3546 8.8246 -2.0016 0.9344
14.0285 9.3343 -2.0016 0.9344
13.3224 10.3170 -2.0016 0.9344
12.9434 10.7887 -2.0016 0.9344
11.2656 12.5306 -2.0016 0.9344
10.8084 12.9270 -2.0016 0.9344
10.3372 13.3067 -2.0016 0.9344
9.3556 14.0143 -2.0016 0.9344
7.6927 13.5356 -1.8494 0.9392
3.6347 13.3714 -1.6460 0.9457
3.0635 13.1138 -1.5997 0.9472
2.5230 12.8699 -1.5579 0.9485
-12.7874 6.0031 -2.0016 0.9445
-12.9947 5.5401 -2.0016 0.9445
-13.3588 4.5933 -2.0016 0.9445
-13.6540 3.6227 -2.0016 0.9445
-13.7753 3.1301 -2.0016 0.9445
-13.9644 2.1335 -2.0016 0.9445
-14.0815 1.1258 -2.0016 0.9445
-14.1128 0.6195 -2.0016 0.9445
-13.9965 -1.9111 -2.0016 0.9445
-12.3061 -4.5086 -1.8570 0.9484
-12.1363 -4.9475 -1.8570 0.9484
-12.6648 -6.2577 -2.0016 0.9445
-12.4319 -6.7084 -2.0016 0.9445
-11.6384 -8.0064 -2.0016 0.9445
-11.3435 -8.4191 -2.0016 0.9445
-11.0339 -8.8210 -2.0016 0.9445
-10.7100 -9.2114 -2.0016 0.9445
-10.0213 -9.9563 -2.0016 0.9445
-9.6574 -10.3097 -2.0016 0.9445
-9.2810 -10.6498 -2.0016 0.9445
-8.8926 -10.9762 -2.0016 0.9445
-8.4928 -11.2884 -2.0016 0.9445
-8.0820 -11.5861 -2.0016 0.9445
-7.6608 -11.8688 -2.0016 0.9445
-6.3401 -12.6237 -2.0016 0.9445
-5.4178 -13.0462 -2.0016 0.9445
-4.9459 -13.2323 -2.0016 0.9445
-4.4675 -13.4014 -2.0016 0.9445
-3.9835 -13.5531 -2.0016 0.9445
-3.4943 -13.6874 -2.0016 0.9445
-3.0006 -13.8041 -2.0016 0.9445
-2.5030 -13.9029 -2.0016 0.9445
-1.4988 -14.0467 -2.0016 0.9445
-0.4869 -14.1180 -2.0016 0.9445
2.0425 -13.9780 -2.0016 0.9445
2.5431 -13.8956 -2.0016 0.9445
3.0404 -13.7953 -2.0016 0.9445
3.5337 -13.6773 -2.0016 0.9445
4.0225 -13.5416 -2.0016 0.9445
5.4554 -13.0305 -2.0016 0.9445
5.9197 -12.8262 -2.0016 0.9445
6.3764 -12.6054 -2.0016 0.9445
7.6949 -11.8466 -2.0016 0.9445
8.5253 -11.2639 -2.0016 0.9445
8.9242 -10.9505 -2.0016 0.9445
10.4000 -9.5601 -2.0016 0.9445
10.7365 -9.1805 -2.0016 0.9445
11.3677 -8.3864 -2.0016 0.9445
11.6615 -7.9728 -2.0016 0.9445
11.9402 -7.5489 -2.0016 0.9445
12.2036 -7.1153 -2.0016 0.9445
12.4512 -6.6726 -2.0016 0.9445
12.6827 -6.2212 -2.0016 0.9445
12.8979 -5.7618 -2.0016 0.9445
13.0965 -5.2950 -2.0016 0.9445
13.4427 -4.3415 -2.0016 0.9445
13.5899 -3.8560 -2.0016 0.9445
13.7196 -3.3655 -2.0016 0.9445
13.8316 -2.8708 -2.0016 0.9445
13.9258 -2.3723 -2.0016 0.9445
14.0020 -1.8707 -2.0016 0.9445
14.1220 -0.3542 -2.0016 0.9445
14.1256 0.1531 -2.0016 0.9445
14.0272 1.6711 -2.0016 0.9445
13.9582 2.1737 -2.0016 0.9445
13.8711 2.6735 -2.0016 0.9445
13.7662 3.1698 -2.0016 0.9445
13.3455 4.6317 -2.0016 0.9445
12.9787 5.5775 -2.0016 0.9445
12.7701 6.0399 -2.0016 0.9445
12.5450 6.4946 -2.0016 0.9445
12.3037 6.9408 -2.0016 0.9445
11.7738 7.8059 -2.0016 0.9445
11.4860 8.2236 -2.0016 0.9445
10.8662 9.0267 -2.0016 0.9445
10.1904 9.7832 -2.0016 0.9445
8.6848 11.1413 -2.0016 0.9445
7.4326 12.0044 -2.0005 0.9446
6.4681 11.3369 -1.8494 0.9486
6.0568 11.5618 -1.8494 0.9486
5.2115 11.9667 -1.8494 0.9486
4.3393 12.3098 -1.8494 0.9486
3.8945 12.4577 -1.8494 0.9486
3.4447 12.5895 -1.8494 0.9486
2.9904 12.7050 -1.8494 0.9486
2.5323 12.8042 -1.8494 0.9486
2.0326 12.6487 -1.8152 0.9496
0.1853 11.8155 -1.6743 0.9534
-0.6415 11.4133 -1.6197 0.9549
-2.7445 11.4271 -1.6651 0.9536
-3.1833 11.4300 -1.6811 0.9532
-3.6313 11.4329 -1.6997 0.9527
-4.0898 11.4359 -1.7208 0.9521
-4.5604 11.4390 -1.7448 0.9515
-5.5456 11.4454 -1.8020 0.9499
-6.5195 11.3074 -1.8494 0.9486
-6.9213 11.0660 -1.8494 0.9486
-7.3142 10.8103 -1.8494 0.9486
-8.0712 10.2575 -1.8494 0.9486
-8.4342 9.9611 -1.8494 0.9486
-8.7865 9.6519 -1.8494 0.9486
-9.1274 9.3302 -1.8494 0.9486
-9.7734 8.6511 -1.8494 0.9486
-10.0777 8.2946 -1.8494 0.9486
-11.8092 7.7523 -2.0016 0.9445
-12.5744 6.4375 -2.0016 0.9445
-13.7804 3.1072 -2.0016 0.9445
-13.9679 2.1102 -2.0016 0.9445
-14.1138 0.5960 -2.0016 0.9445
-14.0961 -0.9251 -2.0016 0.9445
-14.0538 -1.4307 -2.0016 0.9445
-13.9933 -1.9344 -2.0016 0.9445
-13.9149 -2.4356 -2.0016 0.9445
-12.8203 -2.7217 -1.8570 0.9484
-12.4533 -4.0845 -1.8570 0.9484
-12.1280 -4.9677 -1.8570 0.9484
-11.9419 -5.4000 -1.8570 0.9484
-11.6251 -8.0257 -2.0016 0.9445
-11.0192 -8.8393 -2.0016 0.9445
-10.6947 -9.2293 -2.0016 0.9445
-9.6402 -10.3258 -2.0016 0.9445
-9.2633 -10.6652 -2.0016 0.9445
-8.0627 -11.5995 -2.0016 0.9445
-7.6410 -11.8815 -2.0016 0.9445
-6.7686 -12.3992 -2.0016 0.9445
-6.3191 -12.6343 -2.0016 0.9445
-4.4452 -13.4088 -2.0016 0.9445
-2.9776 -13.8090 -2.0016 0.9445
-2.4798 -13.9070 -2.0016 0.9445
-1.9789 -13.9871 -2.0016 0.9445
-1.4754 -14.0491 -2.0016 0.9445
0.0439 -14.1263 -2.0016 0.9445
0.5510 -14.1157 -2.0016 0.9445
1.0575 -14.0868 -2.0016 0.9445
1.5626 -14.0397 -2.0016 0.9445
2.5662 -13.8914 -2.0016 0.9445
4.5284 -13.3809 -2.0016 0.9445
5.0060 -13.2097 -2.0016 0.9445
5.4770 -13.0214 -2.0016 0.9445
5.9410 -12.8164 -2.0016 0.9445
2.3241 -4.1953 -0.6795 0.9808
7.7147 -11.8338 -2.0016 0.9445
8.5440 -11.2497 -2.0016 0.9445
8.9424 -10.9356 -2.0016 0.9445
9.7042 -10.2657 -2.0016 0.9445
10.4159 -9.5428 -2.0016 0.9445
10.7518 -9.1627 -2.0016 0.9445
11.0739 -8.7707 -2.0016 0.9445
11.3816 -8.3674 -2.0016 0.9445
11.6747 -7.9534 -2.0016 0.9445
11.9528 -7.5291 -2.0016 0.9445
12.4623 -6.6518 -2.0016 0.9445
12.6931 -6.2001 -2.0016 0.9445
12.9075 -5.7403 -2.0016 0.9445
13.1053 -5.2732 -2.0016 0.9445
13.2862 -4.7992 -2.0016 0.9445
13.4499 -4.3191 -2.0016 0.9445
13.8364 -2.8477 -2.0016 0.9445
13.9297 -2.3491 -2.0016 0.9445
14.0051 -1.8474 -2.0016 0.9445
14.0624 -1.3434 -2.0016 0.9445
14.1225 -0.3307 -2.0016 0.9445
14.1253 0.1766 -2.0016 0.9445
14.0762 1.1898 -2.0016 0.9445
13.8666 2.6966 -2.0016 0.9445
13.7609 3.1927 -2.0016 0.9445
13.3378 4.6539 -2.0016 0.9445
12.7600 6.0612 -2.0016 0.9445
12.0342 7.3982 -2.0016 0.9445
11.4723 8.2427 -2.0016 0.9445
11.1689 8.6493 -2.0016 0.9445
10.5194 9.4286 -2.0016 0.9445
9.8156 10.1592 -2.0016 0.9445
9.4445 10.5051 -2.0016 0.9445
9.0612 10.8374 -2.0016 0.9445
8.6663 11.1558 -2.0016 0.9445
7.8433 11.7489 -2.0016 0.9445
6.4492 11.3476 -1.8494 0.9486
5.1915 11.9753 -1.8494 0.9486
4.3188 12.3170 -1.8494 0.9486
2.5110 12.8084 -1.8494 0.9486
2.0094 12.6382 -1.8132 0.9496
1.5194 12.4172 -1.7725 0.9507
1.0504 12.2057 -1.7358 0.9517
0.5998 12.0024 -1.7027 0.9526
0.1655 11.8065 -1.6730 0.9534
-11.1765 4.7650 -2.0016 0.9519
-11.3404 4.3606 -2.0016 0.9519
-11.4897 3.9506 -2.0016 0.9519
-11.6241 3.5355 -2.0016 0.9519
-11.7436 3.1158 -2.0016 0.9519
-11.8479 2.6922 -2.0016 0.9519
-11.9369 2.2650 -2.0016 0.9519
-12.0686 1.4025 -2.0016 0.9519
-12.1495 0.0966 -2.0016 0.9519
-12.1451 -0.3397 -2.0016 0.9519
-12.1251 -0.7755 -2.0016 0.9519
-12.0894 -1.2104 -2.0016 0.9519
-12.0382 -1.6437 -2.0016 0.9519
-11.9714 -2.0749 -2.0016 0.9519
-11.0304 -2.3225 -1.8570 0.9553
-10.8353 -3.1082 -1.8570 0.9553
-10.7167 -3.4952 -1.8570 0.9553
-10.4382 -4.2553 -1.8570 0.9553
-10.4784 -6.1500 -2.0016 0.9519
-10.2508 -6.5223 -2.0016 0.9519
-9.2115 -7.9226 -2.0016 0.9519
-8.6192 -8.5632 -2.0016 0.9519
-7.6484 -9.4404 -2.0016 0.9519
-7.3045 -9.7090 -2.0016 0.9519
-6.5889 -10.2081 -2.0016 0.9519
-6.2181 -10.4381 -2.0016 0.9519
-5.8393 -10.6547 -2.0016 0.9519
-5.4530 -10.8575 -2.0016 0.9519
-5.0596 -11.0463 -2.0016 0.9519
-4.6597 -11.2208 -2.0016 0.9519
-3.4261 -11.6568 -2.0016 0.9519
-2.5807 -11.8726 -2.0016 0.9519
-2.1528 -11.9576 -2.0016 0.9519
-1.7221 -12.0272 -2.0016 0.9519
-0.4188 -12.1427 -2.0016 0.9519
0.0175 -12.1499 -2.0016 0.9519
0.4537 -12.1414 -2.0016 0.9519
1.3239 -12.0775 -2.0016 0.9519
1.7567 -12.0222 -2.0016 0.9519
2.6150 -11.8651 -2.0016 0.9519
3.0393 -11.7636 -2.0016 0.9519
3.4597 -11.6469 -2.0016 0.9519
3.8757 -11.5151 -2.0016 0.9519
4.2866 -11.3686 -2.0016 0.9519
5.0914 -11.0316 -2.0016 0.9519
6.9799 -9.9449 -2.0016 0.9519
7.3324 -9.6879 -2.0016 0.9519
8.6438 -8.5384 -2.0016 0.9519
9.5119 -7.5594 -2.0016 0.9519
10.2696 -6.4927 -2.0016 0.9519
11.0933 -4.9556 -2.0016 0.9519
11.2641 -4.5541 -2.0016 0.9519
11.4203 -4.1467 -2.0016 0.9519
11.6885 -3.3165 -2.0016 0.9519
11.8000 -2.8946 -2.0016 0.9519
11.8963 -2.4691 -2.0016 0.9519
12.0429 -1.6090 -2.0016 0.9519
12.0929 -1.1755 -2.0016 0.9519
12.1461 -0.3047 -2.0016 0.9519
12.1492 0.1317 -2.0016 0.9519
12.0646 1.4373 -2.0016 0.9519
12.0052 1.8696 -2.0016 0.9519
11.9303 2.2994 -2.0016 0.9519
11.6139 3.5690 -2.0016 0.9519
11.3278 4.3932 -2.0016 0.9519
10.9833 5.1949 -2.0016 0.9519
10.5822 5.9697 -2.0016 0.9519
10.3610 6.3458 -2.0016 0.9519
10.1265 6.7137 -2.0016 0.9519
9.6186 7.4231 -2.0016 0.9519
9.0610 8.0943 -2.0016 0.9519
8.7646 8.4144 -2.0016 0.9519
8.4568 8.7237 -2.0016 0.9519
8.1381 9.0217 -2.0016 0.9519
6.7627 10.0938 -2.0016 0.9519
6.3959 10.3301 -2.0016 0.9519
5.2423 10.0069 -1.8610 0.9552
4.1099 10.4466 -1.8494 0.9555
3.7321 10.5874 -1.8494 0.9555
3.3496 10.7146 -1.8494 0.9555
2.9627 10.8280 -1.8494 0.9555
2.5720 10.9274 -1.8494 0.9555
2.1780 11.0127 -1.8494 0.9555
1.3820 11.1406 -1.8494 0.9555
0.9811 11.1830 -1.8494 0.9555
0.1760 11.2246 -1.8494 0.9555
-0.2271 11.2237 -1.8494 0.9555
-0.6299 11.2083 -1.8494 0.9555
-1.0320 11.1785 -1.8494 0.9555
-1.1206 8.7090 -1.4465 0.9650
-2.2280 11.0027 -1.8494 0.9555
-3.3982 10.6993 -1.8494 0.9555
-3.7802 10.5704 -1.8494 0.9555
-4.5290 10.2718 -1.8494 0.9555
-5.6073 9.7253 -1.8494 0.9555
-5.9529 9.5176 -1.8494 0.9555
-6.2908 9.2978 -1.8494 0.9555
-6.9419 8.8223 -1.8494 0.9555
-7.5571 8.3014 -1.8494 0.9555
-8.6589 8.2377 -1.9689 0.9527
-9.0783 8.0358 -1.9973 0.9520
-9.3810 7.7211 -2.0016 0.9519
-9.9109 7.0280 -2.0016 0.9519
-10.1569 6.6676 -2.0016 0.9519
-10.6092 5.9215 -2.0016 0.9519
-10.8150 5.5368 -2.0016 0.9519
-11.0068 5.1449 -2.0016 0.9519
-11.3476 4.3417 -2.0016 0.9519
-11.4962 3.9314 -2.0016 0.9519
-11.6300 3.5161 -2.0016 0.9519
-11.7487 3.0963 -2.0016 0.9519
-12.0710 1.3824 -2.0016 0.9519
-12.1390 0.5126 -2.0016 0.9519
-12.1496 0.0764 -2.0016 0.9519
-12.1445 -0.3599 -2.0016 0.9519
-12.0874 -1.2305 -2.0016 0.9519
-12.0354 -1.6637 -2.0016 0.9519
-11.9679 -2.0948 -2.0016 0.9519
-10.9353 -2.7353 -1.8570 0.9553
-10.8301 -3.1262 -1.8570 0.9553
-10.2710 -4.6444 -1.8570 0.9553
-10.0976 -5.0102 -1.8570 0.9553
-9.9112 -5.3695 -1.8570 0.9553
-10.4681 -6.1674 -2.0016 0.9519
-9.7443 -7.2573 -2.0016 0.9519
-9.4774 -7.6025 -2.0016 0.9519
-8.9074 -8.2631 -2.0016 0.9519
-8.6049 -8.5776 -2.0016 0.9519
-7.6327 -9.4531 -2.0016 0.9519
-7.2883 -9.7211 -2.0016 0.9519
-6.2007 -10.4485 -2.0016 0.9519
-5.8216 -10.6644 -2.0016 0.9519
-5.0412 -11.0547 -2.0016 0.9519
-4.6411 -11.2285 -2.0016 0.9519
-4.2349 -11.3879 -2.0016 0.9519
-2.1329 -11.9612 -2.0016 0.9519
-0.8343 -12.1212 -2.0016 0.9519
-0.3985 -12.1433 -2.0016 0.9519
0.0377 -12.1498 -2.0016 0.9519
0.4740 -12.1406 -2.0016 0.9519
1.7767 -12.0193 -2.0016 0.9519
2.2071 -11.9477 -2.0016 0.9519
3.0589 -11.7585 -2.0016 0.9519
3.4791 -11.6411 -2.0016 0.9519
4.3055 -11.3614 -2.0016 0.9519
4.7107 -11.1995 -2.0016 0.9519
5.1098 -11.0231 -2.0016 0.9519
2.3241 -4.1952 -0.7900 0.9807
6.6352 -10.1781 -2.0016 0.9519
6.9964 -9.9333 -2.0016 0.9519
7.3486 -9.6756 -2.0016 0.9519
7.6912 -9.4056 -2.0016 0.9519
8.0240 -9.1233 -2.0016 0.9519
8.6580 -8.5240 -2.0016 0.9519
9.5244 -7.5435 -2.0016 0.9519
9.7891 -7.1967 -2.0016 0.9519
10.7186 -5.7211 -2.0016 0.9519
10.9171 -5.3326 -2.0016 0.9519
11.1015 -4.9372 -2.0016 0.9519
11.2716 -4.5354 -2.0016 0.9519
11.4272 -4.1277 -2.0016 0.9519
11.5681 -3.7148 -2.0016 0.9519
11.6940 -3.2970 -2.0016 0.9519
11.9004 -2.4493 -2.0016 0.9519
12.0948 -1.1554 -2.0016 0.9519
12.1285 -0.7204 -2.0016 0.9519
12.1489 0.1519 -2.0016 0.9519
12.1356 0.5880 -2.0016 0.9519
12.1067 1.0233 -2.0016 0.9519
12.0020 1.8896 -2.0016 0.9519
11.9265 2.3193 -2.0016 0.9519
11.8355 2.7460 -2.0016 0.9519
11.7293 3.1692 -2.0016 0.9519
11.6079 3.5883 -2.0016 0.9519
11.4716 4.0028 -2.0016 0.9519
11.3205 4.4121 -2.0016 0.9519
11.1547 4.8157 -2.0016 0.9519
10.9746 5.2131 -2.0016 0.9519
10.1153 6.7306 -2.0016 0.9519
9.3329 7.7792 -2.0016 0.9519
9.0475 8.1093 -2.0016 0.9519
8.4422 8.7377 -2.0016 0.9519
8.1231 9.0352 -2.0016 0.9519
7.7934 9.3211 -2.0016 0.9519
5.9857 10.5321 -1.9957 0.9521
5.2067 9.9794 -1.8543 0.9554
4.8321 10.1328 -1.8494 0.9555
4.4652 10.2998 -1.8494 0.9555
3.7145 10.5936 -1.8494 0.9555
3.3317 10.7202 -1.8494 0.9555
2.9447 10.8329 -1.8494 0.9555
1.7627 11.0867 -1.8494 0.9555
0.9625 11.1847 -1.8494 0.9555
0.5603 11.2120 -1.8494 0.9555
0.1574 11.2249 -1.8494 0.9555
-9.9394 3.8218 -2.0016 0.9576
-10.0702 3.4625 -2.0016 0.9576
-10.1880 3.0987 -2.0016 0.9576
-10.3841 2.3596 -2.0016 0.9576
-10.4621 1.9852 -2.0016 0.9576
-10.5267 1.6083 -2.0016 0.9576
-10.5776 1.2293 -2.0016 0.9576
-10.6485 0.0847 -2.0016 0.9576
-10.6446 -0.2977 -2.0016 0.9576
-10.4924 -1.8185 -2.0016 0.9576
-9.5883 -2.3814 -1.8570 0.9606
-9.4966 -2.7242 -1.8570 0.9606
-9.3927 -3.0634 -1.8570 0.9606
-9.2766 -3.3987 -1.8570 0.9606
-8.6945 -4.6917 -1.8570 0.9606
-8.1396 -5.5994 -1.8570 0.9606
-8.5510 -6.3465 -2.0016 0.9576
-7.5543 -7.5053 -2.0016 0.9576
-6.9962 -8.0281 -2.0016 0.9576
-6.7035 -8.2741 -2.0016 0.9576
-6.4021 -8.5095 -2.0016 0.9576
-5.7749 -8.9470 -2.0016 0.9576
-4.7793 -9.5161 -2.0016 0.9576
-4.4345 -9.6815 -2.0016 0.9576
-4.0841 -9.8345 -2.0016 0.9576
-3.3677 -10.1023 -2.0016 0.9576
-2.6341 -10.3179 -2.0016 0.9576
-1.8868 -10.4803 -2.0016 0.9576
-1.5093 -10.5413 -2.0016 0.9576
-0.7489 -10.6225 -2.0016 0.9576
-0.3670 -10.6425 -2.0016 0.9576
0.0153 -10.6488 -2.0016 0.9576
0.3977 -10.6414 -2.0016 0.9576
1.1603 -10.5854 -2.0016 0.9576
1.5397 -10.5369 -2.0016 0.9576
1.9170 -10.4748 -2.0016 0.9576
3.0323 -10.2080 -2.0016 0.9576
3.3968 -10.0925 -2.0016 0.9576
3.7570 -9.9640 -2.0016 0.9576
4.1124 -9.8227 -2.0016 0.9576
4.8067 -9.5023 -2.0016 0.9576
2.3121 -4.1900 -0.8995 0.9807
5.4762 -9.1328 -2.0016 0.9576
7.5759 -7.4835 -2.0016 0.9576
7.8397 -7.2066 -2.0016 0.9576
8.0935 -6.9205 -2.0016 0.9576
8.3367 -6.6254 -2.0016 0.9576
9.1993 -5.3637 -2.0016 0.9576
9.3860 -5.0299 -2.0016 0.9576
9.7228 -4.3434 -2.0016 0.9576
9.8725 -3.9915 -2.0016 0.9576
10.0094 -3.6344 -2.0016 0.9576
10.2444 -2.9067 -2.0016 0.9576
10.3422 -2.5370 -2.0016 0.9576
10.5989 -1.0303 -2.0016 0.9576
10.6290 -0.6491 -2.0016 0.9576
10.6455 -0.2670 -2.0016 0.9576
10.6482 0.1154 -2.0016 0.9576
10.6372 0.4976 -2.0016 0.9576
10.6125 0.8793 -2.0016 0.9576
10.5740 1.2597 -2.0016 0.9576
10.5220 1.6386 -2.0016 0.9576
10.3773 2.3895 -2.0016 0.9576
10.0602 3.4915 -2.0016 0.9576
9.9283 3.8505 -2.0016 0.9576
9.7836 4.2045 -2.0016 0.9576
9.6264 4.5531 -2.0016 0.9576
8.6584 6.1991 -2.0016 0.9576
7.9416 7.0943 -2.0016 0.9576
7.6817 7.3748 -2.0016 0.9576
7.4120 7.6459 -2.0016 0.9576
7.1327 7.9071 -2.0016 0.9576
6.2410 8.6282 -2.0016 0.9576
5.9272 8.8468 -2.0016 0.9576
3.9847 9.1498 -1.8758 0.9602
3.2710 9.2794 -1.8494 0.9607
2.5967 9.4902 -1.8494 0.9607
2.2542 9.5774 -1.8494 0.9607
1.9089 9.6521 -1.8494 0.9607
1.5611 9.7144 -1.8494 0.9607
0.8599 9.8014 -1.8494 0.9607
0.1543 9.8379 -1.8494 0.9607
-0.1990 9.8371 -1.8494 0.9607
-0.9045 9.7974 -1.8494 0.9607
-1.1181 8.6895 -1.6468 0.9650
-1.6053 9.7072 -1.8494 0.9607
-2.9784 9.3774 -1.8494 0.9607
-3.9695 9.0028 -1.8494 0.9607
-4.2902 8.8545 -1.8494 0.9607
-4.9146 8.5238 -1.8494 0.9607
-5.2175 8.3418 -1.8494 0.9607
-5.5855 8.2553 -1.8735 0.9602
-6.0224 8.2468 -1.9194 0.9593
-6.4816 8.2374 -1.9702 0.9582
-6.8624 8.1048 -1.9961 0.9577
-7.4467 7.6121 -2.0016 0.9576
-7.7152 7.3398 -2.0016 0.9576
-7.9738 7.0581 -2.0016 0.9576
-8.2220 6.7672 -2.0016 0.9576
-8.4597 6.4676 -2.0016 0.9576
-8.9021 5.8439 -2.0016 0.9576
-9.2985 5.1899 -2.0016 0.9576
-9.4788 4.8527 -2.0016 0.9576
-9.6470 4.5092 -2.0016 0.9576
-9.8027 4.1599 -2.0016 0.9576
-9.9457 3.8053 -2.0016 0.9576
-10.0759 3.4457 -2.0016 0.9576
-10.2972 2.7138 -2.0016 0.9576
-10.5797 1.2116 -2.0016 0.9576
-10.4167 -2.2114 -2.0016 0.9576
-9.4921 -2.7400 -1.8570 0.9606
-9.3876 -3.0790 -1.8570 0.9606
-9.2710 -3.4141 -1.8570 0.9606
-8.8501 -4.3912 -1.8570 0.9606
-8.6867 -4.7062 -1.8570 0.9606
-8.3266 -5.3174 -1.8570 0.9606
-8.1303 -5.6130 -1.8570 0.9606
-7.2670 -7.7838 -2.0016 0.9576
-6.9829 -8.0397 -2.0016 0.9576
-6.3879 -8.5201 -2.0016 0.9576
-5.7600 -8.9566 -2.0016 0.9576
-5.1023 -9.3468 -2.0016 0.9576
-4.7635 -9.5240 -2.0016 0.9576
-4.4184 -9.6889 -2.0016 0.9576
-4.0677 -9.8413 -2.0016 0.9576
-3.7117 -9.9810 -2.0016 0.9576
-3.3509 -10.1078 -2.0016 0.9576
-2.9858 -10.2216 -2.0016 0.9576
-2.6169 -10.3223 -2.0016 0.9576
-2.2446 -10.4096 -2.0016 0.9576
-1.1122 -10.5906 -2.0016 0.9576
0.0331 -10.6488 -2.0016 0.9576
0.4154 -10.6407 -2.0016 0.9576
1.1780 -10.5835 -2.0016 0.9576
1.5572 -10.5343 -2.0016 0.9576
2.3092 -10.3954 -2.0016 0.9576
2.6810 -10.3058 -2.0016 0.9576
3.0493 -10.2029 -2.0016 0.9576
3.4136 -10.0868 -2.0016 0.9576
3.7736 -9.9578 -2.0016 0.9576
4.1287 -9.8159 -2.0016 0.9576
4.4785 -9.6613 -2.0016 0.9576
5.8155 -8.9206 -2.0016 0.9576
6.1320 -8.7061 -2.0016 0.9576
6.7410 -8.2435 -2.0016 0.9576
7.3152 -7.7385 -2.0016 0.9576
7.5884 -7.4709 -2.0016 0.9576
7.8517 -7.1936 -2.0016 0.9576
8.1050 -6.9070 -2.0016 0.9576
8.5797 -6.3076 -2.0016 0.9576
8.8007 -5.9954 -2.0016 0.9576
9.0103 -5.6756 -2.0016 0.9576
9.8791 -3.9750 -2.0016 0.9576
10.1389 -3.2558 -2.0016 0.9576
10.5574 -1.3926 -2.0016 0.9576
10.6480 0.1331 -2.0016 0.9576
10.5719 1.2773 -2.0016 0.9576
10.5192 1.6561 -2.0016 0.9576
10.3733 2.4068 -2.0016 0.9576
10.2802 2.7777 -2.0016 0.9576
10.1738 3.1450 -2.0016 0.9576
10.0543 3.5082 -2.0016 0.9576
9.9219 3.8670 -2.0016 0.9576
9.4485 4.9115 -2.0016 0.9576
9.2661 5.2476 -2.0016 0.9576
8.6481 6.2136 -2.0016 0.9576
8.4194 6.5201 -2.0016 0.9576
8.1799 6.8182 -2.0016 0.9576
7.9298 7.1075 -2.0016 0.9576
7.6695 7.3876 -2.0016 0.9576
7.3993 7.6582 -2.0016 0.9576
6.8306 8.1695 -2.0016 0.9576
6.5328 8.4095 -2.0016 0.9576
6.2267 8.6386 -2.0016 0.9576
5.2617 9.2581 -2.0016 0.9576
4.5013 9.4390 -1.9656 0.9583
3.9608 9.1363 -1.8717 0.9603
3.2556 9.2849 -1.8494 0.9607
2.9201 9.3958 -1.8494 0.9607
1.8928 9.6553 -1.8494 0.9607
1.5449 9.7170 -1.8494 0.9607
1.1950 9.7662 -1.8494 0.9607
0.4911 9.8268 -1.8494 0.9607
0.1379 9.8381 -1.8494 0.9607
-8.7104 3.7136 -2.0016 0.9620
-8.8382 3.3984 -2.0016 0.9620
-9.1524 2.4283 -2.0016 0.9620
-9.2336 2.0981 -2.0016 0.9620
-9.3030 1.7653 -2.0016 0.9620
-9.3604 1.4301 -2.0016 0.9620
-9.4057 1.0931 -2.0016 0.9620
-9.4389 0.7546 -2.0016 0.9620
-9.4687 0.0753 -2.0016 0.9620
-9.4653 -0.2647 -2.0016 0.9620
-9.4497 -0.6044 -2.0016 0.9620
-9.4219 -0.9433 -2.0016 0.9620
-9.3820 -1.2810 -2.0016 0.9620
-8.9619 -2.2258 -1.9519 0.9630
-8.3521 -2.7240 -1.8570 0.9647
-8.1350 -3.3163 -1.8570 0.9647
-8.0107 -3.6063 -1.8570 0.9647
-7.7312 -4.1719 -1.8570 0.9647
-7.2378 -4.9791 -1.8570 0.9647
-6.8618 -5.4856 -1.8570 0.9647
-7.1790 -6.1745 -2.0016 0.9620
-6.9527 -6.4283 -2.0016 0.9620
-6.2211 -7.1386 -2.0016 0.9620
-5.4174 -7.7662 -2.0016 0.9620
-4.8461 -8.1350 -2.0016 0.9620
-4.5509 -8.3037 -2.0016 0.9620
-4.2498 -8.4618 -2.0016 0.9620
-3.6316 -8.7449 -2.0016 0.9620
-3.3152 -8.8697 -2.0016 0.9620
-2.6702 -9.0847 -2.0016 0.9620
-2.3422 -9.1748 -2.0016 0.9620
-1.6778 -9.3192 -2.0016 0.9620
-1.3421 -9.3734 -2.0016 0.9620
-1.0047 -9.4156 -2.0016 0.9620
-0.6659 -9.4456 -2.0016 0.9620
1.0318 -9.4126 -2.0016 0.9620
1.3691 -9.3695 -2.0016 0.9620
2.0380 -9.2471 -2.0016 0.9620
2.3687 -9.1680 -2.0016 0.9620
2.6963 -9.0770 -2.0016 0.9620
3.3408 -8.8601 -2.0016 0.9620
3.9680 -8.5975 -2.0016 0.9620
4.2742 -8.4495 -2.0016 0.9620
4.8695 -8.1210 -2.0016 0.9620
5.4398 -7.7506 -2.0016 0.9620
5.7145 -7.5503 -2.0016 0.9620
5.9820 -7.3402 -2.0016 0.9620
6.7366 -6.6544 -2.0016 0.9620
7.4131 -5.8914 -2.0016 0.9620
7.6198 -5.6214 -2.0016 0.9620
7.8168 -5.3442 -2.0016 0.9620
8.0036 -5.0601 -2.0016 0.9620
8.1801 -4.7695 -2.0016 0.9620
8.3461 -4.4727 -2.0016 0.9620
8.5013 -4.1701 -2.0016 0.9620
8.6456 -3.8622 -2.0016 0.9620
8.7787 -3.5493 -2.0016 0.9620
8.9005 -3.2318 -2.0016 0.9620
9.2714 -1.9243 -2.0016 0.9620
9.3346 -1.5902 -2.0016 0.9620
9.4514 -0.5772 -2.0016 0.9620
9.4587 0.4425 -2.0016 0.9620
9.4367 0.7818 -2.0016 0.9620
9.2276 2.1247 -2.0016 0.9620
9.0513 2.7815 -2.0016 0.9620
8.5598 4.0486 -2.0016 0.9620
8.2472 4.6525 -2.0016 0.9620
7.8921 5.2323 -2.0016 0.9620
7.4962 5.7852 -2.0016 0.9620
7.2837 6.0507 -2.0016 0.9620
7.0617 6.3083 -2.0016 0.9620
6.8307 6.5578 -2.0016 0.9620
5.5496 7.6723 -2.0016 0.9620
4.6924 8.2246 -2.0016 0.9620
4.3941 8.3878 -2.0016 0.9620
4.0901 8.5401 -2.0016 0.9620
3.7766 8.6719 -1.9994 0.9621
3.4558 8.7841 -1.9953 0.9621
2.6884 8.5998 -1.9046 0.9638
2.3281 8.5087 -1.8647 0.9646
2.0045 8.5163 -1.8494 0.9649
1.6974 8.5828 -1.8494 0.9649
0.7647 8.7155 -1.8494 0.9649
0.1372 8.7479 -1.8494 0.9649
-0.4909 8.7352 -1.8494 0.9649
-1.1156 8.6703 -1.8478 0.9649
-1.4274 8.6318 -1.8494 0.9649
-2.3473 8.4282 -1.8494 0.9649
-2.9543 8.2609 -1.8545 0.9648
-3.6373 8.2493 -1.9057 0.9638
-4.3631 8.2374 -1.9704 0.9626
-6.3744 7.0022 -2.0016 0.9620
-7.7241 5.4773 -2.0016 0.9620
-7.9158 5.1964 -2.0016 0.9620
-8.0973 4.9088 -2.0016 0.9620
-8.2683 4.6149 -2.0016 0.9620
-8.4287 4.3151 -2.0016 0.9620
-8.8438 3.3837 -2.0016 0.9620
-9.1564 2.4131 -2.0016 0.9620
-9.3628 1.4145 -2.0016 0.9620
-9.4401 0.7389 -2.0016 0.9620
-9.4606 0.3995 -2.0016 0.9620
-9.4688 0.0596 -2.0016 0.9620
-9.4649 -0.2805 -2.0016 0.9620
-9.4487 -0.6201 -2.0016 0.9620
-9.3798 -1.2966 -2.0016 0.9620
-9.3272 -1.6326 -2.0016 0.9620
-8.9069 -2.2279 -1.9407 0.9632
-8.4404 -2.4364 -1.8570 0.9647
-8.2438 -3.0358 -1.8570 0.9647
-8.1295 -3.3299 -1.8570 0.9647
-8.0047 -3.6196 -1.8570 0.9647
-7.7243 -4.1848 -1.8570 0.9647
-7.5691 -4.4594 -1.8570 0.9647
-7.4041 -4.7283 -1.8570 0.9647
-7.0456 -5.2475 -1.8570 0.9647
-7.1687 -6.1864 -2.0016 0.9620
-6.9420 -6.4398 -2.0016 0.9620
-6.4619 -6.9214 -2.0016 0.9620
-6.2092 -7.1490 -2.0016 0.9620
-5.9485 -7.3673 -2.0016 0.9620
-5.6802 -7.5762 -2.0016 0.9620
-4.5370 -8.3113 -2.0016 0.9620
-4.2357 -8.4688 -2.0016 0.9620
-3.6170 -8.7510 -2.0016 0.9620
-3.3005 -8.8752 -2.0016 0.9620
-2.9797 -8.9880 -2.0016 0.9620
-2.3270 -9.1786 -2.0016 0.9620
-1.9959 -9.2563 -2.0016 0.9620
-0.6502 -9.4467 -2.0016 0.9620
0.0294 -9.4690 -2.0016 0.9620
0.3694 -9.4618 -2.0016 0.9620
0.7089 -9.4424 -2.0016 0.9620
1.0475 -9.4109 -2.0016 0.9620
1.3847 -9.3672 -2.0016 0.9620
2.3839 -9.1640 -2.0016 0.9620
2.7114 -9.0725 -2.0016 0.9620
3.0354 -8.9693 -2.0016 0.9620
3.6713 -8.7283 -2.0016 0.9620
3.9823 -8.5909 -2.0016 0.9620
2.1905 -4.3125 -1.0224 0.9804
2.3240 -4.1951 -1.0137 0.9806
5.1712 -7.9323 -2.0016 0.9620
5.7271 -7.5407 -2.0016 0.9620
6.5048 -6.8812 -2.0016 0.9620
6.7476 -6.6432 -2.0016 0.9620
7.2070 -6.1418 -2.0016 0.9620
7.4229 -5.8791 -2.0016 0.9620
7.8257 -5.3312 -2.0016 0.9620
8.0120 -5.0468 -2.0016 0.9620
8.1881 -4.7558 -2.0016 0.9620
8.6520 -3.8478 -2.0016 0.9620
8.7846 -3.5346 -2.0016 0.9620
9.0156 -2.8951 -2.0016 0.9620
9.1137 -2.5695 -2.0016 0.9620
9.2746 -1.9089 -2.0016 0.9620
9.3372 -1.5746 -2.0016 0.9620
9.3877 -1.2383 -2.0016 0.9620
9.4261 -0.9005 -2.0016 0.9620
9.4664 -0.2217 -2.0016 0.9620
9.4683 0.1184 -2.0016 0.9620
9.4579 0.4582 -2.0016 0.9620
9.4354 0.7975 -2.0016 0.9620
9.4007 1.1358 -2.0016 0.9620
9.2949 1.8075 -2.0016 0.9620
9.2240 2.1401 -2.0016 0.9620
8.9404 3.1196 -2.0016 0.9620
8.8226 3.4386 -2.0016 0.9620
8.6935 3.7531 -2.0016 0.9620
8.4017 4.3673 -2.0016 0.9620
7.8834 5.2455 -2.0016 0.9620
7.6899 5.5251 -2.0016 0.9620
7.4866 5.7977 -2.0016 0.9620
7.0512 6.3200 -2.0016 0.9620
6.5795 6.8098 -2.0016 0.9620
6.0738 7.2644 -2.0016 0.9620
5.8091 7.4778 -2.0016 0.9620
5.5368 7.6815 -2.0016 0.9620
5.2574 7.8754 -2.0016 0.9620
4.3801 8.3951 -2.0016 0.9620
4.0758 8.5469 -2.0016 0.9620
3.7618 8.6773 -1.9992 0.9621
1.9903 8.5196 -1.8494 0.9649
1.0626 8.6842 -1.8494 0.9649
0.7501 8.7168 -1.8494 0.9649
-7.7092 3.6191 -2.0016 0.9656
-7.8342 3.3400 -2.0016 0.9656
-8.0537 2.7692 -2.0016 0.9656
-8.1479 2.4782 -2.0016 0.9656
-8.3047 1.8871 -2.0016 0.9656
-8.4188 1.2862 -2.0016 0.9656
-8.4595 0.9831 -2.0016 0.9656
-8.5162 0.0677 -2.0016 0.9656
-8.4381 -1.1521 -2.0016 0.9656
-8.3913 -1.4544 -2.0016 0.9656
-7.7900 -2.2346 -1.9047 0.9672
-7.5118 -2.4500 -1.8570 0.9681
-7.3167 -2.9827 -1.8570 0.9681
-7.2048 -3.2435 -1.8570 0.9681
-7.0837 -3.5001 -1.8570 0.9681
-6.8143 -3.9995 -1.8570 0.9681
-6.5097 -4.4782 -1.8570 0.9681
-5.9904 -5.1522 -1.8570 0.9681
-5.8015 -5.3640 -1.8570 0.9681
-5.6052 -5.5688 -1.8570 0.9681
-5.5953 -6.4205 -2.0016 0.9656
-5.1201 -6.8055 -2.0016 0.9656
-4.8724 -6.9849 -2.0016 0.9656
-4.6185 -7.1554 -2.0016 0.9656
-4.0931 -7.4684 -2.0016 0.9656
-3.8223 -7.6105 -2.0016 0.9656
-3.5465 -7.7429 -2.0016 0.9656
-2.9817 -7.9774 -2.0016 0.9656
-2.6934 -8.0793 -2.0016 0.9656
-2.4015 -8.1708 -2.0016 0.9656
-2.1066 -8.2518 -2.0016 0.9656
-1.8090 -8.3221 -2.0016 0.9656
-1.5090 -8.3817 -2.0016 0.9656
-0.9036 -8.4684 -2.0016 0.9656
-0.5989 -8.4954 -2.0016 0.9656
0.0123 -8.5164 -2.0016 0.9656
0.3181 -8.5105 -2.0016 0.9656
0.6234 -8.4936 -2.0016 0.9656
0.9280 -8.4657 -2.0016 0.9656
1.2314 -8.4270 -2.0016 0.9656
1.8329 -8.3169 -2.0016 0.9656
2.1304 -8.2457 -2.0016 0.9656
2.4251 -8.1639 -2.0016 0.9656
3.5688 -7.7326 -2.0016 0.9656
2.2898 -4.1496 -1.1139 0.9807
4.3797 -7.3040 -2.0016 0.9656
4.6391 -7.1420 -2.0016 0.9656
4.8925 -6.9709 -2.0016 0.9656
5.1397 -6.7907 -2.0016 0.9656
5.3802 -6.6018 -2.0016 0.9656
5.6138 -6.4043 -2.0016 0.9656
6.0589 -5.9850 -2.0016 0.9656
6.2699 -5.7636 -2.0016 0.9656
6.6673 -5.2987 -2.0016 0.9656
6.8533 -5.0559 -2.0016 0.9656
7.0304 -4.8066 -2.0016 0.9656
7.3572 -4.2897 -2.0016 0.9656
7.5065 -4.0227 -2.0016 0.9656
8.0051 -2.9067 -2.0016 0.9656
8.1043 -2.6174 -2.0016 0.9656
8.2712 -2.0290 -2.0016 0.9656
8.3955 -1.4302 -2.0016 0.9656
8.4414 -1.1278 -2.0016 0.9656
8.4765 -0.8240 -2.0016 0.9656
8.5138 -0.2136 -2.0016 0.9656
8.5159 0.0923 -2.0016 0.9656
8.5071 0.3980 -2.0016 0.9656
8.4874 0.7032 -2.0016 0.9656
8.4566 1.0075 -2.0016 0.9656
8.4150 1.3105 -2.0016 0.9656
8.2993 1.9110 -2.0016 0.9656
8.2253 2.2078 -2.0016 0.9656
8.0457 2.7924 -2.0016 0.9656
7.6987 3.6413 -2.0016 0.9656
7.4176 4.1844 -2.0016 0.9656
7.2625 4.4481 -2.0016 0.9656
7.0981 4.7060 -2.0016 0.9656
6.9246 4.9578 -2.0016 0.9656
6.7421 5.2032 -2.0016 0.9656
6.3513 5.6737 -2.0016 0.9656
5.4736 6.5245 -2.0016 0.9656
4.7403 7.0752 -2.0016 0.9656
4.4832 7.2409 -2.0016 0.9656
4.2204 7.3972 -2.0016 0.9656
3.4004 7.8081 -2.0016 0.9656
3.1179 7.9252 -2.0016 0.9656
2.8313 8.0320 -2.0016 0.9656
2.5400 8.1251 -2.0007 0.9656
2.2439 8.2009 -1.9983 0.9657
1.9457 8.2667 -1.9959 0.9657
1.6462 8.3239 -1.9942 0.9657
1.3333 8.2967 -1.9749 0.9661
1.0258 8.2685 -1.9582 0.9663
-1.0604 8.2406 -1.9527 0.9664
-1.9775 8.2337 -1.9901 0.9658
-2.8625 8.0041 -1.9978 0.9657
-3.4357 7.7920 -2.0014 0.9656
-3.7135 7.6642 -2.0016 0.9656
-4.5161 7.2204 -2.0016 0.9656
-4.7725 7.0536 -2.0016 0.9656
-7.1195 4.6737 -2.0016 0.9656
-7.4365 4.1507 -2.0016 0.9656
-7.7152 3.6063 -2.0016 0.9656
-7.9541 3.0433 -2.0016 0.9656
-8.0583 2.7557 -2.0016 0.9656
-8.2353 2.1703 -2.0016 0.9656
-8.4611 0.9690 -2.0016 0.9656
-8.5089 0.3593 -2.0016 0.9656
-8.4982 -0.5577 -2.0016 0.9656
-8.4727 -0.8625 -2.0016 0.9656
-8.4362 -1.1662 -2.0016 0.9656
-8.3308 -1.7686 -2.0016 0.9656
-7.7474 -2.2363 -1.8952 0.9674
-7.4145 -2.7304 -1.8570 0.9681
-7.3117 -2.9949 -1.8570 0.9681
-7.1994 -3.2555 -1.8570 0.9681
-6.9472 -3.7638 -1.8570 0.9681
-6.8076 -4.0108 -1.8570 0.9681
-6.6592 -4.2526 -1.8570 0.9681
-6.5022 -4.4890 -1.8570 0.9681
-6.3369 -4.7196 -1.8570 0.9681
-6.1633 -4.9441 -1.8570 0.9681
-5.5959 -5.5781 -1.8570 0.9681
-5.8118 -6.2251 -2.0016 0.9656
-5.5846 -6.4298 -2.0016 0.9656
-5.3501 -6.6262 -2.0016 0.9656
-4.8608 -6.9930 -2.0016 0.9656
-4.3464 -7.3238 -2.0016 0.9656
-3.2531 -7.8706 -2.0016 0.9656
-2.3879 -8.1748 -2.0016 0.9656
-2.0929 -8.2553 -2.0016 0.9656
-1.7951 -8.3251 -2.0016 0.9656
-0.8895 -8.4699 -2.0016 0.9656
0.0264 -8.5164 -2.0016 0.9656
1.2454 -8.4249 -2.0016 0.9656
1.5471 -8.3747 -2.0016 0.9656
1.8468 -8.3138 -2.0016 0.9656
2.1441 -8.2421 -2.0016 0.9656
3.5817 -7.7267 -2.0016 0.9656
2.1545 -4.2416 -1.1181 0.9806
2.2996 -4.1510 -1.1153 0.9807
4.9041 -6.9627 -2.0016 0.9656
5.1510 -6.7821 -2.0016 0.9656
6.4820 -5.5239 -2.0016 0.9656
7.0384 -4.7949 -2.0016 0.9656
7.5132 -4.0102 -2.0016 0.9656
7.6523 -3.7379 -2.0016 0.9656
7.7816 -3.4607 -2.0016 0.9656
7.9008 -3.1791 -2.0016 0.9656
8.0099 -2.8933 -2.0016 0.9656
8.1086 -2.6039 -2.0016 0.9656
8.2746 -2.0152 -2.0016 0.9656
8.4433 -1.1138 -2.0016 0.9656
8.4779 -0.8099 -2.0016 0.9656
8.5141 -0.1994 -2.0016 0.9656
8.5065 0.4121 -2.0016 0.9656
8.4862 0.7173 -2.0016 0.9656
8.2216 2.2214 -2.0016 0.9656
8.0410 2.8057 -2.0016 0.9656
7.8189 3.3756 -2.0016 0.9656
7.6927 3.6541 -2.0016 0.9656
7.4106 4.1968 -2.0016 0.9656
7.2551 4.4602 -2.0016 0.9656
7.0903 4.7178 -2.0016 0.9656
6.5419 5.4529 -2.0016 0.9656
6.3419 5.6842 -2.0016 0.9656
5.9176 6.1247 -2.0016 0.9656
4.9798 6.9088 -2.0016 0.9656
4.7285 7.0831 -2.0016 0.9656
4.4712 7.2483 -2.0016 0.9656
4.2080 7.4042 -2.0016 0.9656
3.9395 7.5505 -2.0016 0.9656
3.6658 7.6871 -2.0016 0.9656
3.3874 7.8138 -2.0016 0.9656
1.9319 8.2695 -1.9958 0.9657
1.3188 8.2947 -1.9739 0.9661
0.7104 8.2550 -1.9473 0.9665
0.4119 8.2432 -1.9397 0.9667
-6.9977 3.2851 -2.0016 0.9686
-7.1112 3.0317 -2.0016 0.9686
-7.2155 2.7745 -2.0016 0.9686
-7.4720 1.9825 -2.0016 0.9686
-7.5383 1.7129 -2.0016 0.9686
-7.5950 1.4411 -2.0016 0.9686
-7.6788 0.8924 -2.0016 0.9686
-7.7230 0.3390 -2.0016 0.9686
-7.7302 0.0615 -2.0016 0.9686
-7.7275 -0.2161 -2.0016 0.9686
-7.7147 -0.4934 -2.0016 0.9686
-7.6594 -1.0458 -2.0016 0.9686
-7.5646 -1.5928 -2.0016 0.9686
-7.5025 -1.8634 -2.0016 0.9686
-6.7344 -2.4672 -1.8570 0.9708
-6.6414 -2.7075 -1.8570 0.9708
-6.3118 -3.4059 -1.8570 0.9708
-5.7592 -4.2744 -1.8570 0.9708
-5.2661 -4.8689 -1.8570 0.9708
-4.9031 -5.2343 -1.8570 0.9708
-3.9563 -6.6414 -2.0016 0.9686
-3.4695 -6.9082 -2.0016 0.9686
-2.9648 -7.1393 -2.0016 0.9686
-2.7066 -7.2412 -2.0016 0.9686
-1.9122 -7.4903 -2.0016 0.9686
-1.6420 -7.5541 -2.0016 0.9686
-0.8202 -7.6869 -2.0016 0.9686
-0.5437 -7.7113 -2.0016 0.9686
0.2887 -7.7251 -2.0016 0.9686
1.1177 -7.6493 -2.0016 0.9686
1.9338 -7.4847 -2.0016 0.9686
2.2013 -7.4105 -2.0016 0.9686
2.4659 -7.3266 -2.0016 0.9686
2.7274 -7.2334 -2.0016 0.9686
2.2684 -4.1109 -1.2157 0.9808
3.9755 -6.6299 -2.0016 0.9686
4.4410 -6.3275 -2.0016 0.9686
4.8837 -5.9925 -2.0016 0.9686
5.0957 -5.8133 -2.0016 0.9686
5.4997 -5.4326 -2.0016 0.9686
5.6912 -5.2317 -2.0016 0.9686
6.2208 -4.5893 -2.0016 0.9686
6.3816 -4.3630 -2.0016 0.9686
6.5341 -4.1311 -2.0016 0.9686
6.6782 -3.8938 -2.0016 0.9686
6.8137 -3.6515 -2.0016 0.9686
6.9405 -3.4045 -2.0016 0.9686
7.0582 -3.1531 -2.0016 0.9686
7.1669 -2.8976 -2.0016 0.9686
7.4369 -2.1101 -2.0016 0.9686
7.6624 -1.0237 -2.0016 0.9686
7.7161 -0.4712 -2.0016 0.9686
7.7300 0.0838 -2.0016 0.9686
7.7220 0.3613 -2.0016 0.9686
7.6762 0.9145 -2.0016 0.9686
7.5334 1.7346 -2.0016 0.9686
7.3894 2.2708 -2.0016 0.9686
7.2074 2.7952 -2.0016 0.9686
7.1024 3.0522 -2.0016 0.9686
6.8651 3.5541 -2.0016 0.9686
6.5923 4.0376 -2.0016 0.9686
6.4431 4.2717 -2.0016 0.9686
6.2855 4.5003 -2.0016 0.9686
6.1199 4.7230 -2.0016 0.9686
5.7652 5.1501 -2.0016 0.9686
5.1780 5.7401 -2.0016 0.9686
4.3029 6.4223 -2.0016 0.9686
3.5873 6.8477 -2.0016 0.9686
1.7711 7.5249 -2.0016 0.9686
1.4998 7.5836 -2.0016 0.9686
1.2266 7.6326 -2.0016 0.9686
0.6756 7.7009 -2.0016 0.9686
0.3987 7.7202 -2.0016 0.9686
0.1212 7.7295 -2.0016 0.9686
-0.7106 7.6978 -2.0016 0.9686
-1.5343 7.5767 -2.0016 0.9686
-2.0741 7.4471 -2.0016 0.9686
-2.8628 7.1809 -2.0016 0.9686
-3.3708 6.9569 -2.0016 0.9686
-4.3320 6.4027 -2.0016 0.9686
-4.5591 6.2430 -2.0016 0.9686
-4.7803 6.0753 -2.0016 0.9686
-5.4059 5.5260 -2.0016 0.9686
-5.7885 5.1238 -2.0016 0.9686
-5.9688 4.9127 -2.0016 0.9686
-6.1413 4.6952 -2.0016 0.9686
-6.3059 4.4716 -2.0016 0.9686
-6.6106 4.0076 -2.0016 0.9686
-6.7502 3.7676 -2.0016 0.9686
-6.8811 3.5228 -2.0016 0.9686
-7.1162 3.0199 -2.0016 0.9686
-7.2201 2.7625 -2.0016 0.9686
-7.3997 2.2372 -2.0016 0.9686
-7.5974 1.4285 -2.0016 0.9686
-7.6437 1.1548 -2.0016 0.9686
-7.6803 0.8796 -2.0016 0.9686
-7.7069 0.6033 -2.0016 0.9686
-7.7236 0.3262 -2.0016 0.9686
-7.7271 -0.2290 -2.0016 0.9686
-7.6907 -0.7829 -2.0016 0.9686
-7.6577 -1.0586 -2.0016 0.9686
-7.6147 -1.3328 -2.0016 0.9686
-7.5620 -1.6054 -2.0016 0.9686
-6.8389 -2.2431 -1.8635 0.9707
-6.5350 -2.9551 -1.8570 0.9708
-6.4247 -3.1878 -1.8570 0.9708
-6.3061 -3.4164 -1.8570 0.9708
-6.0447 -3.8602 -1.8570 0.9708
-5.5945 -4.4878 -1.8570 0.9708
-5.2580 -4.8777 -1.8570 0.9708
-4.1814 -6.5020 -2.0016 0.9686
-3.7040 -6.7853 -2.0016 0.9686
-3.4580 -6.9139 -2.0016 0.9686
-2.9529 -7.1443 -2.0016 0.9686
-2.1676 -7.4204 -2.0016 0.9686
-1.8997 -7.4934 -2.0016 0.9686
-1.6295 -7.5568 -2.0016 0.9686
-1.3571 -7.6104 -2.0016 0.9686
-1.0829 -7.6543 -2.0016 0.9686
-0.8074 -7.6882 -2.0016 0.9686
0.8551 -7.6830 -2.0016 0.9686
1.1305 -7.6474 -2.0016 0.9686
2.2136 -7.4068 -2.0016 0.9686
2.4781 -7.3225 -2.0016 0.9686
2.7394 -7.2288 -2.0016 0.9686
4.2217 -6.4759 -2.0016 0.9686
4.6756 -6.1562 -2.0016 0.9686
4.8936 -5.9844 -2.0016 0.9686
5.1053 -5.8048 -2.0016 0.9686
5.5088 -5.4235 -2.0016 0.9686
5.7000 -5.2222 -2.0016 0.9686
5.8838 -5.0141 -2.0016 0.9686
6.0600 -4.7996 -2.0016 0.9686
6.2284 -4.5790 -2.0016 0.9686
6.3888 -4.3524 -2.0016 0.9686
6.5410 -4.1202 -2.0016 0.9686
6.8198 -3.6401 -2.0016 0.9686
6.9461 -3.3929 -2.0016 0.9686
7.0635 -3.1413 -2.0016 0.9686
7.1717 -2.8857 -2.0016 0.9686
7.2707 -2.6263 -2.0016 0.9686
7.3603 -2.3636 -2.0016 0.9686
7.4404 -2.0978 -2.0016 0.9686
7.5109 -1.8293 -2.0016 0.9686
7.5718 -1.5584 -2.0016 0.9686
7.7169 -0.4584 -2.0016 0.9686
7.7299 0.0966 -2.0016 0.9686
7.6364 1.2022 -2.0016 0.9686
7.5883 1.4757 -2.0016 0.9686
7.4629 2.0164 -2.0016 0.9686
7.3857 2.2831 -2.0016 0.9686
7.2028 2.8072 -2.0016 0.9686
6.9827 3.3169 -2.0016 0.9686
6.5856 4.0485 -2.0016 0.9686
6.2780 4.5107 -2.0016 0.9686
6.1120 4.7332 -2.0016 0.9686
5.7566 5.1596 -2.0016 0.9686
5.3715 5.5595 -2.0016 0.9686
4.0585 6.5794 -2.0016 0.9686
3.8197 6.7209 -2.0016 0.9686
3.5759 6.8537 -2.0016 0.9686
3.3275 6.9777 -2.0016 0.9686
3.0748 7.0927 -2.0016 0.9686
2.2943 7.3822 -2.0016 0.9686
2.0278 7.4598 -2.0016 0.9686
1.4872 7.5861 -2.0016 0.9686
0.3858 7.7209 -2.0016 0.9686
0.1084 7.7297 -2.0016 0.9686
-6.5039 2.7728 -2.0016 0.9710
-6.5993 2.5375 -2.0016 0.9710
-6.7644 2.0574 -2.0016 0.9710
-6.8339 1.8132 -2.0016 0.9710
-6.8946 1.5666 -2.0016 0.9710
-7.0231 0.8162 -2.0016 0.9710
-7.0701 0.0562 -2.0016 0.9710
-7.0676 -0.1977 -2.0016 0.9710
-7.0559 -0.4513 -2.0016 0.9710
-7.0053 -0.9565 -2.0016 0.9710
-6.9186 -1.4568 -2.0016 0.9710
-6.8619 -1.7043 -2.0016 0.9710
-6.7962 -1.9495 -2.0016 0.9710
-6.7219 -2.1923 -2.0016 0.9710
-6.1593 -2.2566 -1.8570 0.9731
-5.9814 -2.6928 -1.8570 0.9731
-5.7728 -3.1151 -1.8570 0.9731
-5.6572 -3.3203 -1.8570 0.9731
-5.5343 -3.5213 -1.8570 0.9731
-5.2674 -3.9094 -1.8570 0.9731
-5.1236 -4.0960 -1.8570 0.9731
-4.6534 -4.6232 -1.8570 0.9731
-4.4844 -4.7873 -1.8570 0.9731
-4.3096 -4.9453 -1.8570 0.9731
-3.7529 -5.3800 -1.8570 0.9731
-3.3571 -5.6355 -1.8570 0.9731
-3.3980 -6.2002 -2.0016 0.9710
-3.1732 -6.3182 -2.0016 0.9710
-2.2360 -6.7074 -2.0016 0.9710
-1.9937 -6.7834 -2.0016 0.9710
-0.7502 -7.0304 -2.0016 0.9710
-0.4972 -7.0528 -2.0016 0.9710
0.0102 -7.0703 -2.0016 0.9710
0.5176 -7.0514 -2.0016 0.9710
1.2728 -6.9548 -2.0016 0.9710
2.2553 -6.7010 -2.0016 0.9710
2.4945 -6.6157 -2.0016 0.9710
2.2605 -4.0966 -1.3246 0.9807
3.6360 -6.0638 -2.0016 0.9710
3.8514 -5.9293 -2.0016 0.9710
4.2669 -5.6376 -2.0016 0.9710
4.6605 -5.3169 -2.0016 0.9710
4.8484 -5.1461 -2.0016 0.9710
5.0301 -4.9687 -2.0016 0.9710
5.2052 -4.7849 -2.0016 0.9710
5.3737 -4.5949 -2.0016 0.9710
5.5352 -4.3990 -2.0016 0.9710
5.9761 -3.7783 -2.0016 0.9710
6.2319 -3.3397 -2.0016 0.9710
6.3478 -3.1137 -2.0016 0.9710
6.4555 -2.8838 -2.0016 0.9710
6.5549 -2.6502 -2.0016 0.9710
6.6458 -2.4131 -2.0016 0.9710
6.7281 -2.1729 -2.0016 0.9710
6.8018 -1.9299 -2.0016 0.9710
6.9228 -1.4368 -2.0016 0.9710
6.9699 -1.1873 -2.0016 0.9710
7.0081 -0.9363 -2.0016 0.9710
7.0372 -0.6841 -2.0016 0.9710
7.0572 -0.4310 -2.0016 0.9710
7.0681 -0.1773 -2.0016 0.9710
7.0462 0.5838 -2.0016 0.9710
7.0207 0.8364 -2.0016 0.9710
6.9861 1.0879 -2.0016 0.9710
6.9426 1.3381 -2.0016 0.9710
5.5973 4.3197 -2.0016 0.9710
5.2729 4.7103 -2.0016 0.9710
4.9212 5.0765 -2.0016 0.9710
4.7358 5.2500 -2.0016 0.9710
4.5442 5.4166 -2.0016 0.9710
4.3468 5.5763 -2.0016 0.9710
3.9354 5.8738 -2.0016 0.9710
3.5037 6.1411 -2.0016 0.9710
3.0540 6.3767 -2.0016 0.9710
2.5885 6.5795 -2.0016 0.9710
2.1096 6.7483 -2.0016 0.9710
1.8660 6.8197 -2.0016 0.9710
1.3717 6.9360 -2.0016 0.9710
1.1218 6.9808 -2.0016 0.9710
0.8704 7.0166 -2.0016 0.9710
0.6179 7.0433 -2.0016 0.9710
0.3647 7.0609 -2.0016 0.9710
0.1109 7.0695 -2.0016 0.9710
-0.1430 7.0689 -2.0016 0.9710
-1.1535 6.9756 -2.0016 0.9710
-1.4033 6.9297 -2.0016 0.9710
-1.6512 6.8748 -2.0016 0.9710
-1.8969 6.8111 -2.0016 0.9710
-2.1403 6.7386 -2.0016 0.9710
-2.6184 6.5676 -2.0016 0.9710
-2.8525 6.4694 -2.0016 0.9710
-3.7493 5.9944 -2.0016 0.9710
-3.9621 5.8559 -2.0016 0.9710
-4.3721 5.5565 -2.0016 0.9710
-4.7596 5.2284 -2.0016 0.9710
-5.1225 4.8733 -2.0016 0.9710
-5.2942 4.6862 -2.0016 0.9710
-5.4591 4.4931 -2.0016 0.9710
-5.6169 4.2942 -2.0016 0.9710
-5.7674 4.0898 -2.0016 0.9710
-6.1738 3.4459 -2.0016 0.9710
-6.2935 3.2220 -2.0016 0.9710
-6.5085 2.7620 -2.0016 0.9710
-6.6035 2.5266 -2.0016 0.9710
-6.7678 2.0461 -2.0016 0.9710
-6.8972 1.5552 -2.0016 0.9710
-7.0244 0.8045 -2.0016 0.9710
-7.0488 0.5517 -2.0016 0.9710
-7.0672 -0.2094 -2.0016 0.9710
-6.9645 -1.2190 -2.0016 0.9710
-6.9162 -1.4683 -2.0016 0.9710
-6.8590 -1.7157 -2.0016 0.9710
-6.7930 -1.9609 -2.0016 0.9710
-6.7182 -2.2035 -2.0016 0.9710
-6.1555 -2.2668 -1.8570 0.9731
-6.0701 -2.4864 -1.8570 0.9731
-5.8761 -2.9156 -1.8570 0.9731
-5.7676 -3.1247 -1.8570 0.9731
-5.6517 -3.3297 -1.8570 0.9731
-5.5285 -3.5305 -1.8570 0.9731
-5.3981 -3.7268 -1.8570 0.9731
-5.2608 -3.9182 -1.8570 0.9731
-5.1168 -4.1045 -1.8570 0.9731
-4.6457 -4.6310 -1.8570 0.9731
-4.4764 -4.7948 -1.8570 0.9731
-4.3014 -4.9524 -1.8570 0.9731
-3.7439 -5.3862 -1.8570 0.9731
-3.5481 -5.5172 -1.8570 0.9731
-2.7008 -6.5342 -2.0016 0.9710
-2.4644 -6.6269 -2.0016 0.9710
-2.2249 -6.7111 -2.0016 0.9710
-1.7375 -6.8535 -2.0016 0.9710
-1.4903 -6.9115 -2.0016 0.9710
-0.2319 -7.0665 -2.0016 0.9710
1.2844 -6.9527 -2.0016 0.9710
1.7800 -6.8426 -2.0016 0.9710
2.0246 -6.7743 -2.0016 0.9710
2.5055 -6.6115 -2.0016 0.9710
2.7413 -6.5173 -2.0016 0.9710
2.9735 -6.4147 -2.0016 0.9710
4.4757 -5.4733 -2.0016 0.9710
4.6694 -5.3091 -2.0016 0.9710
5.2132 -4.7762 -2.0016 0.9710
5.3813 -4.5860 -2.0016 0.9710
5.5425 -4.3898 -2.0016 0.9710
5.6966 -4.1879 -2.0016 0.9710
5.8433 -3.9807 -2.0016 0.9710
5.9824 -3.7683 -2.0016 0.9710
6.1139 -3.5511 -2.0016 0.9710
6.2374 -3.3293 -2.0016 0.9710
6.3529 -3.1032 -2.0016 0.9710
6.5593 -2.6393 -2.0016 0.9710
6.6498 -2.4020 -2.0016 0.9710
6.8695 -1.6730 -2.0016 0.9710
6.9252 -1.4253 -2.0016 0.9710
7.0383 -0.6724 -2.0016 0.9710
7.0698 0.0884 -2.0016 0.9710
7.0452 0.5955 -2.0016 0.9710
6.9843 1.0996 -2.0016 0.9710
6.8874 1.5980 -2.0016 0.9710
6.7550 2.0881 -2.0016 0.9710
6.3864 3.0337 -2.0016 0.9710
6.0232 3.7028 -2.0016 0.9710
5.8864 3.9167 -2.0016 0.9710
5.7419 4.1255 -2.0016 0.9710
5.5901 4.3290 -2.0016 0.9710
5.4311 4.5270 -2.0016 0.9710
4.9128 5.0847 -2.0016 0.9710
4.7270 5.2578 -2.0016 0.9710
4.5352 5.4242 -2.0016 0.9710
4.3375 5.5835 -2.0016 0.9710
4.1342 5.7357 -2.0016 0.9710
3.2705 6.2684 -2.0016 0.9710
2.8122 6.4870 -2.0016 0.9710
2.3395 6.6721 -2.0016 0.9710
2.0984 6.7518 -2.0016 0.9710
1.6084 6.8849 -2.0016 0.9710
1.1102 6.9826 -2.0016 0.9710
0.6062 7.0443 -2.0016 0.9710
0.0991 7.0696 -2.0016 0.9710
-5.8907 2.7654 -2.0016 0.9731
-6.1539 2.1159 -2.0016 0.9731
-6.2259 1.8936 -2.0016 0.9731
-6.2898 1.6688 -2.0016 0.9731
-6.3457 1.4419 -2.0016 0.9731
-6.3934 1.2131 -2.0016 0.9731
-6.4328 0.9828 -2.0016 0.9731
-6.4868 0.5186 -2.0016 0.9731
-6.4942 -0.4154 -2.0016 0.9731
-6.4119 -1.1113 -2.0016 0.9731
-6.3679 -1.3408 -2.0016 0.9731
-6.2552 -1.7943 -2.0016 0.9731
-6.1867 -2.0178 -2.0016 0.9731
-5.5053 -2.4784 -1.8570 0.9751
-5.4127 -2.6745 -1.8570 0.9751
-5.3132 -2.8671 -1.8570 0.9751
-5.2068 -3.0560 -1.8570 0.9751
-4.8480 -3.5982 -1.8570 0.9751
-4.5773 -3.9368 -1.8570 0.9751
-4.2830 -4.2552 -1.8570 0.9751
-4.1274 -4.4062 -1.8570 0.9751
-3.8006 -4.6911 -1.8570 0.9751
-3.6297 -4.8245 -1.8570 0.9751
-2.9016 -5.2944 -1.8570 0.9751
-2.5142 -5.4890 -1.8570 0.9751
-1.6097 -6.3053 -2.0016 0.9731
-1.3823 -6.3590 -2.0016 0.9731
-1.1530 -6.4045 -2.0016 0.9731
-0.9223 -6.4418 -2.0016 0.9731
-0.4577 -6.4914 -2.0016 0.9731
-0.2243 -6.5036 -2.0016 0.9731
0.2430 -6.5029 -2.0016 0.9731
1.1715 -6.4012 -2.0016 0.9731
1.4006 -6.3550 -2.0016 0.9731
1.6278 -6.3006 -2.0016 0.9731
2.0758 -6.1675 -2.0016 0.9731
2.2959 -6.0890 -2.0016 0.9731
3.7384 -5.3265 -2.0016 0.9731
4.1110 -5.0445 -2.0016 0.9731
5.0946 -4.0488 -2.0016 0.9731
5.5004 -3.4775 -2.0016 0.9731
5.6217 -3.2778 -2.0016 0.9731
5.7358 -3.0738 -2.0016 0.9731
5.8424 -2.8659 -2.0016 0.9731
6.0330 -2.4392 -2.0016 0.9731
6.3201 -1.5504 -2.0016 0.9731
6.3717 -1.3224 -2.0016 0.9731
6.4151 -1.0928 -2.0016 0.9731
6.4502 -0.8618 -2.0016 0.9731
6.4770 -0.6296 -2.0016 0.9731
6.4954 -0.3967 -2.0016 0.9731
6.5071 0.0705 -2.0016 0.9731
6.5004 0.3041 -2.0016 0.9731
6.4300 1.0013 -2.0016 0.9731
