ply
format ascii 1.0
element vertex 1544
property float32 x
property float32 y
property float32 z
property float32 I
end_header
30.5581 -3.0569 4.7047 0.8831
30.7103 -1.9623 4.7142 0.8829
31.4310 0.2508 4.8152 0.8806
42.6271 12.9590 6.8253 0.8350
35.0323 13.4637 5.7494 0.8591
30.8826 13.1595 5.1426 0.8730
26.6424 14.9200 4.6779 0.8838
25.8830 18.4070 4.8656 0.8794
28.7491 23.7259 5.7103 0.8600
25.9667 24.7669 5.4972 0.8648
31.9145 35.1456 7.2727 0.8252
10.1963 36.7518 5.8428 0.8570
1.8909 14.8025 2.2861 0.9414
1.3585 14.8608 2.2861 0.9414
0.8243 14.9000 2.2861 0.9414
0.2891 14.9200 2.2861 0.9414
-0.2465 14.9207 2.2861 0.9414
-1.3161 14.8646 2.2861 0.9414
-1.8487 14.8078 2.2861 0.9414
-2.9060 14.6371 2.2861 0.9414
-3.9484 14.3909 2.2861 0.9414
-4.4623 14.2400 2.2861 0.9414
-4.9705 14.0707 2.2861 0.9414
-8.1268 13.1095 2.3629 0.9395
-9.3839 13.9901 2.5807 0.9341
-10.1318 13.9922 2.6465 0.9325
-10.9198 13.9944 2.7193 0.9307
-13.5462 13.9616 2.9801 0.9243
-14.5575 13.9644 3.0903 0.9216
-15.6872 14.0024 3.2213 0.9184
-28.1392 -22.3466 5.5047 0.8647
-26.1605 -22.3521 5.2713 0.8700
-24.5313 -22.5322 5.1027 0.8739
-22.6570 -22.3618 4.8768 0.8791
-19.5683 -22.3036 4.5454 0.8869
-15.4978 -22.0570 4.1297 0.8967
-11.3442 -22.3932 3.8456 0.9034
-10.3530 -22.3960 3.7798 0.9050
-9.4171 -22.4535 3.7300 0.9062
-7.5555 -22.3988 3.6213 0.9088
-6.6874 -22.4562 3.5895 0.9095
-4.9551 -22.4060 3.5154 0.9113
-1.6675 -22.4701 3.4518 0.9129
-0.8563 -22.4174 3.4367 0.9132
1.5611 -22.4241 3.4436 0.9131
6.9100 -27.1781 4.2960 0.8927
2.2878 -4.1855 0.7307 0.9809
32.9039 -32.7733 7.1145 0.8287
32.3635 -30.0000 6.7604 0.8365
34.6533 -25.7920 6.6177 0.8396
36.3231 -25.0607 6.7604 0.8365
40.3280 -25.7379 7.3290 0.8240
32.4100 -8.1032 5.1179 0.8736
31.4971 -6.6839 4.9326 0.8778
29.5151 -4.0786 4.5645 0.8864
32.6702 -2.1439 5.0157 0.8759
30.2090 -0.8954 4.6299 0.8849
31.8848 14.8936 5.3912 0.8673
26.7161 14.9010 4.6863 0.8836
26.5105 16.0600 4.7484 0.8821
25.9265 18.3710 4.8678 0.8793
25.9788 24.6934 5.4908 0.8650
32.4030 35.5606 7.3701 0.8231
31.8186 37.5412 7.5389 0.8194
1.9164 14.7992 2.2861 0.9414
1.3840 14.8584 2.2861 0.9414
-0.2209 14.9211 2.2861 0.9414
-1.2906 14.8668 2.2861 0.9414
-3.4045 14.5292 2.2861 0.9414
-3.9237 14.3977 2.2861 0.9414
-4.4379 14.2476 2.2861 0.9414
-4.9463 14.0792 2.2861 0.9414
-6.6607 13.9475 2.3678 0.9394
-7.2875 13.9493 2.4110 0.9383
-8.0937 13.1064 2.3598 0.9396
-10.0951 13.9921 2.6432 0.9326
-16.8135 14.0055 3.3523 0.9153
1.5681 17.4853 2.2861 0.9316
0.8502 15.8620 2.0685 0.9379
-0.8427 15.5510 2.0280 0.9391
-1.4056 15.5705 2.0359 0.9389
-1.9739 15.5927 2.0467 0.9386
-2.5457 15.5943 2.0576 0.9383
-3.7114 15.5975 2.0878 0.9374
-4.3088 15.5992 2.1074 0.9368
-5.6403 15.8800 2.1945 0.9343
-6.0462 15.2625 2.1378 0.9359
-6.7198 13.9477 2.0161 0.9395
-7.3487 13.9495 2.0532 0.9384
-8.7855 13.0495 2.0485 0.9385
-9.4848 13.0514 2.1010 0.9370
-10.2218 13.0535 2.1590 0.9353
-11.0017 13.0556 2.2233 0.9334
-11.8305 13.0579 2.2945 0.9314
-15.7417 14.0025 2.7435 0.9185
-19.6578 14.0134 3.1437 0.9072
-27.8656 -22.2074 4.6401 0.8661
-26.0700 -22.3523 4.4719 0.8706
-24.2571 -22.3574 4.2958 0.8754
-21.0186 -22.3664 3.9968 0.8836
-15.7909 -22.5565 3.5856 0.8949
-14.2921 -22.0604 3.4229 0.8994
-13.1728 -22.0266 3.3421 0.9017
-8.4193 -22.4014 3.1163 0.9080
-7.5127 -22.3989 3.0765 0.9091
-5.7642 -22.4038 3.0124 0.9109
-4.9148 -22.4061 2.9871 0.9116
-4.1104 -22.5839 2.9892 0.9116
-2.4357 -22.4130 2.9358 0.9131
-1.6287 -22.4702 2.9338 0.9131
1.5998 -22.4242 2.9275 0.9133
6.9528 -27.1509 3.6497 0.8931
2.2983 -4.1876 0.6220 0.9809
32.5191 -37.2784 6.4419 0.8191
32.9494 -35.1419 6.2731 0.8234
32.9592 -30.4470 5.8430 0.8344
32.9651 -28.3290 5.6601 0.8392
34.7784 -25.7923 5.6384 0.8397
39.9217 -25.3822 6.1604 0.8263
35.5166 -8.8151 4.7653 0.8628
30.7269 -6.4653 4.0889 0.8810
31.5619 -5.4663 4.1712 0.8788
30.5606 -4.1696 4.0165 0.8830
29.3079 -2.9318 3.8355 0.8880
31.2283 -1.9954 4.0749 0.8814
32.1246 -0.8970 4.1849 0.8784
38.3290 13.1725 5.2778 0.8492
34.9532 13.4333 4.8762 0.8598
34.9854 14.9077 4.9522 0.8578
29.2305 13.7150 4.2046 0.8779
27.7938 15.5648 4.1482 0.8794
26.8372 17.6707 4.1843 0.8784
27.8832 24.7461 4.8547 0.8604
2.2245 17.4139 2.2861 0.9316
0.8930 16.1409 2.1051 0.9369
-0.2567 15.5367 2.0235 0.9392
-0.8158 15.5502 2.0277 0.9391
-1.3785 15.5695 2.0354 0.9389
-2.5182 15.5942 2.0570 0.9383
-3.0964 15.5958 2.0705 0.9379
-3.6831 15.5974 2.0870 0.9374
-4.8888 15.6008 2.1290 0.9362
-6.0838 13.9459 1.9813 0.9405
-6.6902 13.9476 2.0144 0.9395
-8.0884 13.0475 1.9990 0.9400
-9.4505 13.0513 2.0983 0.9371
-10.1856 13.0534 2.1561 0.9354
-12.7533 13.1444 2.3849 0.9288
-15.6872 14.0024 2.7382 0.9187
-16.8727 14.0057 2.8555 0.9153
-19.5862 14.0132 3.1361 0.9074
-30.2233 -4.0358 3.9706 0.8843
-21.0909 -22.3662 4.0032 0.8834
-19.7805 -22.5454 3.9057 0.8860
-16.9236 -22.3370 3.6493 0.8931
-15.8486 -22.5563 3.5899 0.8948
-12.3811 -22.4071 3.3337 0.9019
-8.4632 -22.4012 3.1184 0.9079
-7.5555 -22.3988 3.0783 0.9091
-4.9551 -22.4060 2.9882 0.9116
-4.1505 -22.5838 2.9901 0.9115
-3.2922 -22.4106 2.9497 0.9127
-2.4747 -22.4129 2.9364 0.9131
-1.6675 -22.4701 2.9341 0.9131
2.2878 -4.1855 0.6211 0.9809
32.5187 -37.4076 6.4545 0.8188
32.9491 -35.2629 6.2846 0.8231
32.9589 -30.5520 5.8523 0.8342
32.9649 -28.4273 5.6684 0.8390
39.7699 -25.3818 6.1437 0.8267
30.7378 -6.5228 4.0918 0.8810
31.5768 -5.5248 4.1744 0.8787
30.5243 -4.2180 4.0127 0.8831
29.3981 -2.9919 3.8480 0.8876
42.7910 12.9286 5.8211 0.8350
38.5425 13.1719 5.3040 0.8485
34.9852 14.8367 4.9486 0.8579
28.2536 14.4545 4.1327 0.8798
27.8899 15.5557 4.1586 0.8791
26.7716 16.2182 4.0760 0.8814
28.6552 23.5659 4.8313 0.8610
27.9457 24.7158 4.8582 0.8603
26.0716 28.6122 5.0407 0.8554
1.6282 17.4798 2.2861 0.9316
0.9208 16.1408 2.1053 0.9369
0.3265 15.4788 2.0161 0.9395
-2.4906 15.5941 2.0564 0.9383
-3.6548 15.5974 2.0861 0.9374
-4.2511 15.5990 2.1054 0.9369
-4.8593 15.6007 2.1278 0.9362
-5.4814 15.6024 2.1535 0.9355
-6.0553 13.9459 1.9798 0.9405
-6.6607 13.9475 2.0127 0.9396
-7.2875 13.9493 2.0494 0.9385
-8.0573 13.0475 1.9969 0.9400
-8.7204 13.0493 2.0438 0.9387
-10.9250 13.0554 2.2168 0.9336
-11.7488 13.0577 2.2874 0.9316
-16.8135 14.0055 2.8496 0.9155
-18.1012 14.0091 2.9806 0.9118
-19.5149 14.0130 3.1285 0.9076
-21.0650 14.0084 3.2944 0.9030
-34.3226 17.8326 5.0368 0.8555
-0.2669 14.6288 1.5711 0.9428
-3.5267 14.8212 1.6360 0.9406
-4.1033 14.8551 1.6549 0.9399
-5.2860 14.8825 1.6959 0.9384
-6.1124 13.9460 1.6351 0.9406
-6.7198 13.9477 1.6625 0.9396
-7.3487 13.9495 1.6931 0.9385
-8.1195 13.0476 1.6502 0.9400
-11.0017 13.0556 1.8333 0.9336
-11.8305 13.0579 1.8921 0.9316
-12.7154 13.0604 1.9573 0.9293
-15.3889 14.7111 2.2861 0.9179
-15.9069 14.1494 2.2861 0.9179
-18.1853 13.9744 2.4627 0.9119
-19.6578 14.0134 2.5923 0.9074
-21.1840 13.9828 2.7256 0.9029
-22.9992 14.0227 2.8925 0.8973
-30.2120 -4.0872 3.2738 0.8846
-33.8276 -23.1969 4.4045 0.8479
-28.0405 -22.3468 3.8503 0.8657
-24.3561 -22.4486 3.5568 0.8752
-17.7147 -21.7922 3.0157 0.8932
-15.7909 -22.5565 2.9567 0.8951
-14.1003 -21.7643 2.7847 0.9009
-13.0177 -21.7673 2.7235 0.9030
-11.2960 -22.3934 2.6933 0.9040
-10.3064 -22.3961 2.6474 0.9056
-9.4037 -22.5301 2.6216 0.9065
-7.5127 -22.3989 2.5369 0.9093
-4.9148 -22.4061 2.4632 0.9118
-4.1024 -22.5398 2.4601 0.9120
-3.2529 -22.4107 2.4317 0.9129
-2.4357 -22.4130 2.4209 0.9133
-0.8177 -22.4175 2.4088 0.9137
32.4153 -37.1594 5.2951 0.8201
32.9575 -30.4454 4.8180 0.8349
33.0541 -28.4055 4.6800 0.8392
32.6279 -26.0632 4.4842 0.8454
34.6950 -25.7305 4.6383 0.8405
37.5300 -25.7983 4.8904 0.8326
31.6348 -6.6563 3.4714 0.8780
32.3840 -4.4183 3.5097 0.8768
32.9770 -3.2989 3.5588 0.8752
28.9252 14.8608 3.4920 0.8774
27.6162 15.4653 3.3988 0.8804
35.0590 23.0842 4.5075 0.8446
26.9452 25.7002 3.9985 0.8609
2.6976 21.1177 2.2861 0.9179
0.9973 18.0271 1.9387 0.9299
0.2826 14.5834 1.5663 0.9430
-0.2417 14.6291 1.5711 0.9428
-0.7676 14.6308 1.5732 0.9428
-1.2979 14.6592 1.5803 0.9425
-1.8349 14.6971 1.5904 0.9422
-2.3774 14.7224 1.6014 0.9418
-2.9183 14.6985 1.6092 0.9415
-3.4984 14.8154 1.6347 0.9406
-4.6731 14.9127 1.6781 0.9391
-6.0460 15.3389 1.7704 0.9358
-6.6902 13.9476 1.6611 0.9397
-7.4529 13.0458 1.6134 0.9413
-8.0884 13.0475 1.6484 0.9401
-8.7529 13.0494 1.6873 0.9387
-10.1856 13.0534 1.7779 0.9356
-10.9633 13.0555 1.8307 0.9337
-11.7896 13.0578 1.8891 0.9317
-12.6716 13.0603 1.9541 0.9294
-18.1205 13.9742 2.4572 0.9121
-22.9102 14.0224 2.8844 0.8976
-24.4400 -22.4483 3.5635 0.8750
-21.0909 -22.3662 3.3011 0.8837
-15.8486 -22.5563 2.9602 0.8950
-12.3811 -22.4071 2.7490 0.9021
-11.3442 -22.3932 2.6956 0.9039
-9.4676 -22.5741 2.6286 0.9062
-8.4632 -22.4012 2.5714 0.9082
-7.5555 -22.3988 2.5384 0.9093
-6.6874 -22.4562 2.5160 0.9100
-5.8052 -22.4036 2.4852 0.9111
-4.9551 -22.4060 2.4641 0.9118
-4.1424 -22.5397 2.4609 0.9119
-2.4747 -22.4129 2.4214 0.9133
-1.6758 -22.5818 2.4315 0.9129
-0.8563 -22.4174 2.4090 0.9137
-0.0512 -22.4196 2.4075 0.9138
0.7598 -22.5974 2.4279 0.9131
6.9091 -27.1744 3.0109 0.8933
2.2878 -4.1854 0.5122 0.9810
32.4149 -37.2881 5.3055 0.8197
32.9574 -30.5505 4.8256 0.8346
33.0510 -28.5016 4.6865 0.8390
32.6276 -26.1550 4.4904 0.8452
37.3916 -25.7979 4.8781 0.8330
31.6749 -6.7216 3.4771 0.8779
32.9879 -3.3572 3.5606 0.8751
42.8894 12.9583 4.8112 0.8351
38.9906 13.3251 4.4246 0.8472
34.9821 13.3754 4.0217 0.8601
30.1266 14.0723 3.5706 0.8748
27.6221 14.1314 3.3317 0.8827
27.5537 16.6920 3.4593 0.8784
28.0482 19.8744 3.6913 0.8708
29.7624 22.7362 4.0218 0.8601
28.1496 23.1501 3.9137 0.8636
26.9906 23.8711 3.8692 0.8651
26.9503 25.6168 3.9927 0.8611
27.3033 27.8846 4.1907 0.8547
32.1858 35.3222 5.1314 0.8251
1.2125 21.2548 2.2861 0.9179
0.3075 14.5795 1.5659 0.9430
-0.7423 14.6296 1.5730 0.9428
-1.8089 14.6946 1.5898 0.9422
-2.8910 14.6932 1.6080 0.9415
-6.0458 15.4160 1.7781 0.9356
-6.0553 13.9459 1.6326 0.9407
-7.4231 13.0457 1.6118 0.9414
-8.0573 13.0475 1.6467 0.9402
-9.4163 13.0512 1.7282 0.9373
-10.1494 13.0533 1.7755 0.9356
-10.9250 13.0554 1.8280 0.9338
-11.7488 13.0577 1.8862 0.9318
-12.6280 13.0601 1.9508 0.9295
-15.8582 14.2040 2.2861 0.9179
-16.7588 13.9599 2.3421 0.9160
-19.5149 14.0130 2.5798 0.9079
-21.0650 14.0084 2.7165 0.9032
-34.3208 17.8316 4.1532 0.8559
-0.2475 13.5699 1.1489 0.9470
-0.7354 13.5712 1.1505 0.9469
-1.2252 13.5726 1.1536 0.9468
-1.7192 13.5810 1.1588 0.9465
-2.7420 13.6876 1.1817 0.9455
-3.2610 13.7046 1.1925 0.9450
-3.7889 13.7172 1.2047 0.9445
-4.9058 13.8120 1.2408 0.9429
-6.1124 13.9460 1.2890 0.9407
-7.3487 13.9495 1.3347 0.9387
-8.8789 15.4801 1.5107 0.9309
-9.9664 14.8034 1.5107 0.9309
-10.4912 14.4362 1.5107 0.9309
-11.0025 14.0504 1.5107 0.9309
-21.9900 15.6759 2.2861 0.8973
-30.2090 -4.0868 2.5806 0.8848
-33.8394 -23.2049 3.4734 0.8481
-26.0700 -22.3523 2.9070 0.8712
-19.7122 -22.5456 2.5352 0.8867
-17.7726 -21.8634 2.3852 0.8931
-15.6317 -22.3291 2.3074 0.8964
-13.1275 -21.9508 2.1651 0.9024
-12.3814 -22.4988 2.1739 0.9020
-11.2960 -22.3934 2.1232 0.9042
-8.4193 -22.4014 2.0258 0.9084
-7.5127 -22.3989 1.9999 0.9095
-5.7642 -22.4038 1.9583 0.9113
-3.2529 -22.4107 1.9170 0.9131
-2.4357 -22.4130 1.9085 0.9135
-1.6247 -22.4153 1.9025 0.9137
-0.8177 -22.4175 1.8990 0.9139
-0.0127 -22.4197 1.8979 0.9139
0.7924 -22.4220 1.8993 0.9139
1.5998 -22.4242 1.9031 0.9137
6.9520 -27.1478 2.3723 0.8936
32.5997 -37.3708 4.1981 0.8195
32.6136 -32.3727 3.8900 0.8315
33.0320 -30.5143 3.8068 0.8348
40.8779 -25.9902 4.1006 0.8233
33.1566 -5.7425 2.8486 0.8736
32.9834 7.4916 2.8633 0.8730
42.6271 12.9590 3.7716 0.8362
38.3290 13.1725 3.4309 0.8498
35.0323 13.4637 3.1771 0.8601
30.6211 14.3675 2.8633 0.8730
28.2228 14.4999 2.6860 0.8804
27.0295 16.4380 2.6780 0.8807
25.7377 18.3037 2.6735 0.8809
31.1371 23.8713 3.3213 0.8543
2.0869 22.8284 1.9405 0.9121
1.2631 22.8307 1.9356 0.9123
-0.2242 13.5698 1.1489 0.9470
-1.2017 13.5725 1.1534 0.9468
-1.6953 13.5794 1.1585 0.9465
-2.7170 13.6847 1.1811 0.9455
-3.2360 13.7042 1.1920 0.9450
-3.7634 13.7164 1.2040 0.9445
-4.3102 13.7546 1.2202 0.9438
-4.8781 13.8092 1.2398 0.9429
-8.8523 15.4954 1.5107 0.9309
-9.4027 15.1677 1.5107 0.9309
-9.9409 14.8205 1.5107 0.9309
-10.4664 14.4542 1.5107 0.9309
-11.4762 13.6663 1.5107 0.9309
-12.7221 13.1123 1.5466 0.9293
-16.0629 15.4084 1.8842 0.9145
-17.4637 15.5881 1.9816 0.9103
-18.9591 15.7376 2.0858 0.9058
-22.5127 14.9154 2.2861 0.8973
-30.2058 -4.0335 2.5797 0.8849
-28.1392 -22.3466 3.0418 0.8657
-19.7805 -22.5454 2.5390 0.8866
-15.6888 -22.3290 2.3101 0.8962
-13.1272 -21.8650 2.1589 0.9027
-10.3530 -22.3960 2.0887 0.9057
-9.3940 -22.3987 2.0561 0.9071
-8.4632 -22.4012 2.0271 0.9083
-4.9551 -22.4060 1.9426 0.9120
-4.1183 -22.4083 1.9287 0.9126
-3.2922 -22.4106 1.9175 0.9131
-1.6634 -22.4152 1.9027 0.9137
-0.8563 -22.4174 1.8991 0.9139
0.7539 -22.4219 1.8991 0.9139
6.9086 -27.1725 2.3734 0.8936
2.2878 -4.1854 0.4038 0.9810
32.5993 -37.5003 4.2063 0.8192
40.5563 -25.8837 4.0728 0.8244
37.1979 -5.1402 3.1788 0.8601
32.9806 7.4314 2.8619 0.8731
39.1647 13.3846 3.5037 0.8469
34.9821 13.3754 3.1704 0.8604
31.4518 14.6913 2.9386 0.8699
35.1739 26.8702 3.7470 0.8372
29.7544 24.4699 3.2612 0.8567
28.3969 26.9918 3.3166 0.8545
2.1264 22.8283 1.9408 0.9121
1.3024 22.8306 1.9358 0.9123
0.2862 13.5684 1.1489 0.9470
-0.2009 13.5698 1.1488 0.9470
-0.6886 13.5711 1.1503 0.9469
-1.6715 13.5778 1.1581 0.9466
-2.1763 13.6258 1.1681 0.9461
-2.6920 13.6819 1.1804 0.9456
-3.2110 13.7037 1.1915 0.9451
-6.6607 13.9476 1.3084 0.9398
-10.9541 14.0882 1.5107 0.9309
-11.4527 13.6860 1.5107 0.9309
-11.9364 13.2662 1.5107 0.9309
-14.5074 13.9642 1.7046 0.9223
-20.3397 15.7414 2.1772 0.9019
-21.9359 15.7514 2.2861 0.8973
-23.0092 14.1375 2.2861 0.8973
-34.3190 17.8307 3.2739 0.8562
2.0473 22.8285 1.4213 0.9122
0.2396 13.5685 0.8415 0.9471
-0.7354 13.5712 0.8428 0.9470
-1.2252 13.5726 0.8451 0.9468
-1.7184 13.5740 0.8484 0.9466
-2.2161 13.5753 0.8530 0.9464
-4.8243 13.5826 0.8938 0.9439
-5.3813 13.5841 0.9060 0.9431
-6.1124 13.9460 0.9442 0.9408
-6.7198 13.9477 0.9600 0.9398
-7.3487 13.9495 0.9777 0.9388
-10.1701 17.7313 1.2675 0.9213
-11.9409 17.7362 1.3259 0.9179
-12.7795 17.5850 1.3480 0.9166
-13.2083 16.8673 1.3285 0.9177
-13.2116 15.6781 1.2714 0.9211
-13.2147 14.5856 1.2205 0.9242
-13.5929 13.9617 1.2083 0.9249
-30.2066 -4.0864 1.8902 0.8850
-28.0405 -22.3468 2.2234 0.8661
-24.2571 -22.3574 2.0456 0.8762
-21.0186 -22.3664 1.9033 0.8843
-15.3816 -18.9221 1.5121 0.9069
-9.3488 -22.3988 1.5051 0.9073
-5.7642 -22.4038 1.4345 0.9115
-4.0717 -22.3711 1.4100 0.9129
-0.8177 -22.4175 1.3910 0.9140
-0.0127 -22.4197 1.3903 0.9141
0.7925 -22.4220 1.3913 0.9140
1.5998 -22.4242 1.3941 0.9138
6.9516 -27.1463 1.7375 0.8938
32.6136 -32.3727 2.8495 0.8318
34.5711 -25.6386 2.6690 0.8416
36.8539 12.6656 2.4165 0.8554
34.6242 14.7538 2.3339 0.8600
35.0494 19.6280 2.4910 0.8513
34.7724 24.7288 2.6459 0.8428
33.7558 25.8789 2.6376 0.8433
2.0869 22.8284 1.4215 0.9122
1.2631 22.8307 1.4179 0.9124
-0.2242 13.5698 0.8416 0.9471
-1.6947 13.5739 0.8483 0.9467
-2.1921 13.5753 0.8527 0.9464
-3.2063 13.5781 0.8651 0.9456
-4.7980 13.5825 0.8933 0.9439
-10.9933 17.7336 1.2938 0.9198
-11.8966 17.7361 1.3243 0.9180
-12.7793 17.6485 1.3512 0.9164
-13.2115 15.7327 1.2739 0.9210
-13.5461 13.9615 1.2063 0.9250
-15.8831 14.1772 1.3202 0.9182
-18.9548 14.6176 1.4843 0.9085
-20.7367 14.8363 1.5811 0.9029
-30.2035 -4.0332 1.8896 0.8850
-21.0909 -22.3662 1.9063 0.8841
-14.8469 -19.5961 1.5245 0.9062
-15.1887 -21.6171 1.6383 0.8995
-14.3459 -22.0602 1.6318 0.8999
-13.1726 -21.9405 1.5869 0.9025
-9.3940 -22.3987 1.5062 0.9072
-8.4632 -22.4012 1.4849 0.9085
-7.5555 -22.3988 1.4658 0.9096
-6.6711 -22.4012 1.4494 0.9106
-4.1114 -22.3710 1.4105 0.9129
-3.2922 -22.4106 1.4046 0.9132
1.5611 -22.4241 1.3939 0.9139
2.2877 -4.1854 0.2958 0.9811
32.5993 -37.5002 3.0812 0.8194
32.6133 -32.4839 2.8544 0.8315
32.7547 -30.3627 2.7696 0.8361
32.6276 -26.1550 2.5931 0.8457
34.4502 -25.6408 2.6630 0.8419
37.0589 12.6649 2.4285 0.8547
34.6707 13.2564 2.3017 0.8618
35.0492 19.5488 2.4886 0.8514
35.0588 22.9977 2.6000 0.8453
30.3140 26.8104 2.5095 0.8503
2.1264 22.8283 1.4217 0.9122
1.3024 22.8306 1.4180 0.9124
-1.1782 13.5725 0.8448 0.9469
-1.6710 13.5738 0.8481 0.9467
-2.6713 13.5766 0.8580 0.9461
-3.1816 13.5780 0.8648 0.9456
-3.7007 13.5795 0.8728 0.9452
-4.7718 13.5825 0.8927 0.9439
-6.0553 13.9459 0.9428 0.9409
-6.6607 13.9476 0.9585 0.9399
-7.2875 13.9493 0.9759 0.9389
-10.0892 17.7311 1.2650 0.9215
-10.9511 17.7335 1.2924 0.9199
-12.7792 17.7122 1.3543 0.9162
-13.2080 16.9869 1.3343 0.9174
-13.2113 15.7876 1.2766 0.9208
-13.4995 13.9614 1.2043 0.9251
-14.5074 13.9642 1.2486 0.9225
-15.8198 14.1696 1.3170 0.9184
-17.2485 14.3678 1.3921 0.9140
-20.6439 14.8237 1.5760 0.9032
-34.3172 17.8298 2.3981 0.8564
2.0473 22.8285 0.9038 0.9123
0.8502 15.8620 0.6264 0.9384
-0.8598 15.8667 0.6266 0.9384
-2.0090 15.8699 0.6308 0.9380
-2.5909 15.8715 0.6341 0.9377
-4.3854 15.8765 0.6495 0.9362
-5.0057 15.8782 0.6565 0.9355
-6.7198 13.9477 0.6105 0.9399
-10.1701 17.7313 0.8060 0.9214
-11.9409 17.7362 0.8431 0.9180
-12.7795 17.5850 0.8572 0.9167
-13.2116 15.6781 0.8084 0.9212
-13.2147 14.5856 0.7761 0.9242
-13.5929 13.9617 0.7683 0.9250
-16.6204 15.8884 0.9066 0.9121
-15.2354 13.5522 0.8040 0.9216
-17.6445 13.5589 0.8774 0.9148
-19.0255 13.5627 0.9213 0.9107
-20.5540 13.5669 0.9711 0.9061
-30.2054 -4.0863 1.2019 0.8851
-26.0700 -22.3523 1.3541 0.8716
-21.0186 -22.3664 1.2102 0.8844
-13.9642 -21.5542 1.0127 0.9023
-13.1728 -22.0266 1.0120 0.9024
-12.3814 -22.4988 1.0126 0.9023
-8.4193 -22.4014 0.9436 0.9086
-5.7642 -22.4038 0.9122 0.9116
-4.8924 -22.3039 0.9004 0.9126
-3.2414 -22.3315 0.8898 0.9136
-1.6374 -22.5908 0.8931 0.9133
-0.0127 -22.4197 0.8840 0.9142
1.5998 -22.4242 0.8865 0.9139
2.2982 -4.1875 0.1884 0.9811
32.6136 -32.3727 1.8119 0.8320
32.8915 -30.3845 1.7656 0.8359
34.6807 -25.7198 1.7025 0.8413
40.4855 -25.7407 1.8917 0.8253
43.2841 13.1588 1.7839 0.8344
38.3290 13.1725 1.5981 0.8502
35.0449 18.0049 1.5536 0.8541
35.1806 19.7014 1.5899 0.8509
35.1853 21.3979 1.6238 0.8480
35.0642 24.9363 1.6966 0.8418
2.0869 22.8284 0.9039 0.9123
1.2631 22.8307 0.9016 0.9125
0.3074 15.8635 0.6256 0.9385
-1.9813 15.8699 0.6306 0.9380
-2.5629 15.8715 0.6339 0.9377
-3.1515 15.8731 0.6381 0.9373
-4.3560 15.8764 0.6492 0.9362
-5.6096 15.8799 0.6641 0.9348
-6.0838 13.9460 0.6000 0.9409
-6.6903 13.9476 0.6100 0.9400
-7.3180 13.9494 0.6211 0.9389
-10.9933 17.7336 0.8227 0.9199
-12.7793 17.6485 0.8592 0.9165
-13.2145 14.6360 0.7775 0.9241
-13.5461 13.9615 0.7671 0.9251
-16.5631 15.8882 0.9050 0.9122
-17.8038 15.8917 0.9410 0.9089
-16.3300 13.5552 0.8368 0.9186
-17.5816 13.5587 0.8755 0.9150
-20.4771 13.5667 0.9686 0.9063
-28.1392 -22.3466 1.4169 0.8660
-26.1605 -22.3521 1.3568 0.8713
-24.4833 -22.4882 1.3108 0.8754
-16.5985 -18.9187 0.9924 0.9042
-15.4356 -18.9219 0.9629 0.9069
-13.9595 -19.8677 0.9574 0.9074
-12.3811 -22.4071 1.0094 0.9026
-11.3442 -22.3932 0.9898 0.9044
-9.4171 -22.4535 0.9601 0.9071
-8.4632 -22.4012 0.9442 0.9086
-6.6874 -22.4562 0.9239 0.9105
-5.8052 -22.4036 0.9126 0.9115
-4.1374 -22.5126 0.9026 0.9124
-1.6764 -22.5907 0.8932 0.9133
-0.0512 -22.4196 0.8840 0.9142
32.5993 -37.5003 1.9593 0.8196
33.6693 -36.0337 1.9446 0.8208
32.6133 -32.4839 1.8150 0.8317
32.8933 -30.4912 1.7686 0.8356
32.6276 -26.1550 1.6489 0.8459
34.5592 -25.7219 1.6987 0.8416
40.3363 -25.7432 1.8868 0.8257
38.5020 13.1581 1.6044 0.8497
35.0321 13.3946 1.4789 0.8606
35.0404 16.3676 1.5250 0.8566
35.1804 19.6220 1.5884 0.8511
35.1851 21.3151 1.6221 0.8482
35.0588 22.9978 1.6533 0.8455
30.2851 26.7848 1.5942 0.8506
0.3346 15.8634 0.6257 0.9385
-1.3775 15.8682 0.6281 0.9382
-1.9536 15.8698 0.6305 0.9380
-3.1231 15.8730 0.6379 0.9373
-4.3267 15.8764 0.6489 0.9363
-6.0458 15.4160 0.6529 0.9359
-6.0553 13.9459 0.5995 0.9410
-7.2875 13.9493 0.6206 0.9389
-10.0892 17.7311 0.8044 0.9216
-13.2144 14.6865 0.7790 0.9240
-13.4995 13.9614 0.7658 0.9252
-14.5074 13.9642 0.7940 0.9226
-16.2728 13.5550 0.8351 0.9187
-17.5191 13.5585 0.8735 0.9151
-18.8873 13.5623 0.9169 0.9111
-20.4005 13.5665 0.9660 0.9066
-34.3152 17.8287 1.5248 0.8566
2.0473 22.8285 0.3872 0.9124
0.2801 15.8636 0.2680 0.9385
-0.8598 15.8667 0.2684 0.9384
-1.4325 15.8683 0.2691 0.9382
-1.5609 12.3301 0.2099 0.9515
-4.3854 15.8765 0.2782 0.9362
-3.8769 12.2977 0.2178 0.9497
-4.3771 12.3233 0.2209 0.9490
-5.9334 12.3155 0.2309 0.9468
-10.1701 17.7313 0.3453 0.9215
-11.0356 17.7337 0.3528 0.9198
-8.4210 12.5081 0.2547 0.9415
-12.7795 17.5850 0.3672 0.9167
-13.2083 16.8673 0.3619 0.9179
-10.2970 12.2194 0.2699 0.9381
-13.2147 14.5856 0.3325 0.9243
-13.5929 13.9617 0.3291 0.9250
-19.2166 15.8956 0.4213 0.9050
-33.2655 21.9573 0.6733 0.8526
-28.0405 -22.3468 0.6057 0.8664
-24.3993 -22.4884 0.5605 0.8757
-21.0186 -22.3664 0.5185 0.8845
-19.7122 -22.5456 0.5059 0.8871
-16.7210 -22.1486 0.4688 0.8949
-14.2921 -22.0604 0.4440 0.9002
-12.3814 -22.4988 0.4338 0.9024
-11.2960 -22.3934 0.4237 0.9045
-9.3718 -22.4537 0.4110 0.9072
-8.4193 -22.4014 0.4042 0.9087
-6.6812 -22.5768 0.3977 0.9101
-4.0975 -22.5127 0.3865 0.9125
-2.4357 -22.4130 0.3808 0.9138
-0.8177 -22.4175 0.3789 0.9142
0.7986 -22.5975 0.3820 0.9135
1.5998 -22.4242 0.3797 0.9140
2.2982 -4.1874 0.0807 0.9811
32.8884 -30.3816 0.7563 0.8360
38.8951 13.3671 0.6947 0.8483
35.1324 13.5022 0.6358 0.8602
35.1451 18.0564 0.6674 0.8538
35.1902 23.1706 0.7117 0.8449
30.1876 26.7912 0.6818 0.8509
4.8312 17.4138 0.3053 0.9303
0.7042 12.7294 0.2154 0.9503
0.2415 12.4639 0.2106 0.9514
-0.2622 15.8651 0.2680 0.9385
-1.4050 15.8683 0.2691 0.9383
-1.5391 12.3280 0.2099 0.9515
-1.9474 12.0595 0.2063 0.9523
-3.7486 15.8748 0.2755 0.9368
-4.3560 15.8764 0.2781 0.9363
-3.8590 12.3146 0.2180 0.9497
-6.0460 15.3389 0.2785 0.9362
-6.0838 13.9460 0.2570 0.9409
-5.9155 12.3324 0.2310 0.9468
-6.4804 12.3528 0.2356 0.9457
-10.1296 17.7312 0.3449 0.9216
-8.4130 12.5427 0.2551 0.9414
-13.2082 16.9269 0.3627 0.9177
-13.5461 13.9615 0.3286 0.9251
-16.5631 15.8882 0.3877 0.9123
-17.8038 15.8917 0.4031 0.9089
-20.6170 15.8995 0.4398 0.9011
-33.2603 23.7965 0.6908 0.8491
-30.2022 -4.0330 0.5147 0.8852
-22.6569 -22.3618 0.5377 0.8804
-21.0909 -22.3662 0.5193 0.8843
-19.7804 -22.5454 0.5066 0.8869
-17.9057 -21.9499 0.4785 0.8929
-16.7807 -22.1484 0.4694 0.8948
-14.3459 -22.0602 0.4445 0.9001
-12.3811 -22.4071 0.4324 0.9027
-8.4632 -22.4012 0.4045 0.9086
-7.5555 -22.3988 0.3993 0.9098
-6.7233 -22.5767 0.3979 0.9101
-4.9469 -22.3687 0.3870 0.9124
-4.1374 -22.5126 0.3866 0.9125
-0.8563 -22.4174 0.3789 0.9142
6.9062 -27.1633 0.4734 0.8939
2.2877 -4.1853 0.0806 0.9811
32.5993 -37.5003 0.8394 0.8197
33.6710 -36.0354 0.8330 0.8209
32.8902 -30.4883 0.7576 0.8358
34.5553 -25.7190 0.7276 0.8417
40.3313 -25.7401 0.8082 0.8258
35.1322 13.4329 0.6353 0.8603
36.0471 15.2870 0.6614 0.8550
35.1475 17.9814 0.6669 0.8539
35.3807 19.7337 0.6843 0.8504
35.1851 21.3151 0.6949 0.8483
35.4010 27.0437 0.7525 0.8368
30.2263 26.7328 0.6816 0.8509
4.8602 17.4019 0.3052 0.9303
0.2617 12.4075 0.2096 0.9516
-0.2349 15.8650 0.2680 0.9385
-1.9282 12.0728 0.2065 0.9523
-3.7198 15.8747 0.2754 0.9369
-4.3267 15.8764 0.2780 0.9363
-3.8410 12.3315 0.2182 0.9496
-4.3349 12.3390 0.2209 0.9490
-6.0458 15.4160 0.2797 0.9359
-12.7792 17.7122 0.3689 0.9163
-13.2080 16.9868 0.3635 0.9175
-10.2577 12.2580 0.2700 0.9381
-13.2144 14.6865 0.3337 0.9240
-14.5074 13.9642 0.3401 0.9226
-17.7422 15.8915 0.4023 0.9091
-20.5436 15.8993 0.4388 0.9013
-33.2601 23.8829 0.6917 0.8489
-33.2650 22.1214 0.6748 0.8523
-34.3115 17.8268 0.6531 0.8567
0.6540 12.2006 -0.0688 0.9523
0.2129 12.0572 -0.0679 0.9529
-0.6670 12.3099 -0.0694 0.9519
-1.9347 11.8515 -0.0676 0.9531
-2.3914 11.9372 -0.0685 0.9525
-2.9117 12.2366 -0.0708 0.9509
-3.3475 12.1192 -0.0708 0.9510
-3.8644 12.2581 -0.0724 0.9499
-4.2902 12.0788 -0.0722 0.9500
-5.8559 12.1545 -0.0760 0.9475
-6.2400 11.8449 -0.0754 0.9479
-6.9259 12.0751 -0.0784 0.9458
-7.5122 12.0718 -0.0801 0.9447
-8.6943 11.9636 -0.0833 0.9426
-9.4603 12.0810 -0.0864 0.9405
-10.1998 12.1041 -0.0891 0.9386
-14.3956 11.9078 -0.1052 0.9280
-18.1672 11.9915 -0.1226 0.9166
-19.9333 12.1533 -0.1314 0.9108
-21.5169 12.0817 -0.1389 0.9060
-25.5116 12.0053 -0.1587 0.8933
-30.1831 -4.0833 -0.1715 0.8853
-26.0700 -22.3523 -0.1933 0.8717
-22.5795 -22.3620 -0.1789 0.8806
-21.0186 -22.3664 -0.1728 0.8845
-15.7909 -22.5565 -0.1550 0.8957
-14.2921 -22.0604 -0.1480 0.9002
-12.3814 -22.4988 -0.1446 0.9024
-10.3064 -22.3961 -0.1388 0.9061
-9.4037 -22.5301 -0.1375 0.9070
-7.5127 -22.3989 -0.1330 0.9098
-4.0975 -22.5127 -0.1288 0.9125
-0.8177 -22.4175 -0.1263 0.9142
0.7986 -22.5975 -0.1273 0.9135
1.5998 -22.4242 -0.1266 0.9140
2.2982 -4.1874 -0.0269 0.9811
32.5997 -37.3708 -0.2792 0.8201
32.6136 -32.3727 -0.2587 0.8321
32.8853 -30.3787 -0.2521 0.8360
34.6729 -25.7141 -0.2430 0.8414
43.9821 13.3710 -0.2588 0.8320
35.1324 13.5022 -0.2119 0.8602
36.0120 15.3452 -0.2204 0.8551
34.4250 17.6864 -0.2179 0.8566
4.1859 15.0876 -0.0882 0.9393
3.2168 13.4512 -0.0779 0.9462
2.7165 13.4812 -0.0774 0.9465
2.1297 12.9537 -0.0739 0.9488
1.6504 12.9200 -0.0733 0.9492
-0.1981 11.9916 -0.0675 0.9532
-1.9150 11.8588 -0.0676 0.9531
-2.3689 11.9316 -0.0685 0.9525
-2.8481 12.0613 -0.0698 0.9516
-3.8031 12.1362 -0.0716 0.9504
-6.9188 12.1108 -0.0785 0.9457
-7.5690 12.2097 -0.0809 0.9442
-11.7060 12.0650 -0.0946 0.9350
-12.3797 11.8753 -0.0966 0.9337
-13.7666 12.2881 -0.1039 0.9288
-14.4578 12.0011 -0.1058 0.9276
-16.5758 11.8594 -0.1148 0.9217
-19.4702 11.9169 -0.1285 0.9127
-25.1023 11.8655 -0.1563 0.8949
-30.1829 -4.0304 -0.1714 0.8853
-28.1392 -22.3466 -0.2023 0.8661
-26.1605 -22.3521 -0.1937 0.8714
-21.0909 -22.3662 -0.1731 0.8843
-17.9057 -21.9499 -0.1595 0.8929
-16.7807 -22.1484 -0.1564 0.8948
-15.8486 -22.5563 -0.1552 0.8956
-14.3459 -22.0602 -0.1482 0.9001
-13.1726 -21.9405 -0.1441 0.9027
-11.3442 -22.3932 -0.1413 0.9045
-8.4632 -22.4012 -0.1348 0.9087
-6.7233 -22.5767 -0.1326 0.9101
-5.8052 -22.4036 -0.1303 0.9116
-2.4747 -22.4129 -0.1270 0.9138
-0.8563 -22.4174 -0.1263 0.9142
-0.0512 -22.4196 -0.1262 0.9142
6.9053 -27.1594 -0.1578 0.8940
2.2877 -4.1853 -0.0269 0.9811
33.6726 -36.0372 -0.2777 0.8210
32.8871 -30.4854 -0.2525 0.8358
32.6276 -26.1550 -0.2354 0.8460
37.2778 -25.7194 -0.2550 0.8343
44.3703 13.4057 -0.2610 0.8308
39.1115 13.3664 -0.2327 0.8476
35.1322 13.4329 -0.2118 0.8603
36.0118 15.2721 -0.2202 0.8552
35.1475 17.9814 -0.2223 0.8539
34.1305 19.0364 -0.2200 0.8553
35.1952 24.9385 -0.2429 0.8415
35.2006 26.8906 -0.2494 0.8376
3.2690 13.5662 -0.0786 0.9457
1.6718 12.9104 -0.0733 0.9493
1.1817 12.6862 -0.0717 0.9503
0.7220 12.6565 -0.0714 0.9506
0.2534 12.0137 -0.0677 0.9531
-0.1774 11.9822 -0.0675 0.9532
-1.5052 12.2274 -0.0694 0.9519
-1.8952 11.8662 -0.0677 0.9531
-2.3465 11.9260 -0.0684 0.9525
-3.2828 12.0458 -0.0703 0.9513
-4.8854 12.4573 -0.0753 0.9479
-5.3100 12.2294 -0.0751 0.9481
-6.1965 11.8610 -0.0753 0.9479
-6.9116 12.1468 -0.0787 0.9456
-7.5423 12.2134 -0.0808 0.9442
-8.6986 12.0565 -0.0837 0.9423
-12.3473 11.8851 -0.0965 0.9337
-15.2773 11.8236 -0.1088 0.9256
-16.5777 11.9039 -0.1149 0.9216
-18.2946 12.1660 -0.1237 0.9159
-19.8274 12.1825 -0.1310 0.9111
-21.3524 12.0860 -0.1381 0.9065
1.1177 12.4635 -0.3524 0.9512
0.6560 12.2398 -0.3451 0.9521
-0.2195 12.0347 -0.3389 0.9530
-0.6486 11.9704 -0.3376 0.9532
-2.3840 11.9004 -0.3417 0.9526
-3.2792 11.8719 -0.3468 0.9519
-3.7580 11.9204 -0.3519 0.9512
-4.6787 11.8106 -0.3577 0.9504
-6.2222 11.8112 -0.3759 0.9480
-7.4506 11.9728 -0.3971 0.9451
-13.4830 11.9933 -0.5081 0.9303
-14.3578 11.8766 -0.5247 0.9281
-15.5617 11.9584 -0.5526 0.9245
-16.6961 11.9021 -0.5774 0.9212
-21.1122 11.8544 -0.6818 0.9077
-23.3572 12.0336 -0.7398 0.9002
-28.0170 -22.3281 -1.0088 0.8664
-26.0139 -22.3042 -0.9649 0.8719
-24.1764 -22.2830 -0.9258 0.8767
-20.9070 -22.2476 -0.8596 0.8850
-19.4387 -22.2328 -0.8316 0.8885
-15.7909 -22.5565 -0.7753 0.8957
-14.2921 -22.0604 -0.7401 0.9002
-10.2419 -22.2559 -0.6898 0.9066
-9.2991 -22.2795 -0.6798 0.9079
-8.3816 -22.3009 -0.6708 0.9091
-6.6088 -22.3323 -0.6558 0.9110
-5.7497 -22.3474 -0.6497 0.9118
-4.0975 -22.5127 -0.6443 0.9125
-3.2486 -22.3814 -0.6368 0.9135
-1.6232 -22.3955 -0.6323 0.9141
-0.8171 -22.4001 -0.6312 0.9142
-0.0127 -22.4030 -0.6308 0.9143
6.7752 -47.0522 -1.3385 0.8268
6.9487 -27.1348 -0.7887 0.8940
2.2982 -4.1874 -0.1345 0.9811
32.5997 -37.3708 -1.3964 0.8200
32.1657 -31.9281 -1.2762 0.8341
32.8248 -30.3228 -1.2583 0.8363
43.2841 13.1588 -1.2739 0.8344
35.0824 13.4829 -1.0583 0.8604
35.8128 16.8034 -1.1139 0.8536
34.4250 17.6864 -1.0898 0.8565
34.2055 24.3256 -1.1819 0.8454
4.0737 14.6832 -0.4291 0.9408
2.7024 13.4109 -0.3852 0.9467
1.6400 12.8381 -0.3644 0.9495
-1.0278 11.6079 -0.3281 0.9544
-1.4925 11.9545 -0.3392 0.9529
-2.3663 11.9185 -0.3421 0.9525
-2.8300 11.9848 -0.3467 0.9519
-3.2473 11.8357 -0.3456 0.9521
-3.7387 11.9308 -0.3521 0.9512
-5.6546 11.7885 -0.3681 0.9490
-6.2121 11.8413 -0.3765 0.9479
-7.3977 11.9334 -0.3953 0.9454
-10.8456 12.0122 -0.4557 0.9373
-11.6109 11.9670 -0.4695 0.9355
-12.3997 11.8945 -0.4838 0.9336
-15.5182 11.9674 -0.5518 0.9246
-17.9223 11.8741 -0.6054 0.9176
-19.3212 11.8257 -0.6379 0.9133
-21.1013 11.8961 -0.6821 0.9076
-22.9174 11.8569 -0.7266 0.9019
-25.0940 11.8615 -0.7816 0.8949
-28.1176 -22.3294 -1.0110 0.8662
-24.2610 -22.2840 -0.9276 0.8765
-22.5590 -22.2651 -0.8925 0.8809
-19.5068 -22.2335 -0.8328 0.8884
-17.9057 -21.9499 -0.7977 0.8928
-16.7807 -22.1484 -0.7824 0.8948
-15.8486 -22.5563 -0.7762 0.8956
-14.3459 -22.0602 -0.7410 0.9001
-11.2607 -22.2283 -0.7016 0.9051
-10.2877 -22.2547 -0.6904 0.9066
-8.4249 -22.2999 -0.6712 0.9090
-4.1374 -22.5126 -0.6445 0.9125
-3.2878 -22.3810 -0.6370 0.9135
-2.4720 -22.3890 -0.6343 0.9138
-1.6619 -22.3952 -0.6323 0.9141
-0.8556 -22.3999 -0.6312 0.9142
0.7533 -22.4043 -0.6312 0.9142
6.9043 -27.1556 -0.7889 0.8939
2.2877 -4.1852 -0.1343 0.9811
33.6221 -35.9831 -1.3867 0.8211
32.6276 -26.1550 -1.1775 0.8459
41.1067 -2.6975 -1.1600 0.8480
38.5313 13.1681 -1.1466 0.8496
35.0822 13.4137 -1.0576 0.8605
36.0471 15.2870 -1.1025 0.8550
35.8577 16.7494 -1.1144 0.8535
35.0485 17.9308 -1.1085 0.8542
33.4611 18.6630 -1.0788 0.8579
33.6577 20.3898 -1.1081 0.8543
34.2337 24.2573 -1.1814 0.8454
34.9792 26.7214 -1.2394 0.8385
3.2688 13.5656 -0.3929 0.9457
1.1584 12.4364 -0.3517 0.9512
-0.1786 12.0651 -0.3398 0.9529
-0.6138 12.0971 -0.3411 0.9527
-1.4729 11.9651 -0.3395 0.9529
-1.9096 11.9563 -0.3409 0.9527
-2.3486 11.9366 -0.3426 0.9525
-3.7195 11.9413 -0.3522 0.9512
-4.1472 11.8045 -0.3523 0.9512
-4.6452 11.8446 -0.3582 0.9504
-6.2020 11.8715 -0.3771 0.9478
-6.7428 11.8500 -0.3839 0.9469
-7.8785 11.7896 -0.3993 0.9448
-8.5738 11.8835 -0.4126 0.9430
-11.5159 11.9099 -0.4665 0.9359
-14.4249 12.0158 -0.5286 0.9276
-15.4863 11.9853 -0.5514 0.9246
-19.3039 11.8608 -0.6380 0.9133
-21.0905 11.9378 -0.6824 0.9076
1.1168 12.4528 -0.6341 0.9512
0.6681 12.4640 -0.6330 0.9512
-1.0690 11.8425 -0.6030 0.9535
-1.5021 11.8660 -0.6066 0.9532
-1.9633 12.0269 -0.6180 0.9524
-2.3658 11.8098 -0.6108 0.9529
-2.8665 12.0467 -0.6280 0.9516
-3.2656 11.8227 -0.6220 0.9521
-3.7288 11.8278 -0.6289 0.9515
-4.2360 11.9263 -0.6419 0.9506
-4.6935 11.8478 -0.6463 0.9502
-5.7027 11.8367 -0.6663 0.9487
-7.3697 11.8428 -0.7074 0.9457
-9.2474 11.8091 -0.7607 0.9417
-10.0341 11.9074 -0.7897 0.9395
-11.5542 11.8677 -0.8400 0.9358
-13.4821 11.9925 -0.9151 0.9303
-15.3580 11.8018 -0.9823 0.9254
-18.0924 11.9421 -1.0994 0.9168
-19.5569 11.9239 -1.1616 0.9123
-21.1443 11.8725 -1.2298 0.9074
-23.0498 11.8752 -1.3150 0.9014
-24.5870 11.5702 -1.3781 0.8969
-33.5314 14.3330 -1.8494 0.8641
-36.8243 14.2003 -2.0016 0.8538
-37.3102 12.8697 -2.0016 0.8538
-37.7480 11.5224 -2.0016 0.8538
-39.1985 4.5990 -2.0016 0.8538
-39.4658 0.3596 -2.0016 0.8538
-39.4533 -1.0570 -2.0016 0.8538
-39.3899 -2.4721 -2.0016 0.8538
-39.2758 -3.8841 -2.0016 0.8538
-30.0828 -4.0697 -1.5395 0.8855
-38.8961 -6.6912 -2.0016 0.8538
-38.6309 -8.0828 -2.0016 0.8538
-37.5384 -12.1878 -2.0016 0.8538
-36.5676 -14.8489 -2.0016 0.8538
-35.4083 -17.4335 -2.0016 0.8538
-34.7599 -18.6929 -2.0016 0.8538
-34.0667 -19.9283 -2.0016 0.8538
-30.0744 -20.6232 -1.8494 0.8641
-29.3150 -21.6892 -1.8494 0.8641
-26.0700 -22.3523 -1.7416 0.8715
-24.2571 -22.3574 -1.6730 0.8762
-22.5795 -22.3620 -1.6116 0.8805
-16.7210 -22.1486 -1.4074 0.8948
-13.1728 -22.0266 -1.3016 0.9023
-10.3064 -22.3961 -1.2503 0.9060
-6.6292 -22.4013 -1.1848 0.9107
-5.7642 -22.4038 -1.1732 0.9115
-4.9148 -22.4061 -1.1633 0.9122
-4.0975 -22.5127 -1.1605 0.9124
-3.2529 -22.4107 -1.1485 0.9133
-2.4357 -22.4130 -1.1434 0.9137
-1.6247 -22.4153 -1.1398 0.9139
-0.8177 -22.4175 -1.1376 0.9141
-0.0127 -22.4197 -1.1370 0.9141
1.5998 -22.4242 -1.1401 0.9139
3.8987 -36.2573 -1.8494 0.8641
6.4892 -35.8842 -1.8494 0.8641
7.7728 -35.6283 -1.8494 0.8641
6.9282 -27.0546 -1.4163 0.8942
13.8433 -36.9600 -2.0016 0.8538
16.4587 -35.8718 -2.0016 0.8538
17.7354 -35.2581 -2.0016 0.8538
2.2982 -4.1873 -0.2422 0.9811
21.4220 -33.1478 -2.0016 0.8538
24.8604 -30.6535 -2.0016 0.8538
25.9445 -29.7416 -2.0016 0.8538
26.9024 -28.6925 -1.9947 0.8543
26.9698 -26.7706 -1.9272 0.8588
28.4920 -22.7595 -1.8494 0.8641
29.2905 -21.7224 -1.8494 0.8641
32.0972 -17.3079 -1.8494 0.8641
33.2324 -16.4089 -1.8796 0.8621
36.5507 -14.8902 -2.0016 0.8538
36.5420 -2.3349 -1.8570 0.8636
39.4661 0.3149 -2.0016 0.8538
39.4294 1.7310 -2.0016 0.8538
39.2037 4.5546 -2.0016 0.8538
38.7760 7.3549 -2.0016 0.8538
34.4865 11.8521 -1.8494 0.8641
34.0390 13.0819 -1.8494 0.8641
33.5476 14.2950 -1.8494 0.8641
32.4359 16.6645 -1.8494 0.8641
30.4569 20.0540 -1.8494 0.8641
29.7177 21.1341 -1.8494 0.8641
28.9401 22.1869 -1.8494 0.8641
26.5323 29.2184 -2.0016 0.8538
25.4666 30.1518 -2.0016 0.8538
24.3682 31.0462 -2.0016 0.8538
23.2383 31.9007 -2.0016 0.8538
22.0786 32.7141 -2.0016 0.8538
20.8904 33.4853 -2.0016 0.8538
19.6753 34.2134 -2.0016 0.8538
15.8842 36.1299 -2.0016 0.8538
14.5774 36.6766 -2.0016 0.8538
11.9092 37.6277 -2.0016 0.8538
3.1871 13.3270 -0.6949 0.9466
2.6129 12.9671 -0.6708 0.9484
2.1295 12.9525 -0.6657 0.9488
1.1377 12.4458 -0.6338 0.9512
-0.1987 12.0249 -0.6099 0.9530
-0.6389 12.1780 -0.6184 0.9523
-1.4811 11.8632 -0.6063 0.9532
-1.9344 11.9792 -0.6154 0.9526
-2.3485 11.8288 -0.6116 0.9528
-3.7136 11.8507 -0.6298 0.9515
-4.2246 11.9594 -0.6432 0.9505
-4.6767 11.8651 -0.6468 0.9502
-5.6944 11.8715 -0.6677 0.9486
-6.2918 11.9933 -0.6868 0.9472
-8.5784 11.8469 -0.7418 0.9431
-9.9177 11.8103 -0.7821 0.9401
-12.3601 11.8564 -0.8686 0.9337
-15.3430 11.8323 -0.9826 0.9253
-16.4703 11.7838 -1.0270 0.9221
-17.8719 11.8407 -1.0872 0.9177
-23.0383 11.9195 -1.3155 0.9013
-36.7998 14.2635 -2.0016 0.8538
-37.2880 12.9337 -2.0016 0.8538
-38.4621 8.8513 -2.0016 0.8538
-39.4243 1.8434 -2.0016 0.8538
-39.4651 0.4274 -2.0016 0.8538
-39.4550 -0.9892 -2.0016 0.8538
-39.2824 -3.8166 -2.0016 0.8538
-38.3321 -9.3980 -2.0016 0.8538
-37.9702 -10.7676 -2.0016 0.8538
-37.5593 -12.1232 -2.0016 0.8538
-37.1001 -13.4633 -2.0016 0.8538
-35.4382 -17.3726 -2.0016 0.8538
-34.1009 -19.8697 -2.0016 0.8538
-30.8287 -19.4777 -1.8494 0.8641
-30.1098 -20.5715 -1.8494 0.8641
-22.7182 -16.7481 -1.4314 0.8931
-28.1392 -22.3466 -1.8223 0.8660
-26.1605 -22.3521 -1.7450 0.8713
-24.3406 -22.3571 -1.6761 0.8760
-21.0909 -22.3662 -1.5591 0.8842
-16.7807 -22.1484 -1.4092 0.8947
-14.3022 -21.9930 -1.3305 0.9003
-13.1726 -21.9405 -1.2978 0.9026
-8.4632 -22.4012 -1.2144 0.9085
-7.5555 -22.3988 -1.1988 0.9097
-6.6711 -22.4012 -1.1854 0.9106
-4.9551 -22.4060 -1.1638 0.9122
-0.8563 -22.4174 -1.1377 0.9141
1.5611 -22.4241 -1.1400 0.9139
3.8363 -36.2639 -1.8494 0.8641
7.7116 -35.6416 -1.8494 0.8641
12.4437 -37.4544 -2.0016 0.8538
13.7798 -36.9837 -2.0016 0.8538
15.0981 -36.4654 -2.0016 0.8538
16.3970 -35.9001 -2.0016 0.8538
21.3650 -33.1845 -2.0016 0.8538
22.5421 -32.3965 -2.0016 0.8538
23.6902 -31.5666 -2.0016 0.8538
24.8077 -30.6962 -2.0016 0.8538
25.8933 -29.7861 -2.0016 0.8538
26.8622 -28.7485 -1.9954 0.8542
26.9687 -26.8617 -1.9304 0.8586
26.9909 -25.0197 -1.8665 0.8629
27.6160 -23.8148 -1.8494 0.8641
29.2531 -21.7727 -1.8494 0.8641
30.7394 -19.6184 -1.8494 0.8641
37.0382 -13.6326 -2.0016 0.8538
38.2888 -9.5730 -2.0016 0.8538
38.8768 -6.8020 -2.0016 0.8538
32.4603 -4.4856 -1.6618 0.8770
34.0740 -3.4677 -1.7370 0.8718
36.5749 -2.4001 -1.8589 0.8635
39.4501 -1.1694 -2.0016 0.8538
39.4666 0.2470 -2.0016 0.8538
39.3473 3.0772 -2.0016 0.8538
39.2115 4.4873 -2.0016 0.8538
39.0252 5.8915 -2.0016 0.8538
33.2085 8.7460 -1.7416 0.8715
34.9078 10.5468 -1.8494 0.8641
32.4644 16.6087 -1.8494 0.8641
30.3044 16.9024 -1.7598 0.8702
29.7539 21.0830 -1.8494 0.8641
28.9782 22.1371 -1.8494 0.8641
27.2681 25.9189 -1.9079 0.8601
27.2662 27.8466 -1.9765 0.8555
24.4215 31.0043 -2.0016 0.8538
23.2932 31.8607 -2.0016 0.8538
22.1348 32.6761 -2.0016 0.8538
19.7340 34.1796 -2.0016 0.8538
17.2316 35.5070 -2.0016 0.8538
13.3157 37.1533 -2.0016 0.8538
2.6304 12.9387 -0.6696 0.9485
2.1489 12.9318 -0.6648 0.9489
1.6331 12.6121 -0.6450 0.9503
0.7022 12.3099 -0.6253 0.9518
0.2526 11.9774 -0.6076 0.9532
-0.1782 12.0402 -0.6107 0.9529
-0.6164 12.1470 -0.6168 0.9525
-1.0381 11.9587 -0.6088 0.9531
-1.4569 11.8351 -0.6047 0.9534
-1.9057 11.9320 -0.6128 0.9528
-2.3223 11.8029 -0.6101 0.9530
-2.8248 12.0551 -0.6279 0.9516
-3.6984 11.8738 -0.6307 0.9514
-4.2132 11.9925 -0.6446 0.9504
-4.6363 11.8220 -0.6440 0.9504
-5.6860 11.9065 -0.6692 0.9485
-6.7392 11.8438 -0.6911 0.9469
-7.3440 11.8924 -0.7088 0.9456
-7.9321 11.8697 -0.7240 0.9444
-10.6321 11.8166 -0.8061 0.9383
-11.5566 11.9521 -0.8432 0.9356
-12.3521 11.8897 -0.8695 0.9336
-13.3113 11.9228 -0.9063 0.9309
-16.4450 11.8086 -1.0267 0.9221
-19.3159 11.8682 -1.1497 0.9132
-22.9279 11.9124 -1.3103 0.9017
-33.4820 14.4481 -1.8494 0.8641
-38.1020 10.2914 -2.0016 0.8538
-38.4468 8.9174 -2.0016 0.8538
0.6526 12.1755 -0.8940 0.9523
-0.2184 11.9737 -0.8781 0.9531
-1.0782 11.9436 -0.8793 0.9530
-4.1856 11.7843 -0.9169 0.9511
-5.1593 11.7714 -0.9424 0.9498
-5.7275 11.8882 -0.9676 0.9485
-6.2139 11.7954 -0.9775 0.9479
-6.8741 11.9847 -1.0130 0.9461
-7.3785 11.8570 -1.0240 0.9455
-8.6136 11.8525 -1.0743 0.9429
-9.9272 11.7805 -1.1296 0.9401
-10.7955 11.9155 -1.1789 0.9375
-11.5574 11.8709 -1.2148 0.9357
-12.5090 11.9581 -1.2689 0.9329
-14.9746 11.5072 -1.3847 0.9271
-16.1530 11.5150 -1.4545 0.9235
-17.4582 11.5235 -1.5338 0.9195
-22.8217 10.7395 -1.8494 0.9038
-23.1924 9.9136 -1.8494 0.9038
-23.5333 9.0750 -1.8494 0.9038
-23.9417 8.2584 -1.8570 0.9034
-26.3781 7.0276 -2.0016 0.8963
-26.6133 6.0764 -2.0016 0.8963
-26.8142 5.1175 -2.0016 0.8963
-26.9806 4.1519 -2.0016 0.8963
-27.1122 3.1810 -2.0016 0.8963
-27.2089 2.2060 -2.0016 0.8963
-27.2971 0.2487 -2.0016 0.8963
-27.2884 -0.7311 -2.0016 0.8963
-27.2446 -1.7099 -2.0016 0.8963
-25.2978 -2.5018 -1.8639 0.9031
-25.0977 -3.3953 -1.8570 0.9034
-26.5017 -6.5458 -2.0016 0.8963
-23.5627 -13.7837 -2.0016 0.8963
-23.0529 -14.6204 -2.0016 0.8963
-21.8505 -16.1664 -1.9930 0.8967
-20.3061 -16.1829 -1.9039 0.9011
-18.5464 -17.0939 -1.8494 0.9038
-17.2725 -18.3801 -1.8494 0.9038
-16.6018 -18.9881 -1.8494 0.9038
-15.9097 -19.5717 -1.8494 0.9038
-13.7141 -21.1682 -1.8494 0.9038
-11.2960 -22.3934 -1.8390 0.9043
-10.3064 -22.3961 -1.8077 0.9059
-9.3489 -22.3988 -1.7796 0.9072
-7.5127 -22.3989 -1.7323 0.9096
-6.6292 -22.4013 -1.7129 0.9106
-1.6247 -22.4153 -1.6478 0.9138
-0.8177 -22.4175 -1.6448 0.9140
-0.0127 -22.4197 -1.6439 0.9140
1.5998 -22.4242 -1.6484 0.9138
3.5949 -24.9649 -1.8494 0.9038
4.4885 -24.8198 -1.8494 0.9038
5.3763 -24.6428 -1.8494 0.9038
7.1299 -24.1937 -1.8494 0.9038
8.6514 -25.8910 -2.0016 0.8963
12.2669 -24.3867 -2.0016 0.8963
13.9845 -23.4441 -2.0016 0.8963
15.6300 -22.3806 -2.0016 0.8963
16.4231 -21.8053 -2.0016 0.8963
17.1951 -21.2019 -2.0016 0.8963
19.3741 -19.2310 -2.0016 0.8963
20.0518 -18.5234 -2.0016 0.8963
21.3288 -17.0374 -2.0016 0.8963
21.9264 -16.2611 -2.0016 0.8963
23.0363 -14.6465 -2.0016 0.8963
24.4770 -12.0858 -2.0016 0.8963
24.8949 -11.1996 -2.0016 0.8963
25.2808 -10.2990 -2.0016 0.8963
25.6341 -9.3852 -2.0016 0.8963
25.9544 -8.4592 -2.0016 0.8963
26.2413 -7.5224 -2.0016 0.8963
26.4943 -6.5758 -2.0016 0.8963
26.7132 -5.6208 -2.0016 0.8963
26.8977 -4.6585 -2.0016 0.8963
27.1626 -2.7172 -2.0016 0.8963
27.2426 -1.7407 -2.0016 0.8963
27.2973 0.2178 -2.0016 0.8963
27.2719 1.1972 -2.0016 0.8963
26.8200 5.0871 -2.0016 0.8963
26.6202 6.0463 -2.0016 0.8963
26.3860 6.9977 -2.0016 0.8963
26.1179 7.9401 -2.0016 0.8963
25.4811 9.7930 -2.0016 0.8963
25.1133 10.7011 -2.0016 0.8963
24.7131 11.5954 -2.0016 0.8963
22.2463 15.8207 -2.0016 0.8963
19.0648 19.5377 -2.0016 0.8963
18.3514 20.2093 -2.0016 0.8963
16.8546 21.4735 -2.0016 0.8963
15.2710 22.6271 -2.0016 0.8963
12.7506 24.1373 -2.0016 0.8963
11.8763 24.5793 -2.0016 0.8963
9.1658 25.7134 -2.0016 0.8963
7.6108 24.0467 -1.8494 0.9038
3.9088 14.0888 -1.0720 0.9430
2.1190 12.8888 -0.9577 0.9490
1.6244 12.7160 -0.9399 0.9499
1.1251 12.3079 -0.9062 0.9516
0.2348 12.1158 -0.8885 0.9526
-0.1984 12.0059 -0.8804 0.9530
-0.6385 12.1698 -0.8935 0.9523
-1.0450 11.8030 -0.8688 0.9536
-1.5162 12.1446 -0.8974 0.9521
-1.9233 11.9105 -0.8846 0.9528
-2.3868 12.0217 -0.8987 0.9520
-3.2242 11.7512 -0.8935 0.9523
-3.7212 11.8750 -0.9125 0.9513
-4.1748 11.8183 -0.9190 0.9510
-5.6626 11.8052 -0.9600 0.9488
-6.8129 11.9255 -1.0070 0.9464
-7.3770 11.9000 -1.0266 0.9454
-7.8977 11.7744 -1.0395 0.9447
-9.3046 11.9244 -1.1090 0.9411
-9.9168 11.8093 -1.1307 0.9400
-13.8539 11.4999 -1.3202 0.9303
-14.9210 11.5069 -1.3816 0.9272
-18.8422 11.5326 -1.6198 0.9152
-23.1754 9.9535 -1.8494 0.9038
-23.5177 9.1154 -1.8494 0.9038
-23.8306 8.2659 -1.8494 0.9038
-26.0479 8.0000 -1.9979 0.8965
-26.3660 7.0729 -2.0016 0.8963
-27.2684 1.2750 -2.0016 0.8963
-27.2896 -0.6842 -2.0016 0.8963
-25.1035 -3.3522 -1.8570 0.9034
-24.9671 -4.2509 -1.8570 0.9034
-24.9646 -5.1786 -1.8694 0.9028
-25.3101 -10.2269 -2.0016 0.8963
-23.5863 -13.7432 -2.0016 0.8963
-23.0779 -14.5808 -2.0016 0.8963
-22.5398 -15.3995 -2.0016 0.8963
-21.8938 -16.1404 -1.9944 0.8966
-20.3769 -16.1822 -1.9079 0.9009
-17.9515 -17.7176 -1.8494 0.9038
-17.3041 -18.3504 -1.8494 0.9038
-16.6344 -18.9596 -1.8494 0.9038
-13.7504 -21.1446 -1.8494 0.9038
-10.3530 -22.3960 -1.8091 0.9058
-9.3940 -22.3987 -1.7809 0.9072
-8.4632 -22.4012 -1.7558 0.9084
-7.5555 -22.3988 -1.7332 0.9095
-5.8052 -22.4036 -1.6969 0.9114
-4.0567 -22.0733 -1.6456 0.9139
-2.4747 -22.4129 -1.6533 0.9135
0.7241 -21.5354 -1.5799 0.9172
1.5611 -22.4241 -1.6482 0.9138
4.4458 -24.8275 -1.8494 0.9038
7.0883 -24.2059 -1.8494 0.9038
8.6068 -25.9058 -2.0016 0.8963
9.5310 -25.5803 -2.0016 0.8963
10.4428 -25.2218 -2.0016 0.8963
11.3412 -24.8308 -2.0016 0.8963
13.9442 -23.4681 -2.0016 0.8963
14.7774 -22.9525 -2.0016 0.8963
15.5915 -22.4075 -2.0016 0.8963
16.3856 -21.8335 -2.0016 0.8963
17.1586 -21.2314 -2.0016 0.8963
17.9095 -20.6020 -2.0016 0.8963
19.3411 -19.2643 -2.0016 0.8963
20.0199 -18.5579 -2.0016 0.8963
21.2994 -17.0741 -2.0016 0.8963
23.0111 -14.6860 -2.0016 0.8963
24.0052 -12.9977 -2.0016 0.8963
24.4562 -12.1279 -2.0016 0.8963
25.2631 -10.3425 -2.0016 0.8963
26.2283 -7.5674 -2.0016 0.8963
26.4830 -6.6213 -2.0016 0.8963
26.7035 -5.6667 -2.0016 0.8963
27.2862 -0.8088 -2.0016 0.8963
27.2976 0.1709 -2.0016 0.8963
27.2739 1.1504 -2.0016 0.8963
27.2151 2.1284 -2.0016 0.8963
27.1212 3.1037 -2.0016 0.8963
26.6305 6.0005 -2.0016 0.8963
26.3980 6.9524 -2.0016 0.8963
25.4979 9.7492 -2.0016 0.8963
25.1316 10.6579 -2.0016 0.8963
24.7330 11.5529 -2.0016 0.8963
24.3024 12.4331 -2.0016 0.8963
23.3481 14.1442 -2.0016 0.8963
22.8254 14.9730 -2.0016 0.8963
22.2734 15.7824 -2.0016 0.8963
21.6927 16.5716 -2.0016 0.8963
21.0840 17.3394 -2.0016 0.8963
19.7860 18.8070 -2.0016 0.8963
19.0984 19.5049 -2.0016 0.8963
18.3861 20.1777 -2.0016 0.8963
16.8914 21.4446 -2.0016 0.8963
16.1110 22.0369 -2.0016 0.8963
14.4889 23.1357 -2.0016 0.8963
12.7921 24.1154 -2.0016 0.8963
9.2100 25.6976 -2.0016 0.8963
7.6521 24.0336 -1.8494 0.9038
2.6998 13.2800 -0.9936 0.9471
1.1436 12.2775 -0.9041 0.9517
0.6933 12.1528 -0.8925 0.9524
0.2570 12.1837 -0.8935 0.9523
-0.1782 12.0361 -0.8826 0.9529
-1.0280 11.8422 -0.8716 0.9534
-1.8971 11.8776 -0.8819 0.9529
-2.3776 12.0842 -0.9030 0.9518
-2.8196 12.0331 -0.9062 0.9516
-4.6678 11.9023 -0.9374 0.9500
-6.7226 11.8146 -0.9967 0.9469
-8.5166 11.8042 -1.0673 0.9433
-11.5602 11.9557 -1.2194 0.9355
-13.1991 11.8223 -1.2992 0.9314
-13.8052 11.4996 -1.3174 0.9305
-14.8677 11.5065 -1.3785 0.9274
-22.2398 11.5548 -1.8376 0.9044
-23.5019 9.1558 -1.8494 0.9038
-26.0247 8.0418 -1.9972 0.8965
-26.7965 5.2095 -2.0016 0.8963
-27.0384 3.2665 -1.9969 0.8965
1.1005 12.2716 -1.1829 0.9517
0.6499 12.1248 -1.1657 0.9524
0.2125 12.0359 -1.1557 0.9528
-1.0648 11.7956 -1.1370 0.9535
-1.4910 11.7783 -1.1398 0.9534
-1.9421 11.8968 -1.1573 0.9527
-2.3842 11.9013 -1.1653 0.9524
-2.8648 12.0398 -1.1881 0.9515
-3.2875 11.9019 -1.1854 0.9516
-3.7059 11.7552 -1.1833 0.9517
-4.2488 11.9623 -1.2187 0.9503
-4.6936 11.8481 -1.2235 0.9501
-5.2062 11.8784 -1.2451 0.9492
-6.8602 11.9605 -1.3237 0.9461
-7.7152 11.4597 -1.3263 0.9460
-9.6676 11.4725 -1.4403 0.9415
-10.3984 11.4772 -1.4869 0.9397
-12.9214 11.4938 -1.6603 0.9329
-15.6856 11.1817 -1.8494 0.9255
-19.1082 8.1678 -1.9950 0.9199
-19.4523 7.5012 -2.0016 0.9196
-19.7089 6.7983 -2.0016 0.9196
-20.1458 5.3672 -2.0016 0.9196
-20.4789 3.9084 -2.0016 0.9196
-20.6060 3.1709 -2.0016 0.9196
-20.8476 0.1899 -2.0016 0.9196
-20.8075 -1.3059 -2.0016 0.9196
-20.7473 -2.0518 -2.0016 0.9196
-20.4066 -4.2697 -2.0016 0.9196
-20.2402 -4.9993 -2.0016 0.9196
-19.8295 -6.4381 -2.0016 0.9196
-19.5857 -7.1456 -2.0016 0.9196
-19.0228 -8.5320 -2.0016 0.9196
-17.9956 -10.5270 -2.0016 0.9196
-16.3042 -12.9936 -2.0016 0.9196
-15.8274 -13.5704 -2.0016 0.9196
-14.8133 -14.6706 -2.0016 0.9196
-14.2773 -15.1928 -2.0016 0.9196
-12.2114 -16.1751 -1.9457 0.9218
-11.3299 -16.1842 -1.8967 0.9237
-9.8870 -16.5323 -1.8494 0.9255
-5.4662 -18.4713 -1.8494 0.9255
-4.1273 -18.8158 -1.8494 0.9255
-3.4494 -18.9518 -1.8494 0.9255
-2.0811 -19.1504 -1.8494 0.9255
-0.0109 -19.2632 -1.8494 0.9255
2.0595 -19.1528 -1.8494 0.9255
2.7455 -19.0665 -1.8494 0.9255
3.4279 -18.9557 -1.8494 0.9255
4.1059 -18.8205 -1.8494 0.9255
4.7787 -18.6610 -1.8494 0.9255
5.7685 -19.5740 -1.9591 0.9213
6.6073 -19.7738 -2.0016 0.9196
7.3127 -19.5240 -2.0016 0.9196
9.3686 -18.6249 -2.0016 0.9196
2.2981 -4.1873 -0.4585 0.9810
10.6804 -17.9050 -2.0016 0.9196
12.5429 -16.6534 -2.0016 0.9196
13.1324 -16.1926 -2.0016 0.9196
13.7051 -15.7109 -2.0016 0.9196
14.7966 -14.6874 -2.0016 0.9196
16.7459 -12.4191 -2.0016 0.9196
17.9837 -10.5474 -2.0016 0.9196
18.3506 -9.8952 -2.0016 0.9196
18.6939 -9.2303 -2.0016 0.9196
19.0131 -8.5535 -2.0016 0.9196
19.3078 -7.8657 -2.0016 0.9196
19.5776 -7.1678 -2.0016 0.9196
19.8222 -6.4606 -2.0016 0.9196
20.0413 -5.7451 -2.0016 0.9196
20.2346 -5.0222 -2.0016 0.9196
20.6571 -2.8184 -2.0016 0.9196
20.8284 0.9144 -2.0016 0.9196
20.7092 2.4060 -2.0016 0.9196
20.6095 3.1476 -2.0016 0.9196
20.4833 3.8852 -2.0016 0.9196
20.1519 5.3444 -2.0016 0.9196
19.9471 6.0641 -2.0016 0.9196
18.8742 8.8558 -2.0016 0.9196
18.1904 10.1868 -2.0016 0.9196
17.8131 10.8330 -2.0016 0.9196
17.4128 11.4653 -2.0016 0.9196
16.0798 13.2703 -2.0016 0.9196
15.0865 14.3895 -2.0016 0.9196
13.4526 15.9275 -2.0016 0.9196
12.2756 16.8514 -2.0016 0.9196
11.6629 17.2811 -2.0016 0.9196
11.0353 17.6885 -2.0016 0.9196
9.7381 18.4345 -2.0016 0.9196
9.0703 18.7720 -2.0016 0.9196
7.4318 16.9042 -1.7728 0.9285
7.1149 17.9010 -1.8494 0.9255
6.4679 18.1448 -1.8494 0.9255
5.8126 18.3653 -1.8494 0.9255
3.1857 13.3212 -1.3150 0.9464
1.6223 12.7001 -1.2292 0.9499
1.1191 12.2418 -1.1802 0.9518
0.2331 12.0312 -1.1553 0.9528
-2.3599 11.8863 -1.1634 0.9525
-2.8477 12.0597 -1.1896 0.9514
-3.6750 11.7275 -1.1799 0.9518
-4.6630 11.8301 -1.2208 0.9502
-5.2037 11.9283 -1.2494 0.9490
-5.7197 11.9242 -1.2697 0.9482
-6.2987 12.0064 -1.3017 0.9470
-6.8493 11.9893 -1.3256 0.9460
-7.2167 11.6415 -1.3150 0.9464
-7.6865 11.4595 -1.3247 0.9461
-8.3008 11.4635 -1.3588 0.9447
-8.9483 11.4677 -1.3965 0.9432
-12.8764 11.4935 -1.6570 0.9330
-13.8539 11.4999 -1.7286 0.9302
-16.0585 10.6393 -1.8494 0.9255
-16.4300 10.0561 -1.8494 0.9255
-16.7803 9.4600 -1.8494 0.9255
-17.1089 8.8517 -1.8494 0.9255
-19.6972 6.8322 -2.0016 0.9196
-20.3174 4.6757 -2.0016 0.9196
