ply
format ascii 1.0
element vertex 1596
property float32 x
property float32 y
property float32 z
property float32 I
end_header
0.1043 6.0205 -2.0016 0.9749
-0.1120 6.0204 -2.0016 0.9749
-0.7589 5.9734 -2.0016 0.9749
-0.9729 5.9423 -2.0016 0.9749
-1.3970 5.8572 -2.0016 0.9749
-1.6064 5.8032 -2.0016 0.9749
-1.8138 5.7418 -2.0016 0.9749
-2.0188 5.6729 -2.0016 0.9749
-2.4208 5.5134 -2.0016 0.9749
-2.6173 5.4229 -2.0016 0.9749
-3.3669 4.9922 -2.0016 0.9749
-3.7165 4.7376 -2.0016 0.9749
-3.8843 4.6011 -2.0016 0.9749
-4.2046 4.3104 -2.0016 0.9749
-4.5031 3.9975 -2.0016 0.9749
-4.6438 3.8331 -2.0016 0.9749
-5.0291 3.3114 -2.0016 0.9749
-5.1448 3.1287 -2.0016 0.9749
-5.2539 2.9419 -2.0016 0.9749
-5.3561 2.7513 -2.0016 0.9749
-5.5398 2.3597 -2.0016 0.9749
-5.6210 2.1592 -2.0016 0.9749
-5.7615 1.7502 -2.0016 0.9749
-5.9163 1.1203 -2.0016 0.9749
-5.9527 0.9071 -2.0016 0.9749
-6.0025 0.4775 -2.0016 0.9749
-6.0090 -0.3870 -2.0016 0.9749
-5.9657 -0.8173 -2.0016 0.9749
-5.8916 -1.2435 -2.0016 0.9749
-5.7872 -1.6632 -2.0016 0.9749
-5.7237 -1.8700 -2.0016 0.9749
-5.6529 -2.0743 -2.0016 0.9749
-5.4497 -2.2250 -1.9567 0.9755
-4.9149 -2.6557 -1.8570 0.9767
-4.7116 -3.0016 -1.8570 0.9767
-4.4840 -3.3321 -1.8570 0.9767
-3.8166 -4.0795 -1.8570 0.9767
-3.6676 -4.2140 -1.8570 0.9767
-3.3556 -4.4664 -1.8570 0.9767
-3.0264 -4.6957 -1.8570 0.9767
-2.8558 -4.8014 -1.8570 0.9767
-2.5037 -4.9940 -1.8570 0.9767
-2.3228 -5.0807 -1.8570 0.9767
-1.9521 -5.2343 -1.8570 0.9767
-1.5713 -5.3610 -1.8570 0.9767
-1.3777 -5.4139 -1.8570 0.9767
4.0997 -3.8105 -2.0016 0.9765
4.2339 -3.6608 -2.0016 0.9765
4.3627 -3.5064 -2.0016 0.9765
4.6031 -3.1841 -2.0016 0.9765
4.7145 -3.0168 -2.0016 0.9765
4.8198 -2.8455 -2.0016 0.9765
4.9189 -2.6706 -2.0016 0.9765
5.0979 -2.3106 -2.0016 0.9765
5.1776 -2.1260 -2.0016 0.9765
5.2506 -1.9387 -2.0016 0.9765
5.3169 -1.7488 -2.0016 0.9765
5.3762 -1.5568 -2.0016 0.9765
5.4287 -1.3627 -2.0016 0.9765
5.5125 -0.9695 -2.0016 0.9765
5.5438 -0.7709 -2.0016 0.9765
5.5848 -0.3709 -2.0016 0.9765
5.5970 0.0309 -2.0016 0.9765
5.5923 0.2319 -2.0016 0.9765
5.5803 0.4326 -2.0016 0.9765
5.5612 0.6328 -2.0016 0.9765
5.5349 0.8321 -2.0016 0.9765
5.5014 1.0303 -2.0016 0.9765
5.4609 1.2272 -2.0016 0.9765
5.4133 1.4226 -2.0016 0.9765
5.3587 1.6161 -2.0016 0.9765
5.2972 1.8075 -2.0016 0.9765
5.2289 1.9966 -2.0016 0.9765
5.1538 2.1831 -2.0016 0.9765
5.0721 2.3668 -2.0016 0.9765
4.9838 2.5474 -2.0016 0.9765
4.5676 3.2348 -2.0016 0.9765
4.4485 3.3968 -2.0016 0.9765
4.3237 3.5544 -2.0016 0.9765
3.9163 3.9988 -2.0016 0.9765
3.7701 4.1369 -2.0016 0.9765
3.4634 4.3968 -2.0016 0.9765
2.6222 4.9448 -2.0016 0.9765
2.4429 5.0358 -2.0016 0.9765
2.2605 5.1203 -2.0016 0.9765
2.0752 5.1982 -2.0016 0.9765
1.6967 5.3337 -2.0016 0.9765
1.5040 5.3912 -2.0016 0.9765
1.3094 5.4418 -2.0016 0.9765
0.3162 5.5882 -2.0016 0.9765
-0.4873 5.5758 -2.0016 0.9765
-0.8863 5.5265 -2.0016 0.9765
-1.0842 5.4911 -2.0016 0.9765
-1.8593 5.2792 -2.0016 0.9765
-2.2335 5.1322 -2.0016 0.9765
-2.5961 4.9586 -2.0016 0.9765
-2.9454 4.7594 -2.0016 0.9765
-3.7483 4.1567 -2.0016 0.9765
-3.8951 4.0194 -2.0016 0.9765
-4.3048 3.5771 -2.0016 0.9765
-4.4305 3.4202 -2.0016 0.9765
-4.5505 3.2589 -2.0016 0.9765
-4.6646 3.0933 -2.0016 0.9765
-4.7727 2.9238 -2.0016 0.9765
-4.8746 2.7505 -2.0016 0.9765
-4.9703 2.5737 -2.0016 0.9765
-5.0595 2.3935 -2.0016 0.9765
-5.1422 2.2102 -2.0016 0.9765
-5.2183 2.0241 -2.0016 0.9765
-5.2876 1.8354 -2.0016 0.9765
-5.4543 1.2560 -2.0016 0.9765
-5.4959 1.0593 -2.0016 0.9765
-5.5304 0.8613 -2.0016 0.9765
-5.5578 0.6621 -2.0016 0.9765
-5.5780 0.4620 -2.0016 0.9765
-5.5910 0.2614 -2.0016 0.9765
-5.5953 -0.1406 -2.0016 0.9765
-5.5175 -0.9404 -2.0016 0.9765
-5.4802 -1.1379 -2.0016 0.9765
-5.3844 -1.5284 -2.0016 0.9765
-4.5766 -2.4536 -1.8570 0.9782
-4.4855 -2.6163 -1.8570 0.9782
-4.3887 -2.7757 -1.8570 0.9782
-4.2861 -2.9316 -1.8570 0.9782
-4.1781 -3.0836 -1.8570 0.9782
-4.0646 -3.2317 -1.8570 0.9782
-3.9460 -3.3756 -1.8570 0.9782
-3.6935 -3.6501 -1.8570 0.9782
-3.5600 -3.7804 -1.8570 0.9782
-2.9820 -4.2512 -1.8570 0.9782
-2.8274 -4.3556 -1.8570 0.9782
-2.6691 -4.4543 -1.8570 0.9782
-2.3425 -4.6344 -1.8570 0.9782
-2.1745 -4.7156 -1.8570 0.9782
-2.0037 -4.7906 -1.8570 0.9782
-1.8304 -4.8595 -1.8570 0.9782
-1.6547 -4.9221 -1.8570 0.9782
-1.4768 -4.9784 -1.8570 0.9782
-1.2971 -5.0282 -1.8570 0.9782
-0.9328 -5.1083 -1.8570 0.9782
-0.5637 -5.1621 -1.8570 0.9782
-0.3779 -5.1790 -1.8570 0.9782
0.3676 -5.1798 -1.8570 0.9782
0.5534 -5.1632 -1.8570 0.9782
1.1055 -5.0738 -1.8570 0.9782
1.4669 -4.9813 -1.8570 0.9782
1.6448 -4.9254 -1.8570 0.9782
1.9941 -4.7946 -1.8570 0.9782
2.2244 -4.0533 -1.6534 0.9806
3.4141 -3.9127 -1.8570 0.9782
3.9731 -3.9423 -2.0016 0.9765
4.1122 -3.7971 -2.0016 0.9765
4.3741 -3.4921 -2.0016 0.9765
4.4967 -3.3327 -2.0016 0.9765
4.7243 -3.0013 -2.0016 0.9765
4.8291 -2.8297 -2.0016 0.9765
4.9276 -2.6545 -2.0016 0.9765
5.0198 -2.4758 -2.0016 0.9765
5.2569 -1.9215 -2.0016 0.9765
5.3225 -1.7315 -2.0016 0.9765
5.3813 -1.5392 -2.0016 0.9765
5.5462 -0.7527 -2.0016 0.9765
5.5697 -0.5530 -2.0016 0.9765
5.5969 0.0492 -2.0016 0.9765
5.5789 0.4509 -2.0016 0.9765
5.5591 0.6509 -2.0016 0.9765
5.4980 1.0483 -2.0016 0.9765
5.2913 1.8248 -2.0016 0.9765
5.1466 2.1999 -2.0016 0.9765
5.0643 2.3833 -2.0016 0.9765
4.9754 2.5637 -2.0016 0.9765
4.8802 2.7407 -2.0016 0.9765
4.4374 3.4113 -2.0016 0.9765
4.1811 3.7210 -2.0016 0.9765
3.7566 4.1492 -2.0016 0.9765
3.4490 4.4081 -2.0016 0.9765
3.2885 4.5292 -2.0016 0.9765
3.1237 4.6443 -2.0016 0.9765
2.7823 4.8566 -2.0016 0.9765
2.6061 4.9534 -2.0016 0.9765
2.4265 5.0438 -2.0016 0.9765
2.2437 5.1277 -2.0016 0.9765
1.8699 5.2755 -2.0016 0.9765
1.4864 5.3961 -2.0016 0.9765
1.2916 5.4460 -2.0016 0.9765
1.0952 5.4889 -2.0016 0.9765
0.8973 5.5247 -2.0016 0.9765
0.6984 5.5534 -2.0016 0.9765
0.2979 5.5892 -2.0016 0.9765
0.0970 5.5963 -2.0016 0.9765
-0.3050 5.5888 -2.0016 0.9765
-0.7054 5.5525 -2.0016 0.9765
-0.9043 5.5236 -2.0016 0.9765
-1.4932 5.3942 -2.0016 0.9765
-1.6860 5.3371 -2.0016 0.9765
-1.8766 5.2731 -2.0016 0.9765
-2.2502 5.1248 -2.0016 0.9765
-2.6123 4.9501 -2.0016 0.9765
-2.7884 4.8531 -2.0016 0.9765
-3.2942 4.5250 -2.0016 0.9765
-3.7618 4.1444 -2.0016 0.9765
-4.0496 3.8637 -2.0016 0.9765
-4.3165 3.5630 -2.0016 0.9765
-4.5612 3.2440 -2.0016 0.9765
-4.6747 3.0781 -2.0016 0.9765
-4.7822 2.9082 -2.0016 0.9765
-4.9787 2.5574 -2.0016 0.9765
-5.0673 2.3769 -2.0016 0.9765
-5.1494 2.1934 -2.0016 0.9765
-5.2936 1.8181 -2.0016 0.9765
-5.3555 1.6268 -2.0016 0.9765
-5.4584 1.2382 -2.0016 0.9765
-5.5332 0.8432 -2.0016 0.9765
-5.5599 0.6439 -2.0016 0.9765
-5.5918 0.2431 -2.0016 0.9765
-5.5969 0.0421 -2.0016 0.9765
-5.5948 -0.1589 -2.0016 0.9765
-5.5855 -0.3597 -2.0016 0.9765
-5.5453 -0.7597 -2.0016 0.9765
-5.5144 -0.9584 -2.0016 0.9765
-5.4314 -1.3518 -2.0016 0.9765
-5.3794 -1.5460 -2.0016 0.9765
-5.3204 -1.7382 -2.0016 0.9765
-5.2545 -1.9281 -2.0016 0.9765
-5.1819 -2.1156 -2.0016 0.9765
-4.5685 -2.4685 -1.8570 0.9782
-4.4769 -2.6310 -1.8570 0.9782
-4.3796 -2.7901 -1.8570 0.9782
-4.1680 -3.0973 -1.8570 0.9782
-4.0541 -3.2450 -1.8570 0.9782
-3.8107 -3.5276 -1.8570 0.9782
-3.6815 -3.6622 -1.8570 0.9782
-3.5476 -3.7920 -1.8570 0.9782
-3.2662 -4.0369 -1.8570 0.9782
-3.1192 -4.1516 -1.8570 0.9782
-2.9680 -4.2610 -1.8570 0.9782
-2.8131 -4.3648 -1.8570 0.9782
-2.4925 -4.5555 -1.8570 0.9782
-2.3273 -4.6421 -1.8570 0.9782
-1.8145 -4.8655 -1.8570 0.9782
-1.6386 -4.9275 -1.8570 0.9782
-1.4606 -4.9832 -1.8570 0.9782
-1.2807 -5.0324 -1.8570 0.9782
-1.0991 -5.0751 -1.8570 0.9782
3.8257 -3.5558 -2.0016 0.9779
3.9510 -3.4161 -2.0016 0.9779
4.0711 -3.2720 -2.0016 0.9779
4.2955 -2.9713 -2.0016 0.9779
4.3994 -2.8152 -2.0016 0.9779
4.4977 -2.6553 -2.0016 0.9779
4.5902 -2.4921 -2.0016 0.9779
4.6767 -2.3256 -2.0016 0.9779
4.8997 -1.8091 -2.0016 0.9779
4.9615 -1.6320 -2.0016 0.9779
5.0659 -1.2716 -2.0016 0.9779
5.1733 -0.7193 -2.0016 0.9779
5.2230 0.0289 -2.0016 0.9779
5.1338 0.9615 -2.0016 0.9779
5.0959 1.1452 -2.0016 0.9779
5.0515 1.3275 -2.0016 0.9779
5.0006 1.5081 -2.0016 0.9779
4.8794 1.8631 -2.0016 0.9779
4.6507 2.3772 -2.0016 0.9779
4.4681 2.7049 -2.0016 0.9779
4.3680 2.8636 -2.0016 0.9779
4.2624 3.0186 -2.0016 0.9779
4.1512 3.1698 -2.0016 0.9779
4.0347 3.3168 -2.0016 0.9779
3.9130 3.4596 -2.0016 0.9779
3.7862 3.5979 -2.0016 0.9779
3.6545 3.7315 -2.0016 0.9779
3.5182 3.8604 -2.0016 0.9779
2.7719 4.4268 -2.0016 0.9779
2.6111 4.5235 -2.0016 0.9779
2.2797 4.6993 -2.0016 0.9779
1.7610 4.9172 -2.0016 0.9779
1.5833 4.9773 -2.0016 0.9779
1.2219 5.0781 -2.0016 0.9779
0.2951 5.2147 -2.0016 0.9779
0.1076 5.2219 -2.0016 0.9779
-0.0800 5.2224 -2.0016 0.9779
-0.8270 5.1571 -2.0016 0.9779
-1.1951 5.0845 -2.0016 0.9779
-1.5570 4.9856 -2.0016 0.9779
-1.7350 4.9264 -2.0016 0.9779
-1.9109 4.8609 -2.0016 0.9779
-2.0842 4.7892 -2.0016 0.9779
-2.4226 4.6272 -2.0016 0.9779
-2.5872 4.5372 -2.0016 0.9779
-2.7485 4.4414 -2.0016 0.9779
-3.3562 4.0020 -2.0016 0.9779
-3.4978 3.8789 -2.0016 0.9779
-3.7672 3.6178 -2.0016 0.9779
-3.8947 3.4802 -2.0016 0.9779
-4.0172 3.3380 -2.0016 0.9779
-4.1344 3.1916 -2.0016 0.9779
-4.3529 2.8866 -2.0016 0.9779
-4.5489 2.5667 -2.0016 0.9779
-4.6381 2.4017 -2.0016 0.9779
-4.7214 2.2335 -2.0016 0.9779
-4.9342 1.7128 -2.0016 0.9779
-5.0444 1.3541 -2.0016 0.9779
-5.1286 0.9885 -2.0016 0.9779
-5.1608 0.8037 -2.0016 0.9779
-5.1864 0.6178 -2.0016 0.9779
-5.2214 -0.1312 -2.0016 0.9779
-5.1488 -0.8775 -2.0016 0.9779
-5.0245 -1.4262 -2.0016 0.9779
-4.7685 -2.1310 -2.0016 0.9779
-4.5410 -2.2283 -1.9384 0.9786
-4.2707 -2.2896 -1.8570 0.9795
-4.0954 -2.5902 -1.8570 0.9795
-3.9997 -2.7357 -1.8570 0.9795
-3.7930 -3.0157 -1.8570 0.9795
-3.4466 -3.4062 -1.8570 0.9795
-2.9234 -3.8646 -1.8570 0.9795
-2.7827 -3.9671 -1.8570 0.9795
-2.3398 -4.2434 -1.8570 0.9795
-1.7081 -4.5347 -1.8570 0.9795
-1.2104 -4.6921 -1.8570 0.9795
-1.0411 -4.7326 -1.8570 0.9795
-0.5260 -4.8171 -1.8570 0.9795
-0.3527 -4.8329 -1.8570 0.9795
-0.1789 -4.8425 -1.8570 0.9795
0.1692 -4.8428 -1.8570 0.9795
0.5164 -4.8182 -1.8570 0.9795
0.6891 -4.7965 -1.8570 0.9795
1.3688 -4.6484 -1.8570 0.9795
1.8609 -4.4742 -1.8570 0.9795
2.0007 -4.3616 -1.8389 0.9797
2.0225 -4.0213 -1.7250 0.9809
2.3864 -4.0007 -1.7852 0.9802
2.6302 -4.0698 -1.8570 0.9795
2.7747 -3.9727 -1.8570 0.9795
2.9156 -3.8705 -1.8570 0.9795
3.0527 -3.7633 -1.8570 0.9795
3.4398 -3.4131 -1.8570 0.9795
3.9621 -3.4032 -2.0016 0.9779
4.0818 -3.2587 -2.0016 0.9779
4.1962 -3.1100 -2.0016 0.9779
4.4086 -2.8008 -2.0016 0.9779
4.5983 -2.4771 -2.0016 0.9779
4.8380 -1.9681 -2.0016 0.9779
4.9056 -1.7931 -2.0016 0.9779
4.9668 -1.6157 -2.0016 0.9779
5.0217 -1.4363 -2.0016 0.9779
5.1118 -1.0721 -2.0016 0.9779
5.1470 -0.8879 -2.0016 0.9779
5.1975 -0.5161 -2.0016 0.9779
5.2127 -0.3291 -2.0016 0.9779
5.1876 0.6074 -2.0016 0.9779
5.1624 0.7934 -2.0016 0.9779
5.1306 0.9783 -2.0016 0.9779
5.0922 1.1619 -2.0016 0.9779
4.9376 1.7029 -2.0016 0.9779
4.8733 1.8791 -2.0016 0.9779
4.5540 2.5576 -2.0016 0.9779
3.9016 3.4724 -2.0016 0.9779
3.6423 3.7435 -2.0016 0.9779
3.2185 4.1135 -2.0016 0.9779
2.9150 4.3340 -2.0016 0.9779
2.7574 4.4358 -2.0016 0.9779
2.5963 4.5320 -2.0016 0.9779
2.2643 4.7067 -2.0016 0.9779
2.0938 4.7850 -2.0016 0.9779
1.9206 4.8571 -2.0016 0.9779
1.7449 4.9229 -2.0016 0.9779
1.5670 4.9824 -2.0016 0.9779
1.3870 5.0355 -2.0016 0.9779
1.2053 5.0821 -2.0016 0.9779
1.0220 5.1221 -2.0016 0.9779
0.6517 5.1822 -2.0016 0.9779
0.4651 5.2023 -2.0016 0.9779
0.2780 5.2156 -2.0016 0.9779
0.0905 5.2223 -2.0016 0.9779
-0.0971 5.2221 -2.0016 0.9779
-0.4717 5.2017 -2.0016 0.9779
-1.3934 5.0337 -2.0016 0.9779
-1.7511 4.9207 -2.0016 0.9779
-1.9267 4.8547 -2.0016 0.9779
-2.0999 4.7823 -2.0016 0.9779
-2.6021 4.5287 -2.0016 0.9779
-3.6470 3.7389 -2.0016 0.9779
-4.0280 3.3249 -2.0016 0.9779
-4.1449 3.1781 -2.0016 0.9779
-4.4626 2.7138 -2.0016 0.9779
-4.7287 2.2181 -2.0016 0.9779
-4.8053 2.0468 -2.0016 0.9779
-4.8757 1.8729 -2.0016 0.9779
-4.9398 1.6966 -2.0016 0.9779
-4.9975 1.5181 -2.0016 0.9779
-5.1318 0.9718 -2.0016 0.9779
-5.1634 0.7868 -2.0016 0.9779
-5.1884 0.6009 -2.0016 0.9779
-5.2066 0.4142 -2.0016 0.9779
-5.2181 0.2269 -2.0016 0.9779
-5.1459 -0.8944 -2.0016 0.9779
-5.1105 -1.0786 -2.0016 0.9779
-5.0684 -1.2614 -2.0016 0.9779
-5.0198 -1.4427 -2.0016 0.9779
-4.8355 -1.9742 -2.0016 0.9779
-4.5078 -2.2304 -1.9274 0.9787
-4.1777 -2.4552 -1.8570 0.9795
-4.0869 -2.6036 -1.8570 0.9795
-3.9907 -2.7487 -1.8570 0.9795
-3.7831 -3.0281 -1.8570 0.9795
-3.5560 -3.2918 -1.8570 0.9795
-3.3105 -3.5386 -1.8570 0.9795
-3.0480 -3.7671 -1.8570 0.9795
-2.7697 -3.9762 -1.8570 0.9795
-2.6251 -4.0731 -1.8570 0.9795
-2.1718 -4.3318 -1.8570 0.9795
-1.8552 -4.4766 -1.8570 0.9795
-1.6932 -4.5403 -1.8570 0.9795
-1.5291 -4.5982 -1.8570 0.9795
-1.3630 -4.6501 -1.8570 0.9795
-1.0256 -4.7360 -1.8570 0.9795
-0.8549 -4.7698 -1.8570 0.9795
3.6994 -3.1986 -2.0016 0.9791
3.8119 -3.0637 -2.0016 0.9791
3.9195 -2.9248 -2.0016 0.9791
4.0220 -2.7822 -2.0016 0.9791
4.3790 -2.1776 -2.0016 0.9791
4.5878 -1.6939 -2.0016 0.9791
4.6975 -1.3602 -2.0016 0.9791
4.7433 -1.1906 -2.0016 0.9791
4.7830 -1.0195 -2.0016 0.9791
4.8439 -0.6735 -2.0016 0.9791
4.8882 -0.1486 -2.0016 0.9791
4.8904 0.0270 -2.0016 0.9791
4.8759 0.3780 -2.0016 0.9791
4.8591 0.5529 -2.0016 0.9791
4.7715 1.0723 -2.0016 0.9791
4.7299 1.2430 -2.0016 0.9791
4.6822 1.4121 -2.0016 0.9791
4.3546 2.2258 -2.0016 0.9791
4.1836 2.5327 -2.0016 0.9791
4.0899 2.6813 -2.0016 0.9791
3.8869 2.9680 -2.0016 0.9791
3.6639 3.2393 -2.0016 0.9791
3.5452 3.3688 -2.0016 0.9791
3.4219 3.4940 -2.0016 0.9791
3.2942 3.6146 -2.0016 0.9791
3.0262 3.8418 -2.0016 0.9791
2.4449 4.2355 -2.0016 0.9791
2.2912 4.3206 -2.0016 0.9791
1.6489 4.6041 -2.0016 0.9791
1.4825 4.6604 -2.0016 0.9791
0.9726 4.7928 -2.0016 0.9791
0.6261 4.8503 -2.0016 0.9791
0.4515 4.8696 -2.0016 0.9791
-0.0749 4.8899 -2.0016 0.9791
-0.2505 4.8841 -2.0016 0.9791
-0.7744 4.8288 -2.0016 0.9791
-0.9473 4.7979 -2.0016 0.9791
-1.6246 4.6128 -2.0016 0.9791
-2.1113 4.4114 -2.0016 0.9791
-2.5735 4.1586 -2.0016 0.9791
-2.7212 4.0635 -2.0016 0.9791
-3.0059 3.8577 -2.0016 0.9791
-3.1425 3.7472 -2.0016 0.9791
-3.2751 3.6319 -2.0016 0.9791
-3.8712 2.9884 -2.0016 0.9791
-4.1702 2.5547 -2.0016 0.9791
-4.3428 2.2488 -2.0016 0.9791
-4.4208 2.0913 -2.0016 0.9791
-4.7658 1.0975 -2.0016 0.9791
-4.8021 0.9256 -2.0016 0.9791
-1.9546 0.2328 -0.8056 0.9915
-1.9567 0.1621 -0.8036 0.9915
-1.9388 0.0907 -0.7944 0.9916
-1.9089 0.0206 -0.7813 0.9918
-1.9222 -0.0483 -0.7869 0.9917
-1.9579 -0.1904 -0.8051 0.9915
-2.1304 -0.3631 -0.8845 0.9907
-4.7884 -0.9943 -2.0016 0.9791
-4.7046 -1.3354 -2.0016 0.9791
-4.4649 -1.9954 -2.0016 0.9791
-4.3904 -2.1544 -2.0016 0.9791
-3.9193 -2.2860 -1.8570 0.9806
-3.7450 -2.5615 -1.8570 0.9806
-3.1106 -3.3032 -1.8570 0.9806
-2.8654 -3.5179 -1.8570 0.9806
-2.7372 -3.6186 -1.8570 0.9806
-2.6055 -3.7146 -1.8570 0.9806
-2.3321 -3.8920 -1.8570 0.9806
-2.0467 -4.0494 -1.8570 0.9806
-1.5993 -4.2460 -1.8570 0.9806
-1.2904 -4.3499 -1.8570 0.9806
-0.8150 -4.4634 -1.8570 0.9806
-0.6542 -4.4898 -1.8570 0.9806
-0.3302 -4.5252 -1.8570 0.9806
-0.1675 -4.5342 -1.8570 0.9806
-0.0046 -4.5372 -1.8570 0.9806
0.3212 -4.5259 -1.8570 0.9806
0.4835 -4.5114 -1.8570 0.9806
1.2817 -4.3525 -1.8570 0.9806
1.8917 -4.1241 -1.8570 0.9806
2.1829 -3.9776 -1.8570 0.9806
2.3243 -3.8967 -1.8570 0.9806
2.5981 -3.7198 -1.8570 0.9806
2.7300 -3.6241 -1.8570 0.9806
2.8584 -3.5237 -1.8570 0.9806
3.1039 -3.3094 -1.8570 0.9806
3.7099 -3.1865 -2.0016 0.9791
3.9290 -2.9120 -2.0016 0.9791
4.1279 -2.6224 -2.0016 0.9791
4.2195 -2.4725 -2.0016 0.9791
4.4609 -2.0043 -2.0016 0.9791
4.5300 -1.8428 -2.0016 0.9791
4.5933 -1.6789 -2.0016 0.9791
4.8666 -0.4832 -2.0016 0.9791
4.8808 -0.3081 -2.0016 0.9791
4.8887 -0.1326 -2.0016 0.9791
4.8903 0.0430 -2.0016 0.9791
4.8856 0.2186 -2.0016 0.9791
4.8573 0.5688 -2.0016 0.9791
4.8338 0.7428 -2.0016 0.9791
4.8040 0.9160 -2.0016 0.9791
4.7680 1.0879 -2.0016 0.9791
4.7258 1.2585 -2.0016 0.9791
4.5630 1.7595 -2.0016 0.9791
4.4969 1.9222 -2.0016 0.9791
4.4250 2.0825 -2.0016 0.9791
4.3473 2.2400 -2.0016 0.9791
4.2641 2.3947 -2.0016 0.9791
4.1753 2.5463 -2.0016 0.9791
4.0812 2.6947 -2.0016 0.9791
3.9818 2.8395 -2.0016 0.9791
3.6532 3.2513 -2.0016 0.9791
3.5341 3.3804 -2.0016 0.9791
3.4104 3.5051 -2.0016 0.9791
3.2823 3.6254 -2.0016 0.9791
3.1500 3.7409 -2.0016 0.9791
3.0136 3.8516 -2.0016 0.9791
2.8734 3.9574 -2.0016 0.9791
2.5819 4.1534 -2.0016 0.9791
2.2771 4.3280 -2.0016 0.9791
2.1202 4.4070 -2.0016 0.9791
1.9605 4.4803 -2.0016 0.9791
1.4672 4.6652 -2.0016 0.9791
1.2987 4.7149 -2.0016 0.9791
0.9569 4.7960 -2.0016 0.9791
0.7841 4.8272 -2.0016 0.9791
0.4355 4.8711 -2.0016 0.9791
-0.0909 4.8897 -2.0016 0.9791
-0.2665 4.8832 -2.0016 0.9791
-0.4417 4.8705 -2.0016 0.9791
-0.6163 4.8515 -2.0016 0.9791
-0.7902 4.8263 -2.0016 0.9791
-1.1346 4.7571 -2.0016 0.9791
-1.3047 4.7133 -2.0016 0.9791
-1.9662 4.4779 -2.0016 0.9791
-2.1257 4.4044 -2.0016 0.9791
-2.2825 4.3252 -2.0016 0.9791
-2.5871 4.1502 -2.0016 0.9791
-3.0185 3.8478 -2.0016 0.9791
-3.1547 3.7369 -2.0016 0.9791
-3.6573 3.2467 -2.0016 0.9791
-3.8810 2.9757 -2.0016 0.9791
-3.9853 2.8344 -2.0016 0.9791
-4.0846 2.6895 -2.0016 0.9791
-4.1785 2.5411 -2.0016 0.9791
-4.2671 2.3893 -2.0016 0.9791
-4.3501 2.2345 -2.0016 0.9791
-4.4276 2.0769 -2.0016 0.9791
-4.4993 1.9165 -2.0016 0.9791
-4.5653 1.7537 -2.0016 0.9791
-4.7274 1.2525 -2.0016 0.9791
-2.2065 0.4178 -0.9191 0.9903
-1.9773 0.3013 -0.8186 0.9914
-1.9554 0.2265 -0.8056 0.9915
-1.9056 0.0144 -0.7799 0.9918
-1.9250 -0.0547 -0.7882 0.9917
-1.9577 -0.1969 -0.8053 0.9915
-2.1438 -0.3726 -0.8906 0.9906
-4.7851 -1.0099 -2.0016 0.9791
-4.7457 -1.1811 -2.0016 0.9791
-4.7002 -1.3508 -2.0016 0.9791
-4.4584 -2.0099 -2.0016 0.9791
-4.1299 -2.2315 -1.9212 0.9799
-3.5423 -2.8353 -1.8570 0.9806
-3.4381 -2.9607 -1.8570 0.9806
-3.2167 -3.1999 -1.8570 0.9806
-3.0997 -3.3133 -1.8570 0.9806
-2.9788 -3.4225 -1.8570 0.9806
-2.8539 -3.5273 -1.8570 0.9806
-2.5933 -3.7231 -1.8570 0.9806
-2.4580 -3.8138 -1.8570 0.9806
-2.3194 -3.8996 -1.8570 0.9806
-2.1779 -3.9804 -1.8570 0.9806
-1.8865 -4.1265 -1.8570 0.9806
-1.5854 -4.2512 -1.8570 0.9806
-1.1190 -4.3971 -1.8570 0.9806
3.1210 -2.9008 -1.8570 0.9816
3.4741 -3.0038 -2.0016 0.9802
3.5798 -2.8771 -2.0016 0.9802
3.6808 -2.7467 -2.0016 0.9802
3.8685 -2.4754 -2.0016 0.9802
4.1123 -2.0449 -2.0016 0.9802
4.1831 -1.8959 -2.0016 0.9802
4.2485 -1.7445 -2.0016 0.9802
4.3084 -1.5908 -2.0016 0.9802
4.4114 -1.2774 -2.0016 0.9802
4.4545 -1.1181 -2.0016 0.9802
4.5233 -0.7955 -2.0016 0.9802
4.5687 -0.4687 -2.0016 0.9802
4.5905 -0.1396 -2.0016 0.9802
4.5887 0.1903 -2.0016 0.9802
4.5789 0.3550 -2.0016 0.9802
4.4809 1.0070 -2.0016 0.9802
4.4418 1.1673 -2.0016 0.9802
4.3466 1.4831 -2.0016 0.9802
4.2905 1.6383 -2.0016 0.9802
4.1619 1.9420 -2.0016 0.9802
4.0894 2.0903 -2.0016 0.9802
4.0117 2.2358 -2.0016 0.9802
3.8409 2.5180 -2.0016 0.9802
3.7480 2.6543 -2.0016 0.9802
3.5478 2.9165 -2.0016 0.9802
3.2135 3.2812 -2.0016 0.9802
3.0936 3.3945 -2.0016 0.9802
2.8419 3.6078 -2.0016 0.9802
2.7105 3.7075 -2.0016 0.9802
2.5756 3.8025 -2.0016 0.9802
2.2960 3.9776 -2.0016 0.9802
2.1517 4.0575 -2.0016 0.9802
2.0046 4.1321 -2.0016 0.9802
1.7028 4.2653 -2.0016 0.9802
1.5485 4.3237 -2.0016 0.9802
1.3922 4.3766 -2.0016 0.9802
0.9134 4.5009 -2.0016 0.9802
0.5879 4.5549 -2.0016 0.9802
0.2594 4.5853 -2.0016 0.9802
-1.0509 4.4708 -2.0016 0.9802
-1.5256 4.3319 -2.0016 0.9802
-1.6802 4.2743 -2.0016 0.9802
-1.8327 4.2112 -2.0016 0.9802
-1.9827 4.1426 -2.0016 0.9802
-2.1302 4.0687 -2.0016 0.9802
-2.2750 3.9896 -2.0016 0.9802
-2.4168 3.9053 -2.0016 0.9802
-2.5555 3.8160 -2.0016 0.9802
-2.6909 3.7218 -2.0016 0.9802
-2.9511 3.5190 -2.0016 0.9802
-3.3125 3.1812 -2.0016 0.9802
-3.5323 2.9352 -2.0016 0.9802
-3.6355 2.8064 -2.0016 0.9802
-3.9162 2.3991 -2.0016 0.9802
-3.9999 2.2569 -2.0016 0.9802
-4.1516 1.9640 -2.0016 0.9802
-4.2194 1.8136 -2.0016 0.9802
-4.2818 1.6609 -2.0016 0.9802
-1.5921 0.5527 -0.7345 0.9927
-1.5773 0.4848 -0.7191 0.9928
-1.5008 0.2893 -0.6661 0.9934
-1.5108 0.2353 -0.6664 0.9934
-1.5223 0.1814 -0.6681 0.9933
-1.5285 0.1266 -0.6684 0.9933
-1.5246 0.0165 -0.6645 0.9934
-1.5296 -0.0935 -0.6679 0.9933
-1.5047 -0.2565 -0.6652 0.9934
-1.5134 -0.3143 -0.6736 0.9933
-1.5839 -0.5117 -0.7254 0.9928
-1.5964 -0.5799 -0.7402 0.9926
-4.2576 -1.7220 -2.0016 0.9802
-4.1930 -1.8738 -2.0016 0.9802
-4.0477 -2.1700 -2.0016 0.9802
-3.5170 -2.4055 -1.8570 0.9816
-3.4283 -2.5302 -1.8570 0.9816
-3.3352 -2.6517 -1.8570 0.9816
-3.0307 -2.9951 -1.8570 0.9816
-2.5705 -3.3982 -1.8570 0.9816
-0.4625 -4.2357 -1.8570 0.9816
-0.1573 -4.2580 -1.8570 0.9816
0.1488 -4.2583 -1.8570 0.9816
0.3016 -4.2502 -1.8570 0.9816
0.4541 -4.2367 -1.8570 0.9816
0.6059 -4.2176 -1.8570 0.9816
0.9071 -4.1632 -1.8570 0.9816
1.0561 -4.1280 -1.8570 0.9816
1.3496 -4.0415 -1.8570 0.9816
1.4939 -3.9904 -1.8570 0.9816
1.7765 -3.8729 -1.8570 0.9816
1.9145 -3.8066 -1.8570 0.9816
2.3128 -3.5786 -1.8570 0.9816
2.5637 -3.4033 -1.8570 0.9816
2.8014 -3.2105 -1.8570 0.9816
2.9149 -3.1079 -1.8570 0.9816
3.1305 -2.8906 -1.8570 0.9816
3.4839 -2.9925 -2.0016 0.9802
3.6898 -2.7346 -2.0016 0.9802
3.8765 -2.4627 -2.0016 0.9802
3.9625 -2.3219 -2.0016 0.9802
4.2541 -1.7306 -2.0016 0.9802
4.3674 -1.4207 -2.0016 0.9802
4.5702 -0.4538 -2.0016 0.9802
4.5835 -0.2894 -2.0016 0.9802
4.5881 0.2053 -2.0016 0.9802
4.5615 0.5341 -2.0016 0.9802
4.4776 1.0217 -2.0016 0.9802
4.2851 1.6523 -2.0016 0.9802
4.0826 2.1036 -2.0016 0.9802
4.0044 2.2489 -2.0016 0.9802
3.3189 3.1745 -2.0016 0.9802
2.8301 3.6171 -2.0016 0.9802
2.1384 4.0645 -2.0016 0.9802
1.8411 4.2075 -2.0016 0.9802
1.6888 4.2709 -2.0016 0.9802
1.5343 4.3288 -2.0016 0.9802
1.3779 4.3811 -2.0016 0.9802
1.2196 4.4278 -2.0016 0.9802
0.5730 4.5568 -2.0016 0.9802
0.4090 4.5744 -2.0016 0.9802
0.0796 4.5920 -2.0016 0.9802
-0.5788 4.5560 -2.0016 0.9802
-0.9044 4.5027 -2.0016 0.9802
-1.8464 4.2052 -2.0016 0.9802
-2.1435 4.0618 -2.0016 0.9802
-2.4296 3.8974 -2.0016 0.9802
-2.5680 3.8076 -2.0016 0.9802
-2.7031 3.7129 -2.0016 0.9802
-2.8347 3.6135 -2.0016 0.9802
-2.9626 3.5093 -2.0016 0.9802
-3.0867 3.4007 -2.0016 0.9802
-3.2069 3.2876 -2.0016 0.9802
-3.4346 3.0489 -2.0016 0.9802
-3.6446 2.7945 -2.0016 0.9802
-3.8358 2.5257 -2.0016 0.9802
-3.9240 2.3863 -2.0016 0.9802
-4.0852 2.0985 -2.0016 0.9802
-4.1580 1.9504 -2.0016 0.9802
-1.5756 0.4786 -0.7177 0.9928
-1.4978 0.2836 -0.6644 0.9934
-1.5288 0.1216 -0.6684 0.9933
-1.5296 -0.0985 -0.6680 0.9933
-1.5162 -0.3200 -0.6753 0.9933
-1.5443 -0.3844 -0.6936 0.9931
-1.5674 -0.4505 -0.7108 0.9929
-4.2519 -1.7360 -2.0016 0.9802
-4.1869 -1.8875 -2.0016 0.9802
-4.1164 -2.0367 -2.0016 0.9802
-3.7977 -2.2318 -1.9197 0.9810
-3.5936 -2.2894 -1.8570 0.9816
-3.5091 -2.4170 -1.8570 0.9816
-3.3265 -2.6626 -1.8570 0.9816
-3.2288 -2.7804 -1.8570 0.9816
-3.1268 -2.8946 -1.8570 0.9816
-3.0208 -3.0050 -1.8570 0.9816
-2.4354 -3.4963 -1.8570 0.9816
-2.3083 -3.5815 -1.8570 0.9816
-1.6313 -3.9363 -1.8570 0.9816
-1.4889 -3.9923 -1.8570 0.9816
-1.0508 -4.1293 -1.8570 0.9816
2.9385 -2.7312 -1.8570 0.9825
3.2710 -2.8282 -2.0016 0.9811
3.4656 -2.5861 -2.0016 0.9811
3.7236 -2.1983 -2.0016 0.9811
3.8001 -2.0632 -2.0016 0.9811
4.1076 -1.3511 -2.0016 0.9811
4.1940 -1.0527 -2.0016 0.9811
4.2291 -0.9014 -2.0016 0.9811
4.2587 -0.7490 -2.0016 0.9811
4.2829 -0.5955 -2.0016 0.9811
4.3015 -0.4413 -2.0016 0.9811
4.3221 -0.1314 -2.0016 0.9811
4.3204 0.1792 -2.0016 0.9811
4.3112 0.3342 -2.0016 0.9811
4.2964 0.4888 -2.0016 0.9811
4.2761 0.6428 -2.0016 0.9811
4.2502 0.7960 -2.0016 0.9811
4.2189 0.9481 -2.0016 0.9811
4.1821 1.0990 -2.0016 0.9811
4.0924 1.3964 -2.0016 0.9811
3.9816 1.6866 -2.0016 0.9811
3.9185 1.8285 -2.0016 0.9811
3.6163 2.3708 -2.0016 0.9811
3.5288 2.4991 -2.0016 0.9811
3.1346 2.9787 -2.0016 0.9811
2.9127 3.1960 -2.0016 0.9811
2.6757 3.3968 -2.0016 0.9811
2.5520 3.4907 -2.0016 0.9811
2.2948 3.6649 -2.0016 0.9811
2.1617 3.7450 -2.0016 0.9811
2.0258 3.8202 -2.0016 0.9811
1.7464 3.9558 -2.0016 0.9811
1.6032 4.0159 -2.0016 0.9811
1.4579 4.0709 -2.0016 0.9811
1.3108 4.1206 -2.0016 0.9811
1.0116 4.2041 -2.0016 0.9811
0.8600 4.2377 -2.0016 0.9811
0.7072 4.2659 -2.0016 0.9811
0.3992 4.3056 -2.0016 0.9811
0.0891 4.3232 -2.0016 0.9811
-0.5309 4.2914 -2.0016 0.9811
-0.6847 4.2695 -2.0016 0.9811
-0.9894 4.2094 -2.0016 0.9811
-1.1400 4.1711 -2.0016 0.9811
-1.8668 3.9004 -2.0016 0.9811
-2.1420 3.7563 -2.0016 0.9811
-2.4061 3.5929 -2.0016 0.9811
-2.6578 3.4109 -2.0016 0.9811
-2.8958 3.2113 -2.0016 0.9811
-3.1188 2.9951 -2.0016 0.9811
-3.3258 2.7635 -2.0016 0.9811
-1.3308 0.5162 -0.6607 0.9937
-1.3240 0.2062 -0.6202 0.9941
-1.3330 0.1588 -0.6214 0.9941
-1.3380 0.1108 -0.6214 0.9941
-1.3382 0.0626 -0.6201 0.9941
-1.3350 0.0144 -0.6180 0.9941
-1.3367 -0.0336 -0.6189 0.9941
-1.3298 -0.1778 -0.6210 0.9941
-1.3194 -0.2249 -0.6195 0.9941
-1.3055 -0.2711 -0.6172 0.9941
-1.3078 -0.3210 -0.6233 0.9941
-1.3213 -0.3751 -0.6358 0.9940
-1.3282 -0.5372 -0.6632 0.9937
-1.3181 -0.5890 -0.6683 0.9937
-3.5254 -2.2297 -1.9308 0.9818
-3.3113 -2.2648 -1.8570 0.9825
-3.1402 -2.4967 -1.8570 0.9825
-3.0485 -2.6078 -1.8570 0.9825
-2.9529 -2.7157 -1.8570 0.9825
-2.6436 -3.0175 -1.8570 0.9825
-2.5336 -3.1105 -1.8570 0.9825
-2.3037 -3.2843 -1.8570 0.9825
-2.0620 -3.4412 -1.8570 0.9825
-1.8097 -3.5804 -1.8570 0.9825
-1.6799 -3.6431 -1.8570 0.9825
-1.2783 -3.8026 -1.8570 0.9825
-1.1409 -3.8461 -1.8570 0.9825
-0.8619 -3.9181 -1.8570 0.9825
-0.2920 -4.0011 -1.8570 0.9825
-0.0040 -4.0118 -1.8570 0.9825
0.1401 -4.0093 -1.8570 0.9825
0.2840 -4.0017 -1.8570 0.9825
0.4275 -3.9889 -1.8570 0.9825
0.5705 -3.9710 -1.8570 0.9825
0.8541 -3.9198 -1.8570 0.9825
0.9943 -3.8866 -1.8570 0.9825
1.4066 -3.7571 -1.8570 0.9825
1.5406 -3.7042 -1.8570 0.9825
2.0551 -3.4454 -1.8570 0.9825
2.1776 -3.3693 -1.8570 0.9825
2.2972 -3.2890 -1.8570 0.9825
2.4138 -3.2043 -1.8570 0.9825
2.6376 -3.0228 -1.8570 0.9825
3.3793 -2.6978 -2.0016 0.9811
3.6498 -2.3187 -2.0016 0.9811
3.7308 -2.1861 -2.0016 0.9811
3.8069 -2.0507 -2.0016 0.9811
3.8781 -1.9127 -2.0016 0.9811
3.9443 -1.7722 -2.0016 0.9811
4.0054 -1.6294 -2.0016 0.9811
4.1574 -1.1891 -2.0016 0.9811
4.1974 -1.0390 -2.0016 0.9811
4.2320 -0.8876 -2.0016 0.9811
4.2848 -0.5815 -2.0016 0.9811
4.3029 -0.4273 -2.0016 0.9811
4.3155 -0.2724 -2.0016 0.9811
4.3225 -0.1173 -2.0016 0.9811
4.3198 0.1933 -2.0016 0.9811
4.2948 0.5029 -2.0016 0.9811
4.2158 0.9619 -2.0016 0.9811
4.0878 1.4098 -2.0016 0.9811
4.0346 1.5557 -2.0016 0.9811
3.9125 1.8413 -2.0016 0.9811
3.8438 1.9806 -2.0016 0.9811
3.7702 2.1174 -2.0016 0.9811
3.6917 2.2514 -2.0016 0.9811
3.0154 3.0992 -2.0016 0.9811
2.6646 3.4055 -2.0016 0.9811
2.1495 3.7520 -2.0016 0.9811
1.7334 3.9614 -2.0016 0.9811
1.4446 4.0757 -2.0016 0.9811
1.2973 4.1249 -2.0016 0.9811
1.1483 4.1688 -2.0016 0.9811
0.8461 4.2405 -2.0016 0.9811
0.5395 4.2903 -2.0016 0.9811
0.0749 4.3235 -2.0016 0.9811
-0.0804 4.3234 -2.0016 0.9811
-0.2356 4.3177 -2.0016 0.9811
-0.5449 4.2896 -2.0016 0.9811
-1.0032 4.2061 -2.0016 0.9811
-1.4498 4.0738 -2.0016 0.9811
-1.5951 4.0191 -2.0016 0.9811
-1.7385 3.9592 -2.0016 0.9811
-1.8795 3.8943 -2.0016 0.9811
-2.1542 3.7493 -2.0016 0.9811
-2.2875 3.6695 -2.0016 0.9811
-2.4178 3.5850 -2.0016 0.9811
-2.6689 3.4022 -2.0016 0.9811
-2.7894 3.3041 -2.0016 0.9811
-2.9062 3.2018 -2.0016 0.9811
-3.4315 2.6311 -2.0016 0.9811
-3.6115 2.3780 -2.0016 0.9811
-3.6946 2.2468 -2.0016 0.9811
-3.7729 2.1126 -2.0016 0.9811
-3.8463 1.9757 -2.0016 0.9811
-3.9148 1.8363 -2.0016 0.9811
-1.3237 0.5638 -0.6660 0.9937
-1.3312 0.5114 -0.6601 0.9937
-1.3336 0.4581 -0.6527 0.9938
-1.3266 0.4030 -0.6418 0.9939
-1.3127 0.2486 -0.6184 0.9941
-1.3381 0.0582 -0.6200 0.9941
-1.3345 0.0101 -0.6177 0.9941
-1.3370 -0.0380 -0.6191 0.9941
-1.3385 -0.0862 -0.6209 0.9941
-1.3362 -0.1344 -0.6216 0.9941
-1.3041 -0.2752 -0.6169 0.9941
-1.3092 -0.3258 -0.6245 0.9941
-1.3223 -0.3800 -0.6369 0.9940
-1.3314 -0.4350 -0.6483 0.9938
-1.3329 -0.4891 -0.6572 0.9938
-1.3275 -0.5420 -0.6637 0.9937
-3.8043 -2.0556 -2.0016 0.9811
-3.7280 -2.1909 -2.0016 0.9811
-3.2270 -2.3980 -1.8610 0.9824
-3.0400 -2.6178 -1.8570 0.9825
-2.7407 -2.9296 -1.8570 0.9825
-2.4097 -3.2074 -1.8570 0.9825
-2.0508 -3.4480 -1.8570 0.9825
-1.9256 -3.5194 -1.8570 0.9825
-1.7980 -3.5863 -1.8570 0.9825
-1.6680 -3.6485 -1.8570 0.9825
-0.7077 -3.9488 -1.8570 0.9825
2.7729 -2.5773 -1.8570 0.9833
3.0867 -2.6688 -2.0016 0.9820
3.3558 -2.3213 -2.0016 0.9820
3.6536 -1.8169 -2.0016 0.9820
3.8279 -1.4134 -2.0016 0.9820
3.8762 -1.2750 -2.0016 0.9820
3.9577 -0.9934 -2.0016 0.9820
4.0770 0.1691 -2.0016 0.9820
4.0683 0.3154 -2.0016 0.9820
4.0107 0.7511 -2.0016 0.9820
3.9573 0.8894 -1.9896 0.9821
3.9266 1.0319 -1.9915 0.9821
3.8618 1.3177 -2.0016 0.9820
3.7573 1.5915 -2.0016 0.9820
3.6977 1.7255 -2.0016 0.9820
3.2431 2.4764 -2.0016 0.9820
3.1521 2.5912 -2.0016 0.9820
2.9579 2.8108 -2.0016 0.9820
2.5250 3.2054 -2.0016 0.9820
2.0399 3.5340 -2.0016 0.9820
1.9117 3.6049 -2.0016 0.9820
1.7810 3.6713 -2.0016 0.9820
1.3758 3.8415 -2.0016 0.9820
1.2369 3.8885 -2.0016 0.9820
0.9546 3.9672 -2.0016 0.9820
0.8115 3.9989 -2.0016 0.9820
0.6674 4.0255 -2.0016 0.9820
0.5224 4.0469 -2.0016 0.9820
0.3767 4.0630 -2.0016 0.9820
0.0840 4.0796 -2.0016 0.9820
-0.2090 4.0751 -2.0016 0.9820
-0.3552 4.0650 -2.0016 0.9820
-0.6461 4.0290 -2.0016 0.9820
-0.7904 4.0032 -2.0016 0.9820
-0.9337 3.9722 -2.0016 0.9820
-1.0757 3.9361 -2.0016 0.9820
-1.3555 3.8487 -2.0016 0.9820
-1.4929 3.7976 -2.0016 0.9820
-1.6283 3.7415 -2.0016 0.9820
-1.7616 3.6806 -2.0016 0.9820
-1.8927 3.6150 -2.0016 0.9820
-2.0213 3.5447 -2.0016 0.9820
-2.1473 3.4698 -2.0016 0.9820
-2.2705 3.3904 -2.0016 0.9820
-2.3908 3.3067 -2.0016 0.9820
-2.6220 3.1265 -2.0016 0.9820
-2.9431 2.8264 -2.0016 0.9820
-3.0427 2.7189 -2.0016 0.9820
-1.1237 0.5818 -0.6207 0.9944
-1.1362 0.5375 -0.6166 0.9944
-1.1588 0.3562 -0.5947 0.9946
-1.1585 0.3110 -0.5884 0.9947
-1.1844 0.1845 -0.5880 0.9947
-1.1906 0.1418 -0.5881 0.9947
-1.1945 0.0990 -0.5880 0.9947
-1.1959 -0.0731 -0.5877 0.9947
-1.1884 -0.1589 -0.5881 0.9947
-1.1814 -0.2013 -0.5878 0.9947
-1.1583 -0.3742 -0.5971 0.9946
-1.1500 -0.4651 -0.6085 0.9945
-1.1422 -0.5104 -0.6137 0.9944
-1.1318 -0.5554 -0.6184 0.9944
-1.1157 -0.5981 -0.6210 0.9944
-3.4486 -2.1812 -2.0016 0.9820
-2.7865 -2.5626 -1.8570 0.9833
-2.6927 -2.6611 -1.8570 0.9833
-2.4947 -2.8475 -1.8570 0.9833
-2.3908 -2.9352 -1.8570 0.9833
-2.2839 -3.0192 -1.8570 0.9833
-2.1739 -3.0993 -1.8570 0.9833
-1.9458 -3.2473 -1.8570 0.9833
-1.7077 -3.3786 -1.8570 0.9833
-1.5853 -3.4378 -1.8570 0.9833
-1.4608 -3.4925 -1.8570 0.9833
-1.3344 -3.5427 -1.8570 0.9833
-0.9456 -3.6657 -1.8570 0.9833
-0.6800 -3.7241 -1.8570 0.9833
-0.4110 -3.7633 -1.8570 0.9833
-0.2755 -3.7757 -1.8570 0.9833
-0.1398 -3.7831 -1.8570 0.9833
-0.0038 -3.7857 -1.8570 0.9833
0.4034 -3.7642 -1.8570 0.9833
0.5383 -3.7472 -1.8570 0.9833
0.8059 -3.6989 -1.8570 0.9833
1.3273 -3.5454 -1.8570 0.9833
1.7010 -3.3821 -1.8570 0.9833
1.9393 -3.2512 -1.8570 0.9833
2.0549 -3.1795 -1.8570 0.9833
2.1677 -3.1036 -1.8570 0.9833
2.2778 -3.0238 -1.8570 0.9833
2.5898 -2.7612 -1.8570 0.9833
3.0954 -2.6587 -2.0016 0.9820
3.2782 -2.4297 -2.0016 0.9820
3.3634 -2.3104 -2.0016 0.9820
3.4442 -2.1881 -2.0016 0.9820
3.6596 -1.8049 -2.0016 0.9820
3.7220 -1.6723 -2.0016 0.9820
3.9936 -0.8376 -2.0016 0.9820
4.0211 -0.6936 -2.0016 0.9820
4.0434 -0.5488 -2.0016 0.9820
4.0723 -0.2571 -2.0016 0.9820
4.0790 -0.1107 -2.0016 0.9820
4.0803 0.0359 -2.0016 0.9820
4.0672 0.3287 -2.0016 0.9820
4.0331 0.6198 -2.0016 0.9820
3.8779 1.1834 -1.9888 0.9821
3.7521 1.6038 -2.0016 0.9820
3.6920 1.7375 -2.0016 0.9820
3.4052 2.2483 -2.0016 0.9820
3.3222 2.3692 -2.0016 0.9820
3.2350 2.4870 -2.0016 0.9820
3.1436 2.6015 -2.0016 0.9820
3.0481 2.7128 -2.0016 0.9820
2.9487 2.8205 -2.0016 0.9820
2.5145 3.2137 -2.0016 0.9820
2.3974 3.3019 -2.0016 0.9820
2.1542 3.4655 -2.0016 0.9820
1.8999 3.6112 -2.0016 0.9820
1.7690 3.6771 -2.0016 0.9820
1.5005 3.7946 -2.0016 0.9820
1.3632 3.8460 -2.0016 0.9820
1.2242 3.8925 -2.0016 0.9820
1.0836 3.9339 -2.0016 0.9820
0.9416 3.9703 -2.0016 0.9820
0.7984 4.0016 -2.0016 0.9820
0.5091 4.0486 -2.0016 0.9820
0.2172 4.0747 -2.0016 0.9820
-0.0759 4.0798 -2.0016 0.9820
-0.2223 4.0744 -2.0016 0.9820
-0.3685 4.0638 -2.0016 0.9820
-0.6593 4.0268 -2.0016 0.9820
-0.8035 4.0006 -2.0016 0.9820
-1.0886 3.9326 -2.0016 0.9820
-1.2291 3.8909 -2.0016 0.9820
-1.5053 3.7927 -2.0016 0.9820
-1.6405 3.7362 -2.0016 0.9820
-2.2816 3.3830 -2.0016 0.9820
-2.6322 3.1180 -2.0016 0.9820
-2.8492 2.9210 -2.0016 0.9820
-3.0516 2.7089 -2.0016 0.9820
-3.1469 2.5976 -2.0016 0.9820
-3.3252 2.3650 -2.0016 0.9820
-3.4080 2.2440 -2.0016 0.9820
-1.1463 0.4883 -0.6112 0.9945
-1.1571 0.3974 -0.6002 0.9946
-1.1583 0.3069 -0.5878 0.9947
-1.1770 0.2229 -0.5876 0.9947
-1.1851 0.1806 -0.5880 0.9947
-1.1910 0.1379 -0.5881 0.9947
-1.1948 0.0950 -0.5879 0.9947
-1.1964 0.0520 -0.5874 0.9947
-1.1964 -0.0340 -0.5871 0.9947
-1.1806 -0.2052 -0.5878 0.9947
-1.1597 -0.2886 -0.5862 0.9947
-1.1582 -0.3784 -0.5977 0.9946
-1.1550 -0.4238 -0.6035 0.9945
-1.1494 -0.4693 -0.6090 0.9945
-1.1413 -0.5145 -0.6141 0.9944
-1.1138 -0.6018 -0.6210 0.9944
-3.4414 -2.1924 -2.0016 0.9820
-3.2379 -2.2302 -1.9285 0.9826
-2.7781 -2.5717 -1.8570 0.9833
-2.6839 -2.6699 -1.8570 0.9833
-2.4854 -2.8556 -1.8570 0.9833
-2.3812 -2.9430 -1.8570 0.9833
-2.2740 -3.0267 -1.8570 0.9833
-2.0508 -3.1821 -1.8570 0.9833
-1.8171 -3.3211 -1.8570 0.9833
-1.4494 -3.4973 -1.8570 0.9833
-1.1946 -3.5923 -1.8570 0.9833
-1.0648 -3.6329 -1.8570 0.9833
-0.6679 -3.7263 -1.8570 0.9833
3.0922 -2.3075 -2.0016 0.9828
3.3907 -1.8409 -2.0016 0.9828
3.4546 -1.7179 -2.0016 0.9828
3.5141 -1.5927 -2.0016 0.9828
3.5690 -1.4655 -2.0016 0.9828
3.6194 -1.3364 -2.0016 0.9828
3.6650 -1.2055 -2.0016 0.9828
3.7060 -1.0731 -2.0016 0.9828
3.7421 -0.9393 -2.0016 0.9828
3.7734 -0.8043 -2.0016 0.9828
3.7999 -0.6683 -2.0016 0.9828
3.8214 -0.5314 -2.0016 0.9828
3.8564 -0.1173 -2.0016 0.9828
3.8549 0.1599 -2.0016 0.9828
3.8467 0.2982 -2.0016 0.9828
3.8335 0.4362 -2.0016 0.9828
3.7923 0.7102 -2.0016 0.9828
3.7057 0.9738 -1.9877 0.9829
3.6515 1.2460 -2.0016 0.9828
3.5526 1.5049 -2.0016 0.9828
3.4963 1.6315 -2.0016 0.9828
3.3702 1.8782 -2.0016 0.9828
3.2266 2.1153 -2.0016 0.9828
2.9804 2.4501 -2.0016 0.9828
2.8905 2.5556 -2.0016 0.9828
2.7968 2.6577 -2.0016 0.9828
2.6996 2.7565 -2.0016 0.9828
2.5988 2.8516 -2.0016 0.9828
2.3874 3.0308 -2.0016 0.9828
2.2770 3.1146 -2.0016 0.9828
2.0476 3.2700 -2.0016 0.9828
1.6840 3.4713 -2.0016 0.9828
1.1696 3.6767 -2.0016 0.9828
0.6310 3.8063 -2.0016 0.9828
0.3562 3.8417 -2.0016 0.9828
0.2180 3.8521 -2.0016 0.9828
0.0795 3.8574 -2.0016 0.9828
-0.0591 3.8578 -2.0016 0.9828
-0.1976 3.8531 -2.0016 0.9828
-0.4737 3.8290 -2.0016 0.9828
-0.6109 3.8095 -2.0016 0.9828
-0.7474 3.7851 -2.0016 0.9828
-0.8828 3.7559 -2.0016 0.9828
-1.0171 3.7217 -2.0016 0.9828
-1.1501 3.6828 -2.0016 0.9828
-1.2817 3.6391 -2.0016 0.9828
-1.4115 3.5907 -2.0016 0.9828
-1.7896 3.4181 -2.0016 0.9828
-2.2606 3.1266 -2.0016 0.9828
-2.3714 3.0434 -2.0016 0.9828
-2.6850 2.7707 -2.0016 0.9828
-2.7828 2.6724 -2.0016 0.9828
-2.8770 2.5708 -2.0016 0.9828
-3.1368 2.2464 -2.0016 0.9828
-1.0393 0.4916 -0.5964 0.9948
-1.0485 0.4507 -0.5921 0.9949
-1.0632 0.3268 -0.5770 0.9950
-1.1047 0.0915 -0.5751 0.9950
-1.1035 -0.1073 -0.5752 0.9950
-1.0990 -0.1469 -0.5752 0.9950
-1.0926 -0.1862 -0.5750 0.9950
-1.0840 -0.2251 -0.5744 0.9950
-1.0734 -0.2634 -0.5734 0.9950
-1.0624 -0.3432 -0.5792 0.9950
-1.0451 -0.4671 -0.5939 0.9949
-1.0334 -0.5071 -0.5972 0.9948
-1.0158 -0.5446 -0.5980 0.9948
-0.9961 -0.5810 -0.5982 0.9948
-0.9742 -0.6161 -0.5980 0.9948
-2.8190 -2.2413 -1.8683 0.9839
-2.6347 -2.4231 -1.8570 0.9840
-2.5460 -2.5161 -1.8570 0.9840
-2.4540 -2.6059 -1.8570 0.9840
-2.3588 -2.6924 -1.8570 0.9840
-2.2606 -2.7754 -1.8570 0.9840
-1.9490 -3.0024 -1.8570 0.9840
-1.8399 -3.0705 -1.8570 0.9840
-1.6147 -3.1946 -1.8570 0.9840
-1.2617 -3.3498 -1.8570 0.9840
-1.0180 -3.4317 -1.8570 0.9840
-0.8941 -3.4660 -1.8570 0.9840
-0.6430 -3.5213 -1.8570 0.9840
-0.3886 -3.5584 -1.8570 0.9840
-0.2605 -3.5700 -1.8570 0.9840
-0.0036 -3.5795 -1.8570 0.9840
0.1250 -3.5773 -1.8570 0.9840
0.2534 -3.5705 -1.8570 0.9840
0.3814 -3.5591 -1.8570 0.9840
0.5090 -3.5431 -1.8570 0.9840
0.6360 -3.5226 -1.8570 0.9840
0.7620 -3.4975 -1.8570 0.9840
0.8872 -3.4678 -1.8570 0.9840
1.1338 -3.3952 -1.8570 0.9840
1.2550 -3.3523 -1.8570 0.9840
1.3746 -3.3051 -1.8570 0.9840
1.4924 -3.2536 -1.8570 0.9840
1.8337 -3.0742 -1.8570 0.9840
1.9429 -3.0063 -1.8570 0.9840
2.0496 -2.9346 -1.8570 0.9840
2.4488 -2.6109 -1.8570 0.9840
2.5409 -2.5212 -1.8570 0.9840
2.6322 -2.4305 -1.8587 0.9840
2.9268 -2.5139 -2.0016 0.9828
3.0152 -2.4072 -2.0016 0.9828
3.0997 -2.2973 -2.0016 0.9828
3.2566 -2.0689 -2.0016 0.9828
3.3288 -1.9506 -2.0016 0.9828
3.3967 -1.8298 -2.0016 0.9828
3.4602 -1.7066 -2.0016 0.9828
3.5193 -1.5812 -2.0016 0.9828
3.5738 -1.4538 -2.0016 0.9828
3.6237 -1.3245 -2.0016 0.9828
3.7095 -1.0610 -2.0016 0.9828
3.7452 -0.9271 -2.0016 0.9828
3.8232 -0.5189 -2.0016 0.9828
3.8393 -0.3812 -2.0016 0.9828
3.8505 -0.2431 -2.0016 0.9828
3.8568 -0.1047 -2.0016 0.9828
3.8581 0.0339 -2.0016 0.9828
3.8544 0.1725 -2.0016 0.9828
3.8457 0.3108 -2.0016 0.9828
3.7422 0.8539 -1.9913 0.9829
3.7037 0.9863 -1.9884 0.9829
3.6676 1.1192 -1.9893 0.9829
3.6474 1.2579 -2.0016 0.9828
3.5999 1.3881 -2.0016 0.9828
3.4297 1.7672 -2.0016 0.9828
3.2197 2.1259 -2.0016 0.9828
3.1413 2.2401 -2.0016 0.9828
2.9724 2.4598 -2.0016 0.9828
2.6906 2.7653 -2.0016 0.9828
2.0369 3.2767 -2.0016 0.9828
1.7964 3.4145 -2.0016 0.9828
1.5467 3.5346 -2.0016 0.9828
1.4187 3.5879 -2.0016 0.9828
1.2890 3.6365 -2.0016 0.9828
1.1575 3.6805 -2.0016 0.9828
0.8903 3.7541 -2.0016 0.9828
0.7549 3.7836 -2.0016 0.9828
0.3436 3.8429 -2.0016 0.9828
0.0669 3.8576 -2.0016 0.9828
-0.2102 3.8525 -2.0016 0.9828
-0.3485 3.8424 -2.0016 0.9828
-0.4862 3.8275 -2.0016 0.9828
-0.7597 3.7827 -2.0016 0.9828
-0.8951 3.7529 -2.0016 0.9828
-1.0293 3.7184 -2.0016 0.9828
-1.1622 3.6790 -2.0016 0.9828
-1.4233 3.5861 -2.0016 0.9828
-1.5512 3.5327 -2.0016 0.9828
-1.6770 3.4747 -2.0016 0.9828
-2.0410 3.2741 -2.0016 0.9828
-2.1573 3.1987 -2.0016 0.9828
-2.2708 3.1192 -2.0016 0.9828
-2.3814 3.0356 -2.0016 0.9828
-2.5931 2.8568 -2.0016 0.9828
-3.0618 2.3476 -2.0016 0.9828
-3.1441 2.2361 -2.0016 0.9828
-3.2224 2.1218 -2.0016 0.9828
-0.9852 0.5991 -0.5982 0.9948
-1.0493 0.4470 -0.5917 0.9949
-1.0561 0.4057 -0.5869 0.9949
-1.0788 0.2447 -0.5739 0.9950
-1.0960 0.1670 -0.5751 0.9950
-1.1061 0.0083 -0.5738 0.9950
-1.1059 -0.0712 -0.5749 0.9950
-1.0985 -0.1505 -0.5752 0.9950
-1.0919 -0.1898 -0.5749 0.9950
-1.0724 -0.2669 -0.5733 0.9950
-1.0637 -0.3057 -0.5742 0.9950
-1.0584 -0.3884 -0.5849 0.9949
-1.0443 -0.4708 -0.5943 0.9949
-1.0319 -0.5106 -0.5973 0.9948
-3.1774 -2.1885 -2.0016 0.9828
-2.7124 -2.3357 -1.8570 0.9840
-2.5378 -2.5244 -1.8570 0.9840
-2.4455 -2.6139 -1.8570 0.9840
-2.2515 -2.7827 -1.8570 0.9840
-2.0459 -2.9372 -1.8570 0.9840
-1.7182 -3.1402 -1.8570 0.9840
-1.4883 -3.2554 -1.8570 0.9840
-1.3704 -3.3068 -1.8570 0.9840
-0.7576 -3.4984 -1.8570 0.9840
2.8485 -2.2894 -2.0016 0.9835
3.0055 -2.0790 -2.0016 0.9835
3.2117 -1.7437 -2.0016 0.9835
3.3806 -1.3881 -2.0016 0.9835
3.4715 -1.1419 -2.0016 0.9835
3.6528 -0.1111 -2.0016 0.9835
3.6513 0.1514 -2.0016 0.9835
3.6435 0.2825 -2.0016 0.9835
3.5084 0.9220 -1.9868 0.9836
3.4771 1.0486 -1.9891 0.9836
3.3117 1.5453 -2.0016 0.9835
3.0562 2.0036 -2.0016 0.9835
2.9823 2.1121 -2.0016 0.9835
2.7378 2.4206 -2.0016 0.9835
2.5570 2.6109 -2.0016 0.9835
2.1568 2.9501 -2.0016 0.9835
1.9395 3.0973 -2.0016 0.9835
1.8270 3.1650 -2.0016 0.9835
1.4759 3.3432 -2.0016 0.9835
1.3549 3.3940 -2.0016 0.9835
1.2321 3.4405 -2.0016 0.9835
0.8549 3.5530 -2.0016 0.9835
0.5977 3.6053 -2.0016 0.9835
0.3374 3.6389 -2.0016 0.9835
0.2064 3.6486 -2.0016 0.9835
-0.5787 3.6084 -2.0016 0.9835
-1.0894 3.4883 -2.0016 0.9835
-1.4583 3.3509 -2.0016 0.9835
-1.5777 3.2964 -2.0016 0.9835
-1.6951 3.2376 -2.0016 0.9835
-1.8102 3.1746 -2.0016 0.9835
-1.9231 3.1075 -2.0016 0.9835
-2.5432 2.6243 -2.0016 0.9835
-2.8107 2.3356 -2.0016 0.9835
-0.8566 0.6135 -0.5771 0.9952
-0.8795 0.5832 -0.5780 0.9952
-0.9199 0.5191 -0.5785 0.9952
-0.9373 0.4853 -0.5781 0.9952
-0.9649 0.4147 -0.5752 0.9952
-0.9803 0.3013 -0.5617 0.9953
-0.9899 0.2657 -0.5614 0.9953
-1.0007 0.2304 -0.5624 0.9953
-1.0097 0.1946 -0.5632 0.9953
-1.0223 0.1218 -0.5639 0.9953
-1.0258 0.0850 -0.5638 0.9953
-1.0275 0.0480 -0.5634 0.9953
-1.0273 0.0111 -0.5627 0.9953
-1.0205 -0.1364 -0.5639 0.9953
-1.0063 -0.2090 -0.5629 0.9953
-0.9851 -0.2796 -0.5609 0.9953
-0.9793 -0.3164 -0.5637 0.9953
-0.9610 -0.4295 -0.5765 0.9952
-0.9306 -0.4989 -0.5783 0.9952
-2.7981 -2.2247 -1.9579 0.9838
-2.4115 -2.3832 -1.8570 0.9847
-2.2342 -2.5502 -1.8570 0.9847
-2.1412 -2.6288 -1.8570 0.9847
-1.9470 -2.7757 -1.8570 0.9847
-1.8460 -2.8439 -1.8570 0.9847
-1.6371 -2.9690 -1.8570 0.9847
-1.5294 -3.0259 -1.8570 0.9847
-1.4198 -3.0789 -1.8570 0.9847
-1.3083 -3.1279 -1.8570 0.9847
-1.0804 -3.2137 -1.8570 0.9847
-0.7284 -3.3113 -1.8570 0.9847
-0.3681 -3.3704 -1.8570 0.9847
-0.1252 -3.3882 -1.8570 0.9847
0.2400 -3.3820 -1.8570 0.9847
0.4821 -3.3560 -1.8570 0.9847
0.7218 -3.3128 -1.8570 0.9847
0.9577 -3.2524 -1.8570 0.9847
1.0739 -3.2159 -1.8570 0.9847
1.3020 -3.1305 -1.8570 0.9847
1.6312 -2.9723 -1.8570 0.9847
2.0400 -2.7081 -1.8570 0.9847
2.1359 -2.6331 -1.8570 0.9847
2.3194 -2.4730 -1.8570 0.9847
2.4068 -2.3881 -1.8570 0.9847
2.5925 -2.3938 -1.9327 0.9840
2.7722 -2.3811 -2.0016 0.9835
2.8560 -2.2800 -2.0016 0.9835
2.9360 -2.1760 -2.0016 0.9835
3.0846 -1.9596 -2.0016 0.9835
3.4752 -1.1305 -2.0016 0.9835
3.5474 -0.8781 -2.0016 0.9835
3.6213 -0.4915 -2.0016 0.9835
3.6472 -0.2303 -2.0016 0.9835
3.6543 0.0321 -2.0016 0.9835
3.6508 0.1634 -2.0016 0.9835
3.5898 0.6845 -2.0016 0.9835
3.5418 0.8081 -1.9897 0.9836
3.5053 0.9334 -1.9868 0.9836
3.4953 1.0666 -2.0016 0.9835
3.4098 1.3148 -2.0016 0.9835
3.3603 1.4364 -2.0016 0.9835
3.1200 1.9028 -2.0016 0.9835
2.9754 2.1218 -2.0016 0.9835
2.6409 2.5260 -2.0016 0.9835
2.3539 2.7954 -2.0016 0.9835
2.0395 3.0324 -2.0016 0.9835
1.8166 3.1710 -2.0016 0.9835
1.7015 3.2342 -2.0016 0.9835
1.4650 3.3480 -2.0016 0.9835
1.2209 3.4445 -2.0016 0.9835
0.9705 3.5232 -2.0016 0.9835
0.3255 3.6399 -2.0016 0.9835
0.1945 3.6493 -2.0016 0.9835
0.0633 3.6539 -2.0016 0.9835
-0.1991 3.6490 -2.0016 0.9835
-0.4606 3.6253 -2.0016 0.9835
-0.9749 3.5220 -2.0016 0.9835
-1.1008 3.4847 -2.0016 0.9835
-1.2252 3.4429 -2.0016 0.9835
-1.3481 3.3967 -2.0016 0.9835
-1.4692 3.3461 -2.0016 0.9835
-1.8206 3.1687 -2.0016 0.9835
-2.0434 3.0298 -2.0016 0.9835
-2.2556 2.8753 -2.0016 0.9835
-2.3574 2.7924 -2.0016 0.9835
-2.4562 2.7060 -2.0016 0.9835
-2.5518 2.6160 -2.0016 0.9835
-2.6441 2.5227 -2.0016 0.9835
-0.8588 0.6108 -0.5772 0.9952
-0.8815 0.5804 -0.5781 0.9952
-0.9216 0.5160 -0.5785 0.9952
-0.9656 0.4113 -0.5748 0.9952
-0.9725 0.3736 -0.5706 0.9953
-1.0272 0.0077 -0.5626 0.9953
-1.0200 -0.1397 -0.5639 0.9953
-1.0055 -0.2122 -0.5629 0.9953
-0.9840 -0.2828 -0.5608 0.9953
-0.9688 -0.3955 -0.5731 0.9952
-0.9598 -0.4327 -0.5767 0.9952
-0.9454 -0.4678 -0.5777 0.9952
-0.9290 -0.5020 -0.5783 0.9952
-2.9332 -2.1797 -2.0016 0.9835
-2.7810 -2.2260 -1.9510 0.9839
-2.4881 -2.3032 -1.8570 0.9847
-1.9379 -2.7821 -1.8570 0.9847
-1.8367 -2.8499 -1.8570 0.9847
-1.6274 -2.9744 -1.8570 0.9847
-0.9536 -3.2536 -1.8570 0.9847
-0.7176 -3.3137 -1.8570 0.9847
-0.5981 -3.3373 -1.8570 0.9847
2.6225 -2.2675 -2.0016 0.9841
2.7022 -2.1718 -2.0016 0.9841
2.7785 -2.0734 -2.0016 0.9841
2.8511 -1.9722 -2.0016 0.9841
3.0467 -1.6541 -2.0016 0.9841
1.8518 -0.8393 -1.1739 0.9907
1.8700 -0.6905 -1.1509 0.9908
1.9067 -0.6272 -1.1588 0.9908
1.9382 -0.5612 -1.1650 0.9907
1.9642 -0.4930 -1.1692 0.9907
2.0369 -0.2090 -1.1822 0.9906
2.0359 -0.1352 -1.1780 0.9906
2.0332 0.0843 -1.1749 0.9906
2.0360 0.2317 -1.1831 0.9906
1.9823 0.4455 -1.1730 0.9907
1.9291 0.5818 -1.1633 0.9907
1.8490 0.8628 -1.1780 0.9906
3.0869 1.5779 -2.0016 0.9841
3.0283 1.6877 -2.0016 0.9841
2.9657 1.7954 -2.0016 0.9841
2.8993 1.9007 -2.0016 0.9841
2.8292 2.0036 -2.0016 0.9841
2.5972 2.2963 -2.0016 0.9841
2.4257 2.4768 -2.0016 0.9841
1.9442 2.8703 -2.0016 0.9841
1.8399 2.9383 -2.0016 0.9841
1.6242 3.0628 -2.0016 0.9841
1.5131 3.1192 -2.0016 0.9841
1.4001 3.1715 -2.0016 0.9841
0.8110 3.3706 -2.0016 0.9841
0.6895 3.3976 -2.0016 0.9841
0.5670 3.4201 -2.0016 0.9841
0.4438 3.4383 -2.0016 0.9841
0.3200 3.4520 -2.0016 0.9841
0.1958 3.4613 -2.0016 0.9841
0.0714 3.4661 -2.0016 0.9841
-0.0531 3.4664 -2.0016 0.9841
-0.1776 3.4623 -2.0016 0.9841
-0.4257 3.4406 -2.0016 0.9841
-0.5490 3.4231 -2.0016 0.9841
-0.6715 3.4011 -2.0016 0.9841
-1.1516 3.2699 -2.0016 0.9841
-1.2683 3.2265 -2.0016 0.9841
-1.3834 3.1788 -2.0016 0.9841
-1.4967 3.1271 -2.0016 0.9841
-1.7173 3.0116 -2.0016 0.9841
-2.1308 2.7346 -2.0016 0.9841
-2.4126 2.4896 -2.0016 0.9841
-2.5005 2.4013 -2.0016 0.9841
-2.6664 2.2156 -2.0016 0.9841
-0.8099 0.5371 -0.5610 0.9955
-0.8470 0.4779 -0.5615 0.9955
-0.8899 0.3825 -0.5592 0.9955
-0.9043 0.3139 -0.5527 0.9956
-0.9323 0.2147 -0.5523 0.9956
-0.9406 0.1813 -0.5531 0.9956
-0.9473 0.1475 -0.5535 0.9956
-0.9525 0.1135 -0.5538 0.9956
-0.9558 0.0792 -0.5537 0.9956
-0.9574 0.0448 -0.5533 0.9956
-0.9575 -0.0241 -0.5530 0.9956
-0.9569 -0.0585 -0.5535 0.9956
-0.9448 -0.1610 -0.5534 0.9956
-0.9375 -0.1947 -0.5528 0.9956
-0.9179 -0.2606 -0.5509 0.9956
-0.9066 -0.2929 -0.5501 0.9956
-0.9024 -0.3278 -0.5543 0.9956
-0.8851 -0.3956 -0.5597 0.9955
-0.8719 -0.4278 -0.5607 0.9955
-0.8569 -0.4594 -0.5613 0.9955
-0.7877 -0.5814 -0.5653 0.9955
-0.7704 -0.6125 -0.5682 0.9955
-2.2877 -2.2609 -1.8570 0.9853
-2.2050 -2.3416 -1.8570 0.9853
-2.1195 -2.4193 -1.8570 0.9853
-2.0313 -2.4938 -1.8570 0.9853
-1.9404 -2.5652 -1.8570 0.9853
-1.8470 -2.6332 -1.8570 0.9853
-1.5531 -2.8166 -1.8570 0.9853
-1.3469 -2.9208 -1.8570 0.9853
-1.2411 -2.9673 -1.8570 0.9853
-1.0249 -3.0487 -1.8570 0.9853
-0.8034 -3.1144 -1.8570 0.9853
-0.3492 -3.1974 -1.8570 0.9853
-0.2341 -3.2079 -1.8570 0.9853
-0.1187 -3.2142 -1.8570 0.9853
0.1123 -3.2144 -1.8570 0.9853
0.2277 -3.2083 -1.8570 0.9853
0.6847 -3.1427 -1.8570 0.9853
1.0188 -3.0508 -1.8570 0.9853
1.2352 -2.9698 -1.8570 0.9853
1.6477 -2.7623 -1.8570 0.9853
1.8417 -2.6369 -1.8570 0.9853
1.9352 -2.5690 -1.8570 0.9853
2.0263 -2.4979 -1.8570 0.9853
2.1147 -2.4235 -1.8570 0.9853
2.2003 -2.3460 -1.8570 0.9853
2.6299 -2.2589 -2.0016 0.9841
2.7852 -2.0643 -2.0016 0.9841
2.8576 -1.9629 -2.0016 0.9841
2.9262 -1.8590 -2.0016 0.9841
3.0521 -1.6442 -2.0016 0.9841
3.1092 -1.5335 -2.0016 0.9841
1.8635 -0.7580 -1.1615 0.9908
1.8735 -0.6848 -1.1517 0.9908
1.9098 -0.6213 -1.1595 0.9908
2.0197 -0.3484 -1.1833 0.9906
2.0358 -0.1285 -1.1777 0.9906
2.0298 -0.0551 -1.1724 0.9907
2.0235 0.0178 -1.1683 0.9907
2.0338 0.0910 -1.1754 0.9906
2.0367 0.1646 -1.1797 0.9906
2.0356 0.2384 -1.1833 0.9906
2.0085 0.3830 -1.1805 0.9906
1.9794 0.4517 -1.1722 0.9907
1.9545 0.5205 -1.1677 0.9907
1.9263 0.5878 -1.1628 0.9907
1.8927 0.6527 -1.1559 0.9908
3.1368 1.4762 -2.0016 0.9841
3.0818 1.5879 -2.0016 0.9841
3.0227 1.6976 -2.0016 0.9841
2.9598 1.8051 -2.0016 0.9841
2.8931 1.9102 -2.0016 0.9841
2.8226 2.0129 -2.0016 0.9841
2.7485 2.1129 -2.0016 0.9841
2.6708 2.2103 -2.0016 0.9841
2.5053 2.3963 -2.0016 0.9841
2.2330 2.6519 -2.0016 0.9841
2.0369 2.8053 -2.0016 0.9841
1.7233 3.0081 -2.0016 0.9841
1.6142 3.0681 -2.0016 0.9841
1.5029 3.1241 -2.0016 0.9841
1.3898 3.1760 -2.0016 0.9841
1.1582 3.2676 -2.0016 0.9841
0.8000 3.3732 -2.0016 0.9841
-0.1889 3.4617 -2.0016 0.9841
-0.3131 3.4526 -2.0016 0.9841
-0.5601 3.4213 -2.0016 0.9841
-0.9249 3.3412 -2.0016 0.9841
-1.3938 3.1743 -2.0016 0.9841
-1.5069 3.1222 -2.0016 0.9841
-1.8340 2.9420 -2.0016 0.9841
-2.2363 2.6491 -2.0016 0.9841
-2.4207 2.4817 -2.0016 0.9841
-2.5083 2.3931 -2.0016 0.9841
-0.7611 0.6282 -0.5698 0.9955
-0.7958 0.5660 -0.5638 0.9955
-0.8117 0.5345 -0.5611 0.9955
-0.8309 0.5053 -0.5615 0.9955
-0.8909 0.3795 -0.5591 0.9955
-0.8996 0.3456 -0.5564 0.9956
-0.9047 0.3107 -0.5523 0.9956
-0.9233 0.2446 -0.5515 0.9956
-0.9331 0.2117 -0.5524 0.9956
-0.9413 0.1782 -0.5531 0.9956
-0.9479 0.1444 -0.5536 0.9956
-0.9574 0.0416 -0.5533 0.9956
-0.9568 -0.0616 -0.5536 0.9956
-0.9276 -0.2309 -0.5519 0.9956
-0.9169 -0.2635 -0.5508 0.9956
-0.8956 -0.3656 -0.5585 0.9955
-0.8840 -0.3985 -0.5598 0.9955
-0.8706 -0.4307 -0.5608 0.9955
-0.8554 -0.4622 -0.5614 0.9955
-0.8200 -0.5224 -0.5613 0.9955
-0.7688 -0.6153 -0.5685 0.9955
-2.5816 -2.2231 -1.9669 0.9844
-2.0231 -2.5004 -1.8570 0.9853
-1.9320 -2.5715 -1.8570 0.9853
