ply
format ascii 1.0
element vertex 1543
property float32 x
property float32 y
property float32 z
property float32 I
end_header
-15.3776 13.5526 0.8082 0.9212
-20.7662 13.5675 0.9781 0.9055
-24.1279 -22.4892 1.3006 0.8763
-15.2040 -18.9226 0.9571 0.9074
-14.1188 -18.9256 0.9310 0.9098
-13.9604 -20.1874 0.9678 0.9064
-13.9650 -21.8302 1.0218 0.9015
-11.1327 -22.3938 0.9861 0.9047
-10.1480 -22.3966 0.9695 0.9063
-8.2687 -22.4018 0.9416 0.9088
-7.3812 -22.4478 0.9318 0.9097
-6.5004 -22.4567 0.9218 0.9107
-5.6216 -22.4042 0.9108 0.9117
-4.7962 -22.5107 0.9075 0.9120
-3.9232 -22.3185 0.8935 0.9133
-2.3159 -22.5890 0.8954 0.9131
-1.4959 -22.5470 0.8910 0.9135
-0.6802 -22.4179 0.8844 0.9141
0.1260 -22.5516 0.8892 0.9137
0.9385 -22.5979 0.8918 0.9134
38.7436 13.4175 0.6926 0.8487
36.0476 15.4632 0.6626 0.8548
35.7958 16.9020 0.6687 0.8535
35.3312 19.9013 0.6850 0.8502
35.3860 21.6418 0.7007 0.8471
35.1906 23.2989 0.7129 0.8446
35.1958 25.1658 0.7309 0.8411
35.4017 27.2861 0.7550 0.8363
30.1543 26.9038 0.6826 0.8507
2.1596 13.3945 0.2292 0.9472
0.6622 12.6994 0.2148 0.9504
0.2047 12.6482 0.2137 0.9507
-1.4572 15.8684 0.2692 0.9382
-2.0214 12.2597 0.2099 0.9515
-3.2066 15.8733 0.2735 0.9373
-3.8050 15.8749 0.2758 0.9368
-4.3904 12.2941 0.2205 0.9491
-6.0464 15.1858 0.2761 0.9367
-6.1418 13.9461 0.2574 0.9409
-5.9521 12.2980 0.2308 0.9468
-6.5175 12.3174 0.2354 0.9458
-10.1708 17.6573 0.3442 0.9217
-8.3013 12.2802 0.2504 0.9424
-12.8227 17.5737 0.3675 0.9166
-13.2085 16.8005 0.3610 0.9181
-10.3194 12.1974 0.2699 0.9381
-12.9259 14.2102 0.3245 0.9260
-19.2985 15.8958 0.4223 0.9048
-33.2609 23.6040 0.6889 0.8495
-33.2658 21.8547 0.6723 0.8528
-30.1178 -4.1554 0.5136 0.8855
-27.8688 -22.3473 0.6034 0.8668
-22.4412 -22.3624 0.5351 0.8810
-20.8886 -22.3667 0.5170 0.8848
-19.5884 -22.5459 0.5045 0.8874
-17.7288 -21.9504 0.4766 0.8933
-15.6838 -22.5568 0.4641 0.8959
-12.3224 -22.5661 0.4343 0.9023
-11.2036 -22.3936 0.4230 0.9047
-10.2165 -22.3964 0.4158 0.9062
-9.2838 -22.4539 0.4104 0.9074
-7.4283 -22.3991 0.3986 0.9099
-5.6821 -22.4040 0.3904 0.9117
-2.3693 -22.5446 0.3829 0.9133
-1.5565 -22.5910 0.3825 0.9134
-0.7372 -22.4177 0.3789 0.9142
0.0683 -22.4200 0.3787 0.9142
1.6824 -22.4244 0.3799 0.9140
2.1909 -4.3132 0.0817 0.9808
2.3244 -4.1957 0.0810 0.9810
32.6005 -37.0639 0.8338 0.8208
34.0507 -36.0176 0.8372 0.8201
32.8840 -30.1242 0.7533 0.8366
40.8569 -25.7311 0.8156 0.8243
32.6137 -4.2974 0.5557 0.8767
33.0286 8.9312 0.5779 0.8721
43.3448 13.4086 0.7664 0.8340
38.4303 13.4184 0.6876 0.8497
36.0479 15.5718 0.6633 0.8546
35.1457 18.2794 0.6692 0.8534
35.1813 19.9347 0.6830 0.8506
35.3863 21.7657 0.7018 0.8469
35.1910 23.4279 0.7141 0.8444
35.3520 27.3912 0.7554 0.8362
35.4585 31.7983 0.8045 0.8265
4.6868 17.2654 0.3022 0.9309
1.0799 12.6022 0.2137 0.9507
0.1714 12.5628 0.2122 0.9510
-0.3535 15.8653 0.2681 0.9385
-1.4979 15.8685 0.2692 0.9382
-2.6584 15.8717 0.2718 0.9376
-3.8477 15.8750 0.2759 0.9367
-6.0467 15.0751 0.2744 0.9371
-6.1842 13.9462 0.2577 0.9408
-11.1444 17.7340 0.3538 0.9196
-8.3286 12.2534 0.2503 0.9425
-12.8913 17.5739 0.3682 0.9165
-9.8761 12.4964 0.2691 0.9383
-12.9261 14.1381 0.3236 0.9262
-18.0325 15.8923 0.4060 0.9083
-19.3990 15.8961 0.4236 0.9045
-20.8915 15.9003 0.4435 0.9003
-33.2612 23.4774 0.6877 0.8497
-33.4202 -23.1886 0.6871 0.8498
-24.1751 -22.5332 0.5582 0.8762
-20.7828 -22.3670 0.5157 0.8850
-17.5674 -21.8639 0.4738 0.8939
-13.1375 -22.2590 0.4366 0.9018
-11.1327 -22.3938 0.4224 0.9048
-8.2687 -22.4018 0.4034 0.9089
-7.3812 -22.4478 0.3992 0.9098
-5.6216 -22.4042 0.3902 0.9117
-4.7962 -22.5107 0.3888 0.9120
-2.3159 -22.5890 0.3836 0.9132
0.1260 -22.5516 0.3809 0.9137
0.9385 -22.5979 0.3820 0.9135
1.7397 -22.4246 0.3799 0.9139
43.7343 13.4075 -0.2575 0.8328
38.6053 13.3696 -0.2300 0.8492
35.1327 13.5987 -0.2121 0.8601
36.0123 15.4481 -0.2206 0.8549
35.7958 16.9020 -0.2229 0.8536
35.1906 23.2989 -0.2376 0.8447
35.1958 25.1658 -0.2436 0.8411
30.1038 26.8588 -0.2271 0.8510
3.8660 14.0998 -0.0823 0.9432
3.2052 13.5856 -0.0786 0.9457
2.0872 12.9454 -0.0738 0.9489
1.5791 12.6762 -0.0719 0.9502
0.1951 12.0537 -0.0679 0.9529
-0.2371 12.0091 -0.0676 0.9531
-0.6871 12.3335 -0.0695 0.9518
-1.5615 12.1810 -0.0691 0.9521
-1.9530 11.8447 -0.0676 0.9531
-2.4125 11.9425 -0.0686 0.9524
-2.9371 12.2538 -0.0709 0.9508
-3.3931 12.2047 -0.0713 0.9506
-3.8942 12.2801 -0.0725 0.9498
-4.3732 12.2458 -0.0732 0.9493
-5.3113 12.0602 -0.0742 0.9487
-5.8750 12.1387 -0.0759 0.9475
-6.4578 12.2046 -0.0777 0.9463
-6.9335 12.0370 -0.0782 0.9460
-7.5410 12.0680 -0.0801 0.9447
-8.6919 11.9124 -0.0830 0.9427
-9.4946 12.0765 -0.0865 0.9404
-10.1486 11.9955 -0.0885 0.9391
-10.8585 11.9374 -0.0909 0.9375
-11.7389 12.0090 -0.0946 0.9350
-14.4782 11.9255 -0.1056 0.9277
-16.9121 12.0019 -0.1168 0.9204
-25.9878 12.1580 -0.1615 0.8916
-24.2982 -22.5328 -0.1866 0.8759
-22.4412 -22.3624 -0.1784 0.8810
-20.8886 -22.3667 -0.1723 0.8848
-19.5884 -22.5459 -0.1682 0.8874
-17.7288 -21.9504 -0.1589 0.8933
-16.6129 -22.1514 -0.1559 0.8952
-15.6838 -22.5568 -0.1547 0.8959
-14.1915 -22.0607 -0.1477 0.9004
-13.1733 -22.1907 -0.1453 0.9019
-9.3336 -22.5744 -0.1375 0.9069
-8.3334 -22.4016 -0.1346 0.9088
-7.4283 -22.3991 -0.1329 0.9099
-5.6821 -22.4040 -0.1301 0.9117
-4.8560 -22.5106 -0.1297 0.9120
-3.1613 -22.3318 -0.1270 0.9137
-2.3693 -22.5446 -0.1276 0.9133
0.8810 -22.5978 -0.1273 0.9135
32.6143 -32.1059 -0.2577 0.8327
32.6285 -25.8388 -0.2343 0.8466
32.6135 -4.2974 -0.1852 0.8767
35.2870 13.7615 -0.2132 0.8594
35.7295 16.9817 -0.2227 0.8536
34.4719 21.2032 -0.2279 0.8505
35.1962 25.3013 -0.2440 0.8408
30.0664 26.9628 -0.2274 0.8508
2.5610 13.0878 -0.0751 0.9481
2.0524 12.9386 -0.0738 0.9489
1.0760 12.5575 -0.0710 0.9508
0.6026 12.1483 -0.0685 0.9525
0.1644 12.0477 -0.0678 0.9529
-0.7188 12.3384 -0.0696 0.9518
-1.5898 12.1576 -0.0690 0.9521
-1.9821 11.8338 -0.0676 0.9531
-2.4458 11.9508 -0.0687 0.9524
-2.9579 12.2041 -0.0707 0.9510
-5.3459 12.0556 -0.0742 0.9486
-5.9773 12.2705 -0.0768 0.9469
-6.4754 12.1631 -0.0776 0.9464
-8.7361 11.9094 -0.0832 0.9426
-10.2913 12.1017 -0.0894 0.9384
-12.0162 12.2304 -0.0965 0.9337
-13.7940 12.1569 -0.1035 0.9291
-14.5141 11.8933 -0.1056 0.9277
-15.9470 12.1370 -0.1128 0.9230
-16.9025 11.9306 -0.1165 0.9206
-18.1560 11.8621 -0.1221 0.9169
-21.6990 12.0490 -0.1397 0.9055
-23.7556 12.0960 -0.1501 0.8989
-25.8633 12.0198 -0.1606 0.8922
-25.7790 -22.3531 -0.1921 0.8724
-24.1751 -22.5332 -0.1861 0.8762
-22.3762 -22.4111 -0.1783 0.8810
-20.7828 -22.3670 -0.1719 0.8850
-15.5991 -22.5570 -0.1544 0.8961
-13.1375 -22.2590 -0.1455 0.9018
-11.1328 -22.3938 -0.1408 0.9048
-10.1480 -22.3966 -0.1384 0.9063
-9.2666 -22.5746 -0.1374 0.9070
-7.3812 -22.4478 -0.1331 0.9098
-6.5352 -22.5772 -0.1323 0.9103
-3.9232 -22.3185 -0.1276 0.9133
-2.3159 -22.5890 -0.1278 0.9132
0.1260 -22.5516 -0.1270 0.9137
0.9385 -22.5979 -0.1273 0.9135
1.7397 -22.4246 -0.1266 0.9140
42.9261 13.1598 -1.2642 0.8356
38.0275 13.1695 -1.1332 0.8513
36.0476 15.4632 -1.1045 0.8547
34.2186 17.6870 -1.0846 0.8572
33.6583 20.5852 -1.1109 0.8540
34.5293 22.8611 -1.1660 0.8473
34.1915 24.4476 -1.1835 0.8452
30.1105 26.8648 -1.1363 0.8509
2.6330 13.2771 -0.3811 0.9473
2.0790 12.8948 -0.3678 0.9491
1.5996 12.8405 -0.3644 0.9495
0.6387 12.2486 -0.3454 0.9521
0.1945 12.0194 -0.3385 0.9530
-0.2373 12.0215 -0.3386 0.9530
-0.6675 11.9809 -0.3379 0.9531
-1.0686 11.6371 -0.3291 0.9543
-1.5298 11.9341 -0.3388 0.9530
-2.4006 11.8834 -0.3414 0.9526
-2.8558 11.9148 -0.3450 0.9522
-3.3806 12.1596 -0.3554 0.9508
-4.2397 11.8719 -0.3550 0.9508
-4.6957 11.7933 -0.3574 0.9505
-5.7873 11.9574 -0.3741 0.9482
-6.2328 11.7795 -0.3753 0.9481
-6.7953 11.7971 -0.3833 0.9470
-7.4533 11.9276 -0.3960 0.9453
-8.6658 11.8766 -0.4140 0.9429
-9.3626 11.9087 -0.4265 0.9412
-10.8881 11.9699 -0.4556 0.9373
-15.5669 11.9103 -0.5519 0.9246
-17.9631 11.8013 -0.6052 0.9176
-21.1261 11.8011 -0.6814 0.9077
-25.6235 11.9876 -0.7966 0.8930
-27.8422 -22.3260 -1.0049 0.8669
-22.3412 -22.2628 -0.8881 0.8814
-19.3153 -22.2316 -0.8293 0.8888
-15.6838 -22.5568 -0.7736 0.8959
-14.1915 -22.0607 -0.7386 0.9004
-10.1535 -22.2581 -0.6889 0.9067
-9.2125 -22.2816 -0.6789 0.9080
-5.6680 -22.3487 -0.6492 0.9119
-4.8560 -22.5106 -0.6484 0.9120
-2.3530 -22.3900 -0.6339 0.9139
-1.5430 -22.3960 -0.6321 0.9141
-0.7366 -22.4004 -0.6311 0.9142
0.0683 -22.4032 -0.6308 0.9143
0.8735 -22.4044 -0.6313 0.9142
1.6809 -22.4039 -0.6326 0.9140
2.3243 -4.1956 -0.1351 0.9810
32.2084 -31.7063 -1.2726 0.8346
32.8214 -30.0668 -1.2533 0.8368
34.8980 -25.6521 -1.2196 0.8409
45.2164 8.8018 -1.2971 0.8317
33.0278 8.9309 -0.9636 0.8720
35.8523 12.5183 -1.0693 0.8590
35.0722 13.6778 -1.0600 0.8602
33.6586 20.7030 -1.1127 0.8537
34.3348 22.8579 -1.1614 0.8478
34.1982 24.5839 -1.1859 0.8449
34.9802 27.1032 -1.2460 0.8377
1.0707 12.4948 -0.3531 0.9511
0.1627 11.9259 -0.3358 0.9534
-2.4266 11.8569 -0.3408 0.9527
-3.3986 12.1053 -0.3540 0.9509
-4.8585 12.1126 -0.3675 0.9491
-8.1017 11.9196 -0.4058 0.9440
-9.4200 11.9193 -0.4278 0.9410
-11.7036 11.9123 -0.4702 0.9354
-14.5867 11.9528 -0.5310 0.9273
-16.7206 11.8022 -0.5763 0.9214
-19.6182 11.8347 -0.6451 0.9124
-33.4068 -23.1793 -1.1449 0.8498
-27.6957 -22.3242 -1.0016 0.8673
-23.9034 -22.2799 -0.9201 0.8774
-20.6696 -22.2452 -0.8550 0.8856
-19.2157 -22.2306 -0.8274 0.8891
-17.5674 -21.8639 -0.7897 0.8938
-12.0620 -22.2232 -0.7120 0.9038
-10.0861 -22.2599 -0.6881 0.9068
-6.4651 -22.3350 -0.6547 0.9112
-5.6080 -22.3497 -0.6488 0.9119
-4.7962 -22.5107 -0.6481 0.9120
-3.9329 -22.3736 -0.6396 0.9131
-2.2956 -22.3905 -0.6338 0.9139
-1.4860 -22.3964 -0.6320 0.9141
-0.6797 -22.4007 -0.6310 0.9142
0.1252 -22.4033 -0.6308 0.9143
1.7381 -22.4038 -0.6327 0.9140
36.5468 -2.2583 -1.8570 0.8636
39.4654 0.3995 -2.0016 0.8538
39.4256 1.8165 -2.0016 0.8538
39.1935 4.6416 -2.0016 0.8538
39.0016 6.0461 -2.0016 0.8538
38.7593 7.4427 -2.0016 0.8538
35.9659 8.2557 -1.8714 0.8626
32.7705 8.7722 -1.7205 0.8730
34.0076 13.1632 -1.8494 0.8641
33.5130 14.3760 -1.8494 0.8641
32.3947 16.7443 -1.8494 0.8641
29.6635 21.2100 -1.8494 0.8641
28.8827 22.2616 -1.8494 0.8641
27.2679 26.1466 -1.9159 0.8596
27.2707 28.0974 -1.9857 0.8549
24.2826 31.1132 -2.0016 0.8538
23.1497 31.9651 -2.0016 0.8538
21.9868 32.7758 -2.0016 0.8538
20.7957 33.5442 -2.0016 0.8538
14.4692 36.7194 -2.0016 0.8538
11.7964 37.6633 -2.0016 0.8538
3.8595 14.0763 -0.7402 0.9432
3.1598 13.3930 -0.6979 0.9464
1.0994 12.4586 -0.6343 0.9511
0.6380 12.2349 -0.6213 0.9521
-0.6789 12.1854 -0.6189 0.9523
-1.0992 11.9693 -0.6096 0.9530
-1.5176 11.8388 -0.6053 0.9533
-2.8842 12.0331 -0.6275 0.9516
-3.7436 11.8052 -0.6281 0.9516
-4.6555 11.6924 -0.6382 0.9508
-6.3109 11.9270 -0.6843 0.9474
-6.8126 11.8271 -0.6922 0.9468
-7.3783 11.8075 -0.7061 0.9458
-8.0447 11.9005 -0.7285 0.9441
-10.0343 11.8603 -0.7879 0.9397
-11.6831 11.9520 -0.8476 0.9353
-12.4679 11.8704 -0.8730 0.9334
-13.4798 11.9409 -0.9133 0.9304
-14.4251 11.8817 -0.9478 0.9279
-19.5699 11.8734 -1.1609 0.9124
-33.5640 14.2567 -1.8494 0.8641
-36.8568 14.1156 -2.0016 0.8538
-37.3400 12.7829 -2.0016 0.8538
-37.7749 11.4337 -2.0016 0.8538
-38.1612 10.0698 -2.0016 0.8538
-38.4982 8.6930 -2.0016 0.8538
-38.7855 7.3049 -2.0016 0.8538
-39.3462 3.0912 -2.0016 0.8538
-39.4666 0.2592 -2.0016 0.8538
-39.3834 -2.5742 -2.0016 0.8538
-30.0829 -4.1506 -1.5401 0.8855
-38.2901 -9.5678 -2.0016 0.8538
-37.5046 -12.2914 -2.0016 0.8538
-37.0391 -13.6303 -2.0016 0.8538
-36.5257 -14.9516 -2.0016 0.8538
-35.3583 -17.5347 -2.0016 0.8538
-34.7058 -18.7931 -2.0016 0.8538
-30.0133 -20.7120 -1.8494 0.8641
-27.8688 -22.3473 -1.8116 0.8667
-20.8886 -22.3667 -1.5521 0.8846
-19.4362 -22.3707 -1.5029 0.8881
-17.7287 -21.9504 -1.4309 0.8931
-15.6838 -22.5568 -1.3933 0.8958
-13.1733 -22.1907 -1.3087 0.9018
-10.2165 -22.3964 -1.2484 0.9061
-7.4283 -22.3991 -1.1968 0.9098
-6.5461 -22.4016 -1.1836 0.9108
-4.8560 -22.5106 -1.1679 0.9119
-4.0163 -22.5129 -1.1598 0.9125
-2.3555 -22.4132 -1.1429 0.9137
-1.5444 -22.4155 -1.1395 0.9139
0.0683 -22.4200 -1.1370 0.9141
1.6824 -22.4244 -1.1404 0.9139
4.0323 -36.2426 -1.8494 0.8641
6.6232 -35.8597 -1.8494 0.8641
7.9067 -35.5988 -1.8494 0.8641
7.0333 -27.0389 -1.4169 0.8941
12.6514 -37.3847 -2.0016 0.8538
15.3020 -36.3803 -2.0016 0.8538
16.5986 -35.8073 -2.0016 0.8538
2.1908 -4.3129 -0.2453 0.9808
2.3243 -4.1955 -0.2432 0.9810
23.8719 -31.4294 -2.0016 0.8538
26.0662 -29.6349 -2.0016 0.8538
26.9486 -28.5052 -1.9894 0.8546
26.9725 -26.5520 -1.9195 0.8593
30.8568 -19.4331 -1.8494 0.8641
32.1720 -17.1683 -1.8494 0.8641
35.9782 -15.9961 -1.9968 0.8541
36.6161 -14.7287 -2.0016 0.8538
37.1214 -13.4043 -2.0016 0.8538
37.5789 -12.0626 -2.0016 0.8538
38.6582 -7.9511 -2.0016 0.8538
34.0779 -3.2503 -1.7361 0.8719
39.4567 -0.9178 -2.0016 0.8538
39.3266 3.3310 -2.0016 0.8538
38.9861 6.1451 -2.0016 0.8538
35.5823 8.2628 -1.8525 0.8639
34.4280 12.0210 -1.8494 0.8641
33.9741 13.2495 -1.8494 0.8641
33.4764 14.4610 -1.8494 0.8641
32.9355 15.6538 -1.8494 0.8641
32.3521 16.8265 -1.8494 0.8641
29.9230 16.9552 -1.7442 0.8713
29.6096 21.2853 -1.8494 0.8641
28.0054 23.3556 -1.8494 0.8641
27.2692 24.4543 -1.8576 0.8636
27.2678 26.2797 -1.9206 0.8593
27.2770 28.2471 -1.9914 0.8545
24.2035 31.1747 -2.0016 0.8538
23.0684 32.0238 -2.0016 0.8538
21.9036 32.8315 -2.0016 0.8538
20.7104 33.5969 -2.0016 0.8538
19.4906 34.3190 -2.0016 0.8538
18.2456 34.9968 -2.0016 0.8538
14.3760 36.7560 -2.0016 0.8538
13.0468 37.2486 -2.0016 0.8538
11.7007 37.6931 -2.0016 0.8538
2.5556 13.0604 -0.6749 0.9481
2.0616 12.9966 -0.6674 0.9487
1.5441 12.6569 -0.6466 0.9502
1.0684 12.4690 -0.6347 0.9511
0.5983 12.0628 -0.6125 0.9528
0.1620 11.8772 -0.6024 0.9535
-0.2667 11.9682 -0.6071 0.9532
-2.0126 12.0160 -0.6179 0.9524
-2.4168 11.8091 -0.6113 0.9529
-3.7658 11.7715 -0.6268 0.9517
-4.7031 11.7253 -0.6407 0.9507
-6.3246 11.8798 -0.6825 0.9475
-6.8643 11.8473 -0.6944 0.9466
-7.3899 11.7596 -0.7044 0.9459
-8.6990 11.8588 -0.7459 0.9428
-10.0677 11.8388 -0.7881 0.9397
-11.7992 12.0096 -0.8538 0.9348
-15.5742 11.8533 -0.9926 0.9246
-18.2330 11.9124 -1.1045 0.9165
-19.6096 11.8295 -1.1614 0.9124
-21.1610 11.7502 -1.2275 0.9076
-24.9002 11.5723 -1.3925 0.8959
-36.8926 14.0219 -2.0016 0.8538
-37.3723 12.6881 -2.0016 0.8538
-38.1866 9.9729 -2.0016 0.8538
-38.8039 7.2063 -2.0016 0.8538
-39.2211 4.4026 -2.0016 0.8538
-39.4473 -1.2584 -2.0016 0.8538
-39.3767 -2.6742 -2.0016 0.8538
-30.0906 -4.2296 -1.5410 0.8854
-38.8607 -6.8935 -2.0016 0.8538
-38.2657 -9.6650 -2.0016 0.8538
-37.8939 -11.0329 -2.0016 0.8538
-37.4733 -12.3866 -2.0016 0.8538
-36.4876 -15.0443 -2.0016 0.8538
-34.6580 -18.8812 -2.0016 0.8538
-33.9576 -20.1135 -2.0016 0.8538
-29.9607 -20.7882 -1.8494 0.8641
-29.1948 -21.8507 -1.8494 0.8641
-27.7248 -22.3477 -1.8059 0.8671
-23.9873 -22.3581 -1.6630 0.8769
-22.3279 -22.3627 -1.6026 0.8811
-20.7828 -22.3670 -1.5484 0.8849
-17.5674 -21.8639 -1.4224 0.8937
-15.5991 -22.5570 -1.3909 0.8960
-14.0696 -21.9937 -1.3241 0.9007
-13.1560 -22.2903 -1.3126 0.9015
-12.1530 -22.3910 -1.2920 0.9030
-11.1327 -22.3938 -1.2683 0.9047
-6.4845 -22.4018 -1.1827 0.9108
-5.6216 -22.4042 -1.1714 0.9116
-3.9391 -22.4088 -1.1539 0.9129
-3.1145 -22.4111 -1.1475 0.9134
-2.2979 -22.4134 -1.1426 0.9137
5.4228 -36.0608 -1.8494 0.8641
6.7143 -35.8428 -1.8494 0.8641
8.6552 -38.5067 -2.0016 0.8538
10.0324 -38.1710 -2.0016 0.8538
27.2692 1.2564 -2.0016 0.8963
27.2065 2.2349 -2.0016 0.8963
26.9760 4.1818 -2.0016 0.8963
26.3698 7.0588 -2.0016 0.8963
26.0993 8.0012 -2.0016 0.8963
25.0874 10.7617 -2.0016 0.8963
24.6847 11.6556 -2.0016 0.8963
24.2503 12.5345 -2.0016 0.8963
22.7616 15.0699 -2.0016 0.8963
20.3693 18.1736 -2.0016 0.8963
19.0124 19.5888 -2.0016 0.8963
17.5574 20.9029 -2.0016 0.8963
16.7954 21.5199 -2.0016 0.8963
15.2075 22.6699 -2.0016 0.8963
14.3836 23.2013 -2.0016 0.8963
11.8049 24.6137 -2.0016 0.8963
7.5387 24.0694 -1.8494 0.9038
3.7432 13.6518 -1.0379 0.9448
2.0842 12.9271 -0.9601 0.9488
1.5896 12.7598 -0.9428 0.9497
1.0911 12.3639 -0.9101 0.9514
0.6354 12.1851 -0.8947 0.9522
0.1991 12.3020 -0.9021 0.9519
-0.2354 11.9245 -0.8745 0.9533
-0.6782 12.1739 -0.8940 0.9523
-1.5274 11.9152 -0.8808 0.9530
-2.8757 11.9980 -0.9046 0.9517
-3.2826 11.8073 -0.8986 0.9520
-3.7752 11.9049 -0.9157 0.9511
-4.7768 11.9970 -0.9468 0.9495
-5.7417 11.8633 -0.9664 0.9485
-7.3802 11.8106 -1.0211 0.9457
-9.2927 11.8198 -1.1024 0.9415
-10.0245 11.8488 -1.1380 0.9396
-11.5823 11.8489 -1.2149 0.9357
-12.5194 11.9194 -1.2675 0.9330
-13.9624 11.5006 -1.3263 0.9300
-19.0100 11.5337 -1.6303 0.9147
-24.1169 8.2561 -1.8691 0.9028
-26.6278 6.0126 -2.0016 0.8963
-26.8265 5.0525 -2.0016 0.8963
-26.9907 4.0859 -2.0016 0.8963
-27.2143 2.1381 -2.0016 0.8963
-27.2976 0.1793 -2.0016 0.8963
-27.2864 -0.8011 -2.0016 0.8963
-27.2401 -1.7805 -2.0016 0.8963
-25.2121 -2.5599 -1.8581 0.9034
-24.9482 -4.3603 -1.8570 0.9034
-25.1314 -5.3288 -1.8837 0.9021
-26.4839 -6.6177 -2.0016 0.8963
-25.2635 -10.3415 -2.0016 0.8963
-24.8758 -11.2420 -2.0016 0.8963
-24.4561 -12.1281 -2.0016 0.8963
-23.5225 -13.8522 -2.0016 0.8963
-19.0980 -16.4753 -1.8494 0.9038
-17.8663 -17.8035 -1.8494 0.9038
-15.8479 -19.6217 -1.8494 0.9038
-15.1331 -20.1782 -1.8494 0.9038
-12.8752 -21.6887 -1.8494 0.9038
-12.0881 -22.1370 -1.8494 0.9038
-10.2165 -22.3964 -1.8049 0.9060
-9.2611 -22.3990 -1.7772 0.9074
-8.3334 -22.4016 -1.7525 0.9086
-6.5461 -22.4016 -1.7112 0.9106
-5.6821 -22.4040 -1.6947 0.9115
-2.3555 -22.4132 -1.6524 0.9136
-1.5444 -22.4155 -1.6474 0.9138
0.0683 -22.4200 -1.6439 0.9140
1.6824 -22.4244 -1.6488 0.9138
2.7890 -25.0677 -1.8494 0.9038
3.6877 -24.9514 -1.8494 0.9038
4.5814 -24.8028 -1.8494 0.9038
5.4689 -24.6224 -1.8494 0.9038
7.2220 -24.1664 -1.8494 0.9038
8.7505 -25.8577 -2.0016 0.8963
11.4806 -24.7666 -2.0016 0.8963
2.3243 -4.1955 -0.3517 0.9809
14.9085 -22.8676 -2.0016 0.8963
15.7200 -22.3175 -2.0016 0.8963
17.2813 -21.1316 -2.0016 0.8963
18.0291 -20.4974 -2.0016 0.8963
20.7781 -17.7048 -2.0016 0.8963
21.4005 -16.9472 -2.0016 0.8963
23.6065 -13.7085 -2.0016 0.8963
24.9439 -11.0902 -2.0016 0.8963
25.6756 -9.2712 -2.0016 0.8963
25.9919 -8.3432 -2.0016 0.8963
26.2748 -7.4045 -2.0016 0.8963
26.5237 -6.4562 -2.0016 0.8963
26.9187 -4.5358 -2.0016 0.8963
27.1005 3.2792 -2.0016 0.8963
26.7952 5.2159 -2.0016 0.8963
26.5906 6.1748 -2.0016 0.8963
26.3518 7.1257 -2.0016 0.8963
25.7723 8.9987 -2.0016 0.8963
25.4326 9.9184 -2.0016 0.8963
25.0600 10.8253 -2.0016 0.8963
24.6551 11.7182 -2.0016 0.8963
23.2518 14.3019 -2.0016 0.8963
20.9645 17.4837 -2.0016 0.8963
20.3231 18.2253 -2.0016 0.8963
18.9626 19.6370 -2.0016 0.8963
17.5042 20.9474 -2.0016 0.8963
15.9556 22.1497 -2.0016 0.8963
13.4809 23.7372 -2.0016 0.8963
12.6198 24.2060 -2.0016 0.8963
10.8499 25.0494 -2.0016 0.8963
9.0240 25.7635 -2.0016 0.8963
7.4776 24.0885 -1.8494 0.9038
1.5413 12.6339 -0.9332 0.9502
1.0633 12.4095 -0.9132 0.9513
0.6052 12.2019 -0.8958 0.9522
0.1638 12.0049 -0.8803 0.9530
-0.6930 11.8958 -0.8737 0.9533
-2.4481 11.9622 -0.8953 0.9522
-2.9037 11.9804 -0.9039 0.9518
-3.7890 11.8437 -0.9118 0.9513
-4.2678 11.8556 -0.9239 0.9507
-5.7804 11.8662 -0.9678 0.9484
-6.9015 11.9115 -1.0094 0.9463
-7.3825 11.7478 -1.0173 0.9459
-8.0515 11.8457 -1.0502 0.9442
-8.7671 11.9516 -1.0868 0.9423
-9.4222 11.9220 -1.1142 0.9409
-10.1618 11.9495 -1.1501 0.9390
-11.7300 11.9392 -1.2272 0.9351
-12.5323 11.8712 -1.2657 0.9331
-14.0354 11.5011 -1.3305 0.9298
-16.3151 11.5160 -1.4642 0.9230
-19.1205 11.5344 -1.6373 0.9143
-22.4764 11.4446 -1.8494 0.9038
-22.8729 10.6301 -1.8494 0.9038
-21.0585 8.8818 -1.6758 0.9124
-26.1367 7.8387 -2.0007 0.8963
-26.6430 5.9450 -2.0016 0.8963
-27.0009 4.0174 -2.0016 0.8963
-27.1278 3.0451 -2.0016 0.8963
-24.9370 -4.4236 -1.8570 0.9034
-26.2099 -7.6311 -2.0016 0.8963
-25.9189 -8.5673 -2.0016 0.8963
-25.5946 -9.4926 -2.0016 0.8963
-24.8472 -11.3052 -2.0016 0.8963
-24.4252 -12.1902 -2.0016 0.8963
-22.9725 -14.7463 -2.0016 0.8963
-22.4282 -15.5617 -2.0016 0.8963
-21.6036 -16.1691 -1.9786 0.8974
-20.0796 -16.1853 -1.8910 0.9017
-19.0562 -16.5237 -1.8494 0.9038
-18.4505 -17.1974 -1.8494 0.9038
-17.8210 -17.8488 -1.8494 0.9038
-17.1686 -18.4773 -1.8494 0.9038
-15.7981 -19.6619 -1.8494 0.9038
-15.0818 -20.2165 -1.8494 0.9038
-14.3461 -20.7451 -1.8494 0.9038
-12.0318 -22.1677 -1.8494 0.9038
-11.1327 -22.3938 -1.8337 0.9046
-10.1480 -22.3966 -1.8029 0.9061
-9.1946 -22.3992 -1.7753 0.9075
-5.4417 -16.5493 -1.2773 0.9325
-6.4845 -22.4018 -1.7100 0.9107
-5.6216 -22.4042 -1.6936 0.9115
-3.1145 -22.4111 -1.6590 0.9132
0.1252 -22.4201 -1.6439 0.9140
0.8960 -21.5750 -1.5833 0.9170
1.7397 -22.4246 -1.6492 0.9137
3.7510 -24.9419 -1.8494 0.9038
4.6442 -24.7911 -1.8494 0.9038
6.4114 -24.3939 -1.8494 0.9038
20.8264 0.9596 -2.0016 0.9196
20.7785 1.7068 -2.0016 0.9196
19.4429 7.5257 -2.0016 0.9196
19.1600 8.2190 -2.0016 0.9196
18.1650 10.2320 -2.0016 0.9196
17.7858 10.8777 -2.0016 0.9196
16.5128 12.7274 -2.0016 0.9196
16.0451 13.3122 -2.0016 0.9196
14.5204 14.9606 -2.0016 0.9196
13.4091 15.9642 -2.0016 0.9196
12.8272 16.4354 -2.0016 0.9196
12.2287 16.8854 -2.0016 0.9196
10.3418 18.1027 -2.0016 0.9196
9.0158 18.7983 -2.0016 0.9196
6.4140 18.1640 -1.8494 0.9255
3.6707 13.3876 -1.3327 0.9457
1.5861 12.7325 -1.2318 0.9497
0.6339 12.1552 -1.1685 0.9523
-0.6784 12.1763 -1.1708 0.9522
-1.0844 11.8088 -1.1385 0.9535
-2.4071 11.9155 -1.1671 0.9523
-3.2937 11.8471 -1.1805 0.9518
-4.2652 11.9434 -1.2175 0.9503
-4.7224 11.8604 -1.2256 0.9500
-5.2088 11.8274 -1.2407 0.9494
-6.3488 11.9986 -1.3032 0.9469
-9.0163 11.4682 -1.4005 0.9431
-11.2244 11.4827 -1.5416 0.9375
-12.0664 11.4882 -1.5995 0.9352
-12.9755 11.4941 -1.6642 0.9327
-16.8172 9.3941 -1.8494 0.9255
-17.6469 8.2559 -1.8704 0.9247
-19.1333 8.1271 -1.9957 0.9199
-19.4695 7.4565 -2.0016 0.9196
-19.7247 6.7525 -2.0016 0.9196
-20.1585 5.3194 -2.0016 0.9196
-20.3365 4.5920 -2.0016 0.9196
-20.4883 3.8588 -2.0016 0.9196
-20.6136 3.1205 -2.0016 0.9196
-20.7845 1.6329 -2.0016 0.9196
-20.8297 0.8855 -2.0016 0.9196
-20.8481 0.1369 -2.0016 0.9196
-20.7418 -2.1060 -2.0016 0.9196
-20.6529 -2.8495 -2.0016 0.9196
-20.2266 -5.0542 -2.0016 0.9196
-20.0321 -5.7773 -2.0016 0.9196
-19.8117 -6.4929 -2.0016 0.9196
-19.2946 -7.8981 -2.0016 0.9196
-18.6779 -9.2626 -2.0016 0.9196
-18.3332 -9.9274 -2.0016 0.9196
-17.9649 -10.5794 -2.0016 0.9196
-17.1592 -11.8415 -2.0016 0.9196
-16.2650 -13.0425 -2.0016 0.9196
-15.7862 -13.6182 -2.0016 0.9196
-15.2870 -14.1763 -2.0016 0.9196
-14.7680 -14.7162 -2.0016 0.9196
-14.2300 -15.2370 -2.0016 0.9196
-11.2535 -16.1850 -1.8925 0.9238
-10.4217 -16.2005 -1.8494 0.9255
-9.8332 -16.5644 -1.8494 0.9255
-7.3602 -17.8016 -1.8494 0.9255
-6.7162 -18.0544 -1.8494 0.9255
-5.4735 -16.5047 -1.6694 0.9325
-4.7356 -18.6720 -1.8494 0.9255
-4.0620 -18.8300 -1.8494 0.9255
-0.6331 -19.2527 -1.8494 0.9255
0.7504 -19.2485 -1.8494 0.9255
1.4412 -19.2092 -1.8494 0.9255
2.8162 -19.0562 -1.8494 0.9255
8.0832 -19.2177 -2.0016 0.9196
8.7682 -18.9151 -2.0016 0.9196
2.3243 -4.1954 -0.4605 0.9809
10.7516 -17.8623 -2.0016 0.9196
11.3861 -17.4647 -2.0016 0.9196
14.3227 -15.1500 -2.0016 0.9196
15.8689 -13.5217 -2.0016 0.9196
16.3442 -12.9432 -2.0016 0.9196
17.2311 -11.7367 -2.0016 0.9196
17.6414 -11.1103 -2.0016 0.9196
18.0290 -10.4696 -2.0016 0.9196
19.3423 -7.7804 -2.0016 0.9196
19.6093 -7.0807 -2.0016 0.9196
19.8509 -6.3720 -2.0016 0.9196
20.0669 -5.6550 -2.0016 0.9196
20.4210 -4.2002 -2.0016 0.9196
20.6698 -2.7236 -2.0016 0.9196
20.7543 -1.9796 -2.0016 0.9196
20.8468 0.2640 -2.0016 0.9196
20.7741 1.7596 -2.0016 0.9196
20.6975 2.5045 -2.0016 0.9196
20.5942 3.2461 -2.0016 0.9196
20.4644 3.9836 -2.0016 0.9196
20.3081 4.7159 -2.0016 0.9196
20.1257 5.4421 -2.0016 0.9196
19.9173 6.1613 -2.0016 0.9196
19.6832 6.8726 -2.0016 0.9196
19.1391 8.2677 -2.0016 0.9196
18.8299 8.9496 -2.0016 0.9196
18.1390 10.2780 -2.0016 0.9196
16.4804 12.7693 -2.0016 0.9196
14.4824 14.9974 -2.0016 0.9196
13.3685 15.9982 -2.0016 0.9196
12.7854 16.4679 -2.0016 0.9196
12.1858 16.9164 -2.0016 0.9196
10.9402 17.7474 -2.0016 0.9196
10.2958 18.1289 -2.0016 0.9196
9.6382 18.4869 -2.0016 0.9196
8.9680 18.8211 -2.0016 0.9196
7.0166 17.9398 -1.8494 0.9255
5.7109 18.3972 -1.8494 0.9255
3.6291 13.3688 -1.3299 0.9459
2.5773 13.1711 -1.2885 0.9475
2.0244 12.7621 -1.2405 0.9494
1.0489 12.2407 -1.1795 0.9518
0.6056 12.2090 -1.1736 0.9521
0.1643 12.0423 -1.1562 0.9528
-2.0124 12.0149 -1.1696 0.9522
-2.4432 11.9379 -1.1699 0.9522
-3.3029 11.7647 -1.1731 0.9521
-3.7779 11.8092 -1.1903 0.9514
-4.2819 11.8948 -1.2137 0.9505
-4.7563 11.8579 -1.2266 0.9500
-5.2125 11.7548 -1.2345 0.9496
-5.8222 11.9522 -1.2764 0.9480
-6.3642 11.9543 -1.3002 0.9470
-7.2878 11.5971 -1.3150 0.9464
-7.7895 11.4601 -1.3303 0.9458
-9.0637 11.4685 -1.4034 0.9430
-9.7567 11.4730 -1.4459 0.9413
-11.2819 11.4830 -1.5455 0.9374
-12.1283 11.4886 -1.6038 0.9351
-13.0425 11.4946 -1.6690 0.9325
-15.1207 11.5082 -1.8243 0.9265
-16.1264 10.5361 -1.8494 0.9255
-16.4943 9.9502 -1.8494 0.9255
-17.1660 8.7406 -1.8494 0.9255
-17.7604 8.2541 -1.8802 0.9243
-19.4883 7.4070 -2.0016 0.9196
-19.7418 6.7024 -2.0016 0.9196
-19.9697 5.9892 -2.0016 0.9196
-20.4980 3.8067 -2.0016 0.9196
-20.6215 3.0682 -2.0016 0.9196
-20.7184 2.3257 -2.0016 0.9196
-20.8319 0.8326 -2.0016 0.9196
-20.8379 -0.6648 -2.0016 0.9196
-20.8006 -1.4126 -2.0016 0.9196
-20.7364 -2.1587 -2.0016 0.9196
-20.3840 -4.3763 -2.0016 0.9196
-19.5474 -7.2498 -2.0016 0.9196
-17.9380 -10.6249 -2.0016 0.9196
-12.9898 -16.1668 -1.9910 0.9200
-12.0680 -16.1767 -1.9376 0.9221
-10.3805 -16.2269 -1.8494 0.9255
-9.7911 -16.5892 -1.8494 0.9255
-9.1891 -16.9302 -1.8494 0.9255
-8.5752 -17.2492 -1.8494 0.9255
-7.9502 -17.5460 -1.8494 0.9255
-7.3150 -17.8202 -1.8494 0.9255
-5.4327 -16.5218 -1.6697 0.9325
-4.6881 -18.6840 -1.8494 0.9255
-4.0142 -18.8403 -1.8494 0.9255
-0.5842 -19.2543 -1.8494 0.9255
2.1787 -19.1396 -1.8494 0.9255
2.8646 -19.0490 -1.8494 0.9255
3.5468 -18.9338 -1.8494 0.9255
4.2244 -18.7942 -1.8494 0.9255
16.8493 0.1706 -2.0016 0.9344
16.8323 0.7755 -2.0016 0.9344
16.7936 1.3795 -2.0016 0.9344
16.7332 1.9817 -2.0016 0.9344
16.6513 2.5813 -2.0016 0.9344
16.1101 4.9388 -2.0016 0.9344
15.9224 5.5142 -2.0016 0.9344
15.7141 6.0824 -2.0016 0.9344
15.4855 6.6428 -2.0016 0.9344
14.9688 7.7371 -2.0016 0.9344
14.0499 9.3021 -2.0016 0.9344
12.5732 11.2179 -2.0016 0.9344
11.7356 12.0914 -2.0016 0.9344
10.8375 12.9026 -2.0016 0.9344
10.3672 13.2834 -2.0016 0.9344
8.8785 14.3213 -2.0016 0.9344
4.6534 14.8572 -1.8494 0.9392
3.6707 13.3876 -1.6490 0.9456
3.0975 13.1291 -1.6024 0.9471
2.5551 12.8844 -1.5603 0.9485
1.5485 12.4304 -1.4880 0.9508
0.6265 12.0145 -1.4291 0.9527
-0.6359 11.4133 -1.3578 0.9550
-1.4637 11.4187 -1.3675 0.9547
-1.8832 11.4214 -1.3750 0.9544
-3.1777 11.4299 -1.4092 0.9533
-4.5546 11.4389 -1.4625 0.9516
-5.0391 11.4421 -1.4851 0.9509
-5.5395 11.4454 -1.5104 0.9501
-8.3647 11.4639 -1.6857 0.9444
-9.7063 11.4727 -1.7851 0.9413
-11.2757 10.7353 -1.8494 0.9392
-11.6540 10.3235 -1.8494 0.9392
-12.0172 9.8983 -1.8494 0.9392
-13.6016 8.2523 -1.8898 0.9379
-14.9962 7.6838 -2.0016 0.9344
-15.5090 6.5877 -2.0016 0.9344
-15.9419 5.4575 -2.0016 0.9344
-16.1276 4.8815 -2.0016 0.9344
-16.4363 3.7114 -2.0016 0.9344
-16.8349 0.7157 -2.0016 0.9344
-16.7640 -1.7021 -2.0016 0.9344
-16.6920 -2.3030 -2.0016 0.9344
-16.5985 -2.9010 -2.0016 0.9344
-16.3475 -4.0849 -2.0016 0.9344
-16.0122 -5.2477 -2.0016 0.9344
-15.3549 -6.9393 -2.0016 0.9344
-14.8173 -8.0235 -2.0016 0.9344
-13.8684 -9.5705 -2.0016 0.9344
-13.5158 -10.0624 -2.0016 0.9344
-13.1457 -10.5412 -2.0016 0.9344
-12.7587 -11.0065 -2.0016 0.9344
-10.5874 -13.1086 -2.0016 0.9344
-9.6193 -13.8347 -2.0016 0.9344
-9.1162 -14.1712 -2.0016 0.9344
-7.5393 -15.0694 -2.0016 0.9344
-5.8716 -15.7838 -2.0004 0.9344
-5.2930 -15.9606 -1.9974 0.9345
-4.7101 -16.1187 -1.9947 0.9346
-4.1006 -16.1685 -1.9814 0.9350
-3.4885 -16.1716 -1.9651 0.9355
-2.8855 -16.1741 -1.9516 0.9360
-0.5335 -16.2238 -1.9282 0.9367
1.2426 -16.5620 -1.9729 0.9353
1.8572 -16.6928 -1.9951 0.9346
3.6535 -16.4493 -2.0016 0.9344
4.8247 -16.1446 -2.0016 0.9344
5.9710 -15.7567 -2.0016 0.9344
7.0866 -15.2875 -2.0016 0.9344
2.1906 -4.3127 -0.5746 0.9807
2.3242 -4.1954 -0.5697 0.9809
8.6896 -14.4367 -2.0016 0.9344
9.7034 -13.7758 -2.0016 0.9344
10.1918 -13.4184 -2.0016 0.9344
12.0081 -11.8209 -2.0016 0.9344
12.4248 -11.3821 -2.0016 0.9344
12.8256 -10.9285 -2.0016 0.9344
13.5769 -9.9798 -2.0016 0.9344
13.9265 -9.4858 -2.0016 0.9344
14.2582 -8.9796 -2.0016 0.9344
14.8659 -7.9330 -2.0016 0.9344
15.1412 -7.3941 -2.0016 0.9344
15.3969 -6.8456 -2.0016 0.9344
15.6329 -6.2882 -2.0016 0.9344
15.8486 -5.7228 -2.0016 0.9344
16.0439 -5.1500 -2.0016 0.9344
16.5047 -3.3946 -2.0016 0.9344
16.6159 -2.7998 -2.0016 0.9344
16.7058 -2.2013 -2.0016 0.9344
16.7740 -1.5999 -2.0016 0.9344
16.8207 -0.9965 -2.0016 0.9344
16.8456 -0.3918 -2.0016 0.9344
16.8488 0.2133 -2.0016 0.9344
16.7900 1.4221 -2.0016 0.9344
16.5397 3.2196 -2.0016 0.9344
16.4134 3.8115 -2.0016 0.9344
16.2660 4.3984 -2.0016 0.9344
15.4686 6.6821 -2.0016 0.9344
15.2187 7.2332 -2.0016 0.9344
14.6602 8.3069 -2.0016 0.9344
12.5447 11.2498 -2.0016 0.9344
12.1326 11.6930 -2.0016 0.9344
11.7049 12.1212 -2.0016 0.9344
10.3334 13.3097 -2.0016 0.9344
9.8488 13.6722 -2.0016 0.9344
7.1974 13.8053 -1.8494 0.9392
6.1879 14.2863 -1.8494 0.9392
5.1466 14.6936 -1.8494 0.9392
4.6156 14.8689 -1.8494 0.9392
2.5179 12.8676 -1.5575 0.9486
2.0044 12.6360 -1.5197 0.9498
1.5146 12.4151 -1.4857 0.9509
1.0457 12.2035 -1.4549 0.9519
0.1609 11.7964 -1.4014 0.9536
-0.6649 11.4135 -1.3581 0.9550
-1.0776 11.4162 -1.3621 0.9549
-3.2090 11.4301 -1.4102 0.9533
-3.6576 11.4331 -1.4259 0.9528
-4.1168 11.4361 -1.4438 0.9522
-4.5883 11.4392 -1.4640 0.9516
-7.7895 11.4601 -1.6460 0.9457
-8.4096 11.4642 -1.6889 0.9443
-10.4939 11.4779 -1.8474 0.9393
-10.9111 11.1057 -1.8494 0.9392
-11.3029 10.7067 -1.8494 0.9392
-11.6801 10.2939 -1.8494 0.9392
-12.3889 9.4290 -1.8494 0.9392
-13.0337 8.5155 -1.8494 0.9392
-15.0157 7.6457 -2.0016 0.9344
-15.2806 7.1016 -2.0016 0.9344
-15.5257 6.5483 -2.0016 0.9344
-15.7508 5.9865 -2.0016 0.9344
-15.9557 5.4170 -2.0016 0.9344
-16.3033 4.2578 -2.0016 0.9344
-16.5669 3.0767 -2.0016 0.9344
-16.8367 0.6729 -2.0016 0.9344
-16.8114 -1.1417 -2.0016 0.9344
-16.7596 -1.7447 -2.0016 0.9344
-16.5911 -2.9431 -2.0016 0.9344
-16.4747 -3.5370 -2.0016 0.9344
-16.3371 -4.1264 -2.0016 0.9344
-15.9988 -5.2883 -2.0016 0.9344
-15.7986 -5.8594 -2.0016 0.9344
-15.5780 -6.4230 -2.0016 0.9344
-14.7968 -8.0611 -2.0016 0.9344
-14.4978 -8.5872 -2.0016 0.9344
-13.4902 -10.0966 -2.0016 0.9344
-13.1189 -10.5746 -2.0016 0.9344
-11.4697 -12.3440 -2.0016 0.9344
-11.0190 -12.7479 -2.0016 0.9344
-10.0756 -13.5059 -2.0016 0.9344
-8.0380 -14.8094 -2.0016 0.9344
-7.5010 -15.0885 -2.0016 0.9344
-6.9543 -15.3481 -2.0016 0.9344
-5.8308 -15.7969 -2.0002 0.9344
-5.2520 -15.9724 -1.9972 0.9345
-4.6688 -16.1292 -1.9946 0.9346
-4.0570 -16.1688 -1.9802 0.9351
0.6817 -16.4163 -1.9517 0.9360
1.2859 -16.5753 -1.9748 0.9352
2.5037 -16.6492 -1.9999 0.9344
14.0995 -0.8712 -2.0016 0.9445
14.1217 -0.3644 -2.0016 0.9445
14.1257 0.1430 -2.0016 0.9445
14.0790 1.1565 -2.0016 0.9445
13.9597 2.1640 -2.0016 0.9445
13.8729 2.6640 -2.0016 0.9445
13.6460 3.6528 -2.0016 0.9445
13.3486 4.6228 -2.0016 0.9445
13.1740 5.0992 -2.0016 0.9445
12.9824 5.5690 -2.0016 0.9445
12.7740 6.0316 -2.0016 0.9445
12.3081 6.9329 -2.0016 0.9445
12.0512 7.3704 -2.0016 0.9445
11.7788 7.7985 -2.0016 0.9445
11.1887 8.6238 -2.0016 0.9445
10.8718 9.0200 -2.0016 0.9445
10.5408 9.4046 -2.0016 0.9445
10.1963 9.7770 -2.0016 0.9445
9.4683 10.4837 -2.0016 0.9445
7.8697 11.7313 -2.0016 0.9445
7.4400 12.0009 -2.0007 0.9446
5.6444 11.7687 -1.8494 0.9486
4.3459 12.3075 -1.8494 0.9486
3.9012 12.4556 -1.8494 0.9486
3.4514 12.5876 -1.8494 0.9486
2.9971 12.7035 -1.8494 0.9486
2.5390 12.8029 -1.8494 0.9486
2.0399 12.6520 -1.8158 0.9495
1.0782 12.2182 -1.7379 0.9517
0.1912 11.8181 -1.6747 0.9534
-0.2296 11.6283 -1.6479 0.9541
-0.6359 11.4133 -1.6196 0.9549
-1.1195 8.7333 -1.2475 0.9651
-2.3078 11.4242 -1.6514 0.9540
-3.1777 11.4299 -1.6809 0.9532
-3.6255 11.4329 -1.6994 0.9527
-4.0840 11.4359 -1.7206 0.9521
-5.0391 11.4421 -1.7715 0.9507
-5.5395 11.4454 -1.8016 0.9499
-6.9167 11.0688 -1.8494 0.9486
-7.3098 10.8133 -1.8494 0.9486
-8.0670 10.2608 -1.8494 0.9486
-8.4303 9.9645 -1.8494 0.9486
-8.7827 9.6553 -1.8494 0.9486
-9.1237 9.3337 -1.8494 0.9486
-9.4530 9.0000 -1.8494 0.9486
-9.7701 8.6548 -1.8494 0.9486
-12.0774 7.3275 -2.0016 0.9445
-12.3327 6.8891 -2.0016 0.9445
-12.5721 6.4418 -2.0016 0.9445
-12.7954 5.9861 -2.0016 0.9445
-14.0342 1.6114 -2.0016 0.9445
-14.0830 1.1064 -2.0016 0.9445
-14.1137 0.6000 -2.0016 0.9445
-14.1261 0.0928 -2.0016 0.9445
-14.0963 -0.9214 -2.0016 0.9445
-14.0541 -1.4270 -2.0016 0.9445
-13.9155 -2.4321 -2.0016 0.9445
-12.7150 -3.1772 -1.8570 0.9484
-12.5928 -3.6318 -1.8570 0.9484
-12.2996 -4.5262 -1.8570 0.9484
-12.1291 -4.9650 -1.8570 0.9484
-11.9430 -5.3974 -1.8570 0.9484
-12.6557 -6.2761 -2.0016 0.9445
-12.1725 -7.1683 -2.0016 0.9445
-11.9073 -7.6008 -2.0016 0.9445
-11.6266 -8.0235 -2.0016 0.9445
-11.0208 -8.8373 -2.0016 0.9445
-10.6963 -9.2274 -2.0016 0.9445
-10.3581 -9.6055 -2.0016 0.9445
-9.6419 -10.3242 -2.0016 0.9445
-9.2649 -10.6638 -2.0016 0.9445
-8.4756 -11.3013 -2.0016 0.9445
-7.6426 -11.8805 -2.0016 0.9445
-7.2111 -12.1472 -2.0016 0.9445
-5.3975 -13.0546 -2.0016 0.9445
-4.9253 -13.2400 -2.0016 0.9445
-4.4466 -13.4083 -2.0016 0.9445
-3.9623 -13.5593 -2.0016 0.9445
-2.9788 -13.8088 -2.0016 0.9445
-1.4765 -14.0490 -2.0016 0.9445
1.0569 -14.0868 -2.0016 0.9445
1.5621 -14.0398 -2.0016 0.9445
2.5657 -13.8914 -2.0016 0.9445
3.5562 -13.6715 -2.0016 0.9445
5.0058 -13.2097 -2.0016 0.9445
5.9411 -12.8163 -2.0016 0.9445
2.1906 -4.3126 -0.6854 0.9806
7.7149 -11.8336 -2.0016 0.9445
8.9428 -10.9353 -2.0016 0.9445
9.3298 -10.6071 -2.0016 0.9445
9.7047 -10.2652 -2.0016 0.9445
10.0670 -9.9101 -2.0016 0.9445
10.4164 -9.5422 -2.0016 0.9445
11.3822 -8.3666 -2.0016 0.9445
11.6753 -7.9525 -2.0016 0.9445
11.9534 -7.5281 -2.0016 0.9445
12.6937 -6.1989 -2.0016 0.9445
12.9081 -5.7390 -2.0016 0.9445
13.2867 -4.7977 -2.0016 0.9445
13.4504 -4.3175 -2.0016 0.9445
13.5968 -3.8317 -2.0016 0.9445
13.8368 -2.8459 -2.0016 0.9445
14.0626 -1.3413 -2.0016 0.9445
14.1226 -0.3285 -2.0016 0.9445
14.1253 0.1789 -2.0016 0.9445
14.0760 1.1922 -2.0016 0.9445
13.6366 3.6874 -2.0016 0.9445
13.4954 4.1748 -2.0016 0.9445
13.1610 5.1326 -2.0016 0.9445
12.9682 5.6019 -2.0016 0.9445
12.2905 6.9641 -2.0016 0.9445
12.0325 7.4010 -2.0016 0.9445
10.5169 9.4313 -2.0016 0.9445
10.1714 9.8029 -2.0016 0.9445
9.0582 10.8400 -2.0016 0.9445
7.4072 12.0161 -2.0000 0.9446
6.0340 11.5738 -1.8494 0.9486
5.6144 11.7830 -1.8494 0.9486
5.1877 11.9770 -1.8494 0.9486
4.3147 12.3184 -1.8494 0.9486
2.5065 12.8093 -1.8494 0.9486
2.0044 12.6360 -1.8128 0.9496
1.5146 12.4151 -1.7721 0.9507
1.0457 12.2035 -1.7354 0.9517
0.5952 12.0004 -1.7024 0.9526
0.1610 11.8045 -1.6727 0.9534
-0.2588 11.6151 -1.6461 0.9541
-1.0776 11.4162 -1.6247 0.9547
-1.1420 8.7328 -1.2479 0.9650
-2.3381 11.4244 -1.6523 0.9540
-2.7697 11.4272 -1.6660 0.9536
-3.2090 11.4301 -1.6821 0.9532
-4.1168 11.4361 -1.7222 0.9521
-4.5883 11.4392 -1.7463 0.9514
-5.5755 11.4456 -1.8039 0.9499
-6.0953 11.4490 -1.8378 0.9489
-6.5435 11.2935 -1.8494 0.9486
-7.7201 10.5243 -1.8494 0.9486
-8.0930 10.2403 -1.8494 0.9486
-8.4556 9.9430 -1.8494 0.9486
-9.1474 9.3105 -1.8494 0.9486
-9.7921 8.6299 -1.8494 0.9486
-10.0957 8.2727 -1.8494 0.9486
-10.8333 8.2450 -1.9290 0.9465
-11.8261 7.7265 -2.0016 0.9445
-12.0959 7.2968 -2.0016 0.9445
-13.2048 5.0188 -2.0016 0.9445
-13.3765 4.5414 -2.0016 0.9445
-13.5310 4.0581 -2.0016 0.9445
-13.8889 2.5793 -2.0016 0.9445
-13.9726 2.0789 -2.0016 0.9445
-14.0382 1.5758 -2.0016 0.9445
-14.1263 0.0569 -2.0016 0.9445
-14.0939 -0.9572 -2.0016 0.9445
-14.0505 -1.4627 -2.0016 0.9445
-13.9889 -1.9663 -2.0016 0.9445
-13.9093 -2.4674 -2.0016 0.9445
-12.8140 -2.7511 -1.8570 0.9484
-12.4438 -4.1132 -1.8570 0.9484
-12.2881 -4.5574 -1.8570 0.9484
-12.1165 -4.9958 -1.8570 0.9484
-11.9293 -5.4277 -1.8570 0.9484
-11.8880 -7.6310 -2.0016 0.9445
-10.9983 -8.8652 -2.0016 0.9445
-10.6728 -9.2545 -2.0016 0.9445
-10.3336 -9.6318 -2.0016 0.9445
-7.6125 -11.8998 -2.0016 0.9445
-7.1802 -12.1655 -2.0016 0.9445
-6.7387 -12.4155 -2.0016 0.9445
-5.3644 -13.0682 -2.0016 0.9445
-4.8916 -13.2524 -2.0016 0.9445
-4.4126 -13.4196 -2.0016 0.9445
-3.4380 -13.7017 -2.0016 0.9445
-1.9445 -13.9919 -2.0016 0.9445
-1.4408 -14.0527 -2.0016 0.9445
0.0789 -14.1262 -2.0016 0.9445
0.5861 -14.1142 -2.0016 0.9445
3.5909 -13.6624 -2.0016 0.9445
12.1458 -0.3134 -2.0016 0.9519
12.1493 0.1230 -2.0016 0.9519
12.1091 0.9947 -2.0016 0.9519
12.0065 1.8613 -2.0016 0.9519
11.9319 2.2912 -2.0016 0.9519
11.7367 3.1417 -2.0016 0.9519
11.6163 3.5612 -2.0016 0.9519
11.4809 3.9760 -2.0016 0.9519
10.7933 5.5789 -2.0016 0.9519
10.5860 5.9629 -2.0016 0.9519
9.8833 7.0668 -2.0016 0.9519
8.4620 8.7186 -2.0016 0.9519
7.4753 9.5781 -2.0016 0.9519
6.7686 10.0899 -2.0016 0.9519
4.8546 10.1220 -1.8494 0.9555
4.4880 10.2898 -1.8494 0.9555
3.7379 10.5854 -1.8494 0.9555
1.3877 11.1399 -1.8494 0.9555
0.9868 11.1825 -1.8494 0.9555
-0.6245 11.2086 -1.8494 0.9555
-1.0266 11.1790 -1.8494 0.9555
-1.1163 8.7082 -1.4463 0.9650
-1.8263 11.0765 -1.8494 0.9555
-3.3934 10.7008 -1.8494 0.9555
-3.7755 10.5721 -1.8494 0.9555
-4.1527 10.4297 -1.8494 0.9555
-4.5246 10.2738 -1.8494 0.9555
-5.2503 9.9226 -1.8494 0.9555
-5.6032 9.7276 -1.8494 0.9555
-6.9383 8.8251 -1.8494 0.9555
-7.5538 8.3044 -1.8494 0.9555
-8.0647 8.2503 -1.9006 0.9543
-9.0750 8.0390 -1.9972 0.9520
-9.6495 7.3829 -2.0016 0.9519
-9.9084 7.0316 -2.0016 0.9519
-10.1545 6.6712 -2.0016 0.9519
-10.6071 5.9252 -2.0016 0.9519
-11.0051 5.1486 -2.0016 0.9519
-11.1829 4.7501 -2.0016 0.9519
-11.3462 4.3454 -2.0016 0.9519
-11.4950 3.9352 -2.0016 0.9519
-11.7478 3.1000 -2.0016 0.9519
-11.9399 2.2488 -2.0016 0.9519
-12.0706 1.3860 -2.0016 0.9519
-12.1496 0.0798 -2.0016 0.9519
-12.0877 -1.2273 -2.0016 0.9519
-12.0359 -1.6606 -2.0016 0.9519
-11.9684 -2.0918 -2.0016 0.9519
-10.7117 -3.5105 -1.8570 0.9553
-10.5787 -3.8929 -1.8570 0.9553
-10.4321 -4.2703 -1.8570 0.9553
-10.2720 -4.6422 -1.8570 0.9553
-9.9123 -5.3675 -1.8570 0.9553
-10.4694 -6.1653 -2.0016 0.9519
-9.7456 -7.2555 -2.0016 0.9519
-9.4788 -7.6008 -2.0016 0.9519
-9.1997 -7.9363 -2.0016 0.9519
-8.9088 -8.2615 -2.0016 0.9519
-8.2928 -8.8796 -2.0016 0.9519
-7.9686 -9.1717 -2.0016 0.9519
-6.9360 -9.9755 -2.0016 0.9519
-5.0425 -11.0541 -2.0016 0.9519
-3.8245 -11.5323 -2.0016 0.9519
-3.4079 -11.6622 -2.0016 0.9519
-2.9869 -11.7770 -2.0016 0.9519
-2.1339 -11.9610 -2.0016 0.9519
-1.7030 -12.0299 -2.0016 0.9519
-1.2699 -12.0833 -2.0016 0.9519
0.0370 -12.1498 -2.0016 0.9519
0.4733 -12.1406 -2.0016 0.9519
0.9090 -12.1158 -2.0016 0.9519
1.3435 -12.0754 -2.0016 0.9519
3.0586 -11.7586 -2.0016 0.9519
4.3054 -11.3614 -2.0016 0.9519
4.7107 -11.1995 -2.0016 0.9519
5.1098 -11.0231 -2.0016 0.9519
2.1905 -4.3125 -0.7968 0.9806
2.3242 -4.1953 -0.7901 0.9807
6.9967 -9.9331 -2.0016 0.9519
7.3489 -9.6754 -2.0016 0.9519
7.6916 -9.4053 -2.0016 0.9519
8.3468 -8.8289 -2.0016 0.9519
8.9590 -8.2071 -2.0016 0.9519
9.2479 -7.8801 -2.0016 0.9519
9.7897 -7.1960 -2.0016 0.9519
10.0418 -6.8398 -2.0016 0.9519
10.2809 -6.4748 -2.0016 0.9519
10.7191 -5.7201 -2.0016 0.9519
11.1020 -4.9360 -2.0016 0.9519
11.2721 -4.5342 -2.0016 0.9519
11.4277 -4.1264 -2.0016 0.9519
11.8052 -2.8735 -2.0016 0.9519
11.9008 -2.4477 -2.0016 0.9519
12.0458 -1.5872 -2.0016 0.9519
12.1286 -0.7185 -2.0016 0.9519
12.1489 0.1538 -2.0016 0.9519
12.1065 1.0254 -2.0016 0.9519
12.0017 1.8917 -2.0016 0.9519
11.9260 2.3215 -2.0016 0.9519
11.7286 3.1715 -2.0016 0.9519
11.3195 4.4145 -2.0016 0.9519
10.9735 5.2156 -2.0016 0.9519
10.7791 5.6063 -2.0016 0.9519
10.3489 6.3655 -2.0016 0.9519
10.1136 6.7330 -2.0016 0.9519
9.6043 7.4416 -2.0016 0.9519
9.0454 8.1117 -2.0016 0.9519
8.7483 8.4313 -2.0016 0.9519
8.1206 9.0375 -2.0016 0.9519
7.7908 9.3233 -2.0016 0.9519
7.1015 9.8584 -2.0016 0.9519
5.2006 9.9754 -1.8533 0.9554
4.8289 10.1343 -1.8494 0.9555
4.4619 10.3012 -1.8494 0.9555
3.7110 10.5949 -1.8494 0.9555
2.9410 10.8339 -1.8494 0.9555
2.5500 10.9325 -1.8494 0.9555
2.1558 11.0170 -1.8494 0.9555
1.7588 11.0874 -1.8494 0.9555
0.9584 11.1850 -1.8494 0.9555
0.5561 11.2122 -1.8494 0.9555
-0.2501 11.2232 -1.8494 0.9555
-1.0550 11.1763 -1.8494 0.9555
-1.1394 8.7134 -1.4477 0.9650
-1.8544 11.0718 -1.8494 0.9555
-3.0344 10.8081 -1.8494 0.9555
-3.4206 10.6922 -1.8494 0.9555
-3.8023 10.5624 -1.8494 0.9555
-4.1792 10.4191 -1.8494 0.9555
-4.9162 10.0923 -1.8494 0.9555
-5.2755 9.9092 -1.8494 0.9555
-6.6399 9.0518 -1.8494 0.9555
-7.5749 8.2852 -1.8494 0.9555
-8.1050 8.2495 -1.9052 0.9542
-9.0971 8.0174 -1.9976 0.9520
-9.6682 7.3583 -2.0016 0.9519
-9.9262 7.0064 -2.0016 0.9519
-10.1714 6.6454 -2.0016 0.9519
-10.4035 6.2759 -2.0016 0.9519
-11.0181 5.1206 -2.0016 0.9519
-11.1949 4.7217 -2.0016 0.9519
-11.3572 4.3166 -2.0016 0.9519
-11.5049 3.9060 -2.0016 0.9519
-11.7556 3.0701 -2.0016 0.9519
-11.8583 2.6460 -2.0016 0.9519
-11.9456 2.2184 -2.0016 0.9519
-12.0176 1.7880 -2.0016 0.9519
-12.1149 0.9209 -2.0016 0.9519
-12.1402 0.4852 -2.0016 0.9519
-12.1498 0.0489 -2.0016 0.9519
-12.1437 -0.3874 -2.0016 0.9519
-12.1219 -0.8232 -2.0016 0.9519
-12.0846 -1.2580 -2.0016 0.9519
-12.0316 -1.6912 -2.0016 0.9519
-11.0211 -2.3662 -1.8570 0.9553
-10.9290 -2.7604 -1.8570 0.9553
-10.4537 -6.1919 -2.0016 0.9519
-10.2246 -6.5633 -2.0016 0.9519
-9.7272 -7.2802 -2.0016 0.9519
-9.1795 -7.9596 -2.0016 0.9519
-8.8878 -8.2841 -2.0016 0.9519
-8.2703 -8.9007 -2.0016 0.9519
-7.6101 -9.4713 -2.0016 0.9519
-7.2651 -9.7385 -2.0016 0.9519
-6.9106 -9.9931 -2.0016 0.9519
-6.5473 -10.2348 -2.0016 0.9519
-6.1756 -10.4633 -2.0016 0.9519
-5.4086 -10.8796 -2.0016 0.9519
-5.0145 -11.0668 -2.0016 0.9519
-4.6138 -11.2398 -2.0016 0.9519
-3.7952 -11.5419 -2.0016 0.9519
-2.5319 -11.8831 -2.0016 0.9519
-2.1035 -11.9664 -2.0016 0.9519
-0.8044 -12.1232 -2.0016 0.9519
0.0679 -12.1497 -2.0016 0.9519
0.9397 -12.1135 -2.0016 0.9519
2.6645 -11.8541 -2.0016 0.9519
10.6285 -0.6568 -2.0016 0.9576
10.6375 0.4901 -2.0016 0.9576
10.6131 0.8718 -2.0016 0.9576
10.5749 1.2524 -2.0016 0.9576
10.5231 1.6313 -2.0016 0.9576
10.4578 2.0081 -2.0016 0.9576
10.3789 2.3824 -2.0016 0.9576
10.2866 2.7536 -2.0016 0.9576
10.0625 3.4848 -2.0016 0.9576
9.4598 4.8896 -2.0016 0.9576
9.2782 5.2262 -2.0016 0.9576
8.8791 5.8787 -2.0016 0.9576
8.1954 6.7995 -2.0016 0.9576
7.9459 7.0894 -2.0016 0.9576
7.4166 7.6414 -2.0016 0.9576
5.9323 8.8433 -2.0016 0.9576
5.6109 9.0507 -2.0016 0.9576
5.2823 9.2463 -2.0016 0.9576
3.2761 9.2776 -1.8494 0.9607
2.9408 9.3893 -1.8494 0.9607
2.2593 9.5762 -1.8494 0.9607
1.5661 9.7136 -1.8494 0.9607
0.5124 9.8257 -1.8494 0.9607
0.1592 9.8378 -1.8494 0.9607
-0.1942 9.8372 -1.8494 0.9607
-1.6007 9.7080 -1.8494 0.9607
-2.2933 9.5681 -1.8494 0.9607
-2.6355 9.4795 -1.8494 0.9607
-2.9742 9.3788 -1.8494 0.9607
-3.3091 9.2659 -1.8494 0.9607
-4.6016 8.6967 -1.8494 0.9607
-5.2140 8.3440 -1.8494 0.9607
-5.5806 8.2554 -1.8730 0.9603
-6.4763 8.2375 -1.9696 0.9582
-6.8591 8.1073 -1.9961 0.9577
-7.1601 7.8715 -2.0001 0.9576
-7.4437 7.6150 -2.0016 0.9576
-7.9711 7.0611 -2.0016 0.9576
-8.2195 6.7703 -2.0016 0.9576
-8.6843 6.1629 -2.0016 0.9576
-8.9000 5.8470 -2.0016 0.9576
-9.1042 5.5237 -2.0016 0.9576
-10.1922 3.0850 -2.0016 0.9576
-10.5793 1.2147 -2.0016 0.9576
-10.6161 0.8341 -2.0016 0.9576
-10.6486 0.0699 -2.0016 0.9576
-10.6442 -0.3125 -2.0016 0.9576
-10.5944 -1.0757 -2.0016 0.9576
-10.4898 -1.8333 -2.0016 0.9576
-9.3883 -3.0768 -1.8570 0.9606
-9.2717 -3.4120 -1.8570 0.9606
-9.0029 -4.0687 -1.8570 0.9606
-8.3276 -5.3158 -1.8570 0.9606
-8.0631 -6.9558 -2.0016 0.9576
-7.5431 -7.5166 -2.0016 0.9576
-7.2683 -7.7826 -2.0016 0.9576
-6.3891 -8.5192 -2.0016 0.9576
-6.0791 -8.7431 -2.0016 0.9576
-5.7612 -8.9558 -2.0016 0.9576
-5.4359 -9.1569 -2.0016 0.9576
-5.1035 -9.3462 -2.0016 0.9576
-4.4195 -9.6884 -2.0016 0.9576
-4.0688 -9.8408 -2.0016 0.9576
-3.7128 -9.9806 -2.0016 0.9576
-1.8702 -10.4833 -2.0016 0.9576
-1.4926 -10.5437 -2.0016 0.9576
-1.1130 -10.5905 -2.0016 0.9576
-0.7319 -10.6236 -2.0016 0.9576
-0.3500 -10.6431 -2.0016 0.9576
0.0325 -10.6488 -2.0016 0.9576
0.7967 -10.6190 -2.0016 0.9576
1.1775 -10.5835 -2.0016 0.9576
1.9341 -10.4717 -2.0016 0.9576
2.3089 -10.3955 -2.0016 0.9576
2.6807 -10.3059 -2.0016 0.9576
3.0491 -10.2030 -2.0016 0.9576
4.1287 -9.8159 -2.0016 0.9576
4.4785 -9.6613 -2.0016 0.9576
2.3241 -4.1952 -0.9015 0.9807
5.4916 -9.1236 -2.0016 0.9576
5.8157 -8.9205 -2.0016 0.9576
6.1323 -8.7059 -2.0016 0.9576
6.4409 -8.4801 -2.0016 0.9576
6.7413 -8.2433 -2.0016 0.9576
7.0330 -7.9959 -2.0016 0.9576
7.3156 -7.7382 -2.0016 0.9576
7.5888 -7.4705 -2.0016 0.9576
8.5802 -6.3069 -2.0016 0.9576
8.8011 -5.9948 -2.0016 0.9576
9.3948 -5.0134 -2.0016 0.9576
10.0158 -3.6166 -2.0016 0.9576
10.2496 -2.8884 -2.0016 0.9576
10.5008 -1.7694 -2.0016 0.9576
10.5576 -1.3911 -2.0016 0.9576
10.6007 -1.0111 -2.0016 0.9576
10.6480 0.1348 -2.0016 0.9576
10.5189 1.6580 -2.0016 0.9576
10.4526 2.0347 -2.0016 0.9576
9.7757 4.2229 -2.0016 0.9576
9.2649 5.2497 -2.0016 0.9576
8.8642 5.9012 -2.0016 0.9576
8.6465 6.2157 -2.0016 0.9576
8.4177 6.5222 -2.0016 0.9576
8.1781 6.8203 -2.0016 0.9576
7.9279 7.1095 -2.0016 0.9576
7.6675 7.3897 -2.0016 0.9576
7.3972 7.6602 -2.0016 0.9576
7.1173 7.9209 -2.0016 0.9576
6.5304 8.4113 -2.0016 0.9576
5.9099 8.8584 -2.0016 0.9576
5.5879 9.0649 -2.0016 0.9576
4.4962 9.4362 -1.9647 0.9583
3.5839 9.1631 -1.8494 0.9607
3.2525 9.2859 -1.8494 0.9607
2.2350 9.5819 -1.8494 0.9607
1.5415 9.7176 -1.8494 0.9607
1.1915 9.7667 -1.8494 0.9607
0.4874 9.8270 -1.8494 0.9607
0.1342 9.8382 -1.8494 0.9607
-0.2192 9.8366 -1.8494 0.9607
-0.9246 9.7955 -1.8494 0.9607
-1.1372 8.6963 -1.6485 0.9649
-1.6253 9.7039 -1.8494 0.9607
-2.6595 9.4728 -1.8494 0.9607
-2.9980 9.3712 -1.8494 0.9607
-3.6629 9.1319 -1.8494 0.9607
-3.9884 8.9944 -1.8494 0.9607
-4.3088 8.8454 -1.8494 0.9607
-4.6237 8.6850 -1.8494 0.9607
-4.9326 8.5133 -1.8494 0.9607
-5.2352 8.3307 -1.8494 0.9607
-5.6108 8.2548 -1.8761 0.9602
-6.5097 8.2368 -1.9733 0.9582
-6.8806 8.0910 -1.9963 0.9577
-7.9890 7.0408 -2.0016 0.9576
-8.2367 6.7494 -2.0016 0.9576
-8.9148 5.8244 -2.0016 0.9576
-9.1182 5.5005 -2.0016 0.9576
-9.3098 5.1695 -2.0016 0.9576
-9.8118 4.1383 -2.0016 0.9576
-10.2000 3.0591 -2.0016 0.9576
-10.3032 2.6908 -2.0016 0.9576
-10.5329 1.5671 -2.0016 0.9576
-10.6403 0.4253 -2.0016 0.9576
-10.6487 0.0429 -2.0016 0.9576
-10.6434 -0.3395 -2.0016 0.9576
-10.5916 -1.1026 -2.0016 0.9576
-10.5452 -1.4822 -2.0016 0.9576
-10.4851 -1.8600 -2.0016 0.9576
-9.5788 -2.4194 -1.8570 0.9606
-9.3804 -3.1006 -1.8570 0.9606
-9.2631 -3.4355 -1.8570 0.9606
-8.5004 -5.0349 -1.8570 0.9606
-8.3141 -5.3369 -1.8570 0.9606
-8.1171 -5.6320 -1.8570 0.9606
-8.2908 -6.6828 -2.0016 0.9576
-7.2485 -7.8010 -2.0016 0.9576
-6.9637 -8.0563 -2.0016 0.9576
-6.3675 -8.5354 -2.0016 0.9576
-5.4126 -9.1707 -2.0016 0.9576
-4.7404 -9.5355 -2.0016 0.9576
-4.3949 -9.6996 -2.0016 0.9576
-3.3263 -10.1160 -2.0016 0.9576
-1.4658 -10.5474 -2.0016 0.9576
-1.0861 -10.5933 -2.0016 0.9576
-0.3230 -10.6439 -2.0016 0.9576
0.0595 -10.6486 -2.0016 0.9576
1.5835 -10.5304 -2.0016 0.9576
1.9607 -10.4668 -2.0016 0.9576
2.3353 -10.3896 -2.0016 0.9576
2.7069 -10.2990 -2.0016 0.9576
9.4510 -0.5840 -2.0016 0.9620
9.4659 -0.2442 -2.0016 0.9620
9.4685 0.0959 -2.0016 0.9620
9.4590 0.4358 -2.0016 0.9620
9.4372 0.7752 -2.0016 0.9620
9.4033 1.1136 -2.0016 0.9620
9.3573 1.4506 -2.0016 0.9620
9.2991 1.7857 -2.0016 0.9620
9.2290 2.1185 -2.0016 0.9620
9.1470 2.4485 -2.0016 0.9620
8.9476 3.0987 -2.0016 0.9620
8.7022 3.7329 -2.0016 0.9620
8.2502 4.6472 -2.0016 0.9620
8.0780 4.9404 -2.0016 0.9620
7.7026 5.5075 -2.0016 0.9620
7.4998 5.7806 -2.0016 0.9620
7.2874 6.0462 -2.0016 0.9620
7.0656 6.3040 -2.0016 0.9620
5.8259 7.4647 -2.0016 0.9620
5.5541 7.6691 -2.0016 0.9620
5.2751 7.8636 -2.0016 0.9620
4.9893 8.0479 -2.0016 0.9620
4.6971 8.2219 -2.0016 0.9620
3.7815 8.6701 -1.9994 0.9621
2.6941 8.6017 -1.9053 0.9638
2.3333 8.5099 -1.8652 0.9646
2.0090 8.5152 -1.8494 0.9649
0.4556 8.7371 -1.8494 0.9649
0.1416 8.7478 -1.8494 0.9649
-1.7324 8.5758 -1.8494 0.9649
-2.0393 8.5080 -1.8494 0.9649
-2.3435 8.4293 -1.8494 0.9649
-2.6447 8.3397 -1.8494 0.9649
-3.6330 8.2494 -1.9054 0.9638
-3.9899 8.2438 -1.9359 0.9632
-4.7105 8.1778 -1.9949 0.9622
-5.3004 7.8409 -2.0006 0.9620
-6.3716 7.0047 -2.0016 0.9620
-6.6190 6.7713 -2.0016 0.9620
