ply
format ascii 1.0
element vertex 1538
property float32 x
property float32 y
property float32 z
property float32 I
end_header
-13.8737 13.9625 2.5632 0.9237
-16.0732 14.0034 2.7760 0.9176
-17.2948 14.0068 2.8981 0.9141
-20.1014 14.0146 3.1910 0.9059
-27.2561 -22.2822 4.5844 0.8676
-22.0183 -22.3636 4.0868 0.8811
-19.2126 -22.5470 3.8575 0.8874
-17.3799 -21.9476 3.6456 0.8932
-16.4483 -22.3790 3.6167 0.8940
-12.9971 -22.3886 3.3711 0.9008
-9.0739 -22.5751 3.1683 0.9065
-8.0801 -22.3973 3.1006 0.9084
-6.3046 -22.4023 3.0306 0.9104
-5.4444 -22.4046 3.0025 0.9112
-4.6349 -22.5825 3.0020 0.9112
-1.3159 -22.4161 2.9241 0.9134
-0.5087 -22.4184 2.9201 0.9135
0.2997 -22.5962 2.9428 0.9129
2.2035 -4.2263 0.6207 0.9810
32.9453 -36.6477 6.4172 0.8197
32.9523 -34.1060 6.1757 0.8259
30.0513 -18.4642 4.5929 0.8674
33.8694 -6.5652 4.4926 0.8701
32.0804 -0.3759 4.1778 0.8786
45.7282 12.9454 6.1888 0.8255
36.2131 13.1275 5.0160 0.8561
34.9832 14.1240 4.9128 0.8588
26.5564 16.7781 4.0906 0.8810
26.1211 19.2609 4.2262 0.8773
29.7136 23.6044 4.9416 0.8581
2.5288 17.3724 2.2861 0.9316
0.5824 15.8627 2.0670 0.9380
0.0117 15.5322 2.0226 0.9393
-1.6752 15.5819 2.0408 0.9387
-2.2459 15.5934 2.0515 0.9384
-3.9978 15.5983 2.0969 0.9371
-5.2186 15.6017 2.1423 0.9358
-6.0483 14.5199 2.0483 0.9385
-6.4071 13.9468 1.9986 0.9400
-7.0256 13.9486 2.0338 0.9389
-7.4210 13.5025 2.0064 0.9397
-7.7938 13.0467 1.9790 0.9405
-9.8472 13.0524 2.1292 0.9362
-10.6061 13.0545 2.1903 0.9344
-15.1891 14.0010 2.6901 0.9200
-16.3335 14.0042 2.8017 0.9169
-23.2167 -22.2950 4.1916 0.8782
-21.6730 -22.3645 4.0555 0.8819
-17.1803 -22.0523 3.6403 0.8934
-14.9852 -22.3831 3.5077 0.8970
-13.5325 -21.8752 3.3496 0.9014
-12.7614 -22.3893 3.3559 0.9013
-9.8164 -22.5731 3.2054 0.9055
-8.7981 -22.4003 3.1339 0.9075
-5.2569 -22.4052 2.9969 0.9113
2.1857 -4.2744 0.5155 0.9809
2.3484 -4.2120 0.5178 0.9808
32.9493 -34.6480 5.1343 0.8250
32.5699 -31.8723 4.8934 0.8325
32.9584 -30.0110 4.7865 0.8358
33.0099 -27.9551 4.6450 0.8403
35.3977 -25.8511 4.7068 0.8383
38.0943 -25.7735 4.9389 0.8311
32.8796 -7.8838 3.6307 0.8728
31.5127 -6.3678 3.4523 0.8787
32.6786 -4.1889 3.5378 0.8759
32.9639 9.0504 3.6707 0.8715
41.9697 13.1624 4.7232 0.8378
26.8341 24.2713 3.8853 0.8645
2.4638 21.0492 2.2757 0.9183
1.7135 21.2202 2.2861 0.9179
0.7083 15.8624 1.7050 0.9381
0.1267 14.6083 1.5687 0.9429
-1.1989 8.8186 0.9557 0.9648
-3.0945 14.7335 1.6166 0.9412
-3.6755 14.8286 1.6405 0.9404
-4.2586 14.8702 1.6610 0.9397
-6.0474 14.8481 1.7216 0.9375
-6.8875 13.9482 1.6704 0.9393
-7.6540 13.0463 1.6242 0.9410
-11.2293 13.0563 1.8492 0.9331
-12.0744 13.0586 1.9098 0.9309
-15.5388 14.5527 2.2861 0.9179
-16.0518 13.9848 2.2861 0.9179
-18.6306 14.0105 2.5032 0.9105
-21.7332 14.0191 2.7772 0.9012
-20.4924 -22.3678 3.2575 0.8851
-15.3622 -22.5577 2.9306 0.8960
-13.7042 -21.7654 2.7619 0.9017
-12.9971 -22.3886 2.7799 0.9011
-9.0739 -22.5751 2.6126 0.9068
-8.0801 -22.3973 2.5568 0.9087
-6.3046 -22.4023 2.4990 0.9106
-5.4444 -22.4046 2.4759 0.9114
-2.9422 -22.4116 2.4272 0.9131
-1.3159 -22.4161 2.4112 0.9136
2.2035 -4.2262 0.5118 0.9810
27.9827 -38.8341 5.1399 0.8248
32.9450 -36.6474 5.2916 0.8202
32.9904 -29.5655 4.7570 0.8368
32.8646 -25.4434 4.4631 0.8460
38.1714 -25.3872 4.9227 0.8316
30.2406 -18.5805 3.8113 0.8669
31.1733 -6.0426 3.4098 0.8801
32.3812 -5.0767 3.5196 0.8765
33.6136 -4.0383 3.6354 0.8727
46.4507 13.1500 5.1840 0.8235
41.4375 13.3570 4.6751 0.8393
36.7948 13.3384 4.2027 0.8543
28.6114 15.3188 3.4850 0.8776
27.2206 15.8585 3.3829 0.8810
27.4669 17.3534 3.4888 0.8775
29.9695 22.0986 3.9985 0.8609
27.7316 23.7045 3.9175 0.8635
27.8971 25.6375 4.0685 0.8586
1.5453 21.2332 2.2861 0.9179
0.0110 14.6271 1.5707 0.9429
-1.0437 14.6448 1.5766 0.9426
-2.1209 14.7256 1.5976 0.9419
-2.6591 14.6969 1.6038 0.9417
-3.2222 14.7591 1.6222 0.9410
-3.8018 14.8335 1.6443 0.9403
-4.3902 14.8833 1.6663 0.9395
-5.9548 15.8809 1.8213 0.9340
-6.0483 14.5200 1.6890 0.9387
-7.7938 13.0467 1.6319 0.9407
-8.4456 13.0485 1.6691 0.9394
-9.1287 13.0504 1.7102 0.9379
-9.8472 13.0524 1.7557 0.9363
-10.6061 13.0545 1.8062 0.9346
-11.4109 13.0568 1.8620 0.9326
-12.2683 13.0591 1.9241 0.9305
-13.1859 13.0617 1.9930 0.9281
-18.9423 14.0114 2.5300 0.9096
-20.4462 14.0156 2.6619 0.9051
-33.2027 17.8412 4.0475 0.8593
-32.4207 -23.2117 4.2817 0.8518
-27.1119 -22.5250 3.7850 0.8678
-21.7261 -22.4193 3.3524 0.8820
-17.1803 -22.0523 3.0018 0.8936
-16.1773 -22.3798 2.9653 0.8949
-14.9852 -22.3831 2.8925 0.8973
-13.4650 -21.7661 2.7484 0.9022
-11.8093 -22.5675 2.7351 0.9026
-10.7120 -22.3950 2.6658 0.9050
-8.7981 -22.4003 2.5843 0.9077
-6.1136 -22.4028 2.4936 0.9108
-5.2569 -22.4052 2.4712 0.9116
2.3484 -4.2119 0.4082 0.9808
32.6116 -31.9131 3.8626 0.8326
38.1334 -25.7999 3.8975 0.8313
32.6515 -4.1854 2.7867 0.8762
41.9697 13.1624 3.7235 0.8381
37.2642 13.1755 3.3459 0.8533
35.0333 13.8224 3.1882 0.8597
27.7262 14.5634 2.6512 0.8819
27.1321 15.5203 2.6460 0.8821
27.5382 19.9709 2.8797 0.8724
28.7339 24.1700 3.1785 0.8601
28.2531 27.4643 3.3355 0.8537
3.7061 24.1188 2.0657 0.9067
2.6719 22.8268 1.9455 0.9119
1.8434 22.8291 1.9388 0.9122
-0.3702 13.5702 1.1492 0.9470
-0.8592 13.5716 1.1512 0.9469
-1.3505 13.5730 1.1547 0.9467
-1.1988 8.8175 0.7533 0.9649
-2.8772 13.6989 1.1850 0.9454
-3.3976 13.7073 1.1955 0.9449
-4.4852 13.7708 1.2260 0.9435
-6.0474 14.8481 1.3572 0.9377
-6.2736 13.9465 1.2946 0.9405
-7.5237 13.9500 1.3417 0.9384
-10.1127 14.7038 1.5107 0.9309
-10.6346 14.3309 1.5107 0.9309
-12.1516 13.1421 1.5152 0.9307
-13.0135 13.0968 1.5629 0.9286
-20.9345 15.7431 2.2174 0.9002
-22.6936 14.6387 2.2861 0.8973
-35.5823 17.8533 3.3700 0.8523
-32.9504 -23.1983 3.4113 0.8506
-25.4217 -22.3541 2.8657 0.8729
-23.6556 -22.3590 2.7555 0.8775
-22.1907 -22.5387 2.6775 0.8808
-20.4924 -22.3678 2.5680 0.8853
-17.3799 -21.9475 2.3699 0.8937
-14.8550 -21.8128 2.2340 0.8995
-10.9305 -22.3944 2.1095 0.9048
-8.0801 -22.3973 2.0156 0.9088
-5.3373 -16.6460 1.4798 0.9322
-6.3046 -22.4023 1.9701 0.9108
-5.4444 -22.4046 1.9518 0.9116
-4.5989 -22.4070 1.9364 0.9123
-2.9422 -22.4116 1.9135 0.9133
-2.1264 -22.4139 1.9059 0.9136
-0.5087 -22.4184 1.8983 0.9139
0.2974 -22.4206 1.8981 0.9139
1.1044 -22.4228 1.9005 0.9138
32.8839 -36.5794 4.1639 0.8208
32.6130 -31.4126 3.8331 0.8338
33.3752 -29.9103 3.7939 0.8353
32.8646 -25.4434 3.5184 0.8463
30.2385 -18.5792 3.0043 0.8672
34.3880 -4.1313 2.9320 0.8702
46.5424 13.1759 4.0948 0.8235
35.0383 15.6334 3.2479 0.8573
29.7283 14.5671 2.8025 0.8756
27.0481 15.7580 2.6499 0.8819
27.1409 18.5449 2.7827 0.8764
30.4936 24.2241 3.2968 0.8553
28.3746 28.0230 3.3759 0.8521
3.5109 24.1193 2.0633 0.9068
1.6615 22.8296 1.9377 0.9122
-0.9672 13.5719 1.1518 0.9468
-1.4592 13.5733 1.1556 0.9467
-1.2756 8.8565 0.7575 0.9647
-3.5138 13.7100 1.1981 0.9448
-4.0505 13.7315 1.2119 0.9441
-4.6102 13.7827 1.2303 0.9433
-6.0483 14.5200 1.3315 0.9388
-6.4071 13.9469 1.2993 0.9402
-7.0256 13.9486 1.3221 0.9392
-9.1520 15.3203 1.5107 0.9309
-9.6967 14.9815 1.5107 0.9309
-10.7478 14.2462 1.5107 0.9309
-11.2529 13.8507 1.5107 0.9309
-12.3372 13.1325 1.5253 0.9302
-13.2106 13.0861 1.5741 0.9281
-16.8208 15.5051 1.9366 0.9123
-22.2745 15.2689 2.2861 0.8973
-22.8089 14.4584 2.2861 0.8973
-32.4048 -23.2004 3.3737 0.8522
-27.1119 -22.5250 2.9839 0.8681
-21.8427 -22.5397 2.6570 0.8816
-18.7601 -22.3726 2.4716 0.8894
-17.1803 -22.0523 2.3665 0.8938
-16.0620 -22.2203 2.3210 0.8958
-9.7402 -22.3977 2.0676 0.9066
-8.7981 -22.4003 2.0373 0.9079
-7.8803 -22.3979 2.0100 0.9091
-5.2569 -22.4052 1.9482 0.9118
2.1856 -4.2743 0.2977 0.9809
2.3484 -4.2119 0.2990 0.9809
32.6116 -31.9131 2.8294 0.8329
32.8128 -29.8784 2.7519 0.8371
41.9503 -26.2352 3.0682 0.8201
32.6477 -4.1849 2.0411 0.8764
32.9431 9.0447 2.1184 0.8720
34.6122 15.1156 2.3421 0.8595
29.1795 16.6915 2.0845 0.8740
34.8647 25.2842 2.6706 0.8415
33.0141 25.8024 2.5983 0.8454
3.7062 24.1188 1.5132 0.9068
2.6719 22.8268 1.4252 0.9120
0.7083 15.8624 0.9846 0.9383
-2.3454 13.5757 0.8543 0.9463
-3.3657 13.5785 0.8675 0.9455
-6.0474 14.8481 0.9942 0.9378
-11.2802 17.7344 1.3033 0.9192
-12.1988 17.7370 1.3349 0.9173
-12.9170 17.4065 1.3441 0.9168
-13.8737 13.9625 1.2206 0.9241
-16.9661 15.8894 1.4414 0.9110
-17.8679 14.4709 1.4258 0.9120
-27.3761 -22.3803 2.1927 0.8679
-25.4216 -22.3541 2.0992 0.8731
-22.0183 -22.3636 1.9461 0.8818
-16.1220 -18.9200 1.5414 0.9052
-14.9849 -18.9232 1.4968 0.9078
-14.9786 -20.3794 1.5684 0.9036
-14.9435 -21.9428 1.6462 0.8991
-12.9971 -22.3886 1.6053 0.9015
-10.9305 -22.3944 1.5453 0.9050
-9.9517 -22.3971 1.5198 0.9064
-9.0033 -22.3997 1.4970 0.9078
-8.0801 -22.3973 1.4765 0.9090
-6.3046 -22.4023 1.4431 0.9109
-5.4444 -22.4046 1.4298 0.9117
-4.5912 -22.3697 1.4161 0.9125
-2.9422 -22.4116 1.4017 0.9134
-2.1264 -22.4139 1.3961 0.9137
-1.3159 -22.4161 1.3924 0.9139
0.2974 -22.4206 1.3904 0.9141
1.1044 -22.4228 1.3921 0.9140
33.0093 -36.7189 3.0618 0.8205
33.5672 -34.7424 2.9957 0.8240
32.6130 -31.4125 2.8079 0.8340
32.8155 -27.3470 2.6489 0.8427
45.9260 13.0014 2.9598 0.8259
28.7953 15.4172 2.0254 0.8773
28.1064 16.3746 2.0171 0.8778
35.0564 22.1484 2.5714 0.8469
31.5848 25.0909 2.5014 0.8507
2.4888 22.8273 1.4239 0.9121
0.5824 15.8627 0.9843 0.9384
0.0102 13.5692 0.8414 0.9471
-0.4779 13.5705 0.8420 0.9470
-0.9672 13.5719 0.8437 0.9469
-1.4592 13.5733 0.8465 0.9468
-5.0933 13.5833 0.8996 0.9435
-6.4071 13.9469 0.9517 0.9403
-7.0256 13.9486 0.9685 0.9393
-7.6781 13.9702 0.9885 0.9381
-10.5929 17.7325 1.2809 0.9206
-12.4073 17.7375 1.3423 0.9169
-13.0702 17.3244 1.3457 0.9167
-13.2100 16.2596 1.2991 0.9195
-14.0959 13.9631 1.2303 0.9236
-15.3054 14.1081 1.2908 0.9200
-18.2178 14.5169 1.4445 0.9109
-27.1119 -22.5250 2.1857 0.8683
-23.2167 -22.2950 1.9960 0.8790
-20.1696 -22.3687 1.8677 0.8863
-15.8656 -18.9207 1.5312 0.9058
-14.7660 -18.9534 1.4899 0.9082
-14.7084 -21.9698 1.6395 0.8995
-13.5325 -21.8752 1.5951 0.9020
-10.7120 -22.3950 1.5394 0.9053
-8.7981 -22.4003 1.4924 0.9081
-6.9871 -22.4003 1.4551 0.9102
-6.1136 -22.4028 1.4400 0.9111
32.7468 -37.0126 1.9487 0.8205
32.6290 -25.6770 1.6372 0.8469
32.9410 9.0442 1.3470 0.8722
41.9697 13.1624 1.7344 0.8386
35.1772 18.4771 1.5668 0.8529
35.1818 20.1249 1.5982 0.8502
35.0594 31.7111 1.8640 0.8276
2.6719 22.8268 0.9062 0.9121
1.8434 22.8291 0.9031 0.9124
-0.4329 15.8656 0.6258 0.9384
-1.0045 15.8671 0.6269 0.9383
-1.5790 15.8687 0.6288 0.9382
-2.7421 15.8720 0.6351 0.9376
-4.5469 15.8770 0.6512 0.9360
-5.1718 15.8787 0.6585 0.9353
-5.8116 15.8805 0.6668 0.9345
-6.0474 14.8481 0.6322 0.9378
-6.2736 13.9465 0.6030 0.9406
-6.8875 13.9482 0.6134 0.9396
-11.2802 17.7344 0.8288 0.9193
-12.9170 17.4065 0.8547 0.9169
-13.8737 13.9625 0.7761 0.9242
-16.9661 15.8894 0.9166 0.9111
-15.5563 13.5531 0.8135 0.9207
-19.4549 13.5639 0.9352 0.9094
-21.0342 13.5683 0.9870 0.9047
-27.3375 -22.3488 1.3923 0.8682
-23.6556 -22.3590 1.2835 0.8778
-22.0722 -22.4184 1.2405 0.8817
-20.4924 -22.3678 1.1962 0.8856
-16.1220 -18.9200 0.9801 0.9053
-13.9571 -18.9896 0.9293 0.9100
-13.9613 -20.5006 0.9780 0.9055
-10.9305 -22.3944 0.9826 0.9051
-9.9517 -22.3971 0.9664 0.9065
-9.0254 -22.4546 0.9543 0.9077
-8.0801 -22.3973 0.9389 0.9091
-6.3046 -22.4023 0.9177 0.9110
-3.7594 -22.3720 0.8945 0.9132
-2.9422 -22.4116 0.8913 0.9135
-0.5087 -22.4184 0.8842 0.9141
1.1044 -22.4228 0.8852 0.9141
2.2034 -4.2261 0.1879 0.9811
33.5033 -30.0251 1.7739 0.8352
37.1883 -26.7096 1.8054 0.8325
40.8436 13.1655 1.6921 0.8422
35.0342 14.1446 1.4898 0.8596
35.0383 15.6334 1.5129 0.8576
35.1782 18.8347 1.5734 0.8524
35.0615 23.9569 1.6744 0.8437
2.4888 22.8273 0.9054 0.9122
1.6615 22.8296 0.9026 0.9124
0.0119 15.8643 0.6255 0.9385
-0.5587 15.8659 0.6260 0.9384
-1.1308 15.8675 0.6273 0.9383
-1.7061 15.8691 0.6293 0.9381
-3.4656 15.8740 0.6407 0.9370
-4.0689 15.8757 0.6462 0.9365
-4.6835 15.8774 0.6527 0.9359
-6.0483 14.5200 0.6202 0.9390
-6.4071 13.9469 0.6052 0.9404
-7.0256 13.9486 0.6158 0.9394
-7.6781 13.9702 0.6286 0.9382
-10.5929 17.7325 0.8145 0.9206
-12.4073 17.7375 0.8535 0.9170
-13.0702 17.3244 0.8557 0.9168
-13.2100 16.2596 0.8261 0.9196
-13.2132 15.1190 0.7917 0.9228
-13.1197 13.9655 0.7556 0.9262
-15.8082 13.5538 0.8211 0.9200
-19.7886 13.5648 0.9460 0.9084
-26.9012 -22.3500 1.3791 0.8694
-23.1841 -22.2637 1.2674 0.8793
-21.7261 -22.4193 1.2310 0.8825
-17.0577 -18.9174 1.0044 0.9031
-13.9623 -20.8552 0.9896 0.9044
-12.7614 -22.3893 1.0162 0.9020
-10.7120 -22.3950 0.9789 0.9054
-9.7640 -22.4526 0.9654 0.9066
-8.7981 -22.4003 0.9490 0.9082
-7.8803 -22.3979 0.9362 0.9093
-6.1136 -22.4028 0.9157 0.9112
-5.2569 -22.4052 0.9074 0.9120
32.7468 -37.0126 0.8348 0.8206
32.9435 -29.9974 0.7526 0.8367
32.6290 -25.6770 0.7014 0.8470
42.7598 13.4102 0.7570 0.8359
37.9549 13.4197 0.6800 0.8512
35.6247 17.1077 0.6676 0.8538
35.3869 21.9669 0.7036 0.8465
35.1915 23.6390 0.7161 0.8440
35.1968 25.5250 0.7344 0.8403
4.5834 17.2074 0.3008 0.9312
2.5996 13.6331 0.2344 0.9460
2.0538 13.3658 0.2284 0.9473
0.5539 12.4043 0.2097 0.9515
-0.4329 15.8656 0.2681 0.9385
-1.5790 15.8687 0.2694 0.9382
-3.3340 15.8736 0.2740 0.9372
-3.9350 15.8753 0.2763 0.9367
-3.5082 12.2500 0.2152 0.9503
-6.2736 13.9465 0.2583 0.9407
-7.9386 12.4809 0.2499 0.9425
-8.3263 12.1064 0.2482 0.9429
-12.9170 17.4065 0.3661 0.9169
-13.2093 16.5245 0.3573 0.9188
-12.9439 13.9989 0.3221 0.9266
-12.4376 12.5172 0.2981 0.9318
-18.2420 15.8929 0.4087 0.9077
-33.2620 23.1902 0.6849 0.8503
-34.5628 22.2949 0.6948 0.8483
-27.3761 -22.3803 0.5973 0.8681
-25.4217 -22.3541 0.5718 0.8733
-17.3799 -21.9475 0.4729 0.8940
-14.1361 -19.2331 0.4033 0.9089
-13.7729 -21.8745 0.4366 0.9018
-12.9971 -22.3886 0.4373 0.9016
-12.0377 -22.5669 0.4320 0.9027
-9.9517 -22.3971 0.4140 0.9066
-9.0254 -22.4546 0.4088 0.9077
-8.0801 -22.3973 0.4022 0.9091
-5.3355 -16.6404 0.2952 0.9325
-6.3046 -22.4023 0.3931 0.9111
-5.4444 -22.4046 0.3895 0.9119
-4.6203 -22.5112 0.3882 0.9122
-2.9422 -22.4116 0.3818 0.9135
-2.1430 -22.5894 0.3833 0.9132
-1.3159 -22.4161 0.3793 0.9141
-0.5087 -22.4184 0.3788 0.9142
0.2997 -22.5962 0.3817 0.9136
1.1044 -22.4228 0.3792 0.9141
2.2034 -4.2261 0.0805 0.9811
32.8782 -36.5731 0.8307 0.8214
32.6130 -31.4126 0.7649 0.8343
33.5053 -30.0269 0.7600 0.8353
32.8646 -25.4434 0.7021 0.8468
37.1899 -26.7108 0.7734 0.8326
34.2840 -4.1188 0.5833 0.8710
41.6125 13.4134 0.7385 0.8395
37.0262 13.4223 0.6653 0.8542
35.7887 14.4492 0.6520 0.8569
36.0493 16.0845 0.6668 0.8539
35.1782 18.8347 0.6740 0.8525
35.3931 24.1835 0.7241 0.8424
3.9335 15.2524 0.2661 0.9389
2.4888 22.8273 0.3879 0.9122
0.4563 12.4287 0.2101 0.9515
-0.5587 15.8659 0.2682 0.9385
-3.4656 15.8740 0.2745 0.9371
-4.0689 15.8757 0.2768 0.9365
-5.6450 12.2879 0.2284 0.9473
-6.1054 12.1216 0.2293 0.9472
-7.6781 13.9702 0.2693 0.9382
-8.6148 12.3158 0.2539 0.9416
-13.0702 17.3244 0.3666 0.9168
-10.0434 12.3620 0.2690 0.9383
-13.2132 15.1190 0.3392 0.9228
-12.3420 12.2257 0.2934 0.9329
-33.2581 24.6006 0.6988 0.8475
-33.2631 22.8014 0.6812 0.8510
-25.0204 -22.3552 0.5668 0.8744
-23.1841 -22.2637 0.5429 0.8793
-18.7601 -22.3726 0.4932 0.8898
-17.1803 -22.0523 0.4722 0.8942
-16.3040 -22.5551 0.4701 0.8946
-13.5325 -21.8752 0.4345 0.9022
-12.7614 -22.3893 0.4353 0.9020
-11.8093 -22.5675 0.4302 0.9031
-7.8803 -22.3979 0.4011 0.9094
-7.0419 -22.5758 0.3995 0.9097
2.1856 -4.2742 -0.0270 0.9810
2.3483 -4.2117 -0.0271 0.9809
32.7468 -37.0126 -0.2782 0.8206
32.6116 -31.9131 -0.2569 0.8332
32.9137 9.0366 -0.1922 0.8724
42.7598 13.4102 -0.2523 0.8359
35.2874 13.9227 -0.2136 0.8592
34.1372 17.9307 -0.2171 0.8571
35.1818 20.1249 -0.2282 0.8503
34.4721 21.3990 -0.2284 0.8502
35.1916 23.6390 -0.2387 0.8440
35.2023 27.5126 -0.2515 0.8363
2.5149 13.1893 -0.0756 0.9477
1.9862 12.9257 -0.0736 0.9490
1.0119 12.5313 -0.0708 0.9510
0.5534 12.3946 -0.0699 0.9516
0.1044 12.0360 -0.0678 0.9530
-0.3288 12.0504 -0.0679 0.9529
-1.2029 12.0897 -0.0684 0.9526
-1.1982 8.8133 -0.0501 0.9650
-2.0846 12.0661 -0.0689 0.9522
-2.6611 12.6700 -0.0729 0.9495
-3.4825 12.1601 -0.0712 0.9507
-4.4375 12.1259 -0.0727 0.9497
-4.8833 11.9900 -0.0729 0.9495
-5.4187 12.0460 -0.0744 0.9485
-6.0339 12.2195 -0.0767 0.9469
-6.4984 12.0491 -0.0771 0.9467
-7.6655 12.0516 -0.0804 0.9445
-8.3350 12.1190 -0.0828 0.9429
-8.8870 11.9758 -0.0840 0.9421
-10.2450 11.9118 -0.0885 0.9391
-11.0719 11.9744 -0.0918 0.9368
-12.1903 12.2683 -0.0974 0.9332
-12.6855 11.8804 -0.0979 0.9328
-13.8824 12.0947 -0.1037 0.9290
-14.8405 12.0191 -0.1075 0.9265
-16.0056 12.0365 -0.1128 0.9230
-19.9432 11.8718 -0.1307 0.9113
-24.1612 12.1228 -0.1522 0.8975
-27.3761 -22.3803 -0.1991 0.8681
-25.4216 -22.3541 -0.1906 0.8734
-20.4924 -22.3678 -0.1708 0.8857
-19.2126 -22.5470 -0.1668 0.8883
-14.1361 -19.2331 -0.1343 0.9089
-15.3622 -22.5577 -0.1537 0.8966
-12.9971 -22.3886 -0.1458 0.9016
-12.0377 -22.5669 -0.1440 0.9028
-10.9305 -22.3944 -0.1403 0.9051
-9.0739 -22.5751 -0.1370 0.9073
-6.3046 -22.4023 -0.1310 0.9111
-3.7594 -22.3720 -0.1277 0.9133
-1.3159 -22.4161 -0.1264 0.9141
-0.5087 -22.4184 -0.1263 0.9142
0.2997 -22.5962 -0.1272 0.9136
2.2034 -4.2261 -0.0268 0.9811
32.8747 -36.5693 -0.2768 0.8214
32.6130 -31.4126 -0.2549 0.8343
33.5073 -30.0287 -0.2533 0.8353
32.8913 -27.4102 -0.2411 0.8426
37.1917 -26.7121 -0.2578 0.8326
34.3606 -4.1280 -0.1948 0.8707
47.3252 13.3975 -0.2769 0.8214
41.6125 13.4134 -0.2462 0.8396
35.7887 14.4492 -0.2173 0.8569
36.0140 16.0687 -0.2220 0.8541
35.2968 17.2956 -0.2213 0.8545
34.1351 18.2762 -0.2180 0.8565
29.8139 17.3693 -0.1943 0.8711
34.4725 21.7795 -0.2296 0.8495
35.1927 24.0466 -0.2400 0.8432
35.1980 25.9539 -0.2462 0.8395
1.8783 12.9035 -0.0734 0.9492
1.3724 12.5873 -0.0713 0.9506
-0.8633 12.1139 -0.0684 0.9526
-2.6630 12.1976 -0.0703 0.9513
-3.0770 12.0057 -0.0698 0.9516
-3.5732 12.1134 -0.0711 0.9507
-4.4696 11.9199 -0.0717 0.9504
-5.0263 12.0665 -0.0736 0.9491
-6.1117 12.1341 -0.0765 0.9471
-7.3385 12.2847 -0.0806 0.9444
-8.3230 11.8986 -0.0818 0.9436
-13.0746 12.0519 -0.1001 0.9313
-14.0621 12.0566 -0.1043 0.9286
-14.8509 11.8340 -0.1069 0.9269
-27.1119 -22.5250 -0.1985 0.8685
-23.1841 -22.2637 -0.1810 0.8793
-21.8427 -22.5397 -0.1767 0.8820
-20.1696 -22.3687 -0.1696 0.8865
-17.1803 -22.0523 -0.1574 0.8942
-16.3040 -22.5551 -0.1567 0.8946
-15.1025 -22.5584 -0.1528 0.8971
-13.5325 -21.8752 -0.1448 0.9022
-12.7614 -22.3893 -0.1451 0.9021
-11.8093 -22.5675 -0.1434 0.9031
-10.7120 -22.3950 -0.1398 0.9055
-8.7981 -22.4003 -0.1355 0.9082
-7.8803 -22.3979 -0.1337 0.9094
-5.2569 -22.4052 -0.1296 0.9121
2.1856 -4.2742 -0.1352 0.9810
32.7468 -37.0126 -1.3915 0.8206
32.3234 -31.6311 -1.2734 0.8345
32.6290 -25.6770 -1.1691 0.8469
37.9462 -25.6733 -1.2901 0.8325
39.4155 -24.6500 -1.3090 0.8302
43.7427 -4.0154 -1.2369 0.8388
47.7393 -2.6566 -1.3463 0.8259
35.4143 12.5214 -1.0577 0.8604
35.0371 13.8239 -1.0606 0.8601
30.1295 17.2349 -0.9774 0.8703
33.6592 20.8943 -1.1155 0.8534
34.3143 24.8850 -1.1935 0.8440
34.9809 27.3396 -1.2501 0.8372
29.9988 27.1337 -1.1390 0.8506
5.2582 17.2258 -0.5071 0.9305
3.6509 13.7065 -0.3994 0.9448
2.5072 13.1484 -0.3769 0.9478
2.0127 13.0983 -0.3731 0.9484
1.4786 12.6323 -0.3581 0.9504
1.0052 12.4495 -0.3517 0.9512
-0.7618 12.0332 -0.3395 0.9529
-1.1981 8.8123 -0.2504 0.9650
-2.4791 11.8032 -0.3396 0.9529
-2.9932 12.0758 -0.3503 0.9514
-3.4770 12.1408 -0.3556 0.9507
-3.8543 11.8337 -0.3504 0.9514
-4.8871 11.9992 -0.3648 0.9495
-6.4516 11.9622 -0.3827 0.9471
-8.1642 11.8707 -0.4057 0.9440
-10.1867 11.8440 -0.4399 0.9394
-14.6150 11.8365 -0.5296 0.9275
-15.8488 11.9186 -0.5584 0.9237
-17.0153 11.8630 -0.5841 0.9203
-18.4406 11.8952 -0.6179 0.9159
-20.0991 11.9646 -0.6586 0.9106
-25.3561 -22.2965 -0.9507 0.8736
-23.5680 -22.2762 -0.9131 0.8783
-21.9145 -22.2582 -0.8795 0.8825
-17.3799 -21.9475 -0.7883 0.8940
-15.3622 -22.5577 -0.7685 0.8965
-13.7729 -21.8745 -0.7279 0.9017
-12.8997 -22.2209 -0.7235 0.9023
-11.8546 -22.2238 -0.7092 0.9041
-10.8549 -22.2395 -0.6968 0.9057
-5.3343 -16.6366 -0.4918 0.9325
-6.2865 -22.3382 -0.6534 0.9113
-2.9387 -22.3846 -0.6357 0.9136
-2.1243 -22.3918 -0.6333 0.9139
-0.5083 -22.4014 -0.6309 0.9142
1.1035 -22.4044 -0.6316 0.9141
28.0721 -38.9582 -1.3521 0.8252
32.8131 -36.5007 -1.3820 0.8217
33.4397 -29.9681 -1.2644 0.8355
32.8646 -25.4434 -1.1703 0.8468
38.2786 -25.4585 -1.2945 0.8320
30.2245 -18.5706 -0.9989 0.8677
34.4931 -4.1439 -0.9782 0.8702
43.9959 -3.6874 -1.2432 0.8381
40.8436 13.1655 -1.2083 0.8422
36.3418 13.1742 -1.0885 0.8567
35.0380 14.1461 -1.0640 0.8597
36.0493 16.0845 -1.1115 0.8539
35.0563 17.1778 -1.0992 0.8554
33.4590 17.9142 -1.0687 0.8591
29.8851 17.4108 -0.9739 0.8707
34.6287 23.6612 -1.1809 0.8455
34.9821 27.7898 -1.2580 0.8363
4.7618 16.0541 -0.4715 0.9352
1.8997 13.0509 -0.3714 0.9486
0.4488 12.2245 -0.3444 0.9522
-2.1604 11.9402 -0.3417 0.9526
-2.6441 12.1113 -0.3491 0.9516
-4.4656 11.9093 -0.3581 0.9504
-5.0233 12.0592 -0.3678 0.9491
-5.5126 11.9997 -0.3718 0.9485
-7.0987 11.8832 -0.3898 0.9461
-7.7319 11.9459 -0.4007 0.9446
-12.9686 11.9542 -0.4966 0.9319
-13.8805 11.9009 -0.5148 0.9294
-17.2974 11.8571 -0.5905 0.9195
-20.3359 11.8884 -0.6633 0.9100
-26.8581 -22.3142 -0.9832 0.8696
-24.9494 -22.2918 -0.9421 0.8747
-23.1927 -22.2720 -0.9054 0.8793
-21.5664 -22.2545 -0.8726 0.8834
-20.0526 -22.2389 -0.8432 0.8871
-18.6364 -22.2250 -0.8167 0.8904
-17.1803 -22.0523 -0.7871 0.8942
-16.3040 -22.5551 -0.7837 0.8946
-11.6297 -22.2244 -0.7063 0.9045
-10.6404 -22.2453 -0.6943 0.9060
-8.7557 -22.2924 -0.6744 0.9086
-7.8486 -22.3077 -0.6659 0.9097
-6.9638 -22.3256 -0.6585 0.9107
-6.0969 -22.3415 -0.6521 0.9115
-5.2452 -22.3554 -0.6466 0.9122
15.3977 -36.3399 -2.0016 0.8538
2.1856 -4.2742 -0.2435 0.9810
20.4464 -33.7583 -2.0016 0.8538
21.6465 -33.0016 -2.0016 0.8538
22.8186 -32.2023 -2.0016 0.8538
26.1523 -29.5590 -2.0016 0.8538
26.9506 -28.3401 -1.9834 0.8550
26.9744 -26.3966 -1.9140 0.8597
27.8280 -23.5667 -1.8494 0.8641
30.2030 -20.4345 -1.8494 0.8641
30.9179 -19.3357 -1.8494 0.8641
32.2271 -17.0647 -1.8494 0.8641
36.0623 -15.8921 -1.9986 0.8540
37.1660 -13.2803 -2.0016 0.8538
37.6193 -11.9359 -2.0016 0.8538
38.3795 -9.2026 -2.0016 0.8538
38.6855 -7.8172 -2.0016 0.8538
38.9414 -6.4218 -2.0016 0.8538
32.4746 -4.1627 -1.6604 0.8771
34.0800 -3.1284 -1.7356 0.8719
39.4622 0.6436 -2.0016 0.8538
38.9626 6.2920 -2.0016 0.8538
38.7113 7.6883 -2.0016 0.8538
32.7536 8.9927 -1.7225 0.8728
34.3806 12.1559 -1.8494 0.8641
33.4185 14.5943 -1.8494 0.8641
32.8724 15.7860 -1.8494 0.8641
29.6260 16.9469 -1.7309 0.8722
30.9822 19.2326 -1.8494 0.8641
30.2709 20.3337 -1.8494 0.8641
28.7320 22.4557 -1.8494 0.8641
27.9064 23.4739 -1.8494 0.8641
27.2675 26.5062 -1.9285 0.8587
26.2506 29.4717 -2.0016 0.8538
25.1744 30.3961 -2.0016 0.8538
24.0656 31.2813 -2.0016 0.8538
19.3346 34.4071 -2.0016 0.8538
16.8129 35.7072 -2.0016 0.8538
15.5187 36.2884 -2.0016 0.8538
14.2045 36.8227 -2.0016 0.8538
5.1955 17.0204 -0.9025 0.9312
3.5982 13.5089 -0.7090 0.9455
1.4769 12.6177 -0.6443 0.9504
0.5366 12.0176 -0.6101 0.9530
-0.7635 12.0604 -0.6129 0.9528
-1.1870 11.9299 -0.6080 0.9531
-2.9942 12.0797 -0.6312 0.9514
-3.4050 11.8894 -0.6272 0.9517
-4.8978 12.0255 -0.6585 0.9493
-5.3187 11.8238 -0.6575 0.9494
-5.8330 11.8128 -0.6681 0.9486
-6.3641 11.8000 -0.6799 0.9477
-8.0993 11.7763 -0.7248 0.9444
-8.8835 11.9711 -0.7560 0.9420
-10.1047 11.7487 -0.7859 0.9398
-12.6285 11.8270 -0.8775 0.9330
-13.6193 11.8655 -0.9161 0.9302
-14.5883 11.8149 -0.9520 0.9276
-15.8865 11.9469 -1.0081 0.9235
-17.0868 11.9128 -1.0564 0.9200
-20.1112 11.9718 -1.1870 0.9105
-23.1754 11.6282 -1.3150 0.9014
-36.9762 13.7998 -2.0016 0.8538
-38.8476 6.9668 -2.0016 0.8538
-39.0729 5.5661 -2.0016 0.8538
-39.4451 1.3280 -2.0016 0.8538
-39.4673 -0.0906 -2.0016 0.8538
-39.4386 -1.5090 -2.0016 0.8538
-39.2283 -4.3383 -2.0016 0.8538
-39.0470 -5.7454 -2.0016 0.8538
-38.8152 -7.1451 -2.0016 0.8538
-38.5334 -8.5355 -2.0016 0.8538
-38.2017 -9.9150 -2.0016 0.8538
-37.8206 -11.2816 -2.0016 0.8538
-37.3907 -12.6336 -2.0016 0.8538
-36.9125 -13.9693 -2.0016 0.8538
-35.8136 -16.5849 -2.0016 0.8538
-35.1944 -17.8614 -2.0016 0.8538
-34.5297 -19.1148 -2.0016 0.8538
-30.5529 -19.9075 -1.8494 0.8641
-29.0439 -22.0509 -1.8494 0.8641
-25.4217 -22.3541 -1.7168 0.8732
-19.0633 -22.3718 -1.4906 0.8889
-15.3622 -22.5577 -1.3841 0.8965
-12.9971 -22.3886 -1.3129 0.9015
-10.9305 -22.3944 -1.2638 0.9050
-9.9517 -22.3971 -1.2429 0.9065
-8.0801 -22.3973 -1.2075 0.9090
-5.3337 -16.6348 -0.8858 0.9324
-6.3046 -22.4023 -1.1802 0.9110
-4.6203 -22.5112 -1.1654 0.9121
-3.7656 -22.4093 -1.1524 0.9130
-2.9422 -22.4116 -1.1463 0.9134
-2.1264 -22.4139 -1.1418 0.9138
-1.3159 -22.4161 -1.1388 0.9140
-0.5087 -22.4184 -1.1372 0.9141
6.9947 -35.7891 -1.8494 0.8641
8.9576 -38.4374 -2.0016 0.8538
10.3334 -38.0906 -2.0016 0.8538
14.3733 -36.7571 -2.0016 0.8538
15.6851 -36.2167 -2.0016 0.8538
16.9767 -35.6296 -2.0016 0.8538
19.4923 -34.3180 -2.0016 0.8538
20.7132 -33.5952 -2.0016 0.8538
21.9073 -32.8291 -2.0016 0.8538
24.2090 -31.1705 -2.0016 0.8538
26.3856 -29.3509 -2.0016 0.8538
26.9561 -27.8998 -1.9674 0.8561
26.9793 -25.9862 -1.8997 0.8607
27.1567 -24.3373 -1.8494 0.8641
28.0138 -23.3455 -1.8494 0.8641
28.8348 -22.3236 -1.8494 0.8641
29.6185 -21.2728 -1.8494 0.8641
30.1239 -18.5088 -1.7930 0.8680
32.3612 -16.8089 -1.8494 0.8641
34.2118 -16.2363 -1.9205 0.8593
36.2409 -15.6292 -2.0016 0.8538
36.7792 -14.3165 -2.0016 0.8538
37.2700 -12.9854 -2.0016 0.8538
37.7127 -11.6375 -2.0016 0.8538
38.1066 -10.2745 -2.0016 0.8538
38.4512 -8.8983 -2.0016 0.8538
38.7462 -7.5105 -2.0016 0.8538
34.0623 -4.0922 -1.7399 0.8716
36.4886 -3.0582 -1.8570 0.8636
39.4647 -0.4625 -2.0016 0.8538
39.4558 0.9563 -2.0016 0.8538
39.3960 2.3737 -2.0016 0.8538
39.2852 3.7881 -2.0016 0.8538
39.1237 5.1977 -2.0016 0.8538
38.9116 6.6005 -2.0016 0.8538
35.4217 8.6655 -1.8494 0.8641
32.7652 9.2756 -1.7270 0.8725
33.8144 13.6521 -1.8494 0.8641
27.7195 23.6942 -1.8494 0.8641
27.2671 26.9292 -1.9435 0.8577
24.9328 30.5946 -2.0016 0.8538
23.8171 31.4710 -2.0016 0.8538
21.4948 33.1006 -2.0016 0.8538
20.2912 33.8518 -2.0016 0.8538
19.0614 34.5592 -2.0016 0.8538
17.8070 35.2220 -2.0016 0.8538
16.5296 35.8392 -2.0016 0.8538
15.2308 36.4102 -2.0016 0.8538
13.9123 36.9341 -2.0016 0.8538
3.4961 13.5565 -0.7100 0.9455
1.8995 13.0495 -0.6688 0.9486
0.4503 12.2646 -0.6224 0.9520
0.0089 11.9141 -0.6042 0.9534
-1.2727 8.8366 -0.4528 0.9649
-3.0432 11.8737 -0.6216 0.9521
-3.4856 11.8166 -0.6248 0.9519
-3.9973 11.9503 -0.6391 0.9508
-4.4863 11.9646 -0.6480 0.9501
-6.1405 12.1913 -0.6923 0.9468
-6.5428 11.9046 -0.6889 0.9470
-8.4030 12.0129 -0.7435 0.9430
-8.9761 11.8978 -0.7558 0.9421
-9.6267 11.8491 -0.7742 0.9407
-10.3232 11.8121 -0.7956 0.9391
-11.2010 11.9230 -0.8296 0.9366
-12.9530 11.9397 -0.8934 0.9319
-13.8827 11.9029 -0.9274 0.9294
-14.9119 11.8826 -0.9670 0.9265
-16.0572 11.8773 -1.0129 0.9231
-17.2109 11.7978 -1.0582 0.9198
-18.7893 11.9105 -1.1282 0.9148
-20.4817 11.9736 -1.2032 0.9094
-21.9059 11.7709 -1.2612 0.9052
-23.5086 11.5632 -1.3286 0.9004
-29.4955 13.2134 -1.6391 0.8786
-21.2321 8.6092 -1.1619 0.9123
-37.5459 12.1648 -2.0016 0.8538
-38.3228 9.4362 -2.0016 0.8538
-38.9016 6.6589 -2.0016 0.8538
-39.1158 5.2564 -2.0016 0.8538
-39.2795 3.8471 -2.0016 0.8538
-39.4544 1.0154 -2.0016 0.8538
-39.4654 -0.4033 -2.0016 0.8538
-39.3344 -3.2373 -2.0016 0.8538
-38.7574 -7.4524 -2.0016 0.8538
-38.1219 -10.2173 -2.0016 0.8538
-36.2643 -15.5748 -2.0016 0.8538
-35.0518 -18.1396 -2.0016 0.8538
-34.3772 -19.3878 -2.0016 0.8538
-30.3942 -20.1490 -1.8494 0.8641
-29.6504 -21.2284 -1.8494 0.8641
-28.8683 -22.2803 -1.8494 0.8641
-26.9012 -22.3500 -1.7737 0.8693
-25.0204 -22.3552 -1.7016 0.8743
-23.2167 -22.2950 -1.6324 0.8790
-20.1696 -22.3687 -1.5275 0.8864
-18.7601 -22.3726 -1.4807 0.8896
-17.1280 -21.9852 -1.4134 0.8944
-16.3040 -22.5551 -1.4114 0.8945
-13.5325 -21.8752 -1.3045 0.9021
-12.7614 -22.3893 -1.3069 0.9019
-11.7176 -22.3922 -1.2817 0.9037
-10.7120 -22.3950 -1.2590 0.9054
-9.7402 -22.3977 -1.2386 0.9068
-8.7981 -22.4003 -1.2205 0.9081
-6.1136 -22.4028 -1.1777 0.9112
-5.2569 -22.4052 -1.1671 0.9119
7.2833 -24.1479 -1.8494 0.9038
8.8169 -25.8351 -2.0016 0.8963
11.5466 -24.7360 -2.0016 0.8963
14.9721 -22.8260 -2.0016 0.8963
15.7828 -22.2731 -2.0016 0.8963
16.5731 -21.6915 -2.0016 0.8963
17.3421 -21.0818 -2.0016 0.8963
18.8117 -19.7816 -2.0016 0.8963
22.6096 -15.2970 -2.0016 0.8963
24.5683 -11.8991 -2.0016 0.8963
24.9801 -11.0084 -2.0016 0.8963
25.3596 -10.1035 -2.0016 0.8963
25.7064 -9.1855 -2.0016 0.8963
26.5457 -6.3651 -2.0016 0.8963
26.7574 -5.4069 -2.0016 0.8963
27.1839 -2.4954 -2.0016 0.8963
27.2560 -1.5167 -2.0016 0.8963
27.1920 2.4048 -2.0016 0.8963
26.9490 4.3519 -2.0016 0.8963
25.3932 10.0189 -2.0016 0.8963
24.6078 11.8172 -2.0016 0.8963
21.5084 16.8101 -2.0016 0.8963
19.5741 19.0275 -2.0016 0.8963
17.4122 21.0239 -2.0016 0.8963
15.0481 22.7760 -2.0016 0.8963
11.6289 24.6973 -2.0016 0.8963
10.7338 25.0993 -2.0016 0.8963
3.5884 13.4719 -1.0222 0.9456
3.0288 13.2720 -0.9981 0.9469
2.4793 13.0021 -0.9705 0.9483
1.9707 12.8252 -0.9514 0.9493
0.9847 12.1951 -0.8971 0.9521
0.5463 12.2347 -0.8980 0.9521
0.1047 12.0685 -0.8849 0.9527
-0.3268 11.9785 -0.8786 0.9531
-0.7584 11.9797 -0.8801 0.9530
-1.1748 11.8070 -0.8700 0.9535
-3.3691 11.7643 -0.8973 0.9521
-3.9135 12.0156 -0.9266 0.9506
-4.8657 11.9468 -0.9458 0.9496
-5.8422 11.8313 -0.9675 0.9485
-6.4249 11.9127 -0.9924 0.9472
-8.8147 11.8784 -1.0846 0.9424
-11.9572 12.0337 -1.2439 0.9342
-12.7727 11.9621 -1.2831 0.9322
-13.5221 11.7808 -1.3150 0.9306
-14.2022 11.5022 -1.3400 0.9293
-15.3047 11.5094 -1.4041 0.9261
-16.5195 11.5174 -1.4766 0.9224
-17.8685 11.5262 -1.5591 0.9183
-19.3792 11.5361 -1.6536 0.9135
-21.0874 11.5473 -1.7628 0.9081
-22.5438 11.3113 -1.8494 0.9038
-22.9358 10.4937 -1.8494 0.9038
-21.0515 8.7309 -1.6710 0.9126
-23.6304 8.8190 -1.8494 0.9038
-24.7845 8.2477 -1.9152 0.9005
-26.6790 5.7813 -2.0016 0.8963
-26.8695 4.8187 -2.0016 0.8963
-27.1462 2.8760 -2.0016 0.8963
-27.2827 0.9185 -2.0016 0.8963
-27.2981 -0.0627 -2.0016 0.8963
-27.2231 -2.0235 -2.0016 0.8963
-25.0565 -3.6868 -1.8570 0.9034
-24.9078 -4.5850 -1.8570 0.9034
-26.6521 -5.9037 -2.0016 0.8963
-25.1673 -10.5735 -2.0016 0.8963
-24.7710 -11.4712 -2.0016 0.8963
-24.3427 -12.3541 -2.0016 0.8963
-23.8829 -13.2210 -2.0016 0.8963
-21.3011 -16.1723 -1.9610 0.8983
-19.8017 -16.1882 -1.8753 0.9025
-18.9411 -16.6555 -1.8494 0.9038
-17.0383 -18.5975 -1.8494 0.9038
-15.6582 -19.7735 -1.8494 0.9038
-14.1973 -20.8472 -1.8494 0.9038
-10.9305 -22.3944 -1.8272 0.9049
-9.9517 -22.3971 -1.7970 0.9064
-6.3046 -22.4023 -1.7064 0.9109
-4.5301 -22.0720 -1.6521 0.9136
-3.7656 -22.4093 -1.6661 0.9129
-0.5087 -22.4184 -1.6442 0.9140
1.1044 -22.4228 -1.6461 0.9139
3.0472 -25.0376 -1.8494 0.9038
3.9453 -24.9119 -1.8494 0.9038
4.8381 -24.7540 -1.8494 0.9038
5.7247 -24.5642 -1.8494 0.9038
7.4744 -24.0895 -1.8494 0.9038
9.0213 -25.7644 -2.0016 0.8963
9.9415 -25.4235 -2.0016 0.8963
10.8488 -25.0498 -2.0016 0.8963
13.4821 -23.7365 -2.0016 0.8963
15.1525 -22.7067 -2.0016 0.8963
15.9588 -22.1474 -2.0016 0.8963
17.5085 -20.9438 -2.0016 0.8963
18.2500 -20.3009 -2.0016 0.8963
21.5854 -16.7112 -2.0016 0.8963
22.1720 -15.9246 -2.0016 0.8963
22.7301 -15.1174 -2.0016 0.8963
24.2252 -12.5829 -2.0016 0.8963
25.0665 -10.8101 -2.0016 0.8963
25.4389 -9.9022 -2.0016 0.8963
26.0845 -8.0492 -2.0016 0.8963
26.3569 -7.1065 -2.0016 0.8963
26.5953 -6.1546 -2.0016 0.8963
26.7993 -5.1948 -2.0016 0.8963
27.1033 -3.2561 -2.0016 0.8963
27.2028 -2.2799 -2.0016 0.8963
27.2672 -1.3007 -2.0016 0.8963
27.2963 -0.3199 -2.0016 0.8963
27.2902 0.6614 -2.0016 0.8963
27.1721 2.6201 -2.0016 0.8963
26.9137 4.5653 -2.0016 0.8963
26.2659 7.4357 -2.0016 0.8963
25.9817 8.3750 -2.0016 0.8963
25.6639 9.3034 -2.0016 0.8963
25.3130 10.2198 -2.0016 0.8963
24.9293 11.1229 -2.0016 0.8963
24.5134 12.0117 -2.0016 0.8963
23.5872 13.7417 -2.0016 0.8963
22.5391 15.4006 -2.0016 0.8963
21.9710 16.2007 -2.0016 0.8963
20.7505 17.7372 -2.0016 0.8963
19.4227 19.1820 -2.0016 0.8963
17.9945 20.5277 -2.0016 0.8963
17.2451 21.1612 -2.0016 0.8963
14.8672 22.8945 -2.0016 0.8963
14.0347 23.4140 -2.0016 0.8963
13.1841 23.9034 -2.0016 0.8963
9.6226 25.5459 -2.0016 0.8963
2.8862 13.1256 -0.9854 0.9475
2.3788 13.0360 -0.9716 0.9482
0.8954 12.3032 -0.9045 0.9517
0.4434 12.0770 -0.8861 0.9527
0.0089 11.8303 -0.8674 0.9537
-0.4219 11.9800 -0.8789 0.9531
-1.2780 11.8876 -0.8766 0.9532
-1.2724 8.8345 -0.6544 0.9648
-3.0727 11.9890 -0.9075 0.9516
-4.9303 11.8360 -0.9401 0.9499
-6.5441 11.9070 -0.9962 0.9470
-7.1767 12.0138 -1.0261 0.9454
-8.2652 11.8160 -1.0573 0.9438
-8.9536 11.8680 -1.0901 0.9421
-9.6280 11.8507 -1.1195 0.9406
-10.4427 11.9489 -1.1635 0.9383
-13.6150 11.6733 -1.3150 0.9306
-14.4365 11.5037 -1.3535 0.9286
-19.7373 11.5384 -1.6763 0.9124
-22.6327 11.1323 -1.8494 0.9038
-21.0546 8.5372 -1.6658 0.9129
-23.6995 8.6315 -1.8494 0.9038
-25.4311 8.2396 -1.9601 0.8983
-26.2548 7.4751 -2.0016 0.8963
-26.7239 5.5698 -2.0016 0.8963
-27.0550 3.6356 -2.0016 0.8963
-27.2463 1.6827 -2.0016 0.8963
-27.2891 0.7023 -2.0016 0.8963
-27.2691 -1.2598 -2.0016 0.8963
-26.9721 -2.2198 -1.9843 0.8971
-25.0266 -3.8852 -1.8570 0.9034
-26.3676 -7.0670 -2.0016 0.8963
-25.4537 -9.8640 -2.0016 0.8963
-25.0827 -10.7725 -2.0016 0.8963
-23.7775 -13.4098 -2.0016 0.8963
-22.7527 -15.0832 -2.0016 0.8963
-20.9590 -16.1760 -1.9412 0.8993
-19.4886 -16.1914 -1.8578 0.9034
-18.8085 -16.8050 -1.8494 0.9038
-18.1924 -17.4702 -1.8494 0.9038
-17.5527 -18.1128 -1.8494 0.9038
-16.8904 -18.7319 -1.8494 0.9038
-16.2062 -19.3269 -1.8494 0.9038
-14.7760 -20.4411 -1.8494 0.9038
-14.0317 -20.9590 -1.8494 0.9038
-11.6942 -22.3476 -1.8494 0.9038
-9.7402 -22.3977 -1.7908 0.9067
-8.7981 -22.4003 -1.7646 0.9080
-5.2257 -16.7534 -1.2868 0.9320
-6.1136 -22.4028 -1.7027 0.9111
7.4386 -19.4763 -2.0016 0.9196
2.1855 -4.2741 -0.4608 0.9809
2.3482 -4.2115 -0.4630 0.9808
12.0539 -17.0107 -2.0016 0.9196
12.6574 -16.5665 -2.0016 0.9196
13.8148 -15.6144 -2.0016 0.9196
14.9008 -14.5817 -2.0016 0.9196
15.4153 -14.0367 -2.0016 0.9196
16.3838 -12.8930 -2.0016 0.9196
17.2677 -11.6828 -2.0016 0.9196
17.6764 -11.0546 -2.0016 0.9196
18.0623 -10.4122 -2.0016 0.9196
18.4249 -9.7562 -2.0016 0.9196
20.4355 -4.1294 -2.0016 0.9196
20.5707 -3.3923 -2.0016 0.9196
20.6793 -2.6507 -2.0016 0.9196
20.7612 -1.9058 -2.0016 0.9196
20.8163 -1.1584 -2.0016 0.9196
20.8457 0.3400 -2.0016 0.9196
20.8200 1.0890 -2.0016 0.9196
20.1045 5.5198 -2.0016 0.9196
19.8931 6.2388 -2.0016 0.9196
19.1060 8.3438 -2.0016 0.9196
18.7938 9.0251 -2.0016 0.9196
18.4573 9.6948 -2.0016 0.9196
16.4267 12.8384 -2.0016 0.9196
14.4174 15.0599 -2.0016 0.9196
13.8668 15.5683 -2.0016 0.9196
13.2983 16.0566 -2.0016 0.9196
11.4927 17.3948 -2.0016 0.9196
10.8601 17.7966 -2.0016 0.9196
10.2134 18.1754 -2.0016 0.9196
9.5536 18.5308 -2.0016 0.9196
8.2060 17.4279 -1.8494 0.9255
7.5744 17.7115 -1.8494 0.9255
6.9329 17.9723 -1.8494 0.9255
3.0219 13.2417 -1.3040 0.9469
1.9597 12.7530 -1.2387 0.9495
1.4677 12.5388 -1.2120 0.9505
0.9834 12.1785 -1.1730 0.9521
-0.3268 11.9781 -1.1504 0.9530
-1.1952 12.0119 -1.1589 0.9527
-1.1977 8.8095 -0.8535 0.9649
-4.8303 11.8600 -1.2294 0.9498
-5.8468 11.8407 -1.2678 0.9483
-6.9763 11.8912 -1.3236 0.9461
-7.3510 11.5571 -1.3150 0.9464
-8.5078 11.4649 -1.3706 0.9442
-9.1682 11.4692 -1.4097 0.9427
-9.8682 11.4738 -1.4529 0.9410
-11.4109 11.4839 -1.5542 0.9370
-12.2681 11.4895 -1.6137 0.9347
-14.2022 11.5022 -1.7546 0.9292
-15.8018 11.0169 -1.8494 0.9255
-16.1875 10.4419 -1.8494 0.9255
-16.5524 9.8533 -1.8494 0.9255
-16.8959 9.2521 -1.8494 0.9255
-17.2174 8.6388 -1.8494 0.9255
-18.0312 8.2497 -1.9037 0.9234
-19.2268 7.9741 -1.9983 0.9198
-19.7819 6.5829 -2.0016 0.9196
-20.0058 5.8677 -2.0016 0.9196
-20.5211 3.6802 -2.0016 0.9196
-20.6401 2.9403 -2.0016 0.9196
-20.7980 1.4500 -2.0016 0.9196
-20.8333 -0.7971 -2.0016 0.9196
-20.7911 -1.5454 -2.0016 0.9196
-20.6264 -3.0350 -2.0016 0.9196
-19.9786 -5.9595 -2.0016 0.9196
-19.7515 -6.6737 -2.0016 0.9196
-19.4989 -7.3792 -2.0016 0.9196
-19.2211 -8.0753 -2.0016 0.9196
-18.9184 -8.7609 -2.0016 0.9196
-17.8654 -10.7464 -2.0016 0.9196
-17.0474 -12.0020 -2.0016 0.9196
-16.1411 -13.1956 -2.0016 0.9196
-15.1515 -14.3210 -2.0016 0.9196
-14.6270 -14.8564 -2.0016 0.9196
-12.8038 -16.1688 -1.9800 0.9205
-11.0239 -16.1873 -1.8802 0.9243
-9.0662 -16.9963 -1.8494 0.9255
-7.8218 -17.6037 -1.8494 0.9255
-7.1840 -17.8734 -1.8494 0.9255
-5.2969 -16.5201 -1.6655 0.9327
-5.2184 -18.5428 -1.8494 0.9255
-4.5486 -18.7184 -1.8494 0.9255
-3.1922 -18.9968 -1.8494 0.9255
-2.5074 -19.0993 -1.8494 0.9255
0.9476 -19.2398 -1.8494 0.9255
1.6385 -19.1934 -1.8494 0.9255
2.3273 -19.1220 -1.8494 0.9255
3.6949 -18.9055 -1.8494 0.9255
4.3721 -18.7604 -1.8494 0.9255
6.1614 -19.8578 -1.9961 0.9198
6.8899 -19.6771 -2.0016 0.9196
8.2856 -19.1313 -2.0016 0.9196
8.9679 -18.8212 -2.0016 0.9196
2.2033 -4.2260 -0.4575 0.9810
10.2968 -18.1283 -2.0016 0.9196
10.9417 -17.7466 -2.0016 0.9196
12.7883 -16.4657 -2.0016 0.9196
13.3718 -15.9954 -2.0016 0.9196
14.4863 -14.9935 -2.0016 0.9196
15.0159 -14.4632 -2.0016 0.9196
16.0161 -13.3471 -2.0016 0.9196
16.9335 -12.1621 -2.0016 0.9196
17.3597 -11.5456 -2.0016 0.9196
18.1442 -10.2687 -2.0016 0.9196
18.8350 -8.9388 -2.0016 0.9196
19.4285 -7.5626 -2.0016 0.9196
19.6877 -6.8595 -2.0016 0.9196
19.9216 -6.1474 -2.0016 0.9196
20.5969 -3.2292 -2.0016 0.9196
20.7757 -1.7413 -2.0016 0.9196
20.8424 0.5051 -2.0016 0.9196
20.5549 3.4867 -2.0016 0.9196
20.4163 4.2232 -2.0016 0.9196
19.8431 6.3962 -2.0016 0.9196
19.6004 7.1053 -2.0016 0.9196
19.3323 7.8052 -2.0016 0.9196
19.0393 8.4950 -2.0016 0.9196
18.3799 9.8407 -2.0016 0.9196
18.0143 10.4950 -2.0016 0.9196
17.2139 11.7619 -2.0016 0.9196
15.3507 14.1073 -2.0016 0.9196
14.2976 15.1736 -2.0016 0.9196
12.5813 16.6244 -2.0016 0.9196
11.9757 17.0659 -2.0016 0.9196
11.3546 17.4853 -2.0016 0.9196
10.0691 18.2558 -2.0016 0.9196
9.4065 18.6059 -2.0016 0.9196
7.6587 16.6055 -1.7556 0.9292
6.7903 18.0267 -1.8494 0.9255
6.1380 18.2591 -1.8494 0.9255
3.4027 13.1940 -1.3081 0.9467
2.8836 13.1139 -1.2891 0.9475
2.4225 13.2755 -1.2956 0.9472
1.8635 12.8024 -1.2420 0.9493
1.3542 12.4208 -1.1995 0.9510
0.8941 12.2852 -1.1826 0.9517
0.4504 12.2663 -1.1784 0.9519
-0.8533 11.9731 -1.1524 0.9529
-1.2718 11.8301 -1.1423 0.9533
-1.2721 8.8323 -0.8567 0.9648
-2.5794 11.8148 -1.1610 0.9526
-3.0433 11.8741 -1.1768 0.9519
-3.9957 11.9455 -1.2093 0.9506
-4.4819 11.9529 -1.2256 0.9500
-4.9160 11.8017 -1.2274 0.9499
-5.9359 11.7851 -1.2668 0.9484
-6.6258 12.0557 -1.3207 0.9462
-7.0243 11.7586 -1.3150 0.9464
-8.0173 11.4616 -1.3429 0.9453
-8.6502 11.4658 -1.3789 0.9439
-10.0284 11.4748 -1.4631 0.9406
-11.5944 11.4851 -1.5668 0.9365
-15.4868 11.4554 -1.8494 0.9255
-15.8886 10.8914 -1.8494 0.9255
-16.2698 10.3133 -1.8494 0.9255
-16.6299 9.7219 -1.8494 0.9255
-16.9686 9.1179 -1.8494 0.9255
-17.2853 8.5021 -1.8494 0.9255
-18.4021 8.2438 -1.9359 0.9222
-19.5897 7.1347 -2.0016 0.9196
-19.8335 6.4260 -2.0016 0.9196
-20.0516 5.7090 -2.0016 0.9196
-20.4099 4.2538 -2.0016 0.9196
-20.6628 2.7767 -2.0016 0.9196
-20.7492 2.0322 -2.0016 0.9196
-20.8088 1.2851 -2.0016 0.9196
-20.8416 0.5364 -2.0016 0.9196
-20.8263 -0.9622 -2.0016 0.9196
-20.7783 -1.7101 -2.0016 0.9196
-20.7034 -2.4558 -2.0016 0.9196
-20.4735 -3.9367 -2.0016 0.9196
-20.3187 -4.6700 -2.0016 0.9196
-20.1378 -5.3973 -2.0016 0.9196
-19.9308 -6.1175 -2.0016 0.9196
-19.1565 -8.2273 -2.0016 0.9196
-18.8484 -8.9105 -2.0016 0.9196
-18.1595 -10.2416 -2.0016 0.9196
-17.7798 -10.8876 -2.0016 0.9196
-17.3770 -11.5196 -2.0016 0.9196
-16.9517 -12.1367 -2.0016 0.9196
-16.5046 -12.7381 -2.0016 0.9196
-15.5469 -13.8908 -2.0016 0.9196
-15.0376 -14.4406 -2.0016 0.9196
-14.5088 -14.9718 -2.0016 0.9196
-13.9614 -15.4835 -2.0016 0.9196
-12.5984 -16.1710 -1.9680 0.9209
-11.6961 -16.1805 -1.9168 0.9229
-8.9312 -17.0676 -1.8494 0.9255
-7.6821 -17.6651 -1.8494 0.9255
-5.1974 -16.6624 -1.6757 0.9323
-5.0714 -18.5836 -1.8494 0.9255
5.4424 -15.9470 -2.0016 0.9344
6.0120 -15.7411 -2.0016 0.9344
6.5739 -15.5149 -2.0016 0.9344
7.1273 -15.2686 -2.0016 0.9344
2.3481 -4.2115 -0.5728 0.9808
8.7294 -14.4127 -2.0016 0.9344
9.2417 -14.0896 -2.0016 0.9344
9.7421 -13.7484 -2.0016 0.9344
10.2300 -13.3894 -2.0016 0.9344
10.7046 -13.0130 -2.0016 0.9344
11.1654 -12.6199 -2.0016 0.9344
11.6118 -12.2104 -2.0016 0.9344
12.4589 -11.3447 -2.0016 0.9344
12.8586 -10.8896 -2.0016 0.9344
13.2417 -10.4204 -2.0016 0.9344
13.9560 -9.4423 -2.0016 0.9344
14.2864 -8.9346 -2.0016 0.9344
14.5983 -8.4153 -2.0016 0.9344
15.1651 -7.3449 -2.0016 0.9344
15.4193 -6.7951 -2.0016 0.9344
15.6536 -6.2365 -2.0016 0.9344
16.0611 -5.0959 -2.0016 0.9344
16.2339 -4.5153 -2.0016 0.9344
16.3857 -3.9289 -2.0016 0.9344
16.5163 -3.3375 -2.0016 0.9344
16.7796 -1.5403 -2.0016 0.9344
16.8479 0.2748 -2.0016 0.9344
16.8272 0.8801 -2.0016 0.9344
16.7846 1.4844 -2.0016 0.9344
16.6346 2.6863 -2.0016 0.9344
16.2488 4.4612 -2.0016 0.9344
16.0780 5.0423 -2.0016 0.9344
15.8864 5.6169 -2.0016 0.9344
15.1895 7.2943 -2.0016 0.9344
14.9175 7.8355 -2.0016 0.9344
14.6263 8.3666 -2.0016 0.9344
13.2764 10.3762 -2.0016 0.9344
12.8948 10.8467 -2.0016 0.9344
12.4966 11.3032 -2.0016 0.9344
12.0823 11.7450 -2.0016 0.9344
11.6524 12.1717 -2.0016 0.9344
9.2886 14.0588 -2.0016 0.9344
8.7773 14.3835 -2.0016 0.9344
7.6270 13.5727 -1.8494 0.9392
7.1342 13.8381 -1.8494 0.9392
6.6323 14.0855 -1.8494 0.9392
6.1217 14.3148 -1.8494 0.9392
5.6033 14.5256 -1.8494 0.9392
5.0776 14.7176 -1.8494 0.9392
4.5454 14.8906 -1.8494 0.9392
3.5516 13.3339 -1.6391 0.9459
2.4475 12.8359 -1.5522 0.9487
1.9370 12.6056 -1.5149 0.9499
1.4497 12.3858 -1.4813 0.9510
0.9831 12.1753 -1.4510 0.9520
-0.7226 11.4138 -1.3585 0.9550
-1.1360 11.4165 -1.3628 0.9548
-1.1975 8.8085 -1.0560 0.9648
-3.7240 11.4335 -1.4284 0.9527
-4.1853 11.4365 -1.4466 0.9521
-5.6520 11.4461 -1.5164 0.9499
-6.1751 11.4496 -1.5452 0.9489
-6.7193 11.4531 -1.5773 0.9479
-9.8682 11.4738 -1.7977 0.9409
-11.3635 10.6424 -1.8494 0.9392
-11.7387 10.2271 -1.8494 0.9392
-12.7713 8.9041 -1.8494 0.9392
-15.3226 7.0105 -2.0016 0.9344
-15.7866 5.8917 -2.0016 0.9344
-16.4679 3.5686 -2.0016 0.9344
-16.5856 2.9744 -2.0016 0.9344
-16.6817 2.3764 -2.0016 0.9344
-16.8094 1.1719 -2.0016 0.9344
-16.8378 -0.6443 -2.0016 0.9344
-16.8038 -1.2490 -2.0016 0.9344
-16.5717 -3.0505 -2.0016 0.9344
-16.4514 -3.6441 -2.0016 0.9344
-16.3098 -4.2331 -2.0016 0.9344
-15.7594 -5.9640 -2.0016 0.9344
-15.2902 -7.0807 -2.0016 0.9344
-15.0258 -7.6257 -2.0016 0.9344
-14.7421 -8.1608 -2.0016 0.9344
-14.4392 -8.6854 -2.0016 0.9344
-14.1177 -9.1988 -2.0016 0.9344
-13.4204 -10.1892 -2.0016 0.9344
-12.2457 -11.5745 -2.0016 0.9344
-10.9287 -12.8254 -2.0016 0.9344
-10.4607 -13.2099 -2.0016 0.9344
-9.4847 -13.9272 -2.0016 0.9344
-8.9780 -14.2591 -2.0016 0.9344
-8.4597 -14.5726 -2.0016 0.9344
-7.9305 -14.8672 -2.0016 0.9344
-5.7124 -15.8344 -1.9996 0.9344
-5.1322 -16.0062 -1.9967 0.9345
-3.9292 -16.1694 -1.9766 0.9352
-1.5348 -16.1780 -1.9303 0.9366
-0.3685 -16.2386 -1.9294 0.9367
0.2165 -16.3240 -1.9392 0.9364
0.8101 -16.4481 -1.9562 0.9358
2.6349 -16.6381 -2.0010 0.9344
3.8244 -16.4104 -2.0016 0.9344
6.1365 -15.6930 -2.0016 0.9344
8.3220 -14.6517 -2.0016 0.9344
11.7081 -12.1180 -2.0016 0.9344
12.1361 -11.6894 -2.0016 0.9344
13.3238 -10.3152 -2.0016 0.9344
13.6860 -9.8296 -2.0016 0.9344
14.6645 -8.2994 -2.0016 0.9344
15.2228 -7.2245 -2.0016 0.9344
15.7025 -6.1123 -2.0016 0.9344
15.9120 -5.5440 -2.0016 0.9344
16.1010 -4.9685 -2.0016 0.9344
16.2692 -4.3866 -2.0016 0.9344
16.4163 -3.7990 -2.0016 0.9344
16.5422 -3.2065 -2.0016 0.9344
16.6468 -2.6099 -2.0016 0.9344
16.7299 -2.0099 -2.0016 0.9344
16.7913 -1.4073 -2.0016 0.9344
16.8310 -0.8029 -2.0016 0.9344
16.8490 -0.1974 -2.0016 0.9344
16.8452 0.4083 -2.0016 0.9344
16.8196 1.0134 -2.0016 0.9344
16.7724 1.6173 -2.0016 0.9344
16.3675 4.0041 -2.0016 0.9344
16.2130 4.5898 -2.0016 0.9344
15.6248 6.3083 -2.0016 0.9344
15.3879 6.8658 -2.0016 0.9344
14.8550 7.9535 -2.0016 0.9344
14.2452 9.0000 -2.0016 0.9344
13.5619 10.0001 -2.0016 0.9344
13.1937 10.4811 -2.0016 0.9344
11.9889 11.8403 -2.0016 0.9344
11.5556 12.2636 -2.0016 0.9344
11.1074 12.6710 -2.0016 0.9344
10.1684 13.4362 -2.0016 0.9344
9.6789 13.7930 -2.0016 0.9344
9.1770 14.1319 -2.0016 0.9344
7.5192 13.6327 -1.8494 0.9392
7.0244 13.8941 -1.8494 0.9392
6.5205 14.1376 -1.8494 0.9392
5.4880 14.5695 -1.8494 0.9392
4.9608 14.7573 -1.8494 0.9392
3.4238 13.2763 -1.6286 0.9463
2.3329 12.7842 -1.5437 0.9490
0.8828 12.1301 -1.4447 0.9522
0.4380 11.9294 -1.4180 0.9531
0.0088 11.7358 -1.3941 0.9538
-0.4067 11.5484 -1.3726 0.9545
-1.2718 8.8301 -1.0597 0.9647
-2.9290 11.4283 -1.4014 0.9536
-4.7655 11.4403 -1.4721 0.9513
-5.2571 11.4435 -1.4959 0.9505
-6.2931 11.4503 -1.5520 0.9487
-6.8423 11.4539 -1.5848 0.9477
-8.0173 11.4616 -1.6615 0.9452
-8.6502 11.4658 -1.7061 0.9438
-9.3189 11.4702 -1.7555 0.9422
-11.0608 10.9566 -1.8494 0.9392
-11.4475 10.5520 -1.8494 0.9392
-11.8193 10.1337 -1.8494 0.9392
-12.1759 9.7024 -1.8494 0.9392
-12.5168 9.2585 -1.8494 0.9392
-13.1495 8.3354 -1.8494 0.9392
-14.1002 8.2430 -1.9401 0.9363
-14.8204 7.9636 -1.9985 0.9345
-15.1201 7.4371 -2.0016 0.9344
-15.8328 5.7664 -2.0016 0.9344
-16.2061 4.6141 -2.0016 0.9344
-16.3615 4.0287 -2.0016 0.9344
-16.6086 2.8429 -2.0016 0.9344
-16.7699 1.6425 -2.0016 0.9344
-16.8181 1.0387 -2.0016 0.9344
-16.8322 -0.7776 -2.0016 0.9344
-16.6507 -2.5849 -2.0016 0.9344
-16.5470 -3.1817 -2.0016 0.9344
-16.4220 -3.7744 -2.0016 0.9344
-15.7116 -6.0887 -2.0016 0.9344
-15.4826 -6.6495 -2.0016 0.9344
-14.6769 -8.2774 -2.0016 0.9344
-14.3700 -8.7995 -2.0016 0.9344
-14.0444 -9.3103 -2.0016 0.9344
-13.7007 -9.8091 -2.0016 0.9344
-11.2838 -12.5141 -2.0016 0.9344
-9.3741 -14.0019 -2.0016 0.9344
-8.3440 -14.6392 -2.0016 0.9344
-7.8125 -14.9296 -2.0016 0.9344
-7.2708 -15.2008 -2.0016 0.9344
-6.1601 -15.6838 -2.0016 0.9344
-5.5849 -15.8739 -1.9989 0.9345
-3.7940 -16.1701 -1.9729 0.9353
4.0792 -13.5246 -2.0016 0.9445
4.5626 -13.3693 -2.0016 0.9445
5.5112 -13.0070 -2.0016 0.9445
5.9752 -12.8005 -2.0016 0.9445
2.3481 -4.2114 -0.6832 0.9807
7.7478 -11.8121 -2.0016 0.9445
8.9743 -10.9095 -2.0016 0.9445
9.3606 -10.5799 -2.0016 0.9445
9.7348 -10.2367 -2.0016 0.9445
10.7801 -9.1294 -2.0016 0.9445
11.4080 -8.3314 -2.0016 0.9445
11.9771 -7.4903 -2.0016 0.9445
12.7137 -6.1576 -2.0016 0.9445
12.9268 -5.6967 -2.0016 0.9445
13.1232 -5.2284 -2.0016 0.9445
13.3027 -4.7533 -2.0016 0.9445
13.4649 -4.2722 -2.0016 0.9445
13.6098 -3.7855 -2.0016 0.9445
13.8465 -2.7980 -2.0016 0.9445
14.0118 -1.7961 -2.0016 0.9445
14.0673 -1.2913 -2.0016 0.9445
14.1071 0.7379 -2.0016 0.9445
14.0715 1.2444 -2.0016 0.9445
14.0177 1.7494 -2.0016 0.9445
13.9457 2.2521 -2.0016 0.9445
13.8558 2.7518 -2.0016 0.9445
13.6223 3.7401 -2.0016 0.9445
13.4791 4.2273 -2.0016 0.9445
13.3184 4.7090 -2.0016 0.9445
12.9458 5.6536 -2.0016 0.9445
12.7342 6.1152 -2.0016 0.9445
12.0020 7.4504 -2.0016 0.9445
11.1303 8.6990 -2.0016 0.9445
10.8104 9.0934 -2.0016 0.9445
10.4766 9.4761 -2.0016 0.9445
9.7688 10.2042 -2.0016 0.9445
9.3958 10.5487 -2.0016 0.9445
9.0106 10.8796 -2.0016 0.9445
8.6137 11.1964 -2.0016 0.9445
8.2057 11.4987 -2.0016 0.9445
5.5602 11.8087 -1.8494 0.9486
4.6975 12.1776 -1.8494 0.9486
2.9040 12.7251 -1.8494 0.9486
2.4448 12.8212 -1.8494 0.9486
1.4497 12.3858 -1.7669 0.9509
0.9831 12.1753 -1.7307 0.9518
0.5346 11.9730 -1.6981 0.9527
0.1021 11.7779 -1.6689 0.9535
-0.3162 11.5892 -1.6427 0.9542
-0.7226 11.4138 -1.6205 0.9548
-1.1891 8.7464 -1.2507 0.9650
-1.9733 11.4220 -1.6424 0.9543
-2.3996 11.4248 -1.6541 0.9539
-2.8326 11.4277 -1.6682 0.9535
-3.7240 11.4335 -1.7038 0.9526
-5.1474 11.4428 -1.7778 0.9506
-5.6520 11.4461 -1.8087 0.9497
-6.1751 11.4496 -1.8432 0.9488
-7.0050 11.0132 -1.8494 0.9486
-7.7781 10.4815 -1.8494 0.9486
-8.1498 10.1952 -1.8494 0.9486
-8.8611 9.5834 -1.8494 0.9486
-9.1998 9.2587 -1.8494 0.9486
-9.8412 8.5739 -1.8494 0.9486
-10.9604 8.2424 -1.9431 0.9461
-11.5609 8.0602 -1.9969 0.9447
-13.0487 5.4118 -2.0016 0.9445
-13.2347 4.9393 -2.0016 0.9445
-13.4037 4.4604 -2.0016 0.9445
-13.5554 3.9758 -2.0016 0.9445
-13.6895 3.4860 -2.0016 0.9445
-13.9852 1.9923 -2.0016 0.9445
-14.0478 1.4883 -2.0016 0.9445
-14.0922 0.9824 -2.0016 0.9445
-14.1184 0.4753 -2.0016 0.9445
-14.0875 -1.0471 -2.0016 0.9445
-14.0408 -1.5528 -2.0016 0.9445
-12.7958 -2.8344 -1.8570 0.9484
-12.6857 -3.2925 -1.8570 0.9484
-12.4164 -4.1953 -1.8570 0.9484
-12.2576 -4.6388 -1.8570 0.9484
-11.8927 -5.5074 -1.8570 0.9484
