ply
format ascii 1.0
element vertex 1540
property float32 x
property float32 y
property float32 z
property float32 I
end_header
28.9279 22.5351 3.9376 0.8628
27.5523 23.1002 3.8609 0.8653
0.7446 15.8623 1.7052 0.9381
-0.8918 14.6369 1.5746 0.9427
-2.5042 14.7107 1.6024 0.9417
-3.0545 14.7255 1.6149 0.9413
-4.2165 14.8660 1.6593 0.9397
-4.8198 14.9285 1.6845 0.9388
-6.2289 13.9464 1.6402 0.9404
-6.8407 13.9481 1.6682 0.9394
-7.6057 13.0462 1.6216 0.9411
-8.9212 13.0499 1.6975 0.9384
-11.1634 13.0561 1.8446 0.9332
-12.9013 13.0609 1.9714 0.9288
-15.4953 14.5990 2.2861 0.9179
-16.0096 14.0331 2.2861 0.9179
-17.1312 13.9609 2.3731 0.9149
-21.5837 14.0187 2.7637 0.9016
-27.5699 -22.3481 3.8110 0.8669
-23.8557 -22.3585 3.5109 0.8767
-22.2600 -22.4179 3.3924 0.8806
-20.6685 -22.3673 3.2703 0.8847
-19.3803 -22.5465 3.1926 0.8873
-17.4686 -21.8642 3.0051 0.8935
-16.5988 -22.3786 2.9919 0.8940
-12.1676 -22.5666 2.7530 0.9020
-11.0556 -22.3940 2.6818 0.9044
-9.1937 -22.5748 2.6174 0.9066
-7.3144 -22.4544 2.5359 0.9094
-6.4172 -22.4019 2.5023 0.9105
-5.5556 -22.4043 2.4787 0.9113
-4.7366 -22.5381 2.4730 0.9115
-3.8750 -22.4090 2.4420 0.9126
-3.0510 -22.4113 2.4288 0.9130
0.1892 -22.5959 2.4265 0.9131
32.7442 -36.8276 5.2917 0.8202
32.9497 -34.4810 5.1214 0.8254
32.5802 -31.7303 4.8835 0.8328
32.8994 -29.8155 4.7677 0.8364
32.9957 -27.8113 4.6339 0.8406
32.6293 -25.5558 4.4506 0.8464
35.5939 -25.8706 4.7251 0.8378
41.4749 -25.8104 5.2456 0.8216
32.8110 -7.7997 3.6215 0.8731
31.3853 -6.2793 3.4370 0.8792
36.9295 -4.6638 3.9971 0.8609
32.2160 -2.8977 3.4734 0.8780
41.7504 13.1630 4.7008 0.8385
37.0905 13.1760 4.2267 0.8536
35.0334 13.8814 4.0465 0.8593
35.0376 15.3608 4.1081 0.8574
28.3409 14.9357 3.4400 0.8791
27.5783 17.1696 3.4884 0.8775
32.6945 23.7727 4.3408 0.8499
28.6050 22.4127 3.9022 0.8640
26.7251 24.2292 3.8736 0.8649
31.9592 35.9584 5.1659 0.8240
-0.4058 14.6269 1.5713 0.9428
-0.9331 14.6390 1.5752 0.9427
-3.0995 14.7345 1.6168 0.9412
-3.6801 14.8288 1.6406 0.9404
-8.2998 13.0481 1.6606 0.9397
-8.9751 13.0500 1.7008 0.9383
-11.2271 13.0563 1.8491 0.9331
-12.0714 13.0586 1.9096 0.9310
-33.4284 -23.1914 3.4441 0.8493
-24.1776 -22.5332 2.7978 0.8758
-20.7848 -22.3670 2.5847 0.8846
-17.5690 -21.8639 2.3744 0.8935
-15.0880 -21.8160 2.2454 0.8990
-13.1283 -22.2414 2.1863 0.9015
-11.1337 -22.3938 2.1171 0.9045
-8.2695 -22.4018 2.0215 0.9086
-7.3660 -22.3993 1.9961 0.9097
-6.4852 -22.4018 1.9742 0.9106
-4.7746 -22.4065 1.9394 0.9121
-3.1150 -22.4111 1.9154 0.9132
-2.2984 -22.4134 1.9073 0.9135
-0.6806 -22.4179 1.8986 0.9139
0.9308 -22.4224 1.8998 0.9139
32.7233 -37.0125 4.1822 0.8201
32.6115 -31.9395 3.8641 0.8326
32.6250 -4.2132 2.7847 0.8763
37.4202 13.1751 3.3583 0.8528
35.0331 13.7677 3.1864 0.8598
35.0191 15.2358 3.2329 0.8579
27.8035 14.5530 2.6566 0.8816
27.1479 15.4766 2.6454 0.8821
30.5011 23.7606 3.2730 0.8562
27.8452 25.1028 3.1736 0.8603
3.7604 24.1187 2.0664 0.9067
0.7446 15.8623 1.3443 0.9382
-0.8269 13.5715 1.1510 0.9469
-1.3176 13.5729 1.1544 0.9467
-1.1791 8.8336 0.7545 0.9649
-2.3221 13.6411 1.1714 0.9460
-6.2289 13.9464 1.2930 0.9405
-7.4746 13.9498 1.3397 0.9384
-9.5357 15.0844 1.5107 0.9309
-10.5939 14.3610 1.5107 0.9309
-11.1028 13.9713 1.5107 0.9309
-12.0836 13.1456 1.5115 0.9308
-12.9406 13.1007 1.5588 0.9287
-16.3997 15.4512 1.9074 0.9135
-17.8393 15.6371 2.0082 0.9092
-19.3125 15.7386 2.1090 0.9048
-20.8005 15.7427 2.2083 0.9006
-22.6476 14.7098 2.2861 0.8973
-35.3379 17.8734 3.3523 0.8530
-37.2090 -3.9760 3.1678 0.8605
-27.5699 -22.3481 3.0043 0.8672
-23.8557 -22.3585 2.7678 0.8770
-20.6685 -22.3673 2.5781 0.8849
-19.3804 -22.5465 2.5168 0.8875
-17.4686 -21.8642 2.3691 0.8937
-16.1785 -21.8119 2.2989 0.8967
-14.9926 -21.8084 2.2403 0.8992
-13.8795 -21.8291 2.1898 0.9014
-12.1676 -22.5665 2.1703 0.9022
-10.0735 -22.3968 2.0789 0.9061
-9.1223 -22.3994 2.0474 0.9075
-8.1983 -22.4020 2.0194 0.9087
-6.4172 -22.4019 1.9727 0.9107
-4.7090 -22.4067 1.9382 0.9122
-3.8750 -22.4090 1.9251 0.9128
-2.2350 -22.4136 1.9068 0.9135
-0.6177 -22.4181 1.8985 0.9139
32.9091 -37.0130 4.1926 0.8197
32.6120 -31.7613 3.8536 0.8330
41.6936 13.1451 3.7007 0.8390
37.0414 13.1585 3.3276 0.8540
29.8441 14.3830 2.8045 0.8755
27.1664 15.5882 2.6514 0.8819
26.4751 17.8331 2.7022 0.8797
30.4085 23.8258 3.2702 0.8564
28.6747 24.1785 3.1751 0.8602
28.4505 27.7189 3.3625 0.8526
3.6912 24.1189 2.0655 0.9067
2.6586 22.8268 1.9454 0.9119
1.8308 22.8291 1.9388 0.9122
-0.8651 13.5716 1.1512 0.9469
-1.3560 13.5730 1.1547 0.9467
-1.2020 8.8166 0.7533 0.9649
-2.3622 13.6454 1.1723 0.9459
-2.8817 13.6990 1.1850 0.9454
-3.4018 13.7074 1.1956 0.9449
-3.9334 13.7215 1.2083 0.9443
-4.4888 13.7712 1.2261 0.9435
-5.0636 13.8282 1.2466 0.9426
-6.2759 13.9465 1.2946 0.9405
-6.8893 13.9482 1.3169 0.9395
-7.5251 13.9500 1.3418 0.9384
-11.6353 13.5310 1.5107 0.9309
-13.0097 13.0970 1.5627 0.9286
-33.4265 -23.1901 2.5224 0.8496
-22.3301 -22.3627 1.9597 0.8810
-20.7848 -22.3670 1.8934 0.8848
-15.2054 -18.9226 1.5053 0.9073
-13.1571 -22.2903 1.6051 0.9015
-4.7667 -22.3692 1.4183 0.9124
-3.1040 -22.3319 1.3981 0.9136
-2.2984 -22.4134 1.3972 0.9137
-1.4877 -22.4156 1.3931 0.9139
0.1249 -22.4201 1.3903 0.9141
2.1854 -4.2755 0.2977 0.9809
32.7233 -37.0125 3.0635 0.8204
32.7830 -29.8778 2.7505 0.8371
32.6289 -25.7034 2.5757 0.8467
41.9218 -26.2518 3.0672 0.8202
32.6222 -4.2128 2.0397 0.8765
32.9446 9.0004 2.1178 0.8721
41.4955 12.9549 2.6956 0.8401
34.6598 13.6210 2.3093 0.8614
34.6141 15.0596 2.3408 0.8596
29.1772 15.2720 2.0422 0.8764
30.1600 17.1937 2.1528 0.8701
34.8655 25.2021 2.6677 0.8416
33.0786 25.7685 2.6002 0.8453
2.7234 22.8266 1.4255 0.9120
0.7446 15.8623 0.9847 0.9383
0.1491 13.5688 0.8415 0.9471
-0.3384 13.5701 0.8418 0.9471
-0.8269 13.5715 0.8431 0.9470
-1.3176 13.5729 0.8456 0.9468
-1.1789 8.8322 0.5526 0.9649
-2.3109 13.5756 0.8539 0.9463
-2.8163 13.5770 0.8598 0.9459
-3.3294 13.5784 0.8669 0.9455
-4.3848 13.5814 0.8850 0.9444
-6.0471 14.9602 1.0006 0.9374
-6.2289 13.9464 0.9472 0.9406
-11.2109 17.7342 1.3010 0.9194
-12.1253 17.7368 1.3323 0.9175
-12.9167 17.5099 1.3493 0.9165
-13.2090 16.6218 1.3165 0.9184
-13.2123 15.4523 1.2607 0.9218
-16.8645 15.8891 1.4368 0.9113
-16.2196 14.2173 1.3375 0.9172
-17.7274 14.4468 1.4181 0.9124
-21.0429 14.7683 1.5942 0.9021
-23.8557 -22.3585 2.0275 0.8772
-22.2055 -22.3631 1.9543 0.8813
-16.2628 -18.9196 1.5471 0.9049
-15.1185 -18.9228 1.5019 0.9075
-14.9382 -20.1397 1.5549 0.9044
-15.0847 -21.9424 1.6512 0.8988
-13.1238 -22.3769 1.6086 0.9013
-11.0556 -22.3940 1.5487 0.9048
-9.1223 -22.3994 1.4998 0.9076
-7.2965 -22.3995 1.4608 0.9099
-6.4172 -22.4019 1.4450 0.9108
-3.0510 -22.4113 1.4026 0.9133
-2.2350 -22.4136 1.3968 0.9137
-0.6177 -22.4181 1.3907 0.9140
0.1877 -22.4203 1.3903 0.9141
1.8027 -22.4248 1.3951 0.9138
32.8828 -36.9834 3.0688 0.8201
33.3476 -34.8974 2.9932 0.8241
32.9719 -29.8812 2.7593 0.8367
32.8083 -27.6533 2.6607 0.8420
49.6861 -2.6749 3.0855 0.8192
47.0075 12.9842 3.0241 0.8225
41.1172 12.9634 2.6734 0.8413
35.8367 12.7306 2.3583 0.8586
34.6564 13.7320 2.3116 0.8612
34.6103 15.1735 2.3434 0.8595
34.8641 25.3502 2.6730 0.8413
2.6586 22.8268 1.4251 0.9120
1.8308 22.8291 1.4202 0.9123
0.7001 15.8624 0.9846 0.9383
0.1111 13.5689 0.8414 0.9471
-0.3765 13.5702 0.8418 0.9470
-1.3560 13.5730 0.8459 0.9468
-1.2018 8.8157 0.5517 0.9650
-2.8561 13.5771 0.8603 0.9459
-4.4270 13.5815 0.8858 0.9444
-4.9738 13.5830 0.8970 0.9437
-6.8893 13.9482 0.9647 0.9396
-10.3072 17.5667 1.2630 0.9216
-12.9170 17.4079 1.3442 0.9168
-13.2093 16.5267 1.3120 0.9187
-13.2125 15.3651 1.2566 0.9220
-12.9422 14.0006 1.1823 0.9264
-33.4246 -23.1888 1.6041 0.8497
-27.7279 -22.3477 1.4042 0.8671
-24.1304 -22.4892 1.3006 0.8763
-15.2054 -18.9226 0.9572 0.9074
-13.9604 -20.1855 0.9677 0.9064
-13.9650 -21.8282 1.0218 0.9015
-9.2180 -22.4541 0.9571 0.9074
-8.2695 -22.4018 0.9416 0.9088
-5.6223 -22.4042 0.9108 0.9117
-4.7968 -22.5107 0.9075 0.9120
-3.9232 -22.3152 0.8934 0.9133
-3.1040 -22.3319 0.8890 0.9137
0.1256 -22.5516 0.8892 0.9137
2.1854 -4.2754 0.1893 0.9810
2.3468 -4.2108 0.1901 0.9809
32.6115 -31.9395 1.7999 0.8330
32.9103 -29.9938 1.7558 0.8367
32.6289 -25.7034 1.6378 0.8468
32.6205 -4.2126 1.2969 0.8766
32.9428 8.9999 1.3466 0.8722
37.4202 13.1751 1.5643 0.8532
35.0415 16.7669 1.5317 0.8560
35.1770 18.4125 1.5656 0.8530
35.1816 20.0564 1.5968 0.8503
35.1864 21.7695 1.6315 0.8474
35.0653 25.3465 1.7061 0.8410
35.0708 27.3204 1.7530 0.8370
0.7446 15.8623 0.6262 0.9384
0.1743 15.8639 0.6256 0.9385
-0.3956 15.8655 0.6258 0.9384
-1.5404 15.8686 0.6287 0.9382
-2.7018 15.8719 0.6348 0.9376
-3.2927 15.8735 0.6392 0.9372
-3.8925 15.8752 0.6445 0.9367
-4.5031 15.8769 0.6507 0.9361
-5.1265 15.8786 0.6579 0.9354
-5.7646 15.8804 0.6662 0.9346
-7.4746 13.9498 0.6240 0.9386
-10.2409 17.5665 0.8018 0.9218
-11.2108 17.7342 0.8273 0.9194
-12.1253 17.7368 0.8472 0.9176
-12.9263 14.0623 0.7532 0.9264
-13.7916 13.9622 0.7738 0.9244
-16.8645 15.8891 0.9136 0.9114
-16.6344 13.5560 0.8461 0.9177
-19.3262 13.5635 0.9310 0.9098
-27.5699 -22.3481 1.3994 0.8676
-15.1185 -18.9228 0.9550 0.9076
-14.0378 -18.9258 0.9291 0.9100
-12.1676 -22.5665 1.0109 0.9025
-11.0557 -22.3940 0.9848 0.9049
-5.5556 -22.4043 0.9102 0.9117
-4.7309 -22.5109 0.9070 0.9120
-3.8685 -22.3717 0.8952 0.9131
-1.4246 -22.4158 0.8857 0.9140
-0.6177 -22.4181 0.8843 0.9141
1.8027 -22.4248 0.8871 0.9139
2.1897 -4.2543 0.1887 0.9810
32.8887 -36.9900 1.9517 0.8203
38.1817 -25.7080 1.8150 0.8317
32.9941 9.1135 1.3497 0.8719
37.0905 13.1760 1.5521 0.8542
35.0335 13.8814 1.4859 0.8600
35.0418 16.8880 1.5338 0.8558
30.0014 17.2149 1.3639 0.8707
35.0605 23.6161 1.6668 0.8443
35.0712 27.4792 1.7568 0.8366
34.9803 31.7134 1.8618 0.8278
0.7001 15.8624 0.6261 0.9384
0.1298 15.8640 0.6256 0.9385
-1.0114 15.8672 0.6269 0.9383
-4.5513 15.8770 0.6513 0.9360
-5.1758 15.8787 0.6585 0.9353
-5.8151 15.8805 0.6668 0.9345
-6.8893 13.9482 0.6134 0.9396
-7.5251 13.9500 0.6250 0.9385
-12.1985 17.7370 0.8488 0.9174
-13.8694 13.9624 0.7760 0.9242
-33.4207 -23.1861 0.6871 0.8498
-27.7279 -22.3477 0.6016 0.8672
-25.7818 -22.3531 0.5764 0.8724
-24.1776 -22.5332 0.5583 0.8761
-16.5881 -22.2337 0.4686 0.8950
-13.1386 -22.2590 0.4366 0.9018
-12.2493 -22.5663 0.4337 0.9024
-11.1337 -22.3938 0.4224 0.9048
-10.1490 -22.3966 0.4153 0.9063
-9.2180 -22.4541 0.4100 0.9075
-8.2695 -22.4018 0.4034 0.9089
-6.5359 -22.5772 0.3970 0.9103
-5.6223 -22.4042 0.3902 0.9117
-3.9232 -22.3152 0.3827 0.9133
-3.1040 -22.3319 0.3809 0.9137
-2.3164 -22.5890 0.3836 0.9132
-0.6806 -22.4179 0.3789 0.9142
0.1256 -22.5516 0.3809 0.9137
0.9381 -22.5979 0.3820 0.9135
1.7394 -22.4246 0.3799 0.9139
2.1854 -4.2754 0.0811 0.9810
32.9124 -29.9958 0.7522 0.8368
37.9972 -25.7389 0.7753 0.8323
32.9426 8.9999 0.5769 0.8723
42.9523 13.4097 0.7601 0.8353
35.2873 13.8676 0.6404 0.8593
35.6614 17.0635 0.6678 0.8537
35.1770 18.4125 0.6707 0.8531
35.1913 23.5610 0.7154 0.8441
35.2130 27.4312 0.7540 0.8365
4.6227 17.2087 0.3010 0.9312
0.5848 12.4568 0.2106 0.9513
-1.1785 8.8294 0.1505 0.9650
-3.2927 15.8735 0.2738 0.9372
-4.4646 12.2992 0.2210 0.9490
-6.0471 14.9602 0.2726 0.9375
-7.4746 13.9498 0.2673 0.9386
-8.3575 12.2252 0.2501 0.9425
-12.9167 17.5099 0.3675 0.9166
-10.5684 12.3602 0.2747 0.9370
-13.7916 13.9622 0.3315 0.9245
-18.1309 15.8926 0.4073 0.9081
-21.0091 15.9006 0.4451 0.9000
-33.2616 23.3437 0.6864 0.8500
-25.6367 -22.3535 0.5745 0.8728
-22.2600 -22.4179 0.5336 0.8813
-20.6685 -22.3673 0.5144 0.8853
-16.5885 -22.3647 0.4704 0.8946
-15.5074 -22.5573 0.4624 0.8963
-13.0922 -22.3231 0.4372 0.9016
-11.0556 -22.3940 0.4219 0.9049
-10.0735 -22.3968 0.4148 0.9064
-9.1446 -22.4543 0.4095 0.9076
-8.1983 -22.4020 0.4030 0.9090
-7.3459 -22.5510 0.4007 0.9095
-5.5556 -22.4043 0.3899 0.9118
-0.6177 -22.4181 0.3788 0.9142
0.1892 -22.5959 0.3817 0.9136
1.8027 -22.4248 0.3800 0.9139
2.1896 -4.2543 0.0808 0.9810
32.6293 -25.5558 0.7001 0.8472
38.1817 -25.7080 0.7775 0.8318
32.9935 9.1133 0.5782 0.8720
42.5363 13.4108 0.7534 0.8366
37.6383 13.3706 0.6747 0.8523
35.5883 17.1514 0.6673 0.8538
30.0570 17.2468 0.5854 0.8705
35.2025 27.5820 0.7554 0.8362
2.0402 13.3308 0.2278 0.9475
1.0238 12.7658 0.2163 0.9501
0.5469 12.3925 0.2095 0.9516
0.1014 12.3830 0.2092 0.9517
-0.4402 15.8656 0.2681 0.9385
-1.5854 15.8688 0.2694 0.9382
-1.2016 8.8138 0.1503 0.9650
-2.1413 12.3694 0.2120 0.9510
-4.5272 12.3633 0.2224 0.9487
-6.0474 14.8411 0.2707 0.9379
-6.2759 13.9465 0.2583 0.9407
-7.5251 13.9500 0.2677 0.9386
-7.9390 12.4809 0.2499 0.9425
-13.2093 16.5267 0.3574 0.9188
-10.6248 12.3558 0.2753 0.9369
-12.9422 14.0006 0.3221 0.9266
-33.4169 -23.1834 -0.2290 0.8499
-24.1776 -22.5332 -0.1861 0.8762
-22.3762 -22.4088 -0.1783 0.8810
-20.7848 -22.3670 -0.1719 0.8850
-19.4903 -22.5462 -0.1678 0.8876
-17.5690 -21.8639 -0.1579 0.8939
-16.5881 -22.2337 -0.1562 0.8950
-15.6005 -22.5570 -0.1544 0.8961
-13.1386 -22.2589 -0.1455 0.9018
-11.1338 -22.3938 -0.1408 0.9048
-9.2675 -22.5746 -0.1374 0.9070
-8.2696 -22.4018 -0.1344 0.9089
-1.4964 -22.5470 -0.1272 0.9136
-0.6806 -22.4179 -0.1263 0.9142
0.1256 -22.5516 -0.1270 0.9137
0.9381 -22.5979 -0.1273 0.9135
1.7394 -22.4246 -0.1266 0.9140
2.1854 -4.2754 -0.0270 0.9810
32.7233 -37.0125 -0.2782 0.8207
32.9145 -29.9977 -0.2507 0.8368
32.6289 -25.7034 -0.2339 0.8469
32.6201 -4.2125 -0.1852 0.8767
45.3251 8.9451 -0.2602 0.8313
42.9523 13.4097 -0.2533 0.8353
37.9778 13.3714 -0.2267 0.8512
35.2873 13.8676 -0.2135 0.8593
35.9981 15.6617 -0.2210 0.8547
35.6614 17.0635 -0.2226 0.8537
34.1375 17.8684 -0.2169 0.8572
35.1913 23.5610 -0.2384 0.8442
35.1966 25.4414 -0.2445 0.8405
30.0875 27.1243 -0.2281 0.8504
2.5162 13.0422 -0.0748 0.9483
2.0162 12.9315 -0.0737 0.9490
-0.3002 12.0375 -0.0678 0.9530
-1.1783 8.8280 -0.0501 0.9650
-2.4808 11.9596 -0.0688 0.9523
-2.9885 12.1881 -0.0707 0.9510
-3.4360 12.1144 -0.0709 0.9509
-4.4121 12.1543 -0.0728 0.9496
-4.8696 12.0471 -0.0732 0.9494
-6.0080 12.2503 -0.0768 0.9469
-7.6221 12.0573 -0.0803 0.9445
-8.2878 12.1233 -0.0827 0.9429
-11.0587 12.0306 -0.0920 0.9367
-12.6487 11.9171 -0.0978 0.9328
-13.8534 12.1432 -0.1037 0.9290
-15.9746 12.0902 -0.1128 0.9230
-19.8421 11.8968 -0.1303 0.9116
-27.5699 -22.3481 -0.1998 0.8677
-25.6367 -22.3535 -0.1915 0.8728
-23.8557 -22.3585 -0.1841 0.8774
-22.3408 -22.4993 -0.1785 0.8809
-20.6685 -22.3673 -0.1715 0.8853
-19.3803 -22.5465 -0.1674 0.8879
-16.5885 -22.3647 -0.1568 0.8946
-13.9081 -21.8741 -0.1460 0.9015
-13.0922 -22.3231 -0.1457 0.9017
-12.1676 -22.5665 -0.1443 0.9025
-10.0735 -22.3968 -0.1383 0.9064
-9.1937 -22.5748 -0.1372 0.9071
-8.1983 -22.4020 -0.1343 0.9090
-5.5556 -22.4043 -0.1300 0.9118
-3.8685 -22.3717 -0.1278 0.9132
-2.2525 -22.5891 -0.1278 0.9132
-1.4246 -22.4158 -0.1265 0.9141
0.1892 -22.5959 -0.1272 0.9136
0.9997 -22.5540 -0.1271 0.9137
2.1896 -4.2542 -0.0269 0.9810
32.8818 -36.9823 -0.2786 0.8204
33.1118 -30.0079 -0.2516 0.8363
32.6293 -25.5558 -0.2334 0.8472
42.5363 13.4108 -0.2511 0.8366
37.6383 13.3706 -0.2249 0.8523
35.2876 13.9821 -0.2137 0.8591
36.0133 15.7886 -0.2214 0.8545
30.0426 17.2385 -0.1950 0.8706
34.4722 21.4616 -0.2286 0.8501
35.2025 27.5820 -0.2518 0.8362
3.6646 13.7964 -0.0804 0.9445
2.5110 13.2141 -0.0757 0.9476
1.9779 12.9240 -0.0736 0.9490
1.0061 12.5454 -0.0709 0.9509
0.5460 12.3706 -0.0697 0.9517
0.0985 12.0349 -0.0678 0.9530
-0.3344 12.0529 -0.0679 0.9529
-2.6633 12.6607 -0.0728 0.9496
-3.0611 12.3346 -0.0716 0.9504
-5.4206 12.0457 -0.0744 0.9485
-6.0349 12.2183 -0.0767 0.9469
-6.4983 12.0466 -0.0771 0.9467
-7.6659 12.0515 -0.0804 0.9445
-8.3349 12.1191 -0.0828 0.9429
-12.1881 12.2699 -0.0974 0.9332
-23.9059 -22.2800 -0.9202 0.8774
-19.2175 -22.2306 -0.8274 0.8891
-15.6005 -22.5570 -0.7723 0.8961
-14.1139 -22.0609 -0.7374 0.9005
-11.0543 -22.2341 -0.6992 0.9054
-9.1479 -22.2832 -0.6783 0.9081
-5.6086 -22.3497 -0.6488 0.9119
-4.7968 -22.5107 -0.6481 0.9120
-3.9335 -22.3736 -0.6397 0.9131
-2.2961 -22.3905 -0.6338 0.9139
1.7378 -22.4038 -0.6327 0.9140
32.7233 -37.0125 -1.3911 0.8206
32.2965 -31.6309 -1.2729 0.8345
32.8519 -29.9406 -1.2516 0.8371
32.6289 -25.7035 -1.1696 0.8469
39.3036 -24.6123 -1.3058 0.8306
47.7035 -2.7024 -1.3454 0.8260
45.2334 8.9270 -1.2982 0.8315
35.0370 13.7692 -1.0600 0.8602
35.9981 15.6617 -1.1054 0.8546
35.6149 17.0413 -1.1117 0.8539
33.7933 17.6882 -1.0740 0.8584
33.6590 20.8245 -1.1145 0.8535
34.4087 24.8719 -1.1955 0.8438
34.9806 27.2502 -1.2486 0.8374
5.3009 17.2373 -0.5078 0.9304
2.5341 13.1347 -0.3767 0.9479
1.4981 12.5560 -0.3561 0.9507
1.0357 12.4760 -0.3525 0.9511
0.1321 12.0193 -0.3385 0.9530
-0.2986 11.9760 -0.3373 0.9532
-1.1821 12.1774 -0.3445 0.9522
-4.3391 11.9534 -0.3581 0.9504
-4.8932 12.1056 -0.3677 0.9491
-5.2775 11.8161 -0.3644 0.9495
-5.8483 11.9245 -0.3740 0.9482
-7.0492 12.0917 -0.3941 0.9455
-7.4777 11.8288 -0.3940 0.9455
-8.1342 11.8987 -0.4058 0.9440
-9.4397 11.8785 -0.4272 0.9411
-10.1516 11.8727 -0.4399 0.9394
-10.9480 11.9102 -0.4555 0.9373
-11.8086 11.9547 -0.4731 0.9350
-14.6000 11.8982 -0.5303 0.9274
-19.6532 11.7836 -0.6452 0.9124
-33.3692 -23.2892 -1.1458 0.8497
-27.5380 -22.3223 -0.9982 0.8677
-25.5742 -22.2990 -0.9554 0.8730
-23.7703 -22.2785 -0.9173 0.8778
-20.5546 -22.2440 -0.8528 0.8859
-13.9081 -21.8741 -0.7299 0.9015
-8.1614 -22.3010 -0.6687 0.9093
-7.2705 -22.3196 -0.6610 0.9103
-3.8690 -22.3744 -0.6394 0.9131
-3.0473 -22.3835 -0.6361 0.9136
-1.4233 -22.3968 -0.6319 0.9141
-0.6172 -22.4009 -0.6310 0.9142
0.1876 -22.4035 -0.6309 0.9142
0.9930 -22.4044 -0.6315 0.9142
1.8010 -22.4037 -0.6329 0.9140
2.1896 -4.2542 -0.1347 0.9810
32.8272 -27.6692 -1.2089 0.8421
37.1238 -26.9825 -1.2923 0.8322
38.1355 -25.6769 -1.2945 0.8320
49.3894 -2.6590 -1.3927 0.8204
32.9924 9.1130 -0.9638 0.8720
35.2148 12.5096 -1.0523 0.8611
30.0752 17.2572 -0.9764 0.8704
33.6593 20.9555 -1.1164 0.8533
34.2388 24.8955 -1.1920 0.8442
5.2434 17.2218 -0.5069 0.9305
2.4993 13.1525 -0.3770 0.9478
0.5427 12.2974 -0.3466 0.9519
0.0999 12.2015 -0.3436 0.9523
-0.3316 11.9516 -0.3367 0.9533
-0.7672 12.0362 -0.3396 0.9529
-2.0550 11.8706 -0.3392 0.9529
-2.9974 12.0781 -0.3504 0.9514
-4.3595 11.9053 -0.3570 0.9505
-5.3518 11.8928 -0.3672 0.9492
-5.8798 11.9042 -0.3739 0.9483
-7.0780 12.0633 -0.3938 0.9456
-8.1641 11.8708 -0.4057 0.9440
-11.8324 11.9118 -0.4728 0.9350
-35.9249 -16.3425 -2.0016 0.8538
-35.3148 -17.6221 -2.0016 0.8538
-34.6592 -18.8790 -2.0016 0.8538
-30.6890 -19.6970 -1.8494 0.8641
-29.9618 -20.7865 -1.8494 0.8641
-29.1960 -21.8491 -1.8494 0.8641
-27.7279 -22.3477 -1.8061 0.8671
-25.7818 -22.3531 -1.7305 0.8723
-23.9897 -22.3581 -1.6631 0.8769
-22.3301 -22.3627 -1.6027 0.8811
-16.5881 -22.2337 -1.4068 0.8948
-15.6005 -22.5570 -1.3909 0.8960
-14.0709 -21.9937 -1.3241 0.9007
-13.1571 -22.2903 -1.3127 0.9015
-11.1337 -22.3938 -1.2683 0.9047
-9.1955 -22.3992 -1.2280 0.9076
-8.2696 -22.4018 -1.2110 0.9088
-6.4852 -22.4018 -1.1827 0.9108
-3.9397 -22.4088 -1.1539 0.9129
-3.1150 -22.4111 -1.1475 0.9134
0.1249 -22.4201 -1.1370 0.9141
5.4224 -36.0609 -1.8494 0.8641
6.7140 -35.8429 -1.8494 0.8641
8.6549 -38.5067 -2.0016 0.8538
11.3965 -37.7862 -2.0016 0.8538
12.7462 -37.3525 -2.0016 0.8538
21.6386 -33.0067 -2.0016 0.8538
25.0630 -30.4880 -2.0016 0.8538
26.1418 -29.5683 -2.0016 0.8538
26.9504 -28.3617 -1.9842 0.8550
26.9741 -26.4182 -1.9148 0.8597
28.6457 -22.5657 -1.8494 0.8641
30.1916 -20.4514 -1.8494 0.8641
31.5816 -18.2315 -1.8494 0.8641
33.6448 -16.3232 -1.8965 0.8609
36.0442 -15.9146 -1.9982 0.8540
38.0152 -10.6074 -2.0016 0.8538
38.3717 -9.2353 -2.0016 0.8538
38.6786 -7.8514 -2.0016 0.8538
32.4745 -4.1937 -1.6606 0.8771
39.1683 -2.2189 -1.9896 0.8546
39.4590 -0.8157 -2.0016 0.8538
39.4628 0.6019 -2.0016 0.8538
39.4157 2.0187 -2.0016 0.8538
39.1692 4.8427 -2.0016 0.8538
38.9700 6.2462 -2.0016 0.8538
33.4386 14.5482 -1.8494 0.8641
32.8946 15.7396 -1.8494 0.8641
31.0109 19.1862 -1.8494 0.8641
30.3019 20.2875 -1.8494 0.8641
29.5538 21.3626 -1.8494 0.8641
27.9442 23.4288 -1.8494 0.8641
27.2691 24.5834 -1.8619 0.8633
27.2457 28.3632 -1.9946 0.8543
25.2278 30.3518 -2.0016 0.8538
16.8831 35.6740 -2.0016 0.8538
14.2789 36.7939 -2.0016 0.8538
5.2342 17.0204 -0.9031 0.9312
1.0185 12.2679 -0.6243 0.9519
-0.7340 12.0481 -0.6121 0.9528
-1.1468 11.8136 -0.6019 0.9536
-2.9654 12.0939 -0.6315 0.9514
-3.3847 11.9336 -0.6291 0.9515
-5.8103 11.8471 -0.6692 0.9485
-8.7907 11.9167 -0.7510 0.9424
-9.3758 11.7982 -0.7643 0.9414
-10.0855 11.7954 -0.7871 0.9397
-10.9608 11.9241 -0.8214 0.9372
-13.5711 11.8957 -0.9152 0.9303
-21.5551 11.8930 -1.2485 0.9061
-23.1378 11.7028 -1.3150 0.9014
-37.4065 12.5868 -2.0016 0.8538
-37.8344 11.2354 -2.0016 0.8538
-38.8233 7.1010 -2.0016 0.8538
-39.0533 5.7022 -2.0016 0.8538
-39.4401 1.4689 -2.0016 0.8538
-39.4674 0.0516 -2.0016 0.8538
-39.3693 -2.7814 -2.0016 0.8538
-39.2440 -4.1935 -2.0016 0.8538
-39.0681 -5.6001 -2.0016 0.8538
-38.5653 -8.3899 -2.0016 0.8538
-37.8636 -11.1364 -2.0016 0.8538
-37.4393 -12.4890 -2.0016 0.8538
-36.9666 -13.8255 -2.0016 0.8538
-35.8789 -16.4432 -2.0016 0.8538
-35.2653 -17.7211 -2.0016 0.8538
-33.9023 -20.2067 -2.0016 0.8538
-30.6337 -19.7830 -1.8494 0.8641
-29.9035 -20.8704 -1.8494 0.8641
-27.5699 -22.3481 -1.7998 0.8675
-25.6367 -22.3535 -1.7250 0.8726
-23.8557 -22.3585 -1.6581 0.8773
-22.2055 -22.3631 -1.5983 0.8814
-17.4686 -21.8642 -1.4193 0.8940
-13.9081 -21.8741 -1.3146 0.9014
-12.0731 -22.3912 -1.2901 0.9031
-11.0556 -22.3940 -1.2666 0.9048
-9.1223 -22.3994 -1.2266 0.9077
-8.1983 -22.4020 -1.2098 0.9089
-4.7309 -22.5109 -1.1666 0.9120
-3.8750 -22.4090 -1.1533 0.9129
-3.0510 -22.4113 -1.1471 0.9134
-2.2350 -22.4136 -1.1423 0.9137
-1.4246 -22.4158 -1.1391 0.9140
-0.6177 -22.4181 -1.1373 0.9141
0.9581 -21.6165 -1.0973 0.9170
1.8026 -22.4248 -1.1409 0.9138
5.5235 -36.0455 -1.8494 0.8641
10.1392 -38.1428 -2.0016 0.8538
12.8508 -37.3166 -2.0016 0.8538
14.1827 -36.8311 -2.0016 0.8538
15.4962 -36.2980 -2.0016 0.8538
16.7898 -35.7181 -2.0016 0.8538
19.3102 -34.4208 -2.0016 0.8538
21.7311 -32.9459 -2.0016 0.8538
22.9002 -32.1443 -2.0016 0.8538
24.0398 -31.3012 -2.0016 0.8538
25.1484 -30.4176 -2.0016 0.8538
26.9759 -26.2722 -1.9097 0.8600
27.0209 -24.4880 -1.8494 0.8641
27.8829 -23.5018 -1.8494 0.8641
29.4979 -21.4398 -1.8494 0.8641
30.2488 -20.3667 -1.8494 0.8641
31.6326 -18.1429 -1.8494 0.8641
32.2638 -16.9952 -1.8494 0.8641
33.8136 -16.2882 -1.9034 0.8604
36.1160 -15.8254 -1.9997 0.8539
38.0448 -10.5008 -2.0016 0.8538
38.3974 -9.1277 -2.0016 0.8538
38.7004 -7.7429 -2.0016 0.8538
34.7140 -3.1224 -1.7676 0.8697
39.4103 -2.1217 -2.0016 0.8538
39.4611 -0.7051 -2.0016 0.8538
39.4610 0.7126 -2.0016 0.8538
39.4099 2.1292 -2.0016 0.8538
39.3080 3.5431 -2.0016 0.8538
39.1554 4.9525 -2.0016 0.8538
34.7787 10.9650 -1.8494 0.8641
34.3625 12.2069 -1.8494 0.8641
33.9019 13.4330 -1.8494 0.8641
33.3977 14.6419 -1.8494 0.8641
32.2606 17.0013 -1.8494 0.8641
29.6401 17.0076 -1.7331 0.8721
30.9570 19.2731 -1.8494 0.8641
29.4938 21.4454 -1.8494 0.8641
27.8784 23.5071 -1.8494 0.8641
27.2675 26.5662 -1.9307 0.8586
24.0339 31.3057 -2.0016 0.8538
22.8941 32.1486 -2.0016 0.8538
21.7248 32.9501 -2.0016 0.8538
20.5275 33.7090 -2.0016 0.8538
18.0550 35.0955 -2.0016 0.8538
16.7830 35.7212 -2.0016 0.8538
15.4893 36.3009 -2.0016 0.8538
3.5902 13.5163 -0.7092 0.9455
3.0313 13.3236 -0.6930 0.9467
1.9845 12.9669 -0.6653 0.9488
1.4697 12.6188 -0.6443 0.9504
0.9878 12.3175 -0.6267 0.9517
0.5311 12.0333 -0.6109 0.9529
-1.2012 8.8109 -0.4510 0.9650
-2.4753 11.7671 -0.6098 0.9530
-2.9960 12.0722 -0.6308 0.9514
-3.9106 11.9975 -0.6400 0.9507
-4.4383 12.1205 -0.6546 0.9496
-5.3190 11.8199 -0.6573 0.9494
-6.3645 11.7986 -0.6799 0.9477
-7.5424 11.8575 -0.7127 0.9453
-8.0992 11.7764 -0.7248 0.9444
-8.8822 11.9704 -0.7559 0.9420
-9.3832 11.7398 -0.7622 0.9416
-10.1041 11.7502 -0.7859 0.9398
-23.9725 -13.0579 -2.0016 0.8963
-22.4290 -15.5605 -2.0016 0.8963
-20.0818 -16.1853 -1.8911 0.9017
-19.0571 -16.5227 -1.8494 0.9038
-17.8219 -17.8479 -1.8494 0.9038
-15.0827 -20.2159 -1.8494 0.9038
-12.8210 -21.7208 -1.8494 0.9038
-11.1337 -22.3938 -1.8337 0.9046
-10.1490 -22.3966 -1.8029 0.9061
-5.4422 -16.5491 -1.2773 0.9325
-6.4852 -22.4018 -1.7100 0.9107
-5.6223 -22.4042 -1.6937 0.9115
-0.6806 -22.4179 -1.6445 0.9140
0.1249 -22.4201 -1.6439 0.9140
0.8956 -21.5749 -1.5833 0.9170
2.8523 -25.0606 -1.8494 0.9038
3.7506 -24.9420 -1.8494 0.9038
5.5313 -24.6084 -1.8494 0.9038
6.4113 -24.3940 -1.8494 0.9038
8.8161 -25.8354 -2.0016 0.8963
11.5435 -24.7374 -2.0016 0.8963
2.1853 -4.2753 -0.3520 0.9809
2.3466 -4.2105 -0.3535 0.9809
14.1371 -23.3523 -2.0016 0.8963
14.9667 -22.8296 -2.0016 0.8963
15.7769 -22.2774 -2.0016 0.8963
16.5667 -21.6964 -2.0016 0.8963
18.0813 -20.4513 -2.0016 0.8963
18.8041 -19.7888 -2.0016 0.8963
20.1760 -18.3880 -2.0016 0.8963
21.4438 -16.8924 -2.0016 0.8963
22.0366 -16.1114 -2.0016 0.8963
24.1165 -12.7901 -2.0016 0.8963
24.9723 -11.0260 -2.0016 0.8963
25.3522 -10.1221 -2.0016 0.8963
26.0133 -8.2763 -2.0016 0.8963
26.2938 -7.3368 -2.0016 0.8963
26.9303 -4.4663 -2.0016 0.8963
27.0734 -3.4962 -2.0016 0.8963
27.2950 0.4163 -2.0016 0.8963
27.2624 1.3963 -2.0016 0.8963
27.0919 3.3495 -2.0016 0.8963
26.9541 4.3203 -2.0016 0.8963
25.0317 10.8906 -2.0016 0.8963
23.7152 13.5196 -2.0016 0.8963
23.2144 14.3625 -2.0016 0.8963
22.6836 15.1870 -2.0016 0.8963
20.2753 18.2785 -2.0016 0.8963
11.6774 24.6744 -2.0016 0.8963
9.8762 25.4490 -2.0016 0.8963
8.2749 23.8264 -1.8494 0.9038
5.2350 17.0229 -1.3058 0.9311
3.6425 13.5599 -1.0295 0.9452
2.5133 13.0271 -0.9728 0.9482
1.9916 12.7735 -0.9479 0.9495
1.5069 12.6303 -0.9327 0.9503
0.5736 12.2195 -0.8969 0.9521
-0.2992 11.9991 -0.8801 0.9530
-0.7245 11.8912 -0.8735 0.9533
-1.1662 12.0139 -0.8850 0.9527
-1.1779 8.8245 -0.6528 0.9649
-2.9423 11.9999 -0.9059 0.9517
-3.3648 11.8633 -0.9042 0.9517
-5.2382 11.7282 -0.9418 0.9498
-6.9811 11.9748 -1.0163 0.9459
-7.4604 11.8015 -1.0237 0.9455
-8.1313 11.8944 -1.0564 0.9439
-9.4102 11.8415 -1.1090 0.9411
-12.5456 11.8199 -1.2638 0.9332
-16.4097 11.5166 -1.4699 0.9227
-17.7449 11.5254 -1.5514 0.9186
-19.2390 11.5352 -1.6448 0.9140
-22.5073 11.3839 -1.8494 0.9038
-23.6011 8.8972 -1.8494 0.9038
-24.5208 8.2510 -1.8970 0.9014
-26.1687 7.7711 -2.0016 0.8963
-26.4309 6.8263 -2.0016 0.8963
-26.6590 5.8727 -2.0016 0.8963
-27.1360 2.9714 -2.0016 0.8963
-27.2793 1.0160 -2.0016 0.8963
-27.2818 -0.9447 -2.0016 0.8963
-25.0701 -3.5936 -1.8570 0.9034
-24.9248 -4.4916 -1.8570 0.9034
-25.5794 -5.5648 -1.9194 0.9003
-26.4486 -6.7572 -2.0016 0.8963
-26.1889 -7.7027 -2.0016 0.8963
-25.5685 -9.5626 -2.0016 0.8963
-24.3917 -12.2570 -2.0016 0.8963
-23.9358 -13.1251 -2.0016 0.8963
-23.4490 -13.9762 -2.0016 0.8963
-22.9320 -14.8093 -2.0016 0.8963
-22.3853 -15.6233 -2.0016 0.8963
-19.9685 -16.1864 -1.8847 0.9020
-18.4031 -17.2481 -1.8494 0.9038
-17.7718 -17.8979 -1.8494 0.9038
-16.4413 -19.1273 -1.8494 0.9038
-15.7438 -19.7054 -1.8494 0.9038
-15.0260 -20.2581 -1.8494 0.9038
-14.2888 -20.7846 -1.8494 0.9038
-12.7600 -21.7566 -1.8494 0.9038
-5.3949 -16.5616 -1.2771 0.9325
-6.4172 -22.4019 -1.7086 0.9108
-5.5556 -22.4043 -1.6925 0.9116
-4.6386 -22.0717 -1.6537 0.9135
-3.0510 -22.4113 -1.6584 0.9133
-0.6177 -22.4181 -1.6444 0.9140
0.9582 -21.6193 -1.5867 0.9169
1.8027 -22.4248 -1.6495 0.9137
3.8205 -24.9314 -1.8494 0.9038
4.7133 -24.7781 -1.8494 0.9038
6.4796 -24.3759 -1.8494 0.9038
2.1896 -4.2541 -0.3508 0.9810
13.3562 -23.8076 -2.0016 0.8963
17.3942 -21.0388 -2.0016 0.8963
18.1386 -20.4005 -2.0016 0.8963
18.8595 -19.7360 -2.0016 0.8963
19.5561 -19.0460 -2.0016 0.8963
21.4911 -16.8322 -2.0016 0.8963
24.5936 -11.8468 -2.0016 0.8963
25.0031 -10.9560 -2.0016 0.8963
26.0364 -8.2033 -2.0016 0.8963
26.3142 -7.2630 -2.0016 0.8963
26.7677 -5.3555 -2.0016 0.8963
27.0830 -3.4203 -2.0016 0.8963
27.2587 -1.4675 -2.0016 0.8963
27.2937 0.4928 -2.0016 0.8963
27.2584 1.4727 -2.0016 0.8963
26.9419 4.3958 -2.0016 0.8963
26.7667 5.3606 -2.0016 0.8963
26.5569 6.3183 -2.0016 0.8963
26.3129 7.2680 -2.0016 0.8963
26.0349 8.2083 -2.0016 0.8963
25.0011 10.9607 -2.0016 0.8963
24.1498 12.7270 -2.0016 0.8963
21.4879 16.8363 -2.0016 0.8963
20.8694 17.5971 -2.0016 0.8963
19.5525 19.0497 -2.0016 0.8963
18.1347 20.4040 -2.0016 0.8963
17.3903 21.0421 -2.0016 0.8963
16.6234 21.6530 -2.0016 0.8963
15.0263 22.7904 -2.0016 0.8963
12.4880 24.2743 -2.0016 0.8963
11.6082 24.7071 -2.0016 0.8963
10.7134 25.1080 -2.0016 0.8963
9.8048 25.4766 -2.0016 0.8963
4.9274 16.1841 -1.2404 0.9344
3.5804 13.4794 -1.0226 0.9456
1.4685 12.6089 -0.9308 0.9504
0.0988 12.0739 -0.8853 0.9527
-0.3322 11.9744 -0.8783 0.9531
-0.7646 11.9959 -0.8813 0.9529
-2.0585 11.8908 -0.8848 0.9528
-4.3571 11.8988 -0.9291 0.9504
-6.4268 11.9139 -0.9925 0.9472
-7.5173 11.8179 -1.0270 0.9454
-8.1462 11.8447 -1.0540 0.9440
-9.3979 11.7581 -1.1037 0.9414
-10.9719 11.8692 -1.1852 0.9372
-18.3086 -9.9728 -2.0016 0.9196
-17.5455 -11.2612 -2.0016 0.9196
-16.6920 -12.4915 -2.0016 0.9196
-16.2326 -13.0829 -2.0016 0.9196
-15.2516 -14.2143 -2.0016 0.9196
-14.7313 -14.7529 -2.0016 0.9196
-14.1920 -15.2724 -2.0016 0.9196
-11.1940 -16.1856 -1.8893 0.9240
-10.3812 -16.2265 -1.8494 0.9255
-9.7918 -16.5889 -1.8494 0.9255
-9.1897 -16.9298 -1.8494 0.9255
-8.5758 -17.2489 -1.8494 0.9255
-5.3566 -18.5034 -1.8494 0.9255
-4.0147 -18.8402 -1.8494 0.9255
-1.9651 -19.1627 -1.8494 0.9255
-1.2756 -19.2209 -1.8494 0.9255
-0.5845 -19.2543 -1.8494 0.9255
0.7990 -19.2466 -1.8494 0.9255
1.4897 -19.2055 -1.8494 0.9255
2.1784 -19.1396 -1.8494 0.9255
2.8644 -19.0490 -1.8494 0.9255
3.5466 -18.9339 -1.8494 0.9255
8.1320 -19.1971 -2.0016 0.9196
8.8162 -18.8927 -2.0016 0.9196
10.7970 -17.8349 -2.0016 0.9196
11.4305 -17.4357 -2.0016 0.9196
12.0493 -17.0139 -2.0016 0.9196
13.2394 -16.1052 -2.0016 0.9196
14.3613 -15.1133 -2.0016 0.9196
15.4091 -14.0435 -2.0016 0.9196
15.9035 -13.4811 -2.0016 0.9196
16.3773 -12.9013 -2.0016 0.9196
16.8301 -12.3048 -2.0016 0.9196
17.2611 -11.6925 -2.0016 0.9196
17.6699 -11.0650 -2.0016 0.9196
19.0722 -8.4209 -2.0016 0.9196
19.3623 -7.7306 -2.0016 0.9196
20.4318 -4.1475 -2.0016 0.9196
20.6768 -2.6702 -2.0016 0.9196
20.7594 -1.9259 -2.0016 0.9196
20.8461 0.3179 -2.0016 0.9196
20.7695 1.8134 -2.0016 0.9196
20.5857 3.2995 -2.0016 0.9196
20.4540 4.0367 -2.0016 0.9196
20.2958 4.7686 -2.0016 0.9196
19.6652 6.9238 -2.0016 0.9196
19.1175 8.3175 -2.0016 0.9196
18.8065 8.9987 -2.0016 0.9196
18.1121 10.3254 -2.0016 0.9196
17.7296 10.9691 -2.0016 0.9196
17.3242 11.5988 -2.0016 0.9196
16.8965 12.2134 -2.0016 0.9196
16.4470 12.8123 -2.0016 0.9196
15.9763 13.3947 -2.0016 0.9196
12.7421 16.5015 -2.0016 0.9196
12.1413 16.9484 -2.0016 0.9196
11.5248 17.3735 -2.0016 0.9196
10.8935 17.7762 -2.0016 0.9196
10.2481 18.1559 -2.0016 0.9196
9.5894 18.5122 -2.0016 0.9196
7.6096 17.6964 -1.8494 0.9255
5.4157 17.6105 -1.7688 0.9286
3.5859 13.3494 -1.3270 0.9460
1.5241 12.7740 -1.2351 0.9496
1.0172 12.2525 -1.1803 0.9518
0.5679 12.0977 -1.1627 0.9525
-0.2988 11.9843 -1.1509 0.9530
-0.7390 12.1287 -1.1666 0.9523
-1.1507 11.8533 -1.1433 0.9533
-2.4751 11.9320 -1.1699 0.9522
-3.7950 11.7546 -1.1859 0.9516
-4.7920 11.8552 -1.2276 0.9499
-5.3070 11.8822 -1.2494 0.9491
-6.3805 11.9078 -1.2970 0.9472
-7.3188 11.5775 -1.3150 0.9464
-7.8346 11.4604 -1.3328 0.9457
-11.3431 11.4834 -1.5496 0.9372
-13.1140 11.4950 -1.6742 0.9323
-15.2063 11.5088 -1.8309 0.9262
-16.1547 10.4926 -1.8494 0.9255
-16.8662 9.3060 -1.8494 0.9255
-17.1896 8.6942 -1.8494 0.9255
-19.5083 7.3543 -2.0016 0.9196
-19.9859 5.9350 -2.0016 0.9196
-20.3603 4.4852 -2.0016 0.9196
-20.7246 2.2694 -2.0016 0.9196
-20.7928 1.5237 -2.0016 0.9196
-20.8341 0.7760 -2.0016 0.9196
-20.8360 -0.7215 -2.0016 0.9196
-20.7305 -2.2152 -2.0016 0.9196
-20.6376 -2.9582 -2.0016 0.9196
-20.5180 -3.6975 -2.0016 0.9196
-19.7772 -6.5973 -2.0016 0.9196
-19.2526 -7.9998 -2.0016 0.9196
-18.9529 -8.6860 -2.0016 0.9196
-18.6287 -9.3611 -2.0016 0.9196
-17.5139 -11.3103 -2.0016 0.9196
-16.6569 -12.5383 -2.0016 0.9196
-16.1959 -13.1284 -2.0016 0.9196
-15.2118 -14.2570 -2.0016 0.9196
-14.6899 -14.7941 -2.0016 0.9196
-13.5806 -15.7993 -2.0002 0.9197
-12.9172 -16.1676 -1.9867 0.9202
-11.9992 -16.1774 -1.9337 0.9223
-10.3357 -16.2556 -1.8494 0.9255
-9.1422 -16.9555 -1.8494 0.9255
-7.2656 -17.8404 -1.8494 0.9255
-6.6202 -18.0898 -1.8494 0.9255
-5.3820 -16.5221 -1.6682 0.9326
-5.3047 -18.5184 -1.8494 0.9255
-4.6362 -18.6969 -1.8494 0.9255
-3.2823 -18.9815 -1.8494 0.9255
-2.5985 -19.0871 -1.8494 0.9255
1.5435 -19.2012 -1.8494 0.9255
2.9178 -19.0409 -1.8494 0.9255
4.9849 -18.7527 -1.8629 0.9250
6.7884 -19.7124 -2.0016 0.9196
7.4919 -19.4559 -2.0016 0.9196
8.1858 -19.1743 -2.0016 0.9196
10.2006 -18.1826 -2.0016 0.9196
10.8470 -17.8046 -2.0016 0.9196
11.4794 -17.4036 -2.0016 0.9196
13.8530 -15.5806 -2.0016 0.9196
14.4036 -15.0730 -2.0016 0.9196
15.9412 -13.4364 -2.0016 0.9196
16.4135 -12.8553 -2.0016 0.9196
17.2938 -11.6440 -2.0016 0.9196
18.4459 -9.7165 -2.0016 0.9196
18.7829 -9.0478 -2.0016 0.9196
19.8849 -6.2651 -2.0016 0.9196
20.0970 -5.5470 -2.0016 0.9196
20.5770 -3.3533 -2.0016 0.9196
20.7647 -1.8677 -2.0016 0.9196
20.8183 -1.1208 -2.0016 0.9196
20.8181 1.1247 -2.0016 0.9196
20.7643 1.8716 -2.0016 0.9196
20.5764 3.3573 -2.0016 0.9196
20.4426 4.0940 -2.0016 0.9196
20.2824 4.8255 -2.0016 0.9196
19.8837 6.2689 -2.0016 0.9196
19.6457 6.9789 -2.0016 0.9196
18.7812 9.0514 -2.0016 0.9196
15.9386 13.4395 -2.0016 0.9196
14.4008 15.0757 -2.0016 0.9196
13.2815 16.0705 -2.0016 0.9196
12.6958 16.5371 -2.0016 0.9196
12.0937 16.9824 -2.0016 0.9196
11.4761 17.4057 -2.0016 0.9196
10.1971 18.1846 -2.0016 0.9196
9.5375 18.5391 -2.0016 0.9196
7.5600 17.7177 -1.8494 0.9255
6.9188 17.9777 -1.8494 0.9255
3.0161 13.2569 -1.3053 0.9468
2.5113 13.2156 -1.2915 0.9474
1.9537 12.7660 -1.2399 0.9494
1.4625 12.5572 -1.2137 0.9505
0.5379 12.1890 -1.1713 0.9522
0.0975 11.9099 -1.1434 0.9533
-1.1991 12.0027 -1.1581 0.9527
-2.0654 11.9309 -1.1625 0.9525
-2.5033 11.9002 -1.1675 0.9523
-2.9659 11.9513 -1.1822 0.9517
-3.8541 11.8240 -1.1939 0.9513
-4.8317 11.8576 -1.2293 0.9498
-6.9767 11.8905 -1.3235 0.9461
-7.8821 11.4608 -1.3354 0.9456
-8.5071 11.4648 -1.3706 0.9442
-11.4073 11.4839 -1.5540 0.9370
-15.3377 -6.9773 -2.0016 0.9344
-15.0773 -7.5236 -2.0016 0.9344
-14.4983 -8.5864 -2.0016 0.9344
-11.9062 -11.9236 -2.0016 0.9344
-11.4703 -12.3434 -2.0016 0.9344
-8.5652 -14.5108 -2.0016 0.9344
-6.9549 -15.3479 -2.0016 0.9344
-6.3992 -15.5877 -2.0016 0.9344
-4.6692 -16.1290 -1.9946 0.9346
-4.0575 -16.1688 -1.9802 0.9351
-3.4460 -16.1717 -1.9641 0.9356
-2.8436 -16.1742 -1.9507 0.9360
0.0908 -16.3014 -1.9364 0.9364
3.6951 -16.4400 -2.0016 0.9344
4.2831 -16.2967 -2.0016 0.9344
4.8656 -16.1324 -2.0016 0.9344
6.5725 -15.5155 -2.0016 0.9344
7.1254 -15.2695 -2.0016 0.9344
10.2260 -13.3924 -2.0016 0.9344
10.7004 -13.0165 -2.0016 0.9344
11.1609 -12.6238 -2.0016 0.9344
11.6071 -12.2149 -2.0016 0.9344
12.0383 -11.7902 -2.0016 0.9344
12.4539 -11.3503 -2.0016 0.9344
13.6024 -9.9450 -2.0016 0.9344
14.5931 -8.4243 -2.0016 0.9344
15.1601 -7.3551 -2.0016 0.9344
15.6490 -6.2480 -2.0016 0.9344
15.8633 -5.6820 -2.0016 0.9344
16.3823 -3.9429 -2.0016 0.9344
16.8232 -0.9530 -2.0016 0.9344
16.8466 -0.3483 -2.0016 0.9344
16.8482 0.2570 -2.0016 0.9344
16.7228 2.0675 -2.0016 0.9344
16.6378 2.6667 -2.0016 0.9344
16.2545 4.4407 -2.0016 0.9344
15.8938 5.5960 -2.0016 0.9344
15.1998 7.2729 -2.0016 0.9344
14.6385 8.3451 -2.0016 0.9344
14.0018 9.3744 -2.0016 0.9344
13.6561 9.8711 -2.0016 0.9344
13.2928 10.3552 -2.0016 0.9344
12.9123 10.8259 -2.0016 0.9344
12.1020 11.7248 -2.0016 0.9344
10.2984 13.3368 -2.0016 0.9344
8.8043 14.3670 -2.0016 0.9344
5.6327 14.5142 -1.8494 0.9392
5.1078 14.7071 -1.8494 0.9392
4.5763 14.8811 -1.8494 0.9392
3.0174 13.0929 -1.5960 0.9473
1.4793 12.3992 -1.4833 0.9509
1.0118 12.1883 -1.4528 0.9519
0.5626 11.9857 -1.4253 0.9528
0.1295 11.7903 -1.4006 0.9536
-0.2893 11.6014 -1.3785 0.9543
-1.1082 11.4164 -1.3625 0.9548
-1.1776 8.8223 -1.0573 0.9648
-1.9443 11.4218 -1.3763 0.9544
-3.2420 11.4303 -1.4113 0.9533
-4.1514 11.4363 -1.4452 0.9522
-4.6239 11.4394 -1.4656 0.9515
-5.1106 11.4426 -1.4886 0.9508
-6.6768 11.4529 -1.5747 0.9480
-7.2424 11.4566 -1.6100 0.9469
-7.8346 11.4604 -1.6490 0.9456
-9.8102 11.4734 -1.7931 0.9410
-10.5361 11.4621 -1.8494 0.9392
-10.9410 11.0763 -1.8494 0.9392
-11.3317 10.6763 -1.8494 0.9392
-11.7078 10.2624 -1.8494 0.9392
-12.4142 9.3956 -1.8494 0.9392
-12.7436 8.9437 -1.8494 0.9392
-13.7587 8.2494 -1.9056 0.9374
-14.7117 8.1172 -1.9959 0.9346
-15.5434 6.5062 -2.0016 0.9344
-15.7670 5.9439 -2.0016 0.9344
-16.4556 3.6250 -2.0016 0.9344
-16.5752 3.0317 -2.0016 0.9344
-16.6734 2.4345 -2.0016 0.9344
-16.8051 1.2314 -2.0016 0.9344
-16.8385 0.6271 -2.0016 0.9344
-16.8501 0.0220 -2.0016 0.9344
-16.8401 -0.5831 -2.0016 0.9344
-16.8083 -1.1875 -2.0016 0.9344
-16.7548 -1.7904 -2.0016 0.9344
-16.5830 -2.9884 -2.0016 0.9344
-16.1654 -4.7546 -2.0016 0.9344
-15.7825 -5.9026 -2.0016 0.9344
-15.0561 -7.5658 -2.0016 0.9344
-13.4624 -10.1337 -2.0016 0.9344
-13.0898 -10.6106 -2.0016 0.9344
-12.2944 -11.5228 -2.0016 0.9344
-10.9838 -12.7782 -2.0016 0.9344
-10.5178 -13.1645 -2.0016 0.9344
-10.0383 -13.5337 -2.0016 0.9344
-9.5458 -13.8854 -2.0016 0.9344
-7.9970 -14.8316 -2.0016 0.9344
-6.3555 -15.6056 -2.0016 0.9344
-4.6236 -16.1405 -1.9944 0.9346
-4.0094 -16.1690 -1.9788 0.9351
-3.3987 -16.1720 -1.9630 0.9356
-2.7969 -16.1744 -1.9498 0.9360
-2.2022 -16.1763 -1.9392 0.9364
-1.6132 -16.1778 -1.9312 0.9366
3.7412 -16.4296 -2.0016 0.9344
5.4865 -15.9319 -2.0016 0.9344
6.0551 -15.7246 -2.0016 0.9344
8.2443 -14.6956 -2.0016 0.9344
9.7770 -13.7236 -2.0016 0.9344
10.2635 -13.3637 -2.0016 0.9344
10.7368 -12.9865 -2.0016 0.9344
11.1963 -12.5925 -2.0016 0.9344
11.6413 -12.1823 -2.0016 0.9344
12.0713 -11.7564 -2.0016 0.9344
13.2657 -10.3899 -2.0016 0.9344
13.9772 -9.4109 -2.0016 0.9344
14.3062 -8.9029 -2.0016 0.9344
14.6167 -8.3834 -2.0016 0.9344
14.9083 -7.8531 -2.0016 0.9344
15.4335 -6.7627 -2.0016 0.9344
15.8791 -5.6375 -2.0016 0.9344
16.0713 -5.0636 -2.0016 0.9344
16.2428 -4.4832 -2.0016 0.9344
16.7174 -2.1112 -2.0016 0.9344
16.8475 -0.3010 -2.0016 0.9344
16.7821 1.5127 -2.0016 0.9344
16.7170 2.1144 -2.0016 0.9344
16.6302 2.7134 -2.0016 0.9344
16.2420 4.4863 -2.0016 0.9344
15.6652 6.2071 -2.0016 0.9344
15.4322 6.7656 -2.0016 0.9344
14.9068 7.8559 -2.0016 0.9344
13.9754 9.4136 -2.0016 0.9344
12.0690 11.7587 -2.0016 0.9344
11.6390 12.1845 -2.0016 0.9344
10.7344 12.9885 -2.0016 0.9344
10.2610 13.3656 -2.0016 0.9344
9.2752 14.0677 -2.0016 0.9344
8.7640 14.3917 -2.0016 0.9344
7.6148 13.5795 -1.8494 0.9392
7.1222 13.8443 -1.8494 0.9392
6.6204 14.0911 -1.8494 0.9392
5.0665 14.7214 -1.8494 0.9392
4.5346 14.8939 -1.8494 0.9392
3.5404 13.3288 -1.6382 0.9460
2.9744 13.0735 -1.5926 0.9474
1.9286 12.6018 -1.5143 0.9499
1.4421 12.3824 -1.4808 0.9510
0.0963 11.7753 -1.3988 0.9537
-0.3215 11.5869 -1.3769 0.9544
-0.7275 11.4139 -1.3586 0.9550
-1.2008 8.8080 -1.0559 0.9648
-2.4033 11.4248 -1.3868 0.9541
-2.8360 11.4277 -1.3986 0.9537
-3.7268 11.4335 -1.4285 0.9527
-4.6614 11.4396 -1.4673 0.9515
-5.1493 11.4428 -1.4905 0.9507
-6.1763 11.4496 -1.5453 0.9489
-6.7200 11.4531 -1.5774 0.9479
-8.5071 11.4648 -1.6958 0.9441
-9.8663 11.4738 -1.7975 0.9409
-10.5682 11.4325 -1.8494 0.9392
-10.9720 11.0456 -1.8494 0.9392
-11.9296 -5.4269 -1.8570 0.9484
-12.6401 -6.3074 -2.0016 0.9445
-11.8884 -7.6303 -2.0016 0.9445
-11.6067 -8.0523 -2.0016 0.9445
-11.3100 -8.4639 -2.0016 0.9445
-10.3341 -9.6313 -2.0016 0.9445
-9.9816 -9.9962 -2.0016 0.9445
-9.2383 -10.6868 -2.0016 0.9445
-8.8486 -11.0117 -2.0016 0.9445
-8.4474 -11.3224 -2.0016 0.9445
-7.6129 -11.8995 -2.0016 0.9445
-6.2890 -12.6493 -2.0016 0.9445
-5.8306 -12.8670 -2.0016 0.9445
-5.3648 -13.0681 -2.0016 0.9445
-4.8921 -13.2523 -2.0016 0.9445
-4.4130 -13.4194 -2.0016 0.9445
-3.9282 -13.5692 -2.0016 0.9445
-3.4384 -13.7016 -2.0016 0.9445
-2.4460 -13.9130 -2.0016 0.9445
-1.9448 -13.9919 -2.0016 0.9445
-1.4411 -14.0527 -2.0016 0.9445
-0.4287 -14.1199 -2.0016 0.9445
0.0787 -14.1262 -2.0016 0.9445
1.0924 -14.0841 -2.0016 0.9445
2.6009 -13.8849 -2.0016 0.9445
3.0978 -13.7826 -2.0016 0.9445
4.5622 -13.3694 -2.0016 0.9445
5.0394 -13.1970 -2.0016 0.9445
5.5100 -13.0075 -2.0016 0.9445
5.9736 -12.8012 -2.0016 0.9445
2.1852 -4.2751 -0.6803 0.9808
2.3465 -4.2104 -0.6830 0.9807
7.3158 -12.0845 -2.0016 0.9445
7.7450 -11.8140 -2.0016 0.9445
8.1643 -11.5282 -2.0016 0.9445
8.5730 -11.2276 -2.0016 0.9445
8.9707 -10.9125 -2.0016 0.9445
9.3568 -10.5833 -2.0016 0.9445
9.7308 -10.2404 -2.0016 0.9445
11.4036 -8.3374 -2.0016 0.9445
11.9727 -7.4974 -2.0016 0.9445
12.2342 -7.0626 -2.0016 0.9445
12.9228 -5.7058 -2.0016 0.9445
13.6066 -3.7967 -2.0016 0.9445
13.7342 -3.3056 -2.0016 0.9445
14.0101 -1.8093 -2.0016 0.9445
14.0660 -1.3050 -2.0016 0.9445
14.1248 0.2154 -2.0016 0.9445
14.1079 0.7225 -2.0016 0.9445
14.0197 1.7333 -2.0016 0.9445
13.7519 3.2311 -2.0016 0.9445
13.3246 4.6914 -2.0016 0.9445
12.9535 5.6357 -2.0016 0.9445
12.7428 6.0973 -2.0016 0.9445
12.5156 6.5510 -2.0016 0.9445
12.2723 6.9962 -2.0016 0.9445
11.7384 7.8590 -2.0016 0.9445
11.4486 8.2755 -2.0016 0.9445
9.7862 10.1875 -2.0016 0.9445
8.2266 11.4838 -2.0016 0.9445
6.4158 11.3665 -1.8494 0.9486
5.5834 11.7977 -1.8494 0.9486
2.9312 12.7188 -1.8494 0.9486
1.9675 12.6194 -1.8096 0.9497
1.4793 12.3992 -1.7693 0.9508
1.0118 12.1883 -1.7329 0.9518
0.1295 11.7903 -1.6707 0.9535
-0.2893 11.6014 -1.6443 0.9542
-0.6954 11.4137 -1.6202 0.9549
-1.1082 11.4164 -1.6252 0.9547
-1.1668 8.7415 -1.2496 0.9650
-1.9443 11.4218 -1.6416 0.9543
-3.6913 11.4333 -1.7023 0.9526
-4.1514 11.4363 -1.7239 0.9520
-4.6239 11.4394 -1.7482 0.9514
-5.1106 11.4426 -1.7757 0.9506
-6.5737 11.2760 -1.8494 0.9486
-7.3661 10.7750 -1.8494 0.9486
-7.7483 10.5036 -1.8494 0.9486
-8.1205 10.2185 -1.8494 0.9486
-8.8330 9.6093 -1.8494 0.9486
-9.5000 8.9505 -1.8494 0.9486
-9.8153 8.6036 -1.8494 0.9486
-12.1156 7.2642 -2.0016 0.9445
-12.3686 6.8244 -2.0016 0.9445
-12.6057 6.3758 -2.0016 0.9445
-12.8266 5.9190 -2.0016 0.9445
-13.2183 4.9831 -2.0016 0.9445
-13.5419 4.0214 -2.0016 0.9445
-13.6776 3.5325 -2.0016 0.9445
-13.7956 3.0390 -2.0016 0.9445
-13.9782 2.0410 -2.0016 0.9445
-14.1264 0.0185 -2.0016 0.9445
-14.1179 -0.4889 -2.0016 0.9445
-14.0464 -1.5010 -2.0016 0.9445
-13.9025 -2.5053 -2.0016 0.9445
-12.8132 -2.7875 -1.8580 0.9484
-12.6981 -3.2442 -1.8570 0.9484
-12.2756 -4.5910 -1.8570 0.9484
-12.1028 -5.0289 -1.8570 0.9484
-11.9144 -5.4603 -1.8570 0.9484
-12.6223 -6.3428 -2.0016 0.9445
-12.3864 -6.7920 -2.0016 0.9445
-11.8670 -7.6636 -2.0016 0.9445
-11.2863 -8.4956 -2.0016 0.9445
-10.9739 -8.8954 -2.0016 0.9445
-9.9535 -10.0241 -2.0016 0.9445
-9.2083 -10.7127 -2.0016 0.9445
-7.5795 -11.9208 -2.0016 0.9445
-7.1466 -12.1853 -2.0016 0.9445
-6.7043 -12.4341 -2.0016 0.9445
-5.3281 -13.0830 -2.0016 0.9445
-3.8901 -13.5802 -2.0016 0.9445
-3.3999 -13.7111 -2.0016 0.9445
-2.9054 -13.8244 -2.0016 0.9445
-2.4070 -13.9198 -2.0016 0.9445
-1.4017 -14.0567 -2.0016 0.9445
-0.8959 -14.0980 -2.0016 0.9445
-0.3891 -14.1210 -2.0016 0.9445
0.1183 -14.1259 -2.0016 0.9445
0.6255 -14.1125 -2.0016 0.9445
1.6369 -14.0312 -2.0016 0.9445
2.1397 -13.9634 -2.0016 0.9445
5.0763 -13.1828 -2.0016 0.9445
5.5465 -12.9920 -2.0016 0.9445
6.0095 -12.7844 -2.0016 0.9445
7.7781 -11.7922 -2.0016 0.9445
8.1966 -11.5053 -2.0016 0.9445
8.6045 -11.2035 -2.0016 0.9445
10.1200 -9.8560 -2.0016 0.9445
10.8013 -9.1042 -2.0016 0.9445
11.1213 -8.7104 -2.0016 0.9445
11.4270 -8.3054 -2.0016 0.9445
11.7179 -7.8897 -2.0016 0.9445
12.2539 -7.0283 -2.0016 0.9445
12.4984 -6.5836 -2.0016 0.9445
12.9388 -5.6695 -2.0016 0.9445
13.1340 -5.2012 -2.0016 0.9445
13.6172 -3.7585 -2.0016 0.9445
13.7434 -3.2670 -2.0016 0.9445
13.8519 -2.7714 -2.0016 0.9445
14.0151 -1.7700 -2.0016 0.9445
14.0696 -1.2655 -2.0016 0.9445
14.1060 -0.7594 -2.0016 0.9445
14.1242 -0.2524 -2.0016 0.9445
14.1058 0.7621 -2.0016 0.9445
14.0147 1.7726 -2.0016 0.9445
13.8514 2.7740 -2.0016 0.9445
13.4727 4.2477 -2.0016 0.9445
13.3114 4.7287 -2.0016 0.9445
13.1330 5.2037 -2.0016 0.9445
12.9377 5.6720 -2.0016 0.9445
12.7256 6.1330 -2.0016 0.9445
12.2526 7.0306 -2.0016 0.9445
11.9922 7.4661 -2.0016 0.9445
11.7164 7.8919 -2.0016 0.9445
11.4254 8.3076 -2.0016 0.9445
11.1197 8.7125 -2.0016 0.9445
10.7996 9.1062 -2.0016 0.9445
10.4656 9.4882 -2.0016 0.9445
10.1181 9.8579 -2.0016 0.9445
9.7576 10.2149 -2.0016 0.9445
9.3845 10.5587 -2.0016 0.9445
8.9992 10.8890 -2.0016 0.9445
8.6023 11.2051 -2.0016 0.9445
7.7759 11.7937 -2.0016 0.9445
7.3370 12.0483 -1.9987 0.9446
6.3839 11.3845 -1.8494 0.9486
5.9709 11.6064 -1.8494 0.9486
5.5503 11.8133 -1.8494 0.9486
4.6880 12.1813 -1.8494 0.9486
3.3507 12.6148 -1.8494 0.9486
2.8955 12.7270 -1.8494 0.9486
1.9286 12.6018 -1.8063 0.9498
1.4421 12.3824 -1.7663 0.9509
0.5282 11.9702 -1.6977 0.9527
0.0963 11.7753 -1.6685 0.9535
-0.3215 11.5869 -1.6424 0.9543
-0.7275 11.4139 -1.6205 0.9548
-1.1406 11.4166 -1.6257 0.9547
-1.1924 8.7465 -1.2507 0.9650
-1.9773 11.4221 -1.6425 0.9542
-2.4033 11.4248 -1.6542 0.9539
-3.2767 11.4306 -1.6848 0.9531
-3.7268 11.4335 -1.7039 0.9526
-4.1878 11.4365 -1.7257 0.9520
-4.6614 11.4396 -1.7503 0.9513
-5.1493 11.4428 -1.7779 0.9506
-6.1763 11.4496 -1.8433 0.9488
-7.0053 11.0130 -1.8494 0.9486
-8.1491 10.1957 -1.8494 0.9486
-8.5100 9.8965 -1.8494 0.9486
-8.8599 9.5845 -1.8494 0.9486
-9.1984 9.2601 -1.8494 0.9486
-10.2605 -4.6676 -1.8570 0.9553
-10.4541 -6.1912 -2.0016 0.9519
-10.2250 -6.5627 -2.0016 0.9519
-9.7276 -7.2797 -2.0016 0.9519
-9.4599 -7.6243 -2.0016 0.9519
-8.8882 -8.2837 -2.0016 0.9519
-8.2707 -8.9003 -2.0016 0.9519
-7.2655 -9.7382 -2.0016 0.9519
-6.1760 -10.4631 -2.0016 0.9519
-5.4090 -10.8794 -2.0016 0.9519
-5.0148 -11.0667 -2.0016 0.9519
-2.9573 -11.7845 -2.0016 0.9519
-2.5322 -11.8831 -2.0016 0.9519
-2.1038 -11.9663 -2.0016 0.9519
-1.6727 -12.0342 -2.0016 0.9519
-0.3687 -12.1443 -2.0016 0.9519
0.0677 -12.1497 -2.0016 0.9519
3.0884 -11.7508 -2.0016 0.9519
3.5084 -11.6323 -2.0016 0.9519
3.9239 -11.4988 -2.0016 0.9519
4.3343 -11.3505 -2.0016 0.9519
7.0220 -9.9152 -2.0016 0.9519
7.7155 -9.3856 -2.0016 0.9519
8.0476 -9.1025 -2.0016 0.9519
9.2681 -7.8564 -2.0016 0.9519
9.8081 -7.1709 -2.0016 0.9519
10.0592 -6.8140 -2.0016 0.9519
10.2975 -6.4484 -2.0016 0.9519
10.7338 -5.6926 -2.0016 0.9519
11.1147 -4.9075 -2.0016 0.9519
11.2837 -4.5051 -2.0016 0.9519
11.4383 -4.0970 -2.0016 0.9519
11.9862 -1.9878 -2.0016 0.9519
12.1473 -0.2511 -2.0016 0.9519
12.1340 0.6214 -2.0016 0.9519
12.1038 1.0568 -2.0016 0.9519
12.0581 1.4908 -2.0016 0.9519
11.9968 1.9229 -2.0016 0.9519
11.8278 2.7790 -2.0016 0.9519
11.7204 3.2020 -2.0016 0.9519
11.1411 4.8472 -2.0016 0.9519
10.5552 6.0173 -2.0016 0.9519
10.0960 6.7594 -2.0016 0.9519
9.5848 7.4666 -2.0016 0.9519
8.7262 8.4542 -2.0016 0.9519
8.0968 9.0587 -2.0016 0.9519
7.7663 9.3437 -2.0016 0.9519
5.9530 10.5466 -1.9951 0.9521
5.1635 9.9680 -1.8494 0.9555
4.4347 10.3129 -1.8494 0.9555
4.0615 10.4655 -1.8494 0.9555
3.6830 10.6046 -1.8494 0.9555
1.7294 11.0920 -1.8494 0.9555
1.3299 11.1469 -1.8494 0.9555
0.9288 11.1875 -1.8494 0.9555
0.5264 11.2136 -1.8494 0.9555
0.1233 11.2253 -1.8494 0.9555
-0.2798 11.2225 -1.8494 0.9555
-1.0847 11.1735 -1.8494 0.9555
-1.1646 8.7251 -1.4501 0.9649
-1.8839 11.0668 -1.8494 0.9555
-2.2801 10.9920 -1.8494 0.9555
-3.0632 10.8000 -1.8494 0.9555
-3.8305 10.5523 -1.8494 0.9555
-4.5780 10.2501 -1.8494 0.9555
-5.3020 9.8951 -1.8494 0.9555
-5.6539 9.6983 -1.8494 0.9555
-5.9985 9.4890 -1.8494 0.9555
-6.9843 8.7888 -1.8494 0.9555
-7.2954 8.5323 -1.8494 0.9555
-7.5980 8.2658 -1.8496 0.9555
-8.1477 8.2486 -1.9100 0.9541
-8.7415 8.2359 -1.9785 0.9525
-9.1204 7.9944 -1.9980 0.9520
-9.4184 7.6755 -2.0016 0.9519
-9.9451 6.9796 -2.0016 0.9519
-10.1893 6.6180 -2.0016 0.9519
-10.4204 6.2478 -2.0016 0.9519
-10.6380 5.8696 -2.0016 0.9519
-10.8420 5.4837 -2.0016 0.9519
-11.3689 4.2859 -2.0016 0.9519
-11.5154 3.8748 -2.0016 0.9519
-11.6472 3.4588 -2.0016 0.9519
-11.7639 3.0383 -2.0016 0.9519
-11.8654 2.6138 -2.0016 0.9519
-12.0224 1.7554 -2.0016 0.9519
-12.1174 0.8879 -2.0016 0.9519
-12.1197 -0.8562 -2.0016 0.9519
-12.0811 -1.2909 -2.0016 0.9519
-12.0269 -1.7240 -2.0016 0.9519
-11.9573 -2.1548 -2.0016 0.9519
-11.0296 -2.3995 -1.8595 0.9553
-10.9214 -2.7903 -1.8570 0.9553
-10.8142 -3.1807 -1.8570 0.9553
-10.5580 -3.9487 -1.8570 0.9553
-10.2474 -4.6963 -1.8570 0.9553
-10.0721 -5.0613 -1.8570 0.9553
-9.8838 -5.4197 -1.8570 0.9553
-9.1576 -7.9848 -2.0016 0.9519
-8.5608 -8.6216 -2.0016 0.9519
-8.2457 -8.9234 -2.0016 0.9519
-7.5839 -9.4923 -2.0016 0.9519
