ply
format ascii 1.0
element vertex 1536
property float32 x
property float32 y
property float32 z
property float32 I
end_header
-33.2586 24.4177 0.6969 0.8478
-27.0149 -22.5253 0.5941 0.8687
-21.6559 -22.4195 0.5265 0.8828
-20.1061 -22.3689 0.5081 0.8866
-18.7023 -22.3728 0.4926 0.8899
-15.0576 -22.5585 0.4581 0.8972
-10.6795 -22.3951 0.4191 0.9055
-7.8542 -22.3979 0.4009 0.9094
-5.2358 -22.4052 0.3887 0.9121
-4.4152 -22.5118 0.3875 0.9123
-3.5652 -22.4099 0.3833 0.9132
-1.9430 -22.5458 0.3822 0.9134
-1.1233 -22.4167 0.3791 0.9141
0.3766 -17.3245 0.2927 0.9330
1.2938 -22.4234 0.3794 0.9141
2.2316 -4.1996 0.0803 0.9812
32.8686 -36.0156 0.8237 0.8228
32.6605 -30.9957 0.7606 0.8352
33.9802 -30.0051 0.7657 0.8341
33.3635 -25.4448 0.7088 0.8455
37.2076 -26.3193 0.7699 0.8333
38.8817 -25.4602 0.7851 0.8303
34.3171 -3.8960 0.5834 0.8710
36.0500 16.3357 0.6686 0.8536
35.2975 17.5480 0.6659 0.8541
35.1884 22.5083 0.7056 0.8461
35.3939 24.4730 0.7269 0.8419
35.1988 26.2544 0.7418 0.8389
7.6176 16.7278 0.3105 0.9291
2.9174 13.5597 0.2343 0.9460
2.3878 22.8276 0.3877 0.9123
0.8690 12.6999 0.2150 0.9503
-0.6251 15.8661 0.2682 0.9385
-1.8229 12.3045 0.2101 0.9515
-3.5311 15.8742 0.2747 0.9370
-4.1347 15.8758 0.2771 0.9365
-3.6844 12.3159 0.2171 0.9499
-6.0487 14.3712 0.2634 0.9395
-6.1459 12.0936 0.2291 0.9472
-9.8267 17.7304 0.3424 0.9221
-8.6975 12.3444 0.2551 0.9414
-13.1617 17.3246 0.3675 0.9166
-10.0814 12.3252 0.2690 0.9383
-13.2134 15.0203 0.3379 0.9231
-12.6068 12.4094 0.2988 0.9317
-33.2585 24.4488 0.6973 0.8478
-33.2635 22.6596 0.6799 0.8513
-34.5956 21.7913 0.6907 0.8491
-27.0483 -22.5252 0.5946 0.8686
-24.9647 -22.3554 0.5661 0.8745
-23.1350 -22.2639 0.5424 0.8795
-21.6823 -22.4195 0.5268 0.8827
-18.7254 -22.3727 0.4928 0.8898
-17.1498 -22.0524 0.4719 0.8943
-15.0775 -22.5585 0.4583 0.8971
-12.7416 -22.3894 0.4351 0.9021
-11.7914 -22.5676 0.4301 0.9032
-8.7858 -22.4003 0.4064 0.9082
-7.8696 -22.3979 0.4010 0.9094
-7.0325 -22.5758 0.3994 0.9097
-5.2502 -22.4052 0.3887 0.9120
-3.5792 -22.4098 0.3833 0.9132
-2.7588 -22.4121 0.3814 0.9136
-0.3313 -22.4189 0.3787 0.9142
32.8778 -33.5665 0.7937 0.8286
33.9406 -30.0069 0.7652 0.8342
37.2088 -26.3542 0.7702 0.8333
38.8298 -25.4600 0.7844 0.8305
34.3029 -3.9155 0.5832 0.8710
36.0499 16.3092 0.6684 0.8536
35.2974 17.5212 0.6656 0.8541
29.7883 17.5559 0.5841 0.8708
35.1987 26.2210 0.7414 0.8390
-1.8121 12.1803 -0.0693 0.9519
-2.2491 12.1128 -0.0694 0.9519
-2.6904 12.0601 -0.0696 0.9518
-3.1994 12.2538 -0.0713 0.9506
-4.0968 12.0711 -0.0718 0.9503
-4.5351 11.9363 -0.0719 0.9502
-5.1399 12.1913 -0.0745 0.9485
-5.5484 11.9435 -0.0741 0.9487
-6.1529 12.0890 -0.0764 0.9472
-6.6344 11.9532 -0.0770 0.9468
-7.4126 12.2937 -0.0808 0.9442
-8.3794 11.8776 -0.0818 0.9435
-9.1358 12.0102 -0.0850 0.9414
-10.6307 12.0695 -0.0906 0.9377
-11.5153 12.1643 -0.0943 0.9352
-17.3486 11.8026 -0.1181 0.9195
-19.0422 11.9783 -0.1267 0.9139
-24.4406 11.9207 -0.1531 0.8969
-27.0149 -22.5253 -0.1980 0.8688
-23.1069 -22.2640 -0.1807 0.8795
-20.1061 -22.3689 -0.1693 0.8866
-18.7023 -22.3728 -0.1642 0.8899
-17.1283 -22.0525 -0.1572 0.8943
-13.5219 -21.9230 -0.1450 0.9021
-11.7740 -22.5676 -0.1433 0.9032
-10.6795 -22.3951 -0.1397 0.9055
-9.7861 -22.5732 -0.1385 0.9063
-7.8543 -22.3979 -0.1336 0.9094
-6.0910 -22.4028 -0.1307 0.9113
-4.4152 -22.5118 -0.1292 0.9123
-1.9430 -22.5458 -0.1274 0.9135
-1.1233 -22.4167 -0.1264 0.9141
1.2938 -22.4234 -0.1265 0.9141
32.8652 -36.0119 -0.2745 0.8228
32.6604 -30.9957 -0.2535 0.8352
32.9003 -27.0131 -0.2397 0.8434
33.3635 -25.4448 -0.2362 0.8455
37.2094 -26.3205 -0.2566 0.8333
38.8817 -25.4602 -0.2616 0.8304
40.7889 13.4157 -0.2418 0.8422
36.0147 16.3197 -0.2226 0.8537
29.8007 17.5876 -0.1948 0.8707
7.6168 16.7259 -0.1035 0.9291
2.9043 13.4988 -0.0777 0.9463
1.3307 12.7213 -0.0720 0.9501
0.8637 12.6215 -0.0712 0.9507
-0.4911 12.4631 -0.0702 0.9513
-1.3539 12.1269 -0.0687 0.9524
-2.6868 12.0784 -0.0697 0.9517
-3.1925 12.2580 -0.0713 0.9506
-4.0908 12.0777 -0.0718 0.9503
-4.5259 11.9340 -0.0719 0.9502
-5.5431 11.9510 -0.0742 0.9487
-6.1469 12.0956 -0.0764 0.9472
-6.6233 11.9505 -0.0769 0.9468
-7.7758 11.9233 -0.0801 0.9447
-9.9699 12.1890 -0.0887 0.9390
-10.6314 12.0852 -0.0906 0.9376
-15.0635 11.9294 -0.1082 0.9260
-16.4302 12.0780 -0.1148 0.9217
-17.3464 11.8166 -0.1182 0.9195
-19.0406 11.9934 -0.1267 0.9139
-24.9647 -22.3554 -0.1887 0.8745
-23.1350 -22.2639 -0.1808 0.8795
-21.7986 -22.5398 -0.1765 0.8821
-20.1307 -22.3688 -0.1694 0.8866
-17.1498 -22.0524 -0.1573 0.8943
-13.5218 -21.8931 -0.1449 0.9022
-9.8024 -22.5731 -0.1386 0.9063
-3.5792 -22.4098 -0.1278 0.9132
-1.9606 -22.5899 -0.1277 0.9133
-1.1369 -22.4166 -0.1264 0.9141
-0.3313 -22.4189 -0.1262 0.9142
32.8746 -33.5633 -0.2645 0.8287
32.6205 -30.9956 -0.2533 0.8353
32.8996 -27.0461 -0.2398 0.8434
33.3212 -25.4447 -0.2360 0.8456
37.2104 -26.3553 -0.2567 0.8333
40.8719 13.4154 -0.2422 0.8419
36.2946 13.3742 -0.2178 0.8567
35.9691 14.7412 -0.2189 0.8560
35.2974 17.5212 -0.2219 0.8542
34.4728 22.0209 -0.2303 0.8491
35.1987 26.2210 -0.2471 0.8390
-2.2134 11.9204 -0.3414 0.9526
-2.6994 12.1001 -0.3491 0.9516
-3.5461 11.8274 -0.3477 0.9518
-4.0337 11.8850 -0.3534 0.9510
-4.5175 11.8901 -0.3581 0.9504
-5.0362 11.9454 -0.3650 0.9494
-9.7539 11.9101 -0.4335 0.9403
-13.0109 11.9040 -0.4966 0.9319
-18.8013 11.8267 -0.6254 0.9150
-26.7603 -22.3130 -0.9811 0.8699
-23.1144 -22.2712 -0.9038 0.8795
-21.4958 -22.2538 -0.8712 0.8835
-18.5783 -22.2245 -0.8156 0.8906
-16.2552 -22.5552 -0.7829 0.8947
-13.5219 -21.9230 -0.7253 0.9021
-11.5950 -22.2245 -0.7058 0.9046
-10.6085 -22.2462 -0.6940 0.9061
-9.6550 -22.2708 -0.6835 0.9074
-8.7280 -22.2930 -0.6741 0.9086
-7.8228 -22.3083 -0.6657 0.9097
-6.9398 -22.3261 -0.6583 0.9107
-6.0745 -22.3419 -0.6519 0.9115
-5.2243 -22.3558 -0.6464 0.9122
-3.5601 -22.3780 -0.6380 0.9133
-1.9298 -22.3933 -0.6329 0.9140
-0.3174 -22.4021 -0.6309 0.9142
32.8176 -33.4642 -1.3198 0.8290
32.6605 -30.9957 -1.2678 0.8351
32.8406 -26.9641 -1.1965 0.8436
37.1504 -26.2789 -1.2813 0.8335
38.8817 -25.4602 -1.3087 0.8303
35.6896 13.1760 -1.0712 0.8588
35.9957 14.7777 -1.0956 0.8558
36.0500 16.3357 -1.1144 0.8535
35.0471 17.4235 -1.1021 0.8550
29.8722 17.6298 -0.9767 0.8704
33.6609 21.5312 -1.1251 0.8522
34.9721 24.1814 -1.1972 0.8435
34.9774 26.0893 -1.2287 0.8398
34.9830 28.1027 -1.2635 0.8356
7.6159 16.7241 -0.5174 0.9291
4.6426 15.9217 -0.4670 0.9358
3.4110 13.4811 -0.3916 0.9459
2.8706 13.3421 -0.3843 0.9469
2.3106 12.9907 -0.3715 0.9486
1.7993 12.7568 -0.3628 0.9498
0.3944 12.1611 -0.3426 0.9525
-0.0422 12.1419 -0.3419 0.9526
-1.3255 11.8730 -0.3364 0.9533
-2.2064 11.9230 -0.3414 0.9526
-7.2195 11.9900 -0.3941 0.9455
-8.2845 11.7582 -0.4050 0.9441
-8.9990 11.8453 -0.4189 0.9422
-9.7484 11.9182 -0.4336 0.9402
-10.3892 11.8098 -0.4429 0.9390
-12.1711 11.9805 -0.4809 0.9339
-13.0040 11.9122 -0.4966 0.9319
-15.1225 11.9762 -0.5432 0.9257
-16.1657 11.8836 -0.5649 0.9229
-17.4178 11.8653 -0.5934 0.9191
-18.7670 11.8211 -0.6245 0.9151
-24.1247 11.7849 -0.7560 0.8981
-26.7939 -22.3134 -0.9818 0.8698
-24.8930 -22.2912 -0.9409 0.8748
-23.1429 -22.2715 -0.9044 0.8794
-21.5223 -22.2540 -0.8717 0.8835
-18.6015 -22.2247 -0.8161 0.8905
-16.2760 -22.5551 -0.7832 0.8947
-13.5218 -21.8931 -0.7246 0.9022
-11.6121 -22.2245 -0.7061 0.9045
-9.6709 -22.2704 -0.6837 0.9074
-7.8379 -22.3079 -0.6658 0.9097
-6.0890 -22.3416 -0.6520 0.9115
-5.2386 -22.3555 -0.6465 0.9122
-4.4294 -22.5118 -0.6460 0.9123
-3.5741 -22.3778 -0.6381 0.9133
-2.7556 -22.3864 -0.6351 0.9137
-1.1360 -22.3984 -0.6315 0.9142
-0.3310 -22.4020 -0.6309 0.9142
0.3659 -17.3188 -0.4878 0.9330
2.2292 -4.2012 -0.1339 0.9811
44.8961 12.9709 -1.3159 0.8294
40.2316 13.2053 -1.1923 0.8441
36.0499 16.3092 -1.1141 0.8536
33.6608 21.5023 -1.1247 0.8523
34.9720 24.1499 -1.1967 0.8436
34.9773 26.0560 -1.2281 0.8398
34.9829 28.0675 -1.2629 0.8357
-1.7781 11.9519 -0.6128 0.9528
-2.2535 12.1361 -0.6260 0.9518
-3.1034 11.8863 -0.6230 0.9520
-4.5555 11.9901 -0.6505 0.9499
-6.0769 11.9398 -0.6794 0.9478
-7.7601 11.8834 -0.7198 0.9447
-8.3581 11.8474 -0.7353 0.9436
-9.0086 11.8430 -0.7546 0.9421
-9.7403 11.8935 -0.7796 0.9403
-10.4403 11.8534 -0.8011 0.9387
-11.2469 11.8807 -0.8297 0.9366
-12.0870 11.8833 -0.8596 0.9344
-13.0025 11.8963 -0.8938 0.9318
-14.9568 11.8300 -0.9671 0.9265
-16.2451 11.9268 -1.0221 0.9225
-17.2786 11.7550 -1.0598 0.9197
-18.8419 11.8522 -1.1289 0.9147
-20.6141 11.9565 -1.2086 0.9090
-22.3421 11.9083 -1.2840 0.9036
-23.7102 11.5645 -1.3378 0.8997
-33.3282 14.7993 -1.8494 0.8641
-37.5838 12.0471 -2.0016 0.8538
-37.9920 10.6904 -2.0016 0.8538
-38.9210 6.5445 -2.0016 0.8538
-39.2902 3.7355 -2.0016 0.8538
-39.4204 -1.9257 -2.0016 0.8538
-39.3259 -3.3394 -2.0016 0.8538
-38.7390 -7.5473 -2.0016 0.8538
-38.4432 -8.9329 -2.0016 0.8538
-38.0978 -10.3070 -2.0016 0.8538
-37.2602 -13.0135 -2.0016 0.8538
-36.7691 -14.3425 -2.0016 0.8538
-34.3381 -19.4569 -2.0016 0.8538
-30.3556 -20.2071 -1.8494 0.8641
-24.9343 -22.3555 -1.6983 0.8745
-23.1394 -22.2953 -1.6296 0.8792
-20.1061 -22.3689 -1.5253 0.8865
-18.7023 -22.3728 -1.4788 0.8898
-17.0761 -21.9853 -1.4118 0.8945
-12.7235 -22.3894 -1.3060 0.9020
-9.7100 -22.3978 -1.2380 0.9069
-8.7701 -22.4004 -1.2200 0.9081
-7.8543 -22.3979 -1.2037 0.9093
-6.9629 -22.4004 -1.1896 0.9103
0.3766 -17.3242 -0.8788 0.9330
1.2938 -22.4234 -1.1391 0.9140
4.7069 -36.1612 -1.8494 0.8641
6.0018 -35.9690 -1.8494 0.8641
9.2717 -38.3629 -2.0016 0.8538
13.3417 -37.1440 -2.0016 0.8538
19.7590 -34.1651 -2.0016 0.8538
20.9726 -33.4339 -2.0016 0.8538
22.1591 -32.6596 -2.0016 0.8538
25.5414 -30.0884 -2.0016 0.8538
28.1836 -23.1404 -1.8494 0.8641
31.2050 -18.8689 -1.8494 0.8641
31.8622 -17.7367 -1.8494 0.8641
36.3481 -15.3783 -2.0016 0.8538
37.3577 -12.7311 -2.0016 0.8538
38.1747 -10.0184 -2.0016 0.8538
34.5078 -2.6674 -1.7553 0.8706
39.4338 -1.6273 -2.0016 0.8538
39.4668 -0.2109 -2.0016 0.8538
39.4490 1.2058 -2.0016 0.8538
39.3803 2.6210 -2.0016 0.8538
38.4635 8.2006 -1.9945 0.8543
35.3688 8.8791 -1.8494 0.8641
35.0273 10.1429 -1.8494 0.8641
34.6407 11.3935 -1.8494 0.8641
34.2094 12.6296 -1.8494 0.8641
33.7341 13.8492 -1.8494 0.8641
33.2152 15.0511 -1.8494 0.8641
32.6536 16.2336 -1.8494 0.8641
29.6403 17.4929 -1.7454 0.8712
30.7194 19.6496 -1.8494 0.8641
29.2306 21.8028 -1.8494 0.8641
27.2686 25.3303 -1.8875 0.8615
26.9047 28.8553 -2.0008 0.8538
25.8615 29.8137 -2.0016 0.8538
22.5069 32.4209 -2.0016 0.8538
21.3287 33.2079 -2.0016 0.8538
20.1230 33.9520 -2.0016 0.8538
13.7379 36.9993 -2.0016 0.8538
12.4010 37.4685 -2.0016 0.8538
4.4785 15.3588 -0.8113 0.9379
2.8276 13.1421 -0.6817 0.9476
2.3557 13.2445 -0.6822 0.9475
1.8360 13.0167 -0.6667 0.9487
1.3006 12.4337 -0.6340 0.9512
0.8428 12.3169 -0.6261 0.9518
0.3996 12.3219 -0.6252 0.9518
-0.0415 11.9264 -0.6048 0.9534
-0.4699 11.9260 -0.6053 0.9533
-1.7713 11.9557 -0.6129 0.9527
-2.6441 11.8864 -0.6175 0.9524
-4.5495 11.9963 -0.6507 0.9499
-5.5099 11.8794 -0.6641 0.9489
-6.1178 12.0383 -0.6848 0.9474
-6.6466 11.9925 -0.6954 0.9466
-7.7556 11.8923 -0.7200 0.9447
-9.0036 11.8514 -0.7548 0.9421
-9.7357 11.9027 -0.7798 0.9403
-12.0884 11.8991 -0.8602 0.9343
-13.9674 11.9015 -0.9306 0.9291
-16.2076 11.9144 -1.0201 0.9226
-17.2702 11.7647 -1.0598 0.9197
-22.3366 11.9228 -1.2841 0.9036
-33.3192 14.8196 -1.8494 0.8641
-37.9855 10.7135 -2.0016 0.8538
-38.3455 9.3432 -2.0016 0.8538
-38.6562 7.9609 -2.0016 0.8538
-38.9170 6.5683 -2.0016 0.8538
-39.4564 0.9313 -2.0016 0.8538
-39.4644 -0.4855 -2.0016 0.8538
-39.3279 -3.3154 -2.0016 0.8538
-37.7104 -11.6448 -2.0016 0.8538
-37.2681 -12.9908 -2.0016 0.8538
-36.7779 -14.3201 -2.0016 0.8538
-30.3679 -20.1886 -1.8494 0.8641
-26.8381 -22.3502 -1.7712 0.8695
-23.1676 -22.2952 -1.6306 0.8792
-21.6292 -22.3647 -1.5779 0.8828
-20.1307 -22.3688 -1.5262 0.8865
-18.7254 -22.3727 -1.4796 0.8897
-13.5218 -21.8931 -1.3050 0.9021
-12.7416 -22.3894 -1.3065 0.9020
-11.6998 -22.3922 -1.2813 0.9038
-9.7262 -22.3977 -1.2384 0.9068
-8.7858 -22.4003 -1.2203 0.9081
-6.9779 -22.4004 -1.1899 0.9103
-6.1057 -22.4028 -1.1776 0.9112
-5.2502 -22.4052 -1.1670 0.9120
-4.4294 -22.5118 -1.1636 0.9122
-3.5792 -22.4098 -1.1509 0.9131
-1.9454 -22.4144 -1.1410 0.9138
-0.3313 -22.4189 -1.1371 0.9141
5.9799 -35.9726 -1.8494 0.8641
10.6196 -38.0119 -2.0016 0.8538
11.9771 -37.6062 -2.0016 0.8538
13.3191 -37.1521 -2.0016 0.8538
15.9500 -36.1009 -2.0016 0.8538
2.2291 -4.2011 -0.2412 0.9811
19.7382 -34.1772 -2.0016 0.8538
25.5231 -30.1040 -2.0016 0.8538
26.5701 -29.1498 -2.0003 0.8539
26.9835 -25.6394 -1.8877 0.8615
27.3201 -24.1537 -1.8494 0.8641
28.1694 -23.1575 -1.8494 0.8641
28.9825 -22.1315 -1.8494 0.8641
31.8514 -17.7561 -1.8494 0.8641
32.5135 -16.6246 -1.8519 0.8639
34.6875 -16.1930 -1.9414 0.8579
36.3387 -15.4005 -2.0016 0.8538
36.8681 -14.0862 -2.0016 0.8538
37.3499 -12.7539 -2.0016 0.8538
37.7836 -11.4051 -2.0016 0.8538
38.5044 -8.6652 -2.0016 0.8538
38.7906 -7.2776 -2.0016 0.8538
34.4993 -2.6879 -1.7549 0.8706
39.4667 -0.2349 -2.0016 0.8538
39.4497 1.1818 -2.0016 0.8538
39.2633 4.0088 -2.0016 0.8538
35.3742 8.8575 -1.8494 0.8641
34.2171 12.6087 -1.8494 0.8641
33.7425 13.8287 -1.8494 0.8641
33.2244 15.0309 -1.8494 0.8641
32.6635 16.2137 -1.8494 0.8641
32.0605 17.3757 -1.8494 0.8641
29.6403 17.4686 -1.7448 0.8713
30.0069 20.7213 -1.8494 0.8641
27.9365 22.4140 -1.8165 0.8664
27.6057 23.8268 -1.8494 0.8641
27.2686 25.2994 -1.8864 0.8616
-1.7665 11.8736 -0.8802 0.9530
-2.6568 11.9095 -0.8947 0.9522
-4.5127 11.8774 -0.9316 0.9503
-4.9925 11.8416 -0.9423 0.9498
-6.6183 11.9244 -1.0000 0.9468
-7.2836 12.0797 -1.0343 0.9450
-11.3115 11.9491 -1.2064 0.9361
-12.0469 11.8438 -1.2387 0.9345
-15.6800 11.5119 -1.4263 0.9249
-16.9333 11.5201 -1.5017 0.9211
-18.3284 11.5292 -1.5876 0.9168
-19.8951 11.5395 -1.6864 0.9119
-22.6696 11.0570 -1.8494 0.9038
-25.6938 8.2359 -1.9783 0.8974
-26.5262 6.4462 -2.0016 0.8963
-26.9203 4.5266 -2.0016 0.8963
-27.1756 2.5837 -2.0016 0.8963
-27.2509 1.6067 -2.0016 0.8963
-27.2910 0.6275 -2.0016 0.8963
-27.2657 -1.3320 -2.0016 0.8963
-25.1423 -3.0473 -1.8570 0.9034
-25.0168 -3.9477 -1.8570 0.9034
-26.5898 -6.1786 -2.0016 0.8963
-26.3509 -7.1290 -2.0016 0.8963
-25.7715 -9.0010 -2.0016 0.8963
-25.4319 -9.9202 -2.0016 0.8963
-25.0594 -10.8266 -2.0016 0.8963
-24.2182 -12.5965 -2.0016 0.8963
-23.2521 -14.3014 -2.0016 0.8963
-22.7238 -15.1268 -2.0016 0.8963
-22.1305 -15.9070 -1.9983 0.8965
-19.4221 -16.1944 -1.8542 0.9036
-18.7796 -16.8373 -1.8494 0.9038
-18.1632 -17.5005 -1.8494 0.9038
-16.8609 -18.7585 -1.8494 0.9038
-16.1767 -19.3516 -1.8494 0.9038
-15.4717 -19.9197 -1.8494 0.9038
-13.2409 -21.4674 -1.8494 0.9038
-12.4618 -21.9288 -1.8494 0.9038
-9.7100 -22.3978 -1.7899 0.9067
-8.7701 -22.4004 -1.7638 0.9080
-6.9629 -22.4004 -1.7200 0.9102
-6.0910 -22.4028 -1.7023 0.9111
-4.3290 -22.0726 -1.6492 0.9137
-1.9317 -22.4144 -1.6496 0.9137
-0.3176 -22.4189 -1.6440 0.9140
1.2938 -22.4234 -1.6469 0.9139
3.2556 -25.0114 -1.8494 0.9038
5.0416 -24.7134 -1.8494 0.9038
5.9253 -24.5165 -1.8494 0.9038
6.8014 -24.2881 -1.8494 0.9038
7.6688 -24.0283 -1.8494 0.9038
9.2280 -25.6911 -2.0016 0.8963
10.1442 -25.3434 -2.0016 0.8963
11.0473 -24.9629 -2.0016 0.8963
11.9361 -24.5503 -2.0016 0.8963
13.6666 -23.6308 -2.0016 0.8963
16.1276 -22.0248 -2.0016 0.8963
19.1135 -19.4901 -2.0016 0.8963
20.4625 -18.0687 -2.0016 0.8963
21.0978 -17.3226 -2.0016 0.8963
21.7060 -16.5542 -2.0016 0.8963
22.8376 -14.9544 -2.0016 0.8963
23.3597 -14.1250 -2.0016 0.8963
24.7427 -11.5322 -2.0016 0.8963
25.5062 -9.7274 -2.0016 0.8963
25.8389 -8.8057 -2.0016 0.8963
26.9959 -4.0509 -2.0016 0.8963
27.2170 -2.1038 -2.0016 0.8963
27.2379 1.8128 -2.0016 0.8963
26.8852 4.7302 -2.0016 0.8963
26.6981 5.6922 -2.0016 0.8963
25.6087 9.4543 -2.0016 0.8963
25.2529 10.3674 -2.0016 0.8963
24.4441 12.1523 -2.0016 0.8963
23.9921 13.0218 -2.0016 0.8963
22.4534 15.5254 -2.0016 0.8963
20.6544 17.8490 -2.0016 0.8963
19.3207 19.2847 -2.0016 0.8963
15.5672 22.4244 -2.0016 0.8963
14.7523 22.9687 -2.0016 0.8963
13.9184 23.4834 -2.0016 0.8963
13.0665 23.9678 -2.0016 0.8963
10.4144 25.2335 -2.0016 0.8963
9.5020 25.5910 -2.0016 0.8963
4.6536 15.9594 -1.2189 0.9355
3.4087 13.4718 -1.0189 0.9458
2.8369 13.1852 -0.9889 0.9473
1.8409 13.0513 -0.9664 0.9485
1.3219 12.6374 -0.9317 0.9503
0.8417 12.3003 -0.9040 0.9518
-0.4691 11.9057 -0.8736 0.9533
-0.8921 11.8275 -0.8697 0.9535
-1.7607 11.8842 -0.8809 0.9530
-3.0783 11.8195 -0.8955 0.9522
-3.5485 11.8616 -0.9078 0.9516
-4.5144 11.9039 -0.9335 0.9502
-5.0041 11.8894 -0.9458 0.9496
-6.0500 11.9048 -0.9791 0.9479
-7.2904 12.1076 -1.0363 0.9449
-8.3029 11.7843 -1.0570 0.9438
-9.7386 11.9061 -1.1278 0.9402
-11.3117 11.9638 -1.2072 0.9361
-13.0072 11.9151 -1.2934 0.9317
-14.5268 11.5043 -1.3587 0.9284
-15.6598 11.5117 -1.4251 0.9250
-16.9109 11.5199 -1.5003 0.9212
-18.3034 11.5290 -1.5861 0.9169
-19.8669 11.5393 -1.6846 0.9120
-23.0457 10.2502 -1.8494 0.9038
-21.2218 8.5404 -1.6773 0.9123
-26.5222 6.4624 -2.0016 0.8963
-26.7371 5.5062 -2.0016 0.8963
-27.2499 1.6233 -2.0016 0.8963
-27.2961 -0.3358 -2.0016 0.8963
-25.1442 -3.0320 -1.8570 0.9034
-25.0192 -3.9325 -1.8570 0.9034
-24.8619 -4.8280 -1.8570 0.9034
-26.5935 -6.1624 -2.0016 0.8963
-26.3552 -7.1129 -2.0016 0.8963
-26.0829 -8.0543 -2.0016 0.8963
-25.7770 -8.9853 -2.0016 0.8963
-25.4379 -9.9047 -2.0016 0.8963
-24.2258 -12.5817 -2.0016 0.8963
-23.2608 -14.2872 -2.0016 0.8963
-22.7330 -15.1129 -2.0016 0.8963
-22.1424 -15.8951 -1.9985 0.8964
-20.9075 -16.1765 -1.9383 0.8994
-18.7898 -16.8259 -1.8494 0.9038
-18.1738 -17.4895 -1.8494 0.9038
-17.5344 -18.1305 -1.8494 0.9038
-15.4839 -19.9103 -1.8494 0.9038
-12.4752 -21.9212 -1.8494 0.9038
-10.6962 -22.3950 -1.8197 0.9053
-7.8696 -22.3979 -1.7407 0.9092
-5.2227 -16.7661 -1.2876 0.9320
-5.2502 -22.4052 -1.6873 0.9118
-4.3430 -22.0725 -1.6494 0.9137
-2.7588 -22.4121 -1.6557 0.9134
-1.9454 -22.4144 -1.6496 0.9137
-0.3313 -22.4189 -1.6440 0.9140
0.3641 -17.2329 -1.2638 0.9332
1.2801 -22.4233 -1.6468 0.9139
3.2403 -25.0134 -1.8494 0.9038
4.1361 -24.8810 -1.8494 0.9038
5.9103 -24.5201 -1.8494 0.9038
9.2123 -25.6967 -2.0016 0.8963
10.1287 -25.3495 -2.0016 0.8963
11.0321 -24.9697 -2.0016 0.8963
11.9212 -24.5576 -2.0016 0.8963
14.4919 -23.1339 -2.0016 0.8963
15.3129 -22.5988 -2.0016 0.8963
16.8946 -21.4420 -2.0016 0.8963
20.4515 -18.0812 -2.0016 0.8963
21.0873 -17.3354 -2.0016 0.8963
21.6959 -16.5674 -2.0016 0.8963
22.2766 -15.7780 -2.0016 0.8963
23.3511 -14.1392 -2.0016 0.8963
23.8435 -13.2920 -2.0016 0.8963
25.8336 -8.8214 -2.0016 0.8963
26.3998 -6.9454 -2.0016 0.8963
26.6321 -5.9934 -2.0016 0.8963
26.8301 -5.0336 -2.0016 0.8963
27.1221 -3.0959 -2.0016 0.8963
27.2157 -2.1204 -2.0016 0.8963
27.2977 -0.1625 -2.0016 0.8963
27.2859 0.8174 -2.0016 0.8963
27.1570 2.7728 -2.0016 0.8963
26.7016 5.6759 -2.0016 0.8963
26.2256 7.5768 -2.0016 0.8963
25.2592 10.3520 -2.0016 0.8963
24.8714 11.2519 -2.0016 0.8963
24.4515 12.1374 -2.0016 0.8963
24.0001 13.0072 -2.0016 0.8963
23.5177 13.8603 -2.0016 0.8963
23.0051 14.6955 -2.0016 0.8963
20.6653 17.8364 -2.0016 0.8963
20.0118 18.5666 -2.0016 0.8963
-2.2281 11.9993 -1.1717 0.9521
-3.1375 12.0168 -1.1923 0.9513
-3.5695 11.9055 -1.1933 0.9513
-4.0516 11.9379 -1.2103 0.9506
-5.5407 11.9269 -1.2626 0.9485
-6.0990 11.9832 -1.2909 0.9474
-7.0725 11.7296 -1.3150 0.9464
-7.4890 11.4682 -1.3150 0.9464
-8.0863 11.4621 -1.3467 0.9452
-9.3940 11.4707 -1.4234 0.9422
-10.8678 11.4803 -1.5177 0.9385
-11.6826 11.4857 -1.5729 0.9363
-12.5600 11.4914 -1.6344 0.9339
-14.5451 11.5044 -1.7804 0.9282
-16.9993 9.0605 -1.8494 0.9255
-18.5593 8.2412 -1.9496 0.9216
-19.3458 7.7717 -2.0016 0.9196
-20.4226 4.1929 -2.0016 0.9196
-20.6707 2.7170 -2.0016 0.9196
-20.7549 1.9733 -2.0016 0.9196
-20.8430 0.4792 -2.0016 0.9196
-20.8468 -0.2692 -2.0016 0.9196
-20.7737 -1.7640 -2.0016 0.9196
-19.9166 -6.1635 -2.0016 0.9196
-19.6826 -6.8743 -2.0016 0.9196
-19.4231 -7.5764 -2.0016 0.9196
-19.1387 -8.2686 -2.0016 0.9196
-18.8296 -8.9502 -2.0016 0.9196
-18.4962 -9.6203 -2.0016 0.9196
-18.1389 -10.2781 -2.0016 0.9196
-17.3549 -11.5528 -2.0016 0.9196
-16.9291 -12.1683 -2.0016 0.9196
-16.4814 -12.7681 -2.0016 0.9196
-16.0125 -13.3514 -2.0016 0.9196
-15.5230 -13.9175 -2.0016 0.9196
-13.9370 -15.5055 -2.0016 0.9196
-11.6613 -16.1809 -1.9148 0.9230
-8.9102 -17.0786 -1.8494 0.9255
-7.6621 -17.6738 -1.8494 0.9255
-7.0228 -17.9374 -1.8494 0.9255
-6.3744 -18.1779 -1.8494 0.9255
-5.1970 -16.7192 -1.6809 0.9321
-5.0539 -18.5884 -1.8494 0.9255
-4.3835 -18.7578 -1.8494 0.9255
-3.7074 -18.9030 -1.8494 0.9255
-0.2729 -19.2612 -1.8494 0.9255
2.4864 -19.1020 -1.8494 0.9255
3.1704 -19.0005 -1.8494 0.9255
3.8504 -18.8744 -1.8494 0.9255
4.5253 -18.7241 -1.8494 0.9255
5.3521 -19.1124 -1.9055 0.9233
7.7474 -19.3555 -2.0016 0.9196
8.4371 -19.0650 -2.0016 0.9196
9.1160 -18.7499 -2.0016 0.9196
2.2315 -4.1995 -0.4566 0.9811
10.4376 -18.0476 -2.0016 0.9196
11.7055 -17.2523 -2.0016 0.9196
12.9130 -16.3681 -2.0016 0.9196
13.4921 -15.8941 -2.0016 0.9196
15.1225 -14.3517 -2.0016 0.9196
15.6278 -13.7996 -2.0016 0.9196
16.5776 -12.6429 -2.0016 0.9196
17.4419 -11.4211 -2.0016 0.9196
18.5685 -9.4800 -2.0016 0.9196
19.2007 -8.1235 -2.0016 0.9196
19.7340 -6.7252 -2.0016 0.9196
19.9627 -6.0126 -2.0016 0.9196
20.1656 -5.2922 -2.0016 0.9196
20.3426 -4.5649 -2.0016 0.9196
20.4933 -3.8319 -2.0016 0.9196
20.6177 -3.0938 -2.0016 0.9196
20.7154 -2.3518 -2.0016 0.9196
20.7865 -1.6067 -2.0016 0.9196
20.8308 -0.8596 -2.0016 0.9196
20.8388 0.6370 -2.0016 0.9196
20.8025 1.3845 -2.0016 0.9196
20.5331 3.6126 -2.0016 0.9196
20.0258 5.7989 -2.0016 0.9196
19.8048 6.5139 -2.0016 0.9196
19.2864 7.9179 -2.0016 0.9196
18.9898 8.6050 -2.0016 0.9196
18.3236 9.9453 -2.0016 0.9196
17.9548 10.5965 -2.0016 0.9196
17.5629 11.2341 -2.0016 0.9196
17.1484 11.8572 -2.0016 0.9196
16.7117 12.4651 -2.0016 0.9196
15.7744 13.6319 -2.0016 0.9196
14.7558 14.7284 -2.0016 0.9196
14.2177 15.2485 -2.0016 0.9196
13.6612 15.7490 -2.0016 0.9196
11.8892 17.1262 -2.0016 0.9196
11.2668 17.5419 -2.0016 0.9196
10.6299 17.9350 -2.0016 0.9196
9.9793 18.3050 -2.0016 0.9196
9.3159 18.6514 -2.0016 0.9196
7.3490 17.8062 -1.8494 0.9255
6.7052 18.0585 -1.8494 0.9255
6.0527 18.2875 -1.8494 0.9255
4.2386 14.5360 -1.4536 0.9410
1.8056 12.8014 -1.2412 0.9494
1.2939 12.3704 -1.1941 0.9512
0.8429 12.3173 -1.1853 0.9516
-1.3312 11.9235 -1.1518 0.9529
-1.7772 11.9956 -1.1642 0.9524
-2.6687 11.9969 -1.1799 0.9518
-3.1243 11.9960 -1.1901 0.9514
-3.5604 11.9015 -1.1926 0.9513
-4.0321 11.9043 -1.2067 0.9507
-4.5040 11.8763 -1.2194 0.9502
-5.0429 11.9816 -1.2480 0.9491
-5.5373 11.9386 -1.2635 0.9485
-6.6103 11.9271 -1.3092 0.9467
-7.0654 11.7339 -1.3150 0.9464
-7.4820 11.4728 -1.3150 0.9464
-10.0948 11.4753 -1.4673 0.9404
-11.6683 11.4856 -1.5719 0.9363
-12.5445 11.4913 -1.6333 0.9339
-14.5268 11.5043 -1.7790 0.9282
-15.5207 11.4095 -1.8494 0.9255
-15.9202 10.8451 -1.8494 0.9255
-16.6572 9.6750 -1.8494 0.9255
-16.9938 9.0709 -1.8494 0.9255
-17.3084 8.4551 -1.8494 0.9255
-19.6080 7.0843 -2.0016 0.9196
-20.2559 4.9355 -2.0016 0.9196
-20.4200 4.2053 -2.0016 0.9196
-20.5578 3.4697 -2.0016 0.9196
-20.7537 1.9859 -2.0016 0.9196
-20.7748 -1.7514 -2.0016 0.9196
-20.6986 -2.4959 -2.0016 0.9196
-20.5957 -3.2372 -2.0016 0.9196
-19.6868 -6.8623 -2.0016 0.9196
-19.4278 -7.5645 -2.0016 0.9196
-19.1437 -8.2570 -2.0016 0.9196
-18.8350 -8.9388 -2.0016 0.9196
-18.1452 -10.2670 -2.0016 0.9196
-17.7650 -10.9116 -2.0016 0.9196
-17.3619 -11.5422 -2.0016 0.9196
-16.4892 -12.7580 -2.0016 0.9196
-16.0206 -13.3416 -2.0016 0.9196
-15.5315 -13.9081 -2.0016 0.9196
-14.4936 -14.9865 -2.0016 0.9196
-13.9464 -15.4970 -2.0016 0.9196
-13.3542 -15.9553 -1.9975 0.9198
-12.5761 -16.1713 -1.9667 0.9210
-10.8205 -16.1893 -1.8695 0.9247
-9.5277 -16.7419 -1.8494 0.9255
-8.3021 -17.3823 -1.8494 0.9255
-6.3855 -18.1740 -1.8494 0.9255
-5.1972 -16.6841 -1.6777 0.9322
-4.3949 -18.7551 -1.8494 0.9255
-3.0381 -19.0221 -1.8494 0.9255
-0.9757 -19.2384 -1.8494 0.9255
0.3630 -17.1822 -1.6499 0.9333
1.0979 -19.2318 -1.8494 0.9255
3.1588 -19.0024 -1.8494 0.9255
3.8388 -18.8768 -1.8494 0.9255
7.0358 -19.6254 -2.0016 0.9196
2.2291 -4.2011 -0.4566 0.9811
11.6950 -17.2594 -2.0016 0.9196
12.9030 -16.3760 -2.0016 0.9196
13.4825 -15.9023 -2.0016 0.9196
15.1137 -14.3609 -2.0016 0.9196
16.5699 -12.6530 -2.0016 0.9196
17.0133 -12.0502 -2.0016 0.9196
17.8340 -10.7986 -2.0016 0.9196
19.1958 -8.1352 -2.0016 0.9196
19.4754 -7.4410 -2.0016 0.9196
19.9590 -6.0247 -2.0016 0.9196
20.1624 -5.3045 -2.0016 0.9196
20.3398 -4.5773 -2.0016 0.9196
20.4910 -3.8443 -2.0016 0.9196
20.7140 -2.3644 -2.0016 0.9196
20.8481 -0.1241 -2.0016 0.9196
20.8391 0.6243 -2.0016 0.9196
20.8033 1.3718 -2.0016 0.9196
20.3929 4.3349 -2.0016 0.9196
20.2241 5.0640 -2.0016 0.9196
20.0293 5.7867 -2.0016 0.9196
19.5626 7.2086 -2.0016 0.9196
18.9951 8.5935 -2.0016 0.9196
18.6744 9.2697 -2.0016 0.9196
18.3296 9.9340 -2.0016 0.9196
17.5697 11.2234 -2.0016 0.9196
16.7193 12.4549 -2.0016 0.9196
15.7827 13.6222 -2.0016 0.9196
15.2836 14.1799 -2.0016 0.9196
-2.5489 11.4258 -1.3906 0.9539
-2.9839 11.4287 -1.4031 0.9535
-3.4274 11.4316 -1.4176 0.9531
-3.8808 11.4345 -1.4344 0.9525
-4.3456 11.4376 -1.4534 0.9519
-4.8235 11.4407 -1.4748 0.9512
-5.3164 11.4439 -1.4989 0.9504
-6.3555 11.4507 -1.5556 0.9486
-6.9065 11.4544 -1.5888 0.9475
-10.7031 11.3063 -1.8494 0.9392
-11.1020 10.9149 -1.8494 0.9392
-11.4866 10.5094 -1.8494 0.9392
-12.2110 9.6582 -1.8494 0.9392
-13.1784 8.2897 -1.8494 0.9392
-14.2082 8.2410 -1.9511 0.9360
-16.0460 5.1434 -2.0016 0.9344
-16.2202 4.5641 -2.0016 0.9344
-16.3736 3.9790 -2.0016 0.9344
-16.8487 -0.2176 -2.0016 0.9344
-16.7277 -2.0274 -2.0016 0.9344
-16.6442 -2.6265 -2.0016 0.9344
-16.4129 -3.8138 -2.0016 0.9344
-16.2654 -4.4004 -2.0016 0.9344
-16.0970 -4.9814 -2.0016 0.9344
-15.9078 -5.5560 -2.0016 0.9344
-15.6982 -6.1234 -2.0016 0.9344
-15.4683 -6.6829 -2.0016 0.9344
-15.2184 -7.2338 -2.0016 0.9344
-14.9490 -7.7753 -2.0016 0.9344
-14.6603 -8.3069 -2.0016 0.9344
-14.3527 -8.8277 -2.0016 0.9344
-14.0266 -9.3372 -2.0016 0.9344
-13.6824 -9.8346 -2.0016 0.9344
-13.3206 -10.3194 -2.0016 0.9344
-12.5460 -11.2484 -2.0016 0.9344
-12.1341 -11.6915 -2.0016 0.9344
-10.8071 -12.9281 -2.0016 0.9344
-10.3361 -13.3076 -2.0016 0.9344
-9.8518 -13.6700 -2.0016 0.9344
-8.8457 -14.3416 -2.0016 0.9344
-7.7941 -14.9392 -2.0016 0.9344
-6.7023 -15.4599 -2.0016 0.9344
-4.3956 -16.1669 -1.9901 0.9347
-3.7788 -16.1702 -1.9725 0.9353
-2.5733 -16.1752 -1.9455 0.9362
-1.3943 -16.1790 -1.9290 0.9367
-0.8118 -16.2008 -1.9268 0.9367
0.3554 -16.3506 -1.9427 0.9362
1.5629 -16.6600 -1.9877 0.9348
2.1703 -16.6735 -1.9973 0.9345
2.7733 -16.6204 -2.0016 0.9344
3.3680 -16.5101 -2.0016 0.9344
6.2616 -15.6435 -2.0016 0.9344
7.3677 -15.1540 -2.0016 0.9344
8.4359 -14.5864 -2.0016 0.9344
9.4606 -13.9436 -2.0016 0.9344
11.7981 -12.0305 -2.0016 0.9344
13.0229 -10.6926 -2.0016 0.9344
13.7564 -9.7308 -2.0016 0.9344
14.4191 -8.7188 -2.0016 0.9344
14.7227 -8.1957 -2.0016 0.9344
15.2727 -7.1184 -2.0016 0.9344
15.5184 -6.5656 -2.0016 0.9344
15.7440 -6.0044 -2.0016 0.9344
16.1342 -4.8595 -2.0016 0.9344
16.2983 -4.2772 -2.0016 0.9344
16.4413 -3.6895 -2.0016 0.9344
16.5631 -3.0970 -2.0016 0.9344
16.6636 -2.5005 -2.0016 0.9344
16.8358 -0.6948 -2.0016 0.9344
16.8423 0.5148 -2.0016 0.9344
16.7620 1.7217 -2.0016 0.9344
16.3430 4.1028 -2.0016 0.9344
16.1852 4.6868 -2.0016 0.9344
16.0066 5.2647 -2.0016 0.9344
15.8073 5.8358 -2.0016 0.9344
15.5877 6.3994 -2.0016 0.9344
15.0884 7.5011 -2.0016 0.9344
13.1364 10.5528 -2.0016 0.9344
12.3455 11.4680 -2.0016 0.9344
11.9260 11.9037 -2.0016 0.9344
10.5773 13.1167 -2.0016 0.9344
10.0997 13.4879 -2.0016 0.9344
9.6090 13.8417 -2.0016 0.9344
8.5913 14.4954 -2.0016 0.9344
4.8919 14.7804 -1.8494 0.9392
4.2386 14.5361 -1.7986 0.9408
3.3509 13.2434 -1.6227 0.9465
2.2686 12.7552 -1.5389 0.9492
1.7671 12.5290 -1.5030 0.9503
1.2879 12.3128 -1.4706 0.9514
0.8283 12.1055 -1.4413 0.9523
0.3861 11.9060 -1.4150 0.9531
-0.4542 11.5270 -1.3703 0.9546
-1.2747 11.4175 -1.3647 0.9548
-1.6919 11.4202 -1.3714 0.9546
-2.5416 11.4258 -1.3904 0.9539
-2.9765 11.4286 -1.4028 0.9535
-3.4198 11.4315 -1.4174 0.9531
-3.8730 11.4345 -1.4341 0.9525
-4.3376 11.4375 -1.4530 0.9519
-4.8152 11.4407 -1.4745 0.9512
-5.3079 11.4439 -1.4985 0.9505
-5.8175 11.4472 -1.5253 0.9496
-6.3463 11.4507 -1.5551 0.9486
-7.4724 11.4581 -1.6249 0.9464
-8.7110 11.4662 -1.7105 0.9436
-9.3823 11.4706 -1.7603 0.9421
-10.0948 11.4753 -1.8155 0.9403
-11.0954 10.9216 -1.8494 0.9392
-11.8503 10.0975 -1.8494 0.9392
-14.8472 7.9251 -1.9992 0.9345
-15.1402 7.3960 -2.0016 0.9344
-16.0428 5.1532 -2.0016 0.9344
-16.6152 2.8042 -2.0016 0.9344
-16.7735 1.6051 -2.0016 0.9344
-16.8455 0.3976 -2.0016 0.9344
-16.8489 -0.2073 -2.0016 0.9344
-16.2681 -4.3905 -2.0016 0.9344
-16.1000 -4.9716 -2.0016 0.9344
-15.2228 -7.2245 -2.0016 0.9344
-14.9537 -7.7662 -2.0016 0.9344
-14.6653 -8.2979 -2.0016 0.9344
-14.3580 -8.8190 -2.0016 0.9344
-13.6884 -9.8263 -2.0016 0.9344
-12.9482 -10.7830 -2.0016 0.9344
-12.1413 -11.6841 -2.0016 0.9344
-11.7141 -12.1123 -2.0016 0.9344
-11.2718 -12.5250 -2.0016 0.9344
-10.3442 -13.3013 -2.0016 0.9344
-9.8601 -13.6640 -2.0016 0.9344
-7.2621 -15.2049 -2.0016 0.9344
-6.1526 -15.6867 -2.0016 0.9344
-5.5781 -15.8760 -1.9989 0.9345
-2.5834 -16.1751 -1.9457 0.9361
-0.8216 -16.2000 -1.9268 0.9367
0.3454 -16.3487 -1.9424 0.9363
0.9408 -16.4805 -1.9608 0.9357
1.5523 -16.6568 -1.9872 0.9348
3.3580 -16.5122 -2.0016 0.9344
3.9485 -16.3810 -2.0016 0.9344
4.5339 -16.2287 -2.0016 0.9344
5.6864 -15.8616 -2.0016 0.9344
2.2291 -4.2011 -0.5649 0.9810
8.4270 -14.5915 -2.0016 0.9344
8.9453 -14.2797 -2.0016 0.9344
10.8968 -12.8525 -2.0016 0.9344
12.2152 -11.6067 -2.0016 0.9344
13.0164 -10.7005 -2.0016 0.9344
13.3921 -10.2264 -2.0016 0.9344
13.7505 -9.7392 -2.0016 0.9344
14.0912 -9.2394 -2.0016 0.9344
14.7177 -8.2047 -2.0016 0.9344
15.2684 -7.1277 -2.0016 0.9344
15.7404 -6.0140 -2.0016 0.9344
15.9461 -5.4451 -2.0016 0.9344
16.1313 -4.8693 -2.0016 0.9344
16.2956 -4.2872 -2.0016 0.9344
16.5612 -3.1071 -2.0016 0.9344
16.6621 -2.5106 -2.0016 0.9344
16.7414 -1.9110 -2.0016 0.9344
16.8354 -0.7050 -2.0016 0.9344
16.8426 0.5045 -2.0016 0.9344
16.8136 1.1088 -2.0016 0.9344
16.7630 1.7115 -2.0016 0.9344
16.6908 2.3121 -2.0016 0.9344
16.4819 3.5035 -2.0016 0.9344
16.3455 4.0928 -2.0016 0.9344
15.0930 7.4920 -2.0016 0.9344
14.8143 8.0289 -2.0016 0.9344
13.8655 9.5748 -2.0016 0.9344
13.5129 10.0663 -2.0016 0.9344
13.1429 10.5448 -2.0016 0.9344
-2.1210 11.4230 -1.6462 0.9541
-2.5489 11.4258 -1.6587 0.9538
-3.4274 11.4316 -1.6910 0.9529
-3.8808 11.4345 -1.7109 0.9524
-6.3341 11.4123 -1.8494 0.9486
-6.7396 11.1776 -1.8494 0.9486
-7.1365 10.9284 -1.8494 0.9486
-8.2699 10.0980 -1.8494 0.9486
-9.3074 9.1505 -1.8494 0.9486
-9.6299 8.8106 -1.8494 0.9486
-10.4345 8.2532 -1.8850 0.9477
-11.2194 8.2371 -1.9721 0.9453
-11.6647 7.9357 -1.9990 0.9446
-12.2197 7.0876 -2.0016 0.9445
-12.4662 6.6444 -2.0016 0.9445
-13.8378 2.8410 -2.0016 0.9445
-13.9308 2.3425 -2.0016 0.9445
-14.0630 1.3370 -2.0016 0.9445
-14.1019 0.8314 -2.0016 0.9445
-14.1227 0.3247 -2.0016 0.9445
-14.1252 -0.1824 -2.0016 0.9445
-14.1096 -0.6893 -2.0016 0.9445
-14.0757 -1.1953 -2.0016 0.9445
-14.0238 -1.6997 -2.0016 0.9445
-12.7659 -2.9664 -1.8570 0.9484
-12.3731 -4.3214 -1.8570 0.9484
-12.0312 -5.1979 -1.8570 0.9484
-11.8368 -5.6264 -1.8570 0.9484
-12.2905 -6.9641 -2.0016 0.9445
-12.0326 -7.4008 -2.0016 0.9445
-11.7592 -7.8279 -2.0016 0.9445
-11.4707 -8.2449 -2.0016 0.9445
-10.5180 -9.4302 -2.0016 0.9445
-9.8143 -10.1604 -2.0016 0.9445
-9.0602 -10.8383 -2.0016 0.9445
-8.6653 -11.1565 -2.0016 0.9445
-8.2593 -11.4603 -2.0016 0.9445
-7.4158 -12.0233 -2.0016 0.9445
-6.9795 -12.2818 -2.0016 0.9445
-6.5342 -12.5244 -2.0016 0.9445
-5.1500 -13.1542 -2.0016 0.9445
-4.6746 -13.3305 -2.0016 0.9445
-4.1931 -13.4897 -2.0016 0.9445
-3.2146 -13.7558 -2.0016 0.9445
-2.2195 -13.9510 -2.0016 0.9445
-1.7173 -14.0216 -2.0016 0.9445
-0.7070 -14.1087 -2.0016 0.9445
-0.2001 -14.1250 -2.0016 0.9445
2.3250 -13.9338 -2.0016 0.9445
2.8236 -13.8413 -2.0016 0.9445
4.2951 -13.4576 -2.0016 0.9445
4.7753 -13.2948 -2.0016 0.9445
5.2494 -13.1148 -2.0016 0.9445
6.1768 -12.7044 -2.0016 0.9445
8.3458 -11.3975 -2.0016 0.9445
8.7495 -11.0906 -2.0016 0.9445
9.1419 -10.7694 -2.0016 0.9445
9.5226 -10.4343 -2.0016 0.9445
10.2466 -9.7243 -2.0016 0.9445
10.5890 -9.3503 -2.0016 0.9445
11.2325 -8.5665 -2.0016 0.9445
11.5328 -8.1579 -2.0016 0.9445
11.8181 -7.7387 -2.0016 0.9445
12.0883 -7.3095 -2.0016 0.9445
12.3429 -6.8709 -2.0016 0.9445
13.1991 -5.0338 -2.0016 0.9445
13.3713 -4.5568 -2.0016 0.9445
13.7836 -3.0931 -2.0016 0.9445
13.8858 -2.5964 -2.0016 0.9445
13.9700 -2.0963 -2.0016 0.9445
14.1144 -0.5825 -2.0016 0.9445
14.1198 0.4316 -2.0016 0.9445
13.9916 1.9469 -2.0016 0.9445
13.9127 2.4478 -2.0016 0.9445
13.7013 3.4396 -2.0016 0.9445
13.2521 4.8925 -2.0016 0.9445
12.8670 5.8306 -2.0016 0.9445
11.9002 7.6119 -2.0016 0.9445
11.3234 8.4460 -2.0016 0.9445
9.6335 10.3320 -2.0016 0.9445
8.8675 10.9965 -2.0016 0.9445
8.4671 11.3077 -2.0016 0.9445
8.0558 11.6043 -2.0016 0.9445
6.2476 11.4599 -1.8494 0.9486
5.4093 11.8785 -1.8494 0.9486
4.1011 12.3912 -1.8494 0.9486
2.7454 12.7602 -1.8494 0.9486
2.2686 12.7552 -1.8356 0.9490
1.7671 12.5290 -1.7928 0.9502
-2.9765 11.4286 -1.6733 0.9534
-3.4198 11.4315 -1.6906 0.9529
-4.8152 11.4407 -1.7587 0.9511
-5.3079 11.4439 -1.7874 0.9503
-6.3272 11.4161 -1.8494 0.9486
-6.7328 11.1817 -1.8494 0.9486
-7.1298 10.9328 -1.8494 0.9486
-7.5176 10.6698 -1.8494 0.9486
-8.2637 10.1030 -1.8494 0.9486
-8.6210 9.7999 -1.8494 0.9486
-8.9672 9.4842 -1.8494 0.9486
-9.3019 9.1562 -1.8494 0.9486
-11.6592 7.9424 -1.9989 0.9446
-12.4622 6.6520 -2.0016 0.9445
-12.6929 6.2005 -2.0016 0.9445
-12.9073 5.7409 -2.0016 0.9445
-13.1050 5.2739 -2.0016 0.9445
-13.2859 4.8001 -2.0016 0.9445
-13.4496 4.3202 -2.0016 0.9445
-13.5960 3.8346 -2.0016 0.9445
-13.7249 3.3442 -2.0016 0.9445
-13.9294 2.3509 -2.0016 0.9445
-14.0048 1.8495 -2.0016 0.9445
-14.1253 -0.1738 -2.0016 0.9445
-14.0765 -1.1867 -2.0016 0.9445
-13.9551 -2.1934 -2.0016 0.9445
-12.3757 -4.3139 -1.8570 0.9484
-12.2129 -4.7553 -1.8570 0.9484
-11.8403 -5.6192 -1.8570 0.9484
-12.5365 -6.5108 -2.0016 0.9445
-12.2947 -6.9566 -2.0016 0.9445
-11.7640 -7.8207 -2.0016 0.9445
-11.4757 -8.2379 -2.0016 0.9445
-10.8552 -9.0400 -2.0016 0.9445
-10.5237 -9.4238 -2.0016 0.9445
-10.1787 -9.7954 -2.0016 0.9445
-9.8205 -10.1544 -2.0016 0.9445
-9.4497 -10.5004 -2.0016 0.9445
-9.0668 -10.8328 -2.0016 0.9445
-8.6721 -11.1512 -2.0016 0.9445
-6.9870 -12.2775 -2.0016 0.9445
-6.5418 -12.5204 -2.0016 0.9445
-5.6267 -12.9574 -2.0016 0.9445
-3.7145 -13.6293 -2.0016 0.9445
-3.2230 -13.7538 -2.0016 0.9445
-2.7272 -13.8606 -2.0016 0.9445
-2.2280 -13.9496 -2.0016 0.9445
-1.7258 -14.0206 -2.0016 0.9445
-0.2087 -14.1249 -2.0016 0.9445
0.2984 -14.1233 -2.0016 0.9445
1.3108 -14.0654 -2.0016 0.9445
1.8148 -14.0093 -2.0016 0.9445
2.8152 -13.8430 -2.0016 0.9445
5.2415 -13.1180 -2.0016 0.9445
5.7089 -12.9214 -2.0016 0.9445
2.2291 -4.2011 -0.6738 0.9810
8.7427 -11.0959 -2.0016 0.9445
9.5162 -10.4401 -2.0016 0.9445
9.8848 -10.0919 -2.0016 0.9445
10.2407 -9.7306 -2.0016 0.9445
10.5833 -9.3567 -2.0016 0.9445
10.9124 -8.9708 -2.0016 0.9445
11.2273 -8.5734 -2.0016 0.9445
11.8134 -7.7459 -2.0016 0.9445
12.0838 -7.3168 -2.0016 0.9445
13.0066 -5.5122 -2.0016 0.9445
13.1960 -5.0418 -2.0016 0.9445
13.5237 -4.0822 -2.0016 0.9445
13.6615 -3.5942 -2.0016 0.9445
13.8842 -2.6048 -2.0016 0.9445
14.0353 -1.6021 -2.0016 0.9445
14.1262 -0.0841 -2.0016 0.9445
13.9142 2.4393 -2.0016 0.9445
13.8177 2.9372 -2.0016 0.9445
13.4219 4.4055 -2.0016 0.9445
13.2551 4.8844 -2.0016 0.9445
12.6533 6.2809 -2.0016 0.9445
12.1701 7.1725 -2.0016 0.9445
11.9048 7.6047 -2.0016 0.9445
11.0184 8.8403 -2.0016 0.9445
10.3558 9.6080 -2.0016 0.9445
-1.2968 8.7166 -1.4518 0.9649
-2.0494 11.0373 -1.8494 0.9555
-2.4443 10.9567 -1.8494 0.9555
-2.8360 10.8619 -1.8494 0.9555
-3.2240 10.7531 -1.8494 0.9555
-3.9871 10.4941 -1.8494 0.9555
-4.3612 10.3442 -1.8494 0.9555
-5.4479 9.8155 -1.8494 0.9555
-6.1380 9.3994 -1.8494 0.9555
-6.4714 9.1730 -1.8494 0.9555
-7.1128 8.6851 -1.8494 0.9555
-7.4199 8.4242 -1.8494 0.9555
-7.8150 8.2555 -1.8727 0.9550
-8.9344 8.1743 -1.9949 0.9521
-9.5294 7.5372 -2.0016 0.9519
-9.7938 7.1904 -2.0016 0.9519
-10.0456 6.8342 -2.0016 0.9519
-10.2844 6.4692 -2.0016 0.9519
-10.5100 6.0959 -2.0016 0.9519
-10.7220 5.7148 -2.0016 0.9519
-10.9202 5.3262 -2.0016 0.9519
-11.5700 3.7087 -2.0016 0.9519
-11.6957 3.2910 -2.0016 0.9519
-11.8063 2.8691 -2.0016 0.9519
-11.9016 2.4435 -2.0016 0.9519
-12.0953 1.1500 -2.0016 0.9519
-12.1354 -0.5928 -2.0016 0.9519
-12.1063 -1.0280 -2.0016 0.9519
-12.0014 -1.8939 -2.0016 0.9519
-10.9797 -2.5513 -1.8570 0.9553
-10.6419 -3.7168 -1.8570 0.9553
-10.3478 -4.4706 -1.8570 0.9553
-9.8073 -5.5571 -1.8570 0.9553
-10.3490 -6.3653 -2.0016 0.9519
-9.6049 -7.4408 -2.0016 0.9519
-9.0463 -8.1107 -2.0016 0.9519
-8.7494 -8.4302 -2.0016 0.9519
-8.1221 -9.0361 -2.0016 0.9519
-7.4529 -9.5955 -2.0016 0.9519
-6.7453 -10.1055 -2.0016 0.9519
-6.0030 -10.5633 -2.0016 0.9519
-5.6200 -10.7720 -2.0016 0.9519
-5.2297 -10.9668 -2.0016 0.9519
-4.0206 -11.4654 -2.0016 0.9519
-3.6064 -11.6023 -2.0016 0.9519
-3.1877 -11.7243 -2.0016 0.9519
-1.9089 -11.9990 -2.0016 0.9519
-1.4770 -12.0598 -2.0016 0.9519
-0.6080 -12.1346 -2.0016 0.9519
0.2640 -12.1470 -2.0016 0.9519
1.5682 -12.0482 -2.0016 0.9519
1.9997 -11.9842 -2.0016 0.9519
2.4285 -11.9047 -2.0016 0.9519
2.8543 -11.8099 -2.0016 0.9519
3.2763 -11.6998 -2.0016 0.9519
4.5150 -11.2798 -2.0016 0.9519
2.2315 -4.1994 -0.7834 0.9809
6.0827 -10.5176 -2.0016 0.9519
6.8216 -10.0541 -2.0016 0.9519
9.1074 -8.0420 -2.0016 0.9519
9.9191 -7.0164 -2.0016 0.9519
10.3969 -6.2868 -2.0016 0.9519
10.6159 -5.9095 -2.0016 0.9519
11.0125 -5.1327 -2.0016 0.9519
11.3523 -4.3295 -2.0016 0.9519
11.6337 -3.5039 -2.0016 0.9519
11.8550 -2.6603 -2.0016 0.9519
12.0154 -1.8030 -2.0016 0.9519
12.0723 -1.3706 -2.0016 0.9519
12.1137 -0.9364 -2.0016 0.9519
12.1442 0.3712 -2.0016 0.9519
12.0863 1.2415 -2.0016 0.9519
11.9661 2.1053 -2.0016 0.9519
11.7842 2.9583 -2.0016 0.9519
11.5416 3.7961 -2.0016 0.9519
11.0667 5.0148 -2.0016 0.9519
10.8796 5.4087 -2.0016 0.9519
10.2351 6.5469 -2.0016 0.9519
9.9935 6.9100 -2.0016 0.9519
9.7391 7.2643 -2.0016 0.9519
9.4721 7.6091 -2.0016 0.9519
9.1929 7.9442 -2.0016 0.9519
8.5993 8.5832 -2.0016 0.9519
7.6268 9.4579 -2.0016 0.9519
6.9286 9.9806 -2.0016 0.9519
5.0162 10.0429 -1.8494 0.9555
4.6525 10.2165 -1.8494 0.9555
4.2828 10.3769 -1.8494 0.9555
3.5273 10.6574 -1.8494 0.9555
2.7537 10.8830 -1.8494 0.9555
1.5679 11.1160 -1.8494 0.9555
0.7664 11.1998 -1.8494 0.9555
0.3639 11.2201 -1.8494 0.9555
-0.0391 11.2259 -1.8494 0.9555
-0.4420 11.2173 -1.8494 0.9555
-1.2455 11.1567 -1.8494 0.9555
-2.0427 11.0386 -1.8494 0.9555
-2.4376 10.9581 -1.8494 0.9555
-3.2174 10.7550 -1.8494 0.9555
-3.6014 10.6326 -1.8494 0.9555
-4.7235 10.1839 -1.8494 0.9555
-5.0860 10.0078 -1.8494 0.9555
-5.7908 9.6172 -1.8494 0.9555
-7.8056 8.2556 -1.8717 0.9550
-9.2408 7.8740 -2.0000 0.9520
-9.7894 7.1963 -2.0016 0.9519
-10.0414 6.8403 -2.0016 0.9519
-10.2804 6.4755 -2.0016 0.9519
-10.5062 6.1023 -2.0016 0.9519
-11.2714 4.5360 -2.0016 0.9519
-11.9001 2.4507 -2.0016 0.9519
-12.0946 1.1573 -2.0016 0.9519
-12.1465 0.2867 -2.0016 0.9519
-12.0625 -1.4545 -2.0016 0.9519
-12.0025 -1.8865 -2.0016 0.9519
-11.4946 -2.2322 -1.9290 0.9536
-10.9813 -2.5446 -1.8570 0.9553
-10.8829 -2.9371 -1.8570 0.9553
-10.6441 -3.7103 -1.8570 0.9553
-10.3505 -4.4643 -1.8570 0.9553
-10.0036 -5.1954 -1.8570 0.9553
-9.8107 -5.5511 -1.8570 0.9553
-10.1180 -6.7265 -2.0016 0.9519
-9.8701 -7.0853 -2.0016 0.9519
-9.6094 -7.4350 -2.0016 0.9519
-9.3363 -7.7751 -2.0016 0.9519
-9.0512 -8.1052 -2.0016 0.9519
-8.7545 -8.4249 -2.0016 0.9519
-8.4465 -8.7337 -2.0016 0.9519
-8.1276 -9.0312 -2.0016 0.9519
-7.7982 -9.3171 -2.0016 0.9519
-7.4587 -9.5910 -2.0016 0.9519
-7.1097 -9.8525 -2.0016 0.9519
-6.7515 -10.1013 -2.0016 0.9519
-6.3845 -10.3372 -2.0016 0.9519
-4.8395 -11.1445 -2.0016 0.9519
-4.4364 -11.3110 -2.0016 0.9519
-4.0275 -11.4629 -2.0016 0.9519
-3.6135 -11.6001 -2.0016 0.9519
-3.1948 -11.7223 -2.0016 0.9519
-2.3456 -11.9213 -2.0016 0.9519
-1.9162 -11.9978 -2.0016 0.9519
-1.4844 -12.0589 -2.0016 0.9519
-0.6154 -12.1343 -2.0016 0.9519
0.2566 -12.1472 -2.0016 0.9519
1.1274 -12.0975 -2.0016 0.9519
2.8471 -11.8116 -2.0016 0.9519
3.2692 -11.7018 -2.0016 0.9519
3.6871 -11.5769 -2.0016 0.9519
4.5081 -11.2826 -2.0016 0.9519
4.9102 -11.1135 -2.0016 0.9519
6.4501 -10.2964 -2.0016 0.9519
6.8155 -10.0583 -2.0016 0.9519
7.1721 -9.8072 -2.0016 0.9519
8.1847 -8.9794 -2.0016 0.9519
9.1025 -8.0476 -2.0016 0.9519
9.3855 -7.7157 -2.0016 0.9519
10.1605 -6.6621 -2.0016 0.9519
10.3931 -6.2931 -2.0016 0.9519
10.8178 -5.5313 -2.0016 0.9519
11.4980 -3.9262 -2.0016 0.9519
11.7500 -3.0913 -2.0016 0.9519
11.8534 -2.6675 -2.0016 0.9519
12.0715 -1.3779 -2.0016 0.9519
12.1392 -0.5084 -2.0016 0.9519
12.0870 1.2341 -2.0016 0.9519
11.9674 2.0980 -2.0016 0.9519
11.8843 2.5262 -2.0016 0.9519
11.7860 2.9512 -2.0016 0.9519
11.4005 4.2010 -2.0016 0.9519
10.4673 6.1689 -2.0016 0.9519
10.2391 6.5407 -2.0016 0.9519
9.9977 6.9039 -2.0016 0.9519
9.7435 7.2583 -2.0016 0.9519
9.1977 7.9386 -2.0016 0.9519
8.9068 8.2636 -2.0016 0.9519
-1.2947 8.7022 -1.6537 0.9648
-1.7962 9.6737 -1.8494 0.9607
-2.1423 9.6030 -1.8494 0.9607
-2.4856 9.5199 -1.8494 0.9607
-2.8257 9.4246 -1.8494 0.9607
-3.1621 9.3171 -1.8494 0.9607
-3.8224 9.0662 -1.8494 0.9607
-4.4629 8.7687 -1.8494 0.9607
-5.3945 8.2609 -1.8545 0.9606
-5.8208 8.2508 -1.8979 0.9597
-6.7228 8.2089 -1.9943 0.9577
-8.1096 6.9016 -2.0016 0.9576
-8.3521 6.6061 -2.0016 0.9576
-8.5838 6.3020 -2.0016 0.9576
-8.8045 5.9899 -2.0016 0.9576
-9.0138 5.6700 -2.0016 0.9576
-9.5711 4.6682 -2.0016 0.9576
-9.7324 4.3217 -2.0016 0.9576
-10.0174 3.6123 -2.0016 0.9576
-10.2507 2.8844 -2.0016 0.9576
-10.4312 2.1416 -2.0016 0.9576
-10.6304 0.6267 -2.0016 0.9576
-10.6460 0.2448 -2.0016 0.9576
-10.6479 -0.1375 -2.0016 0.9576
-10.6361 -0.5196 -2.0016 0.9576
-10.6106 -0.9010 -2.0016 0.9576
-10.5715 -1.2813 -2.0016 0.9576
-9.6550 -2.2435 -1.8631 0.9605
-9.5368 -2.5801 -1.8570 0.9606
-9.3271 -3.2576 -1.8570 0.9606
-9.2042 -3.5903 -1.8570 0.9606
-9.0694 -3.9183 -1.8570 0.9606
-8.9229 -4.2413 -1.8570 0.9606
-8.5956 -4.8705 -1.8570 0.9606
-8.6469 -6.2152 -2.0016 0.9576
-8.1787 -6.8195 -2.0016 0.9576
-7.9287 -7.1087 -2.0016 0.9576
-7.1186 -7.9198 -2.0016 0.9576
-6.8298 -8.1702 -2.0016 0.9576
-6.5321 -8.4100 -2.0016 0.9576
-6.2260 -8.6391 -2.0016 0.9576
-5.9120 -8.8570 -2.0016 0.9576
-5.2613 -9.2583 -2.0016 0.9576
-4.9256 -9.4412 -2.0016 0.9576
-4.5836 -9.6119 -2.0016 0.9576
-4.2356 -9.7702 -2.0016 0.9576
-2.4232 -10.3694 -2.0016 0.9576
-2.0495 -10.4497 -2.0016 0.9576
-1.6731 -10.5166 -2.0016 0.9576
-0.5329 -10.6355 -2.0016 0.9576
-0.1508 -10.6477 -2.0016 0.9576
0.2314 -10.6463 -2.0016 0.9576
0.6134 -10.6311 -2.0016 0.9576
1.7526 -10.5036 -2.0016 0.9576
2.8715 -10.2543 -2.0016 0.9576
3.2377 -10.1447 -2.0016 0.9576
3.9572 -9.8863 -2.0016 0.9576
4.3095 -9.7379 -2.0016 0.9576
4.6562 -9.5769 -2.0016 0.9576
2.2315 -4.1994 -0.8938 0.9808
5.3312 -9.2182 -2.0016 0.9576
5.6587 -9.0209 -2.0016 0.9576
5.9788 -8.8120 -2.0016 0.9576
6.5956 -8.3604 -2.0016 0.9576
8.2301 -6.7574 -2.0016 0.9576
9.1124 -5.5101 -2.0016 0.9576
9.3043 -5.1794 -2.0016 0.9576
9.8072 -4.1493 -2.0016 0.9576
10.0796 -3.4350 -2.0016 0.9576
10.1964 -3.0710 -2.0016 0.9576
10.3000 -2.7031 -2.0016 0.9576
10.3904 -2.3316 -2.0016 0.9576
10.4674 -1.9572 -2.0016 0.9576
10.5931 1.0881 -2.0016 0.9576
10.1157 3.3271 -2.0016 0.9576
9.9898 3.6881 -2.0016 0.9576
9.8510 4.0442 -2.0016 0.9576
9.6995 4.3952 -2.0016 0.9576
9.5355 4.7405 -2.0016 0.9576
9.3592 5.0797 -2.0016 0.9576
9.1708 5.4124 -2.0016 0.9576
8.9706 5.7381 -2.0016 0.9576
8.3019 6.6691 -2.0016 0.9576
7.8020 7.2475 -2.0016 0.9576
7.2620 7.7885 -2.0016 0.9576
6.9778 8.0441 -2.0016 0.9576
6.3827 8.5240 -2.0016 0.9576
5.4295 9.1607 -2.0016 0.9576
5.0955 9.3466 -2.0009 0.9576
4.2290 9.2866 -1.9180 0.9593
3.7537 9.0949 -1.8494 0.9607
3.0915 9.3408 -1.8494 0.9607
2.4135 9.5385 -1.8494 0.9607
1.3742 9.7426 -1.8494 0.9607
1.0236 9.7857 -1.8494 0.9607
0.6717 9.8161 -1.8494 0.9607
-0.0342 9.8390 -1.8494 0.9607
-0.3874 9.8314 -1.8494 0.9607
-0.7400 9.8112 -1.8494 0.9607
-1.0917 9.7783 -1.8494 0.9607
-1.2896 8.7047 -1.6540 0.9648
-2.4798 9.5214 -1.8494 0.9607
-2.8199 9.4263 -1.8494 0.9607
-3.4889 9.1997 -1.8494 0.9607
-3.8169 9.0686 -1.8494 0.9607
-4.4576 8.7714 -1.8494 0.9607
-4.7696 8.6057 -1.8494 0.9607
-5.0754 8.4290 -1.8494 0.9607
-6.2615 8.2420 -1.9455 0.9587
-7.5890 7.4702 -2.0016 0.9576
-8.5800 6.3072 -2.0016 0.9576
-8.8008 5.9952 -2.0016 0.9576
-9.0103 5.6755 -2.0016 0.9576
-9.2082 5.3484 -2.0016 0.9576
-9.5682 4.6740 -2.0016 0.9576
-10.5003 1.7722 -2.0016 0.9576
-10.6364 -0.5131 -2.0016 0.9576
-10.5722 -1.2748 -2.0016 0.9576
-10.5197 -1.6535 -2.0016 0.9576
-9.6738 -2.2417 -1.8665 0.9604
-9.3291 -3.2519 -1.8570 0.9606
-9.2064 -3.5847 -1.8570 0.9606
-9.0718 -3.9128 -1.8570 0.9606
-8.9255 -4.2359 -1.8570 0.9606
-8.5986 -4.8653 -1.8570 0.9606
-8.2274 -5.4696 -1.8570 0.9606
-8.1829 -6.8145 -2.0016 0.9576
-7.1234 -7.9154 -2.0016 0.9576
-6.8347 -8.1660 -2.0016 0.9576
-6.5372 -8.4061 -2.0016 0.9576
-6.2313 -8.6353 -2.0016 0.9576
-5.5958 -9.0601 -2.0016 0.9576
-4.9314 -9.4382 -2.0016 0.9576
-4.5894 -9.6091 -2.0016 0.9576
-3.8883 -9.9136 -2.0016 0.9576
-2.0558 -10.4485 -2.0016 0.9576
-1.3010 -10.5690 -2.0016 0.9576
-0.9208 -10.6089 -2.0016 0.9576
-0.5394 -10.6351 -2.0016 0.9576
1.3681 -10.5606 -2.0016 0.9576
1.7462 -10.5047 -2.0016 0.9576
2.1221 -10.4352 -2.0016 0.9576
2.4953 -10.3523 -2.0016 0.9576
3.2316 -10.1466 -2.0016 0.9576
4.6504 -9.5797 -2.0016 0.9576
2.2291 -4.2010 -0.8939 0.9808
6.2860 -8.5955 -2.0016 0.9576
7.7197 -7.3351 -2.0016 0.9576
8.4634 -6.4628 -2.0016 0.9576
9.1091 -5.5156 -2.0016 0.9576
9.3012 -5.1851 -2.0016 0.9576
9.4813 -4.8479 -2.0016 0.9576
9.8046 -4.1552 -2.0016 0.9576
9.9475 -3.8007 -2.0016 0.9576
10.0775 -3.4412 -2.0016 0.9576
10.1945 -3.0772 -2.0016 0.9576
10.3890 -2.3380 -2.0016 0.9576
10.5299 -1.5867 -2.0016 0.9576
10.6486 -0.0634 -2.0016 0.9576
10.6440 0.3189 -2.0016 0.9576
10.6257 0.7007 -2.0016 0.9576
10.4889 1.8388 -2.0016 0.9576
10.4161 2.2141 -2.0016 0.9576
10.2304 2.9557 -2.0016 0.9576
9.9920 3.6820 -2.0016 0.9576
9.8534 4.0382 -2.0016 0.9576
9.7021 4.3893 -2.0016 0.9576
9.3623 5.0740 -2.0016 0.9576
9.1741 5.4068 -2.0016 0.9576
8.9741 5.7326 -2.0016 0.9576
8.3059 6.6640 -2.0016 0.9576
7.8064 7.2427 -2.0016 0.9576
-2.8118 8.2848 -1.8494 0.9649
-3.1370 8.2565 -1.8670 0.9645
-4.1940 8.2403 -1.9545 0.9629
-4.5699 8.2336 -1.9905 0.9622
-5.7328 7.5364 -2.0016 0.9620
-6.2586 7.1058 -2.0016 0.9620
-6.7523 6.6385 -2.0016 0.9620
-7.2111 6.1369 -2.0016 0.9620
-8.7865 3.5298 -2.0016 0.9620
-8.9076 3.2121 -2.0016 0.9620
-9.1150 2.5648 -2.0016 0.9620
-9.2012 2.2360 -2.0016 0.9620
-9.3883 1.2340 -2.0016 0.9620
-9.4682 -0.1223 -2.0016 0.9620
-9.4577 -0.4620 -2.0016 0.9620
-9.4002 -1.1393 -2.0016 0.9620
-9.3533 -1.4760 -2.0016 0.9620
-9.2943 -1.8107 -2.0016 0.9620
-8.4802 -2.2942 -1.8570 0.9647
-8.0646 -3.4842 -1.8570 0.9647
-7.9343 -3.7714 -1.8570 0.9647
-7.6433 -4.3309 -1.8570 0.9647
-6.9449 -5.3801 -1.8570 0.9647
-7.0503 -6.3211 -2.0016 0.9620
-6.5786 -6.8106 -2.0016 0.9620
-6.0731 -7.2650 -2.0016 0.9620
-5.5363 -7.6819 -2.0016 0.9620
-5.2570 -7.8757 -2.0016 0.9620
-4.6784 -8.2325 -2.0016 0.9620
-4.3799 -8.3952 -2.0016 0.9620
-4.0758 -8.5470 -2.0016 0.9620
-3.4521 -8.8173 -2.0016 0.9620
-2.1547 -9.2206 -2.0016 0.9620
-0.8130 -9.4341 -2.0016 0.9620
-0.4739 -9.4572 -2.0016 0.9620
-0.1341 -9.4681 -2.0016 0.9620
0.5454 -9.4533 -2.0016 0.9620
0.8844 -9.4276 -2.0016 0.9620
1.2222 -9.3898 -2.0016 0.9620
1.5584 -9.3399 -2.0016 0.9620
1.8927 -9.2779 -2.0016 0.9620
2.2245 -9.2040 -2.0016 0.9620
2.5534 -9.1183 -2.0016 0.9620
3.2009 -8.9116 -2.0016 0.9620
4.1403 -8.5159 -2.0016 0.9620
5.5942 -7.6398 -2.0016 0.9620
5.8648 -7.4341 -2.0016 0.9620
6.3831 -6.9942 -2.0016 0.9620
6.6300 -6.7606 -2.0016 0.9620
7.0979 -6.2676 -2.0016 0.9620
8.1029 -4.8996 -2.0016 0.9620
8.5826 -4.0002 -2.0016 0.9620
8.7206 -3.6896 -2.0016 0.9620
8.9628 -3.0545 -2.0016 0.9620
9.1589 -2.4036 -2.0016 0.9620
9.2392 -2.0733 -2.0016 0.9620
9.3642 -1.4052 -2.0016 0.9620
9.4409 -0.7298 -2.0016 0.9620
9.4610 -0.3904 -2.0016 0.9620
9.3787 1.3050 -2.0016 0.9620
9.3258 1.6408 -2.0016 0.9620
9.2609 1.9745 -2.0016 0.9620
