ply
format ascii 1.0
element vertex 1535
property float32 x
property float32 y
property float32 z
property float32 I
end_header
25.7266 17.9593 4.8065 0.8808
25.6977 19.3484 4.9278 0.8779
28.2890 22.9371 5.5793 0.8630
-25.0794 -22.3551 4.3750 0.8733
-23.3398 -22.3599 4.2090 0.8778
-20.2194 -22.3686 3.9265 0.8855
-18.8076 -22.3725 3.8060 0.8888
-17.2251 -22.0522 3.6439 0.8933
-15.0273 -22.3830 3.5107 0.8970
-13.5723 -21.8750 3.3523 0.9014
-11.8482 -22.5674 3.3191 0.9023
-7.9162 -22.3978 3.0935 0.9086
-6.1488 -22.4027 3.0252 0.9105
-4.4840 -22.5829 2.9982 0.9113
-2.7967 -22.4120 2.9411 0.9129
-1.1730 -22.4165 2.9231 0.9134
0.3378 -17.2478 2.2465 0.9328
1.2460 -22.4232 2.9245 0.9134
32.9534 -33.7042 6.1382 0.8268
32.5334 -30.9666 5.8489 0.8343
32.9684 -27.1472 5.5613 0.8418
33.1615 -25.3634 5.4366 0.8450
36.3644 -25.7967 5.8059 0.8354
38.5461 -25.3134 6.0051 0.8303
34.4277 -6.4723 4.5617 0.8682
29.7474 -3.4049 3.8990 0.8862
31.3763 -1.3219 4.0895 0.8810
45.3585 13.1058 6.1482 0.8266
40.1091 13.1676 5.4973 0.8434
35.7570 13.1797 4.9625 0.8575
34.9838 14.3423 4.9236 0.8585
27.5234 17.5923 4.2537 0.8765
27.6964 19.1382 4.3839 0.8730
29.4253 23.6263 4.9141 0.8588
26.2406 26.1837 4.8272 0.8611
25.8489 27.7162 4.9353 0.8582
-0.0622 15.5333 2.0228 0.9393
-1.7497 15.5852 2.0423 0.9387
-2.8969 15.5952 2.0656 0.9380
-3.4811 15.5969 2.0810 0.9376
-9.9385 13.0527 2.1364 0.9360
-14.2197 13.9634 2.5952 0.9228
-15.3225 14.0014 2.7029 0.9197
-16.4777 14.0046 2.8160 0.9165
-20.6353 14.0161 3.2484 0.9043
-23.1183 -22.3605 4.1883 0.8783
-20.0264 -22.3691 3.9097 0.8859
-17.0564 -22.0527 3.6304 0.8936
-16.1315 -22.4816 3.6032 0.8944
-14.8728 -22.3834 3.4996 0.8973
-12.6596 -22.3896 3.3494 0.9014
-9.7257 -22.5733 3.2007 0.9056
-7.7960 -22.3981 3.0883 0.9088
-6.0339 -22.4030 3.0213 0.9107
-3.5084 -22.4100 2.9538 0.9126
-2.6880 -22.4123 2.9395 0.9130
-1.0656 -22.4168 2.9224 0.9135
-0.2594 -22.4191 2.9196 0.9135
1.3536 -22.4235 2.9253 0.9134
2.2437 -4.1917 0.6191 0.9810
32.9543 -33.3844 6.1086 0.8276
32.7830 -30.9068 5.8671 0.8338
32.9635 -28.9123 5.7097 0.8379
33.4933 -25.3643 5.4711 0.8441
38.9123 -25.2884 6.0432 0.8293
29.8412 -3.2713 3.9092 0.8860
44.7251 13.1547 6.0708 0.8286
35.0412 13.1064 4.8718 0.8599
28.8437 14.4964 4.2037 0.8779
26.8182 15.9874 4.0658 0.8817
26.9472 17.4060 4.1775 0.8786
27.6677 19.3143 4.3940 0.8727
28.6399 24.9792 4.9487 0.8579
26.0413 26.2346 4.8136 0.8615
-17.5177 13.9726 2.4062 0.9138
-18.9228 14.0113 2.5284 0.9096
-22.0917 14.0201 2.8096 0.9001
-32.5012 -23.2144 4.2889 0.8516
-27.1755 -22.5249 3.7903 0.8676
-21.7786 -22.4192 3.3563 0.8818
-20.2194 -22.3686 3.2378 0.8858
-18.8076 -22.3725 3.1385 0.8891
-17.2251 -22.0522 3.0048 0.8935
-16.2210 -22.3797 2.9680 0.8948
-15.0273 -22.3830 2.8950 0.8972
-13.5047 -21.7660 2.7506 0.9021
-11.8482 -22.5674 2.7370 0.9025
-10.7497 -22.3949 2.6675 0.9049
-9.8462 -22.5556 2.6428 0.9057
-8.8345 -22.4002 2.5857 0.9077
-4.4752 -22.5388 2.4675 0.9117
-3.6182 -22.4097 2.4376 0.9127
-1.9949 -22.5558 2.4315 0.9129
-1.1730 -22.4165 2.4104 0.9137
-0.3666 -22.4188 2.4077 0.9137
1.2460 -22.4232 2.4116 0.9136
2.2247 -4.2043 0.5108 0.9810
32.9461 -36.2123 5.2571 0.8212
32.6140 -31.0433 4.8350 0.8343
32.9665 -27.1456 4.5857 0.8421
33.2675 -25.4445 4.4974 0.8449
31.1438 -5.8550 3.4029 0.8803
32.4600 -4.9024 3.5251 0.8763
35.7570 13.1797 4.0922 0.8579
35.2281 14.4424 4.0884 0.8580
35.0389 15.8581 4.1300 0.8566
29.1430 14.4727 3.4941 0.8773
29.9188 22.3033 4.0072 0.8606
29.2764 23.5067 4.0317 0.8598
27.7916 24.0064 3.9435 0.8627
27.1491 29.1103 4.2744 0.8520
7.6177 16.7349 1.9744 0.9287
2.2056 21.1748 2.2861 0.9179
1.4435 21.2403 2.2861 0.9179
-0.0586 14.6324 1.5713 0.9428
-0.5844 14.6252 1.5717 0.9428
-1.1135 14.6486 1.5775 0.9426
-2.7289 14.6908 1.6045 0.9417
-3.2975 14.7743 1.6255 0.9409
-6.0379 15.8811 1.8244 0.9339
-7.1050 13.9488 1.6810 0.9390
-7.8736 13.0470 1.6364 0.9405
-8.5287 13.0488 1.6739 0.9392
-10.7023 13.0548 1.8127 0.9343
-11.5128 13.0570 1.8693 0.9324
-12.3766 13.0594 1.9321 0.9302
-16.4240 13.9590 2.3146 0.9169
-17.6912 13.9731 2.4208 0.9133
-19.1139 14.0119 2.5449 0.9091
-20.6353 14.0161 2.6787 0.9045
-22.3145 14.0124 2.8294 0.8994
-33.5126 17.8259 4.0761 0.8584
-32.1587 -23.2027 4.2583 0.8525
-26.8978 -22.5125 3.7665 0.8684
-23.1183 -22.3605 3.4537 0.8786
-21.5719 -22.4198 3.3409 0.8824
-18.6262 -22.3730 3.1261 0.8895
-17.0564 -22.0527 2.9937 0.8939
-16.1315 -22.4816 2.9713 0.8947
-13.3612 -21.7664 2.7425 0.9024
-11.7111 -22.5678 2.7302 0.9028
-9.7257 -22.5733 2.6394 0.9058
-6.9222 -22.4555 2.5233 0.9098
-3.5084 -22.4100 2.4357 0.9128
-1.8871 -22.5651 2.4315 0.9129
-1.0656 -22.4168 2.4099 0.9137
32.9470 -35.8673 5.2298 0.8221
32.9532 -33.3832 5.0371 0.8280
32.6264 -26.6049 4.5206 0.8442
33.6004 -25.4455 4.5259 0.8440
36.7496 -25.8068 4.8221 0.8347
32.0948 -7.0753 3.5291 0.8762
31.2179 -5.7145 3.4079 0.8801
32.3002 -4.7205 3.5053 0.8769
32.6610 -2.3969 3.5166 0.8766
39.4230 13.1514 4.4627 0.8460
35.1082 13.1315 4.0251 0.8600
35.2287 14.6397 4.0966 0.8577
35.0395 16.0606 4.1390 0.8564
27.6340 13.8884 3.3211 0.8830
27.5734 17.8105 3.5248 0.8763
27.6200 19.2810 3.6171 0.8733
28.0292 22.7265 3.8749 0.8649
32.2583 34.9220 5.1050 0.8259
-19.7333 15.7398 2.1368 0.9036
-21.7034 16.0703 2.2861 0.8973
-22.2667 15.2802 2.2861 0.8973
-22.8013 14.4705 2.2861 0.8973
-33.1620 17.8434 3.1878 0.8597
-25.0794 -22.3551 2.8440 0.8738
-23.3398 -22.3599 2.7361 0.8783
-21.8955 -22.5395 2.6601 0.8815
-20.2194 -22.3686 2.5525 0.8860
-16.0644 -22.1637 2.3172 0.8959
-14.8510 -22.1205 2.2554 0.8986
-12.8010 -22.3892 2.1832 0.9016
-10.7497 -22.3949 2.1029 0.9051
-9.7772 -22.3976 2.0688 0.9066
-8.8345 -22.4002 2.0384 0.9079
-7.9162 -22.3978 2.0110 0.9090
-5.2918 -22.4051 1.9488 0.9117
-4.4491 -22.4074 1.9339 0.9124
-1.9824 -22.4143 1.9048 0.9136
-0.3666 -22.4188 1.8981 0.9139
0.3391 -17.3139 1.4659 0.9328
2.2247 -4.2043 0.4027 0.9811
33.0148 -36.2878 4.1530 0.8212
32.6140 -31.0433 3.8116 0.8346
33.2675 -25.4445 3.5455 0.8452
38.7692 -25.4599 3.9263 0.8301
35.7083 13.1617 3.2216 0.8583
35.2581 14.4547 3.2258 0.8582
35.0477 19.0042 3.3750 0.8521
27.0474 15.9493 2.6581 0.8816
26.8174 17.1410 2.6943 0.8801
27.1400 18.7537 2.7926 0.8760
29.0366 26.9628 3.3543 0.8529
30.3002 30.2346 3.6235 0.8421
3.3921 24.1197 2.0619 0.9069
1.5516 22.8299 1.9371 0.9122
-0.5423 13.5707 1.1497 0.9469
-1.0317 13.5721 1.1522 0.9468
-3.0580 13.7012 1.1884 0.9452
-3.5819 13.7116 1.1997 0.9447
-4.1213 13.7377 1.2141 0.9441
-4.6831 13.7898 1.2328 0.9432
-6.0488 14.3368 1.3172 0.9394
-6.4841 13.9471 1.3020 0.9401
-8.6658 15.6005 1.5107 0.9309
-9.2206 15.2791 1.5107 0.9309
-10.2939 14.5776 1.5107 0.9309
-10.8109 14.1984 1.5107 0.9309
-11.3139 13.8009 1.5107 0.9309
-11.8024 13.3855 1.5107 0.9309
-12.4408 13.1271 1.5310 0.9300
-14.2197 13.9634 1.6871 0.9231
-18.4806 15.7069 2.0531 0.9072
-21.7800 15.9664 2.2861 0.8973
-22.8702 14.3613 2.2861 0.8973
-33.5743 17.8588 3.2192 0.8584
-34.7157 -23.1980 3.5345 0.8457
-26.8978 -22.5125 2.9693 0.8687
-23.1183 -22.3605 2.7227 0.8789
-21.6876 -22.5401 2.6479 0.8820
-20.0264 -22.3691 2.5416 0.8865
-18.6262 -22.3730 2.4644 0.8897
-17.0564 -22.0527 2.3600 0.8941
-16.0556 -22.3758 2.3313 0.8953
-14.8728 -22.3834 2.2750 0.8977
-11.7111 -22.5678 2.1523 0.9030
-9.6501 -22.3979 2.0645 0.9067
-8.7111 -22.4005 2.0346 0.9080
-6.9053 -22.4006 1.9843 0.9102
-4.3380 -22.4077 1.9321 0.9125
-2.6880 -22.4123 1.9109 0.9134
-1.8745 -22.4146 1.9041 0.9137
-1.0656 -22.4168 1.8998 0.9138
0.4236 -17.3842 1.4721 0.9326
33.1005 -36.0344 4.1420 0.8217
33.1139 -33.5460 3.9903 0.8276
32.8779 -30.9963 3.8251 0.8341
32.6264 -26.6049 3.5638 0.8445
37.1854 -26.1128 3.8465 0.8333
39.1779 -25.4610 3.9554 0.8290
35.1082 13.1315 3.1731 0.8603
35.2587 14.6522 3.2322 0.8579
31.5992 14.4837 2.9426 0.8698
27.2668 17.6124 2.7479 0.8778
35.0501 26.3900 3.7141 0.8385
30.0318 28.1555 3.4848 0.8477
-16.6349 14.2757 1.3593 0.9159
-19.8800 14.7201 1.5339 0.9056
-27.1755 -22.5249 2.1888 0.8681
-23.3398 -22.3599 2.0043 0.8785
-21.7254 -22.3644 1.9334 0.8825
-15.0417 -20.7526 1.5894 0.9024
-13.5723 -21.8750 1.5964 0.9020
-12.8010 -22.3892 1.5993 0.9018
-10.7497 -22.3949 1.5404 0.9052
-7.0226 -22.4002 1.4557 0.9102
-6.1488 -22.4027 1.4406 0.9111
-5.2918 -22.4051 1.4276 0.9119
-3.6182 -22.4097 1.4076 0.9130
-1.1730 -22.4165 1.3920 0.9140
-0.3666 -22.4188 1.3904 0.9141
0.3391 -17.3138 1.0738 0.9330
2.2246 -4.2043 0.2950 0.9811
33.1377 -36.4229 3.0535 0.8209
33.7489 -29.8878 2.7955 0.8347
32.8231 -27.0275 2.6366 0.8433
33.2675 -25.4445 2.5972 0.8455
34.4248 -3.9403 2.1486 0.8703
45.0062 13.0040 2.9050 0.8288
39.3745 12.9264 2.5698 0.8470
34.7946 12.8250 2.2995 0.8619
34.5939 15.6567 2.3547 0.8588
32.4408 16.1105 2.2461 0.8649
28.9324 15.6883 2.0409 0.8764
34.8074 24.0518 2.6236 0.8440
34.8581 25.9853 2.6961 0.8401
31.2687 25.1063 2.4866 0.8515
7.6164 16.7320 1.1400 0.9290
3.3921 24.1197 1.5104 0.9070
1.5516 22.8299 1.4190 0.9124
-0.0544 13.5694 0.8414 0.9471
-0.5423 13.5707 0.8422 0.9470
-2.5218 13.5762 0.8563 0.9462
-3.0304 13.5776 0.8627 0.9458
-3.5473 13.5790 0.8703 0.9453
-5.1644 13.5835 0.9011 0.9434
-6.0488 14.3368 0.9649 0.9395
-11.5919 17.7353 1.3138 0.9186
-12.5254 17.7379 1.3465 0.9167
-13.1913 17.3247 1.3503 0.9164
-13.2104 16.1142 1.2921 0.9199
-13.2135 14.9859 1.2389 0.9231
-13.2307 13.9607 1.1927 0.9258
-15.4594 14.1265 1.2986 0.9195
-18.3773 14.5150 1.4522 0.9104
-20.1252 14.7533 1.5474 0.9048
-26.8978 -22.5125 2.1751 0.8689
-24.8763 -22.3884 2.0753 0.8745
-23.1183 -22.3605 1.9944 0.8791
-20.0264 -22.3691 1.8618 0.8866
-15.7523 -18.9210 1.5267 0.9060
-15.0883 -21.0278 1.6049 0.9015
-13.4815 -21.9622 1.5980 0.9019
-12.6596 -22.3896 1.5950 0.9021
-11.6201 -22.3925 1.5644 0.9038
-9.6501 -22.3979 1.5123 0.9069
-8.7111 -22.4005 1.4904 0.9082
-7.7960 -22.3981 1.4706 0.9093
-6.9053 -22.4006 1.4536 0.9103
-6.0339 -22.4030 1.4387 0.9112
-3.5084 -22.4100 1.4066 0.9131
-2.6880 -22.4123 1.3998 0.9135
-1.8745 -22.4146 1.3948 0.9138
-0.2594 -22.4191 1.3903 0.9141
0.4236 -17.3837 1.0783 0.9327
1.3536 -22.4235 1.3930 0.9139
2.2437 -4.1916 0.2948 0.9811
33.2849 -36.2351 3.0510 0.8210
32.7661 -30.8909 2.7924 0.8349
33.6004 -25.4455 2.6137 0.8446
37.0686 -26.0309 2.8088 0.8340
49.6665 -3.6448 3.0881 0.8191
43.9467 12.9258 2.8406 0.8323
37.9560 12.6620 2.4812 0.8518
34.6790 12.9710 2.2960 0.8621
34.5871 15.8532 2.3593 0.8586
32.5092 16.3386 2.2562 0.8643
28.5219 15.6426 2.0172 0.8778
35.0578 22.6448 2.5880 0.8460
34.7951 24.2899 2.6314 0.8436
34.8556 26.2436 2.7056 0.8396
-18.3142 13.5607 0.8986 0.9128
-19.7669 13.5648 0.9453 0.9085
-26.9644 -22.3498 1.3810 0.8692
-13.5723 -21.8750 1.0151 0.9021
-10.7497 -22.3949 0.9795 0.9053
-9.8011 -22.4525 0.9660 0.9066
-8.8345 -22.4002 0.9495 0.9081
-5.2918 -22.4051 0.9078 0.9120
-4.4698 -22.5117 0.9050 0.9122
-3.6182 -22.4097 0.8951 0.9131
-1.9979 -22.5898 0.8942 0.9132
1.2460 -22.4232 0.8855 0.9140
2.2246 -4.2043 0.1876 0.9811
32.8739 -36.1330 1.9262 0.8224
32.8796 -33.6287 1.8545 0.8284
32.6140 -31.0433 1.7754 0.8351
33.8845 -30.0078 1.7847 0.8343
32.9043 -27.0944 1.6807 0.8431
37.2050 -26.3931 1.7987 0.8331
34.3297 -3.9294 1.3625 0.8708
45.5204 13.1526 1.8683 0.8272
39.9592 13.1184 1.6584 0.8450
35.1789 19.0753 1.5779 0.8520
35.1835 20.7470 1.6106 0.8492
35.1884 22.4915 1.6467 0.8460
35.0675 26.1414 1.7247 0.8394
35.0731 28.1610 1.7736 0.8352
2.3778 22.8276 0.9050 0.9122
0.5066 15.8630 0.6258 0.9384
-0.0635 15.8645 0.6256 0.9385
-0.6340 15.8661 0.6261 0.9384
-1.7816 15.8693 0.6297 0.9381
-4.1473 15.8759 0.6470 0.9364
-4.7632 15.8776 0.6536 0.9358
-5.3927 15.8793 0.6613 0.9351
-6.0379 15.8811 0.6699 0.9342
-6.0488 14.3368 0.6136 0.9396
-6.4841 13.9471 0.6065 0.9403
-7.1050 13.9488 0.6173 0.9393
-10.7014 17.7328 0.8167 0.9204
-11.5919 17.7353 0.8354 0.9187
-13.2104 16.1142 0.8216 0.9200
-13.2307 13.9607 0.7584 0.9259
-14.2197 13.9634 0.7858 0.9233
-15.9477 13.5541 0.8253 0.9196
-17.1650 13.5575 0.8625 0.9162
-26.7043 -22.3506 1.3731 0.8699
-23.0873 -22.3305 1.2665 0.8793
-21.5719 -22.4198 1.2268 0.8829
-16.9365 -18.9178 1.0012 0.9034
-15.7523 -18.9210 0.9708 0.9061
-14.6366 -18.9242 0.9433 0.9087
-13.9584 -19.4531 0.9441 0.9086
-13.9627 -21.0137 0.9948 0.9039
-13.4815 -21.9622 1.0161 0.9020
-10.6184 -22.3952 0.9773 0.9055
-8.7111 -22.4005 0.9477 0.9083
-7.7960 -22.3981 0.9351 0.9094
-6.0339 -22.4030 0.9149 0.9113
-4.3581 -22.5120 0.9041 0.9123
-2.6880 -22.4123 0.8901 0.9136
-1.0656 -22.4168 0.8849 0.9141
1.3536 -22.4235 0.8858 0.9140
2.2437 -4.1916 0.1875 0.9811
32.8779 -30.9963 1.7817 0.8345
33.6004 -25.4455 1.6620 0.8447
39.1778 -25.4610 1.8424 0.8294
44.7251 13.1548 1.8383 0.8298
35.2409 13.1811 1.4836 0.8602
35.0395 16.0606 1.5199 0.8570
35.1841 20.9747 1.6152 0.8488
-14.6197 12.5463 0.3254 0.9258
-19.9312 15.8976 0.4307 0.9030
-33.2580 24.6259 0.6990 0.8474
-27.1755 -22.5249 0.5962 0.8683
-23.2393 -22.2636 0.5436 0.8792
-21.7787 -22.4192 0.5280 0.8825
-20.2194 -22.3686 0.5093 0.8864
-18.8076 -22.3725 0.4937 0.8897
-17.2251 -22.0522 0.4727 0.8941
-15.1449 -22.5583 0.4590 0.8970
-12.8010 -22.3892 0.4356 0.9020
-4.4698 -22.5117 0.3877 0.9123
-2.7967 -22.4120 0.3815 0.9136
-1.9979 -22.5898 0.3831 0.9133
-1.1730 -22.4165 0.3792 0.9141
-0.3666 -22.4188 0.3787 0.9142
0.3391 -17.3136 0.2925 0.9331
1.2460 -22.4232 0.3794 0.9141
32.8705 -36.1292 0.8251 0.8225
32.6140 -31.0433 0.7606 0.8352
33.8863 -30.0094 0.7646 0.8344
37.2067 -26.3942 0.7706 0.8332
34.3016 -3.9262 0.5832 0.8710
46.3773 13.4002 0.8154 0.8244
35.9755 14.7488 0.6567 0.8559
36.0499 16.3157 0.6684 0.8536
35.2974 17.5291 0.6657 0.8541
35.3792 19.1840 0.6798 0.8513
29.8017 17.5734 0.5844 0.8707
2.9136 13.5646 0.2344 0.9460
2.3778 22.8276 0.3877 0.9123
-2.2838 12.2950 0.2112 0.9512
-3.5430 15.8742 0.2747 0.9370
-5.7160 12.2950 0.2290 0.9472
-6.1563 12.0863 0.2291 0.9472
-10.7014 17.7328 0.3499 0.9205
-8.0874 12.3736 0.2497 0.9426
-13.2135 14.9859 0.3375 0.9232
-13.2307 13.9607 0.3249 0.9259
-12.3135 12.0916 0.2915 0.9333
-17.3900 15.8905 0.3979 0.9101
-18.7010 15.8942 0.4146 0.9065
-20.1285 15.8981 0.4333 0.9025
-33.2587 24.3811 0.6966 0.8479
-33.2637 22.5936 0.6792 0.8514
-26.8978 -22.5125 0.5925 0.8691
-23.0873 -22.3305 0.5426 0.8794
-20.0264 -22.3691 0.5072 0.8868
-16.1844 -22.5554 0.4689 0.8949
-11.7111 -22.5678 0.4295 0.9033
-10.6184 -22.3952 0.4187 0.9056
-7.7960 -22.3981 0.4006 0.9095
-6.9593 -22.5760 0.3991 0.9098
-6.0339 -22.4030 0.3919 0.9114
-3.5084 -22.4100 0.3832 0.9133
-2.6880 -22.4123 0.3813 0.9137
-1.8892 -22.5901 0.3829 0.9133
0.4235 -17.3825 0.2937 0.9328
1.3536 -22.4235 0.3795 0.9140
32.8835 -33.3127 0.7907 0.8292
33.6004 -25.4455 0.7120 0.8448
37.1982 -26.1219 0.7678 0.8337
39.1779 -25.4610 0.7893 0.8295
34.4460 -3.7760 0.5853 0.8706
45.0137 13.2396 0.7926 0.8289
39.8318 13.2878 0.7093 0.8454
35.5063 13.2804 0.6404 0.8593
36.0462 14.9795 0.6594 0.8554
35.2980 17.7402 0.6673 0.8538
35.3798 19.4037 0.6816 0.8509
35.1890 22.7296 0.7076 0.8457
35.3945 24.7083 0.7291 0.8414
-14.0589 12.0651 -0.1043 0.9286
-14.8542 11.8481 -0.1070 0.9268
-16.4721 12.1968 -0.1154 0.9213
-22.0928 11.8874 -0.1412 0.9045
-27.1755 -22.5249 -0.1987 0.8683
-25.0794 -22.3551 -0.1892 0.8743
-21.8955 -22.5395 -0.1769 0.8819
-20.2194 -22.3686 -0.1698 0.8864
-16.3480 -22.5549 -0.1568 0.8946
-15.1449 -22.5583 -0.1530 0.8970
-13.5723 -21.8750 -0.1449 0.9021
-12.8010 -22.3892 -0.1452 0.9020
-11.8482 -22.5674 -0.1435 0.9031
-10.7497 -22.3949 -0.1399 0.9054
-8.8345 -22.4002 -0.1356 0.9082
-7.9162 -22.3978 -0.1337 0.9094
-6.1488 -22.4027 -0.1308 0.9113
-2.7967 -22.4120 -0.1272 0.9136
-1.9979 -22.5898 -0.1277 0.9133
-1.1730 -22.4165 -0.1264 0.9141
32.8671 -36.1255 -0.2750 0.8225
32.6140 -31.0433 -0.2535 0.8352
34.3516 -3.9320 -0.1947 0.8708
40.8642 13.4155 -0.2422 0.8419
29.7990 17.5718 -0.1948 0.8708
34.4728 22.0341 -0.2303 0.8490
35.1988 26.2393 -0.2472 0.8389
7.6139 16.7265 -0.1035 0.9291
3.4492 13.6497 -0.0793 0.9452
2.3548 13.2681 -0.0759 0.9475
1.8840 13.3961 -0.0762 0.9473
1.3237 12.7082 -0.0719 0.9502
0.3927 12.2959 -0.0693 0.9520
-0.0501 12.5076 -0.0704 0.9512
-1.8125 12.1798 -0.0693 0.9519
-5.5510 11.9400 -0.0741 0.9487
-6.1560 12.0857 -0.0764 0.9472
-6.6407 11.9548 -0.0770 0.9468
-7.7848 11.9106 -0.0801 0.9447
-8.3857 11.8753 -0.0818 0.9435
-9.1380 12.0014 -0.0849 0.9414
-11.5260 12.1619 -0.0943 0.9352
-13.0850 11.9567 -0.0998 0.9316
-19.0444 11.9589 -0.1266 0.9140
-20.6982 11.9829 -0.1347 0.9088
-22.4404 11.9364 -0.1431 0.9033
-24.4905 11.9186 -0.1533 0.8968
-26.8978 -22.5125 -0.1975 0.8691
-24.8763 -22.3884 -0.1884 0.8747
-23.0873 -22.3305 -0.1808 0.8794
-21.6876 -22.5401 -0.1761 0.8824
-18.6262 -22.3730 -0.1639 0.8901
-14.7205 -22.1541 -0.1497 0.8991
-12.6596 -22.3896 -0.1448 0.9022
-7.7960 -22.3981 -0.1335 0.9095
-6.9593 -22.5760 -0.1330 0.9098
-5.1553 -22.3031 -0.1289 0.9125
-2.6880 -22.4123 -0.1271 0.9137
-1.8892 -22.5901 -0.1276 0.9133
33.0911 -36.0242 -0.2754 0.8223
32.8779 -30.9963 -0.2544 0.8346
32.6264 -26.6049 -0.2370 0.8450
33.6004 -25.4455 -0.2372 0.8449
39.1778 -25.4610 -0.2630 0.8295
34.1324 18.7196 -0.2192 0.8558
35.1841 20.9747 -0.2306 0.8489
35.1890 22.7296 -0.2359 0.8457
35.1941 24.5684 -0.2417 0.8422
35.1995 26.5025 -0.2481 0.8384
-13.8821 11.9133 -0.5151 0.9294
-16.0481 11.8828 -0.5623 0.9232
-21.8665 11.7656 -0.6992 0.9054
-23.2488 -22.2727 -0.9066 0.8791
-21.6192 -22.2551 -0.8737 0.8832
-18.6840 -22.2255 -0.8176 0.8903
-17.2249 -22.0519 -0.7879 0.8941
-16.3480 -22.5549 -0.7844 0.8945
-15.1449 -22.5583 -0.7651 0.8970
-13.5723 -21.8750 -0.7249 0.9021
-8.7916 -22.2916 -0.6747 0.9086
-7.8841 -22.3070 -0.6662 0.9097
-6.9990 -22.3249 -0.6588 0.9106
-6.1318 -22.3409 -0.6523 0.9115
-5.2800 -22.3549 -0.6468 0.9122
-3.6130 -22.3774 -0.6383 0.9133
-0.3663 -22.4019 -0.6309 0.9142
0.3391 -17.3134 -0.4876 0.9331
1.2450 -22.4044 -0.6318 0.9141
2.2246 -4.2042 -0.1339 0.9811
28.2510 -38.7135 -1.3495 0.8255
32.8072 -36.0597 -1.3727 0.8228
33.8287 -29.9584 -1.2724 0.8346
32.8391 -27.0407 -1.1978 0.8435
33.2675 -25.4445 -1.1793 0.8457
34.4520 -3.9434 -0.9764 0.8704
40.2316 13.2078 -1.1923 0.8441
35.7466 13.1758 -1.0727 0.8586
35.9755 14.7488 -1.0948 0.8559
33.6609 21.5152 -1.1249 0.8523
34.9721 24.1656 -1.1970 0.8436
34.9774 26.0742 -1.2284 0.8398
34.9830 28.0886 -1.2633 0.8357
3.4088 13.4898 -0.3918 0.9458
2.8639 13.3328 -0.3840 0.9469
1.7954 12.7662 -0.3630 0.9497
1.3236 12.7071 -0.3597 0.9502
-0.0486 12.1393 -0.3418 0.9526
-0.4761 11.9148 -0.3358 0.9534
-0.9109 11.9835 -0.3384 0.9530
-1.3319 11.8634 -0.3361 0.9534
-2.7006 12.0998 -0.3491 0.9516
-5.0357 11.9356 -0.3648 0.9495
-6.0040 11.7872 -0.3725 0.9484
-6.6108 11.9010 -0.3833 0.9470
-7.7825 11.9070 -0.4005 0.9447
-9.0104 11.8338 -0.4188 0.9422
-9.7584 11.9035 -0.4334 0.9403
-10.3958 11.7902 -0.4426 0.9390
-11.2952 11.9183 -0.4624 0.9364
-12.1858 11.9662 -0.4809 0.9339
-13.0180 11.8956 -0.4965 0.9319
-24.3562 11.8533 -0.7627 0.8973
-23.0249 -22.2702 -0.9020 0.8797
-21.4113 -22.2529 -0.8695 0.8838
-19.9085 -22.2375 -0.8404 0.8874
-11.5330 -22.2247 -0.7050 0.9047
-10.5485 -22.2478 -0.6933 0.9062
-8.6698 -22.2944 -0.6736 0.9087
-7.7652 -22.3095 -0.6651 0.9098
-6.8826 -22.3272 -0.6579 0.9107
-6.0177 -22.3429 -0.6515 0.9116
-5.1677 -22.3566 -0.6461 0.9123
-3.5035 -22.3786 -0.6378 0.9133
-2.6850 -22.3870 -0.6349 0.9137
-1.0648 -22.3988 -0.6314 0.9142
-0.2592 -22.4023 -0.6308 0.9143
0.4235 -17.3815 -0.4896 0.9328
1.3524 -22.4043 -0.6320 0.9141
2.2436 -4.1916 -0.1339 0.9812
32.8216 -33.2499 -1.3155 0.8295
34.1416 -29.9455 -1.2787 0.8338
33.6004 -25.4455 -1.1868 0.8448
37.1424 -26.0826 -1.2780 0.8339
39.1779 -25.4610 -1.3157 0.8295
34.4631 -3.7779 -0.9762 0.8705
39.4653 13.1655 -1.1715 0.8466
35.3736 13.2307 -1.0634 0.8597
36.0462 14.9795 -1.0991 0.8554
36.0505 16.5240 -1.1167 0.8533
33.6568 20.0642 -1.1033 0.8549
34.9728 24.4139 -1.2010 0.8431
34.4229 34.6784 -1.3758 0.8224
-13.8803 11.9117 -0.9276 0.9294
-14.8083 11.8115 -0.9606 0.9269
-17.2077 11.8085 -1.0584 0.9198
-18.7813 11.9193 -1.1281 0.9148
-21.9005 11.7839 -1.2612 0.9052
-23.4736 11.5629 -1.3270 0.9005
-37.0758 13.5300 -2.0016 0.8538
-37.5379 12.1893 -2.0016 0.8538
-38.8968 6.6871 -2.0016 0.8538
-39.3904 2.4636 -2.0016 0.8538
-39.4657 -0.3711 -2.0016 0.8538
-39.4269 -1.7886 -2.0016 0.8538
-39.1967 -4.6149 -2.0016 0.8538
-39.0056 -6.0200 -2.0016 0.8538
-37.7412 -11.5447 -2.0016 0.8538
-34.3978 -19.3511 -2.0016 0.8538
-31.1194 -19.0098 -1.8494 0.8641
-30.4164 -20.1155 -1.8494 0.8641
-28.8936 -22.2474 -1.8494 0.8641
-26.9644 -22.3498 -1.7761 0.8691
-25.0794 -22.3551 -1.7038 0.8741
-23.3398 -22.3599 -1.6392 0.8786
-21.7254 -22.3644 -1.5812 0.8826
-20.2193 -22.3686 -1.5292 0.8862
-18.8076 -22.3725 -1.4823 0.8895
-16.3480 -22.5549 -1.4127 0.8944
-15.1449 -22.5583 -1.3779 0.8969
-13.5723 -21.8750 -1.3056 0.9020
-12.8010 -22.3892 -1.3079 0.9019
-11.7561 -22.3921 -1.2826 0.9037
-8.8345 -22.4002 -1.2212 0.9081
-3.6182 -22.4097 -1.1512 0.9131
-2.7967 -22.4120 -1.1454 0.9135
-1.9824 -22.4143 -1.1412 0.9138
-1.1730 -22.4165 -1.1384 0.9140
-0.3666 -22.4188 -1.1371 0.9141
1.2460 -22.4232 -1.1389 0.9140
3.3300 -36.3139 -1.8494 0.8641
4.6323 -36.1709 -1.8494 0.8641
10.5690 -38.0259 -2.0016 0.8538
13.2720 -37.1689 -2.0016 0.8538
14.5987 -36.6682 -2.0016 0.8538
15.9065 -36.1201 -2.0016 0.8538
17.1938 -35.5254 -2.0016 0.8538
2.2246 -4.2042 -0.2412 0.9811
23.2651 -31.8812 -2.0016 0.8538
24.3954 -31.0248 -2.0016 0.8538
26.9600 -27.5743 -1.9557 0.8569
27.2999 -24.1766 -1.8494 0.8641
28.1508 -23.1802 -1.8494 0.8641
31.1806 -18.9092 -1.8494 0.8641
36.3301 -15.4208 -2.0016 0.8538
37.7783 -11.4228 -2.0016 0.8538
34.5050 -5.2113 -1.7697 0.8696
39.4667 -0.2436 -2.0016 0.8538
39.4499 1.1743 -2.0016 0.8538
39.3823 2.5907 -2.0016 0.8538
39.0946 5.4117 -2.0016 0.8538
35.0332 10.1224 -1.8494 0.8641
33.2222 15.0359 -1.8494 0.8641
32.6606 16.2196 -1.8494 0.8641
32.0568 17.3825 -1.8494 0.8641
27.9091 22.4088 -1.8152 0.8664
27.2686 25.3210 -1.8872 0.8615
27.2668 27.2078 -1.9535 0.8570
26.9074 28.8512 -2.0007 0.8538
25.8642 29.8114 -2.0016 0.8538
24.7765 30.7213 -2.0016 0.8538
23.6569 31.5915 -2.0016 0.8538
22.5068 32.4210 -2.0016 0.8538
21.3276 33.2086 -2.0016 0.8538
17.6311 35.3104 -2.0016 0.8538
15.0502 36.4851 -2.0016 0.8538
4.4742 15.3601 -0.8114 0.9379
3.4405 13.6151 -0.7122 0.9453
2.8238 13.1465 -0.6819 0.9476
1.2962 12.4444 -0.6345 0.9511
-0.4761 11.9142 -0.6047 0.9534
-1.3344 11.8862 -0.6066 0.9532
-2.6546 11.8938 -0.6180 0.9524
-3.1054 11.8876 -0.6231 0.9520
-4.1387 12.1867 -0.6527 0.9498
-5.0742 12.0267 -0.6620 0.9491
-5.5163 11.8655 -0.6636 0.9489
-6.0932 11.9624 -0.6808 0.9477
-7.2548 12.0216 -0.7121 0.9453
-7.7630 11.8773 -0.7196 0.9448
-8.3642 11.8449 -0.7354 0.9436
-9.7441 11.8859 -0.7795 0.9403
-11.2536 11.8745 -0.8297 0.9366
-12.0857 11.8679 -0.8590 0.9344
-16.2436 11.9077 -1.0214 0.9225
-18.8537 11.8392 -1.1290 0.9147
-22.3497 11.8882 -1.2838 0.9036
-37.5958 12.0098 -2.0016 0.8538
-38.3610 9.2793 -2.0016 0.8538
-38.6696 7.8953 -2.0016 0.8538
-38.9283 6.5011 -2.0016 0.8538
-39.1367 5.0984 -2.0016 0.8538
-39.2946 3.6892 -2.0016 0.8538
-39.4018 2.2752 -2.0016 0.8538
-39.3214 -3.3918 -2.0016 0.8538
-39.1742 -4.8022 -2.0016 0.8538
-38.9764 -6.2064 -2.0016 0.8538
-38.7283 -7.6025 -2.0016 0.8538
-38.4301 -8.9889 -2.0016 0.8538
-36.7464 -14.4005 -2.0016 0.8538
-36.2054 -15.7113 -2.0016 0.8538
-34.9839 -18.2703 -2.0016 0.8538
-24.8400 -22.3557 -1.6948 0.8747
-23.1183 -22.3605 -1.6311 0.8791
-21.5191 -22.3650 -1.5740 0.8831
-20.0264 -22.3691 -1.5226 0.8867
-11.6201 -22.3925 -1.2794 0.9039
-9.6501 -22.3979 -1.2368 0.9069
-8.7111 -22.4005 -1.2189 0.9082
-7.7960 -22.3981 -1.2027 0.9094
-6.0339 -22.4030 -1.1766 0.9113
-4.3581 -22.5120 -1.1629 0.9123
-0.2594 -22.4191 -1.1370 0.9141
0.4235 -17.3809 -0.8817 0.9327
4.8052 -36.1483 -1.8494 0.8641
6.1006 -35.9523 -1.8494 0.8641
9.3796 -38.3367 -2.0016 0.8538
10.7507 -37.9750 -2.0016 0.8538
12.1079 -37.5643 -2.0016 0.8538
17.3634 -35.4427 -2.0016 0.8538
2.2436 -4.1915 -0.2411 0.9811
19.8634 -34.1046 -2.0016 0.8538
23.4173 -31.7696 -2.0016 0.8538
24.5434 -30.9079 -2.0016 0.8538
25.6379 -30.0062 -2.0016 0.8538
26.9632 -27.3151 -1.9465 0.8575
26.9858 -25.4415 -1.8809 0.8620
28.2612 -23.0454 -1.8494 0.8641
31.2707 -18.7599 -1.8494 0.8641
37.4042 -12.5938 -2.0016 0.8538
37.8324 -11.2420 -2.0016 0.8538
38.8223 -7.1066 -2.0016 0.8538
34.0691 -3.7347 -1.7381 0.8717
36.1342 -2.6518 -1.8374 0.8649
39.4399 -1.4727 -2.0016 0.8538
39.3694 2.7789 -2.0016 0.8538
39.2442 4.1914 -2.0016 0.8538
38.8420 6.9984 -2.0016 0.8538
37.8715 8.2383 -1.9655 0.8562
35.3315 9.0264 -1.8494 0.8641
34.9844 10.2898 -1.8494 0.8641
34.5922 11.5399 -1.8494 0.8641
34.1553 12.7751 -1.8494 0.8641
33.1499 15.1945 -1.8494 0.8641
32.5827 16.3756 -1.8494 0.8641
30.8116 16.8983 -1.7822 0.8687
30.6318 19.7859 -1.8494 0.8641
29.9012 20.8735 -1.8494 0.8641
29.1321 21.9342 -1.8494 0.8641
27.2684 25.5647 -1.8956 0.8610
24.6294 30.8394 -2.0016 0.8538
21.1686 33.3101 -2.0016 0.8538
-18.1650 11.5281 -1.5775 0.9173
-19.7123 11.5383 -1.6747 0.9125
-23.0120 10.3255 -1.8494 0.9038
-26.2497 7.4928 -2.0016 0.8963
-26.5020 6.5450 -2.0016 0.8963
-26.9035 4.6252 -2.0016 0.8963
-27.0523 3.6557 -2.0016 0.8963
-27.1662 2.6816 -2.0016 0.8963
-27.2449 1.7039 -2.0016 0.8963
-27.2970 -0.2567 -2.0016 0.8963
-27.2701 -1.2371 -2.0016 0.8963
-25.1526 -2.9614 -1.8570 0.9034
-25.0300 -3.8630 -1.8570 0.9034
-24.8750 -4.7597 -1.8570 0.9034
-26.3742 -7.0421 -2.0016 0.8963
-25.8005 -8.9176 -2.0016 0.8963
-24.6914 -11.6416 -2.0016 0.8963
-23.7917 -13.3844 -2.0016 0.8963
-23.2956 -14.2305 -2.0016 0.8963
-22.7693 -15.0582 -2.0016 0.8963
-22.1889 -15.8486 -1.9993 0.8964
-21.0077 -16.1755 -1.9440 0.8991
-18.2132 -17.4485 -1.8494 0.9038
-16.2303 -19.3067 -1.8494 0.9038
-15.5262 -19.8773 -1.8494 0.9038
-14.8021 -20.4222 -1.8494 0.9038
-14.0590 -20.9407 -1.8494 0.9038
-13.2976 -21.4323 -1.8494 0.9038
-12.5191 -21.8961 -1.8494 0.9038
-11.7244 -22.3318 -1.8494 0.9038
-9.7772 -22.3976 -1.7919 0.9066
-7.9162 -22.3978 -1.7418 0.9091
-6.1488 -22.4027 -1.7034 0.9110
-2.7967 -22.4120 -1.6560 0.9134
-1.9824 -22.4143 -1.6499 0.9137
-0.3666 -22.4188 -1.6440 0.9140
0.3375 -17.2329 -1.2638 0.9332
2.3032 -25.1170 -1.8494 0.9038
3.2040 -25.0181 -1.8494 0.9038
4.9923 -24.7234 -1.8494 0.9038
6.7543 -24.3012 -1.8494 0.9038
7.6230 -24.0429 -1.8494 0.9038
9.1797 -25.7084 -2.0016 0.8963
13.6259 -23.6543 -2.0016 0.8963
17.6334 -20.8388 -2.0016 0.8963
19.0841 -19.5189 -2.0016 0.8963
19.7730 -18.8207 -2.0016 0.8963
21.0733 -17.3524 -2.0016 0.8963
21.6831 -16.5842 -2.0016 0.8963
23.3414 -14.1552 -2.0016 0.8963
24.7288 -11.5618 -2.0016 0.8963
25.1282 -10.6660 -2.0016 0.8963
25.4951 -9.7564 -2.0016 0.8963
26.6297 -6.0042 -2.0016 0.8963
26.8282 -5.0437 -2.0016 0.8963
26.9921 -4.0766 -2.0016 0.8963
27.2151 -2.1280 -2.0016 0.8963
27.2740 -1.1490 -2.0016 0.8963
27.2977 -0.1685 -2.0016 0.8963
27.2393 1.7919 -2.0016 0.8963
27.0403 3.7431 -2.0016 0.8963
26.8884 4.7120 -2.0016 0.8963
26.7018 5.6749 -2.0016 0.8963
26.2254 7.5775 -2.0016 0.8963
25.9363 8.5147 -2.0016 0.8963
25.6136 9.4409 -2.0016 0.8963
25.2580 10.3550 -2.0016 0.8963
24.8697 11.2556 -2.0016 0.8963
24.4493 12.1418 -2.0016 0.8963
23.9973 13.0123 -2.0016 0.8963
23.5144 13.8659 -2.0016 0.8963
23.0011 14.7017 -2.0016 0.8963
21.8861 16.3152 -2.0016 0.8963
21.2859 17.0909 -2.0016 0.8963
20.6582 17.8446 -2.0016 0.8963
17.8893 20.6195 -2.0016 0.8963
14.7515 22.9692 -2.0016 0.8963
13.9169 23.4843 -2.0016 0.8963
13.0642 23.9691 -2.0016 0.8963
7.5775 16.6464 -1.3411 0.9293
10.4097 25.2355 -2.0016 0.8963
3.4046 13.4729 -1.0189 0.9458
0.8364 12.3066 -0.9044 0.9517
0.3884 12.1610 -0.8921 0.9524
-0.0481 12.0127 -0.8808 0.9530
-0.9100 11.9709 -0.8803 0.9530
-1.7669 11.8729 -0.8801 0.9530
-2.2297 12.0033 -0.8952 0.9522
-3.5528 11.8426 -0.9066 0.9516
-4.0809 12.0166 -0.9305 0.9504
-4.5120 11.8677 -0.9309 0.9504
-4.9876 11.8216 -0.9408 0.9498
-6.0604 11.8979 -0.9790 0.9479
-6.6218 11.9208 -0.9999 0.9468
-7.2794 12.0624 -1.0330 0.9451
-7.6962 11.7750 -1.0314 0.9451
-8.3145 11.7746 -1.0569 0.9438
-10.4691 11.8734 -1.1607 0.9385
-11.3114 11.9355 -1.2057 0.9362
-12.0501 11.8329 -1.2383 0.9345
-13.0140 11.8919 -1.2926 0.9317
-13.6653 11.6143 -1.3150 0.9306
-15.7038 11.5120 -1.4277 0.9249
-18.3604 11.5294 -1.5896 0.9167
-21.7166 11.5514 -1.8036 0.9061
-23.0611 10.2154 -1.8494 0.9038
-21.3010 8.5341 -1.6825 0.9121
-26.7464 5.4609 -2.0016 0.8963
-26.9253 4.4966 -2.0016 0.8963
-27.1787 2.5517 -2.0016 0.8963
-27.2528 1.5737 -2.0016 0.8963
-27.2954 -0.3872 -2.0016 0.8963
-27.2639 -1.3675 -2.0016 0.8963
-26.1222 -2.2533 -1.9225 0.9002
-25.1382 -3.0816 -1.8570 0.9034
-26.3402 -7.1681 -2.0016 0.8963
-26.0657 -8.1097 -2.0016 0.8963
-25.7576 -9.0409 -2.0016 0.8963
-25.4162 -9.9604 -2.0016 0.8963
-25.0420 -10.8669 -2.0016 0.8963
-24.1971 -12.6369 -2.0016 0.8963
-23.2273 -14.3417 -2.0016 0.8963
-22.6971 -15.1668 -2.0016 0.8963
-19.3535 -16.1981 -1.8505 0.9037
-18.7478 -16.8728 -1.8494 0.9038
-18.1296 -17.5353 -1.8494 0.9038
-17.4879 -18.1753 -1.8494 0.9038
-16.8237 -18.7918 -1.8494 0.9038
-15.4310 -19.9513 -1.8494 0.9038
-13.9587 -21.0077 -1.8494 0.9038
-12.4143 -21.9557 -1.8494 0.9038
-9.6501 -22.3979 -1.7882 0.9068
-6.0339 -22.4030 -1.7012 0.9111
-4.2731 -22.0727 -1.6485 0.9138
-3.5084 -22.4100 -1.6632 0.9130
-2.6880 -22.4123 -1.6551 0.9134
-1.8745 -22.4146 -1.6492 0.9137
1.3536 -22.4235 -1.6471 0.9138
2.4232 -25.1057 -1.8494 0.9038
4.2197 -24.8669 -1.8494 0.9038
5.9942 -24.4998 -1.8494 0.9038
6.8704 -24.2686 -1.8494 0.9038
7.7378 -24.0062 -1.8494 0.9038
9.3026 -25.6642 -2.0016 0.8963
11.1212 -24.9301 -2.0016 0.8963
13.7388 -23.5889 -2.0016 0.8963
14.5773 -23.0801 -2.0016 0.8963
15.3970 -22.5415 -2.0016 0.8963
16.9758 -21.3779 -2.0016 0.8963
17.7328 -20.7542 -2.0016 0.8963
18.4669 -20.1038 -2.0016 0.8963
21.1560 -17.2515 -2.0016 0.8963
21.7621 -16.4803 -2.0016 0.8963
23.4088 -14.0434 -2.0016 0.8963
24.7838 -11.4435 -2.0016 0.8963
25.1789 -10.5458 -2.0016 0.8963
25.5415 -9.6344 -2.0016 0.8963
26.1673 -7.7757 -2.0016 0.8963
26.4298 -6.8306 -2.0016 0.8963
26.6581 -5.8768 -2.0016 0.8963
27.1356 -2.9747 -2.0016 0.8963
27.2250 -1.9979 -2.0016 0.8963
27.2792 -1.0186 -2.0016 0.8963
27.2981 -0.0380 -2.0016 0.8963
27.0221 3.8723 -2.0016 0.8963
26.8656 4.8405 -2.0016 0.8963
26.4487 6.7570 -2.0016 0.8963
25.8953 8.6386 -2.0016 0.8963
25.5682 9.5633 -2.0016 0.8963
24.8156 11.3744 -2.0016 0.8963
24.3910 12.2585 -2.0016 0.8963
23.9348 13.1268 -2.0016 0.8963
23.4478 13.9782 -2.0016 0.8963
22.9305 14.8115 -2.0016 0.8963
22.3837 15.6257 -2.0016 0.8963
21.8079 16.4197 -2.0016 0.8963
21.2040 17.1925 -2.0016 0.8963
20.5726 17.9431 -2.0016 0.8963
-14.4223 11.5036 -1.7711 0.9285
-15.4812 11.4630 -1.8494 0.9255
-16.2643 10.3219 -1.8494 0.9255
-16.6246 9.7310 -1.8494 0.9255
-17.2804 8.5122 -1.8494 0.9255
-19.3062 7.8422 -2.0006 0.9197
-19.8293 6.4390 -2.0016 0.9196
-20.0478 5.7225 -2.0016 0.9196
-20.4069 4.2683 -2.0016 0.9196
-20.5471 3.5324 -2.0016 0.9196
-20.6607 2.7920 -2.0016 0.9196
-20.7477 2.0480 -2.0016 0.9196
-20.8079 1.3014 -2.0016 0.9196
-20.7797 -1.6924 -2.0016 0.9196
-20.3230 -4.6512 -2.0016 0.9196
-19.9366 -6.0984 -2.0016 0.9196
-19.7047 -6.8107 -2.0016 0.9196
-19.4473 -7.5142 -2.0016 0.9196
-18.5260 -9.5628 -2.0016 0.9196
-18.1705 -10.2221 -2.0016 0.9196
-17.3897 -11.5004 -2.0016 0.9196
-16.9653 -12.1177 -2.0016 0.9196
-16.0515 -13.3045 -2.0016 0.9196
-15.0548 -14.4227 -2.0016 0.9196
-14.5269 -14.9542 -2.0016 0.9196
-13.3915 -15.9298 -1.9979 0.9198
-10.8687 -16.1888 -1.8720 0.9246
-10.1558 -16.3685 -1.8494 0.9255
-9.5612 -16.7228 -1.8494 0.9255
-8.3359 -17.3661 -1.8494 0.9255
-7.0675 -17.9198 -1.8494 0.9255
-6.4191 -18.1622 -1.8494 0.9255
-5.1846 -16.5376 -1.6639 0.9327
-5.0985 -18.5762 -1.8494 0.9255
-2.3853 -19.1149 -1.8494 0.9255
-1.6971 -19.1883 -1.8494 0.9255
-0.3150 -19.2606 -1.8494 0.9255
0.3365 -17.1822 -1.6499 0.9333
1.7590 -19.1827 -1.8494 0.9255
2.4470 -19.1071 -1.8494 0.9255
3.8126 -18.8821 -1.8494 0.9255
4.4885 -18.7329 -1.8494 0.9255
5.2953 -19.0518 -1.8984 0.9236
6.2900 -19.8387 -1.9981 0.9198
12.2897 -16.8411 -2.0016 0.9196
12.8868 -16.3887 -2.0016 0.9196
15.1013 -14.3740 -2.0016 0.9196
16.0944 -13.2526 -2.0016 0.9196
18.5568 -9.5029 -2.0016 0.9196
18.8862 -8.8301 -2.0016 0.9196
19.7266 -6.7470 -2.0016 0.9196
20.1601 -5.3132 -2.0016 0.9196
20.3379 -4.5856 -2.0016 0.9196
20.7133 -2.3709 -2.0016 0.9196
20.7851 -1.6253 -2.0016 0.9196
20.8481 -0.1287 -2.0016 0.9196
20.8393 0.6203 -2.0016 0.9196
20.8036 1.3685 -2.0016 0.9196
20.7409 2.1150 -2.0016 0.9196
20.6516 2.8587 -2.0016 0.9196
20.5356 3.5987 -2.0016 0.9196
20.3930 4.3341 -2.0016 0.9196
20.2242 5.0639 -2.0016 0.9196
19.8084 6.5030 -2.0016 0.9196
19.2903 7.9084 -2.0016 0.9196
18.3275 9.9379 -2.0016 0.9196
16.7152 12.4605 -2.0016 0.9196
16.2567 13.0529 -2.0016 0.9196
15.7773 13.6285 -2.0016 0.9196
15.2776 14.1865 -2.0016 0.9196
14.7581 14.7261 -2.0016 0.9196
13.0881 16.2284 -2.0016 0.9196
12.4967 16.6881 -2.0016 0.9196
11.8891 17.1262 -2.0016 0.9196
9.9776 18.3059 -2.0016 0.9196
7.3457 17.8076 -1.8494 0.9255
6.0482 18.2890 -1.8494 0.9255
2.8305 13.1773 -1.2939 0.9473
2.2769 12.8288 -1.2509 0.9490
1.8046 12.8317 -1.2440 0.9493
0.8373 12.3194 -1.1854 0.9516
-0.9240 12.1556 -1.1704 0.9522
-1.3390 11.9271 -1.1523 0.9529
-1.7818 11.9732 -1.1621 0.9525
-2.6758 11.9886 -1.1793 0.9518
-3.1403 12.0212 -1.1928 0.9513
-4.0578 11.9486 -1.2115 0.9506
-4.5150 11.8755 -1.2197 0.9502
-5.5423 11.9214 -1.2622 0.9485
-6.6660 12.0005 -1.3179 0.9463
-7.4937 11.4651 -1.3150 0.9464
-8.0939 11.4621 -1.3471 0.9452
-8.7306 11.4663 -1.3836 0.9437
-10.1182 11.4754 -1.4688 0.9404
-11.6966 11.4858 -1.5738 0.9362
-12.5759 11.4915 -1.6355 0.9338
-15.5358 11.3889 -1.8494 0.9255
-15.9350 10.8235 -1.8494 0.9255
-17.0069 9.0463 -1.8494 0.9255
-18.6030 8.2405 -1.9534 0.9215
-19.3531 7.7537 -2.0016 0.9196
-20.0749 5.6266 -2.0016 0.9196
-20.2641 4.9018 -2.0016 0.9196
-20.4271 4.1707 -2.0016 0.9196
-20.5637 3.4342 -2.0016 0.9196
-20.7572 1.9488 -2.0016 0.9196
-20.8138 1.2019 -2.0016 0.9196
-20.7714 -1.7917 -2.0016 0.9196
-20.5891 -3.2785 -2.0016 0.9196
-20.4580 -4.0160 -2.0016 0.9196
-20.1169 -5.4745 -2.0016 0.9196
-19.9072 -6.1937 -2.0016 0.9196
-19.6719 -6.9048 -2.0016 0.9196
-19.4112 -7.6070 -2.0016 0.9196
-19.1254 -8.2994 -2.0016 0.9196
-18.8149 -8.9811 -2.0016 0.9196
-17.3345 -11.5834 -2.0016 0.9196
-16.9072 -12.1986 -2.0016 0.9196
-16.4581 -12.7981 -2.0016 0.9196
-15.4967 -13.9468 -2.0016 0.9196
-14.9857 -14.4945 -2.0016 0.9196
-13.3088 -15.9860 -1.9970 0.9198
-11.6108 -16.1814 -1.9120 0.9231
-10.0775 -16.4169 -1.8494 0.9255
-9.4812 -16.7683 -1.8494 0.9255
-8.8727 -17.0981 -1.8494 0.9255
-8.2527 -17.4058 -1.8494 0.9255
-7.6221 -17.6910 -1.8494 0.9255
-6.9817 -17.9534 -1.8494 0.9255
-5.0097 -18.6003 -1.8494 0.9255
-4.3382 -18.7683 -1.8494 0.9255
-2.9795 -19.0313 -1.8494 0.9255
-2.2939 -19.1261 -1.8494 0.9255
-1.6053 -19.1962 -1.8494 0.9255
0.4187 -17.1824 -1.6501 0.9333
1.1607 -19.2282 -1.8494 0.9255
1.8507 -19.1741 -1.8494 0.9255
2.5383 -19.0952 -1.8494 0.9255
3.9028 -18.8636 -1.8494 0.9255
4.5779 -18.7113 -1.8494 0.9255
5.4375 -19.2071 -1.9164 0.9229
6.3896 -19.8235 -1.9996 0.9197
8.4937 -19.0399 -2.0016 0.9196
9.1722 -18.7225 -2.0016 0.9196
2.2436 -4.1915 -0.4564 0.9811
10.4928 -18.0156 -2.0016 0.9196
11.1332 -17.6270 -2.0016 0.9196
11.7592 -17.2157 -2.0016 0.9196
12.9650 -16.3270 -2.0016 0.9196
14.6463 -14.8374 -2.0016 0.9196
15.1698 -14.3016 -2.0016 0.9196
15.6738 -13.7475 -2.0016 0.9196
16.1575 -13.1755 -2.0016 0.9196
17.0618 -11.9814 -2.0016 0.9196
17.4812 -11.3607 -2.0016 0.9196
18.6020 -9.4141 -2.0016 0.9196
18.9282 -8.7398 -2.0016 0.9196
19.2299 -8.0541 -2.0016 0.9196
19.5069 -7.3581 -2.0016 0.9196
19.7586 -6.6526 -2.0016 0.9196
20.5077 -3.7540 -2.0016 0.9196
20.6294 -3.0149 -2.0016 0.9196
20.8340 -0.7780 -2.0016 0.9196
20.7968 1.4680 -2.0016 0.9196
20.6377 2.9574 -2.0016 0.9196
20.1997 5.1606 -2.0016 0.9196
19.5273 7.3038 -2.0016 0.9196
19.2523 8.0005 -2.0016 0.9196
18.9525 8.6870 -2.0016 0.9196
18.6282 9.3622 -2.0016 0.9196
17.9079 10.6756 -2.0016 0.9196
17.5128 11.3120 -2.0016 0.9196
16.6554 12.5402 -2.0016 0.9196
15.2096 14.2593 -2.0016 0.9196
14.6875 14.7965 -2.0016 0.9196
14.1465 15.3146 -2.0016 0.9196
13.5872 15.8129 -2.0016 0.9196
13.0104 16.2908 -2.0016 0.9196
12.4168 16.7476 -2.0016 0.9196
-11.8147 10.1391 -1.8494 0.9392
-12.1713 9.7081 -1.8494 0.9392
-12.5122 9.2646 -1.8494 0.9392
-12.8370 8.8092 -1.8494 0.9392
-13.1451 8.3424 -1.8494 0.9392
-14.0831 8.2433 -1.9384 0.9364
-14.8149 7.9714 -1.9984 0.9345
-15.1158 7.4459 -2.0016 0.9344
-15.3735 6.8981 -2.0016 0.9344
-16.2030 4.6250 -2.0016 0.9344
-16.7687 1.6552 -2.0016 0.9344
-16.8173 1.0518 -2.0016 0.9344
-16.8328 -0.7636 -2.0016 0.9344
-16.7945 -1.3678 -2.0016 0.9344
-16.6530 -2.5702 -2.0016 0.9344
-16.4255 -3.7592 -2.0016 0.9344
-15.7177 -6.0731 -2.0016 0.9344
-14.3795 -8.7840 -2.0016 0.9344
-14.0547 -9.2948 -2.0016 0.9344
-9.8888 -13.6433 -2.0016 0.9344
-8.8836 -14.3181 -2.0016 0.9344
-8.3635 -14.6280 -2.0016 0.9344
-7.8327 -14.9190 -2.0016 0.9344
-7.2917 -15.1908 -2.0016 0.9344
-6.1821 -15.6751 -2.0016 0.9344
-4.4372 -16.1667 -1.9914 0.9347
-3.2112 -16.1728 -1.9586 0.9357
-2.0187 -16.1769 -1.9365 0.9364
-1.4308 -16.1782 -1.9292 0.9367
-0.2658 -16.2527 -1.9309 0.9366
0.9154 -16.4743 -1.9599 0.9357
1.5267 -16.6489 -1.9860 0.9349
2.1356 -16.6759 -1.9970 0.9345
2.7395 -16.6260 -2.0016 0.9344
3.3350 -16.5168 -2.0016 0.9344
6.2327 -15.6551 -2.0016 0.9344
6.7911 -15.4210 -2.0016 0.9344
7.3407 -15.1671 -2.0016 0.9344
2.2246 -4.2041 -0.5650 0.9810
8.4108 -14.6009 -2.0016 0.9344
8.9299 -14.2893 -2.0016 0.9344
9.4374 -13.9593 -2.0016 0.9344
11.3395 -12.4637 -2.0016 0.9344
12.2051 -11.6173 -2.0016 0.9344
12.6146 -11.1714 -2.0016 0.9344
13.0078 -10.7110 -2.0016 0.9344
13.3842 -10.2368 -2.0016 0.9344
14.0846 -9.2494 -2.0016 0.9344
14.4078 -8.7375 -2.0016 0.9344
15.5107 -6.5837 -2.0016 0.9344
16.1290 -4.8768 -2.0016 0.9344
16.2938 -4.2943 -2.0016 0.9344
16.6612 -2.5164 -2.0016 0.9344
16.8138 1.1061 -2.0016 0.9344
16.7632 1.7094 -2.0016 0.9344
16.6910 2.3105 -2.0016 0.9344
16.4820 3.5029 -2.0016 0.9344
16.0095 5.2558 -2.0016 0.9344
15.8104 5.8275 -2.0016 0.9344
15.5908 6.3917 -2.0016 0.9344
15.3511 6.9477 -2.0016 0.9344
15.0916 7.4947 -2.0016 0.9344
14.8127 8.0320 -2.0016 0.9344
14.1977 9.0748 -2.0016 0.9344
12.7516 11.0148 -2.0016 0.9344
10.1001 13.4876 -2.0016 0.9344
7.4509 13.6702 -1.8494 0.9392
6.4501 14.1699 -1.8494 0.9392
4.2202 14.4880 -1.7925 0.9410
3.3460 13.2411 -1.6223 0.9465
2.7903 12.9905 -1.5783 0.9479
2.2633 12.7528 -1.5385 0.9492
1.7617 12.5265 -1.5026 0.9503
-0.0469 11.7107 -1.3911 0.9539
-1.2818 11.4175 -1.3648 0.9548
-1.6995 11.4202 -1.3715 0.9546
-2.5501 11.4258 -1.3906 0.9539
-3.4294 11.4316 -1.4177 0.9531
-4.8269 11.4407 -1.4750 0.9512
-5.3204 11.4440 -1.4991 0.9504
-8.0939 11.4621 -1.6668 0.9450
-10.1182 11.4754 -1.8173 0.9402
-11.8630 10.0825 -1.8494 0.9392
-12.2176 9.6499 -1.8494 0.9392
-13.1849 8.2794 -1.8494 0.9392
-14.2339 8.2405 -1.9537 0.9359
-15.1512 7.3736 -2.0016 0.9344
-15.4063 6.8245 -2.0016 0.9344
-16.0511 5.1274 -2.0016 0.9344
-16.3778 3.9617 -2.0016 0.9344
-16.6200 2.7756 -2.0016 0.9344
-16.8221 0.9714 -2.0016 0.9344
-16.8462 0.3664 -2.0016 0.9344
-16.8290 -0.8441 -2.0016 0.9344
-16.7250 -2.0502 -2.0016 0.9344
-16.6405 -2.6497 -2.0016 0.9344
-16.4073 -3.8377 -2.0016 0.9344
-16.0894 -5.0058 -2.0016 0.9344
-15.8992 -5.5806 -2.0016 0.9344
-15.2065 -7.2587 -2.0016 0.9344
-14.9360 -7.8003 -2.0016 0.9344
-14.6461 -8.3318 -2.0016 0.9344
-14.3373 -8.8526 -2.0016 0.9344
-14.0101 -9.3619 -2.0016 0.9344
-12.5247 -11.2721 -2.0016 0.9344
-10.7811 -12.9498 -2.0016 0.9344
-10.3089 -13.3287 -2.0016 0.9344
-9.8234 -13.6904 -2.0016 0.9344
-9.3253 -14.0345 -2.0016 0.9344
-7.2190 -15.2254 -2.0016 0.9344
-5.5309 -15.8903 -1.9986 0.9345
-4.3544 -16.1672 -1.9889 0.9348
-3.1310 -16.1731 -1.9568 0.9358
-1.9402 -16.1771 -1.9354 0.9365
0.3986 -16.3589 -1.9438 0.9362
1.6094 -16.6742 -1.9899 0.9347
2.2160 -16.6704 -1.9976 0.9345
4.0045 -16.3674 -2.0016 0.9344
4.5899 -16.2130 -2.0016 0.9344
5.1693 -16.0376 -2.0016 0.9344
5.7421 -15.8416 -2.0016 0.9344
6.8647 -15.3884 -2.0016 0.9344
8.4805 -14.5605 -2.0016 0.9344
9.9977 -13.5637 -2.0016 0.9344
10.9458 -12.8108 -2.0016 0.9344
11.3990 -12.4093 -2.0016 0.9344
11.8374 -11.9918 -2.0016 0.9344
13.0588 -10.6487 -2.0016 0.9344
13.4329 -10.1727 -2.0016 0.9344
14.4494 -8.6685 -2.0016 0.9344
15.0345 -7.6086 -2.0016 0.9344
15.5420 -6.5095 -2.0016 0.9344
15.7658 -5.9470 -2.0016 0.9344
16.1521 -4.7996 -2.0016 0.9344
16.3141 -4.2163 -2.0016 0.9344
16.5747 -3.0341 -2.0016 0.9344
16.6730 -2.4367 -2.0016 0.9344
16.7498 -1.8362 -2.0016 0.9344
16.8384 -0.6288 -2.0016 0.9344
16.8501 -0.0235 -2.0016 0.9344
16.8401 0.5819 -2.0016 0.9344
16.8083 1.1864 -2.0016 0.9344
16.7549 1.7895 -2.0016 0.9344
16.6798 2.3902 -2.0016 0.9344
16.3258 4.1709 -2.0016 0.9344
16.1654 4.7547 -2.0016 0.9344
15.9842 5.3323 -2.0016 0.9344
15.7823 5.9030 -2.0016 0.9344
15.3177 7.0210 -2.0016 0.9344
14.7741 8.1027 -2.0016 0.9344
13.8166 9.6451 -2.0016 0.9344
13.4612 10.1353 -2.0016 0.9344
13.0884 10.6123 -2.0016 0.9344
12.2927 11.5247 -2.0016 0.9344
10.5153 13.1665 -2.0016 0.9344
9.5427 13.8875 -2.0016 0.9344
9.0377 14.2214 -2.0016 0.9344
-10.3494 8.2549 -1.8757 0.9479
-12.4399 6.6935 -2.0016 0.9445
-12.8884 5.7830 -2.0016 0.9445
-13.4358 4.3629 -2.0016 0.9445
-13.5839 3.8774 -2.0016 0.9445
-13.7144 3.3869 -2.0016 0.9445
-13.8272 2.8921 -2.0016 0.9445
-13.9222 2.3935 -2.0016 0.9445
-14.0581 1.3877 -2.0016 0.9445
-14.1119 -0.6402 -2.0016 0.9445
-14.0798 -1.1467 -2.0016 0.9445
-14.0295 -1.6518 -2.0016 0.9445
-13.9611 -2.1547 -2.0016 0.9445
-12.6624 -3.3810 -1.8570 0.9484
-12.3870 -4.2814 -1.8570 0.9484
-12.2252 -4.7236 -1.8570 0.9484
-12.0476 -5.1597 -1.8570 0.9484
-11.4953 -8.2106 -2.0016 0.9445
-10.8761 -9.0148 -2.0016 0.9445
-9.4727 -10.4796 -2.0016 0.9445
-8.6958 -11.1327 -2.0016 0.9445
-7.0116 -12.2635 -2.0016 0.9445
-6.5666 -12.5074 -2.0016 0.9445
-6.1130 -12.7352 -2.0016 0.9445
-5.1828 -13.1413 -2.0016 0.9445
-4.7074 -13.3190 -2.0016 0.9445
-3.2472 -13.7481 -2.0016 0.9445
-2.7512 -13.8559 -2.0016 0.9445
-2.2517 -13.9458 -2.0016 0.9445
-1.7492 -14.0177 -2.0016 0.9445
-0.7382 -14.1071 -2.0016 0.9445
0.2766 -14.1237 -2.0016 0.9445
0.7838 -14.1046 -2.0016 0.9445
1.2900 -14.0674 -2.0016 0.9445
1.7945 -14.0120 -2.0016 0.9445
2.7959 -13.8470 -2.0016 0.9445
3.2915 -13.7376 -2.0016 0.9445
4.2694 -13.4658 -2.0016 0.9445
5.2252 -13.1245 -2.0016 0.9445
6.1541 -12.7154 -2.0016 0.9445
7.0512 -12.2407 -2.0016 0.9445
7.4864 -11.9795 -2.0016 0.9445
7.9119 -11.7029 -2.0016 0.9445
9.1250 -10.7838 -2.0016 0.9445
9.5065 -10.4490 -2.0016 0.9445
9.8757 -10.1007 -2.0016 0.9445
10.2322 -9.7394 -2.0016 0.9445
11.2207 -8.5821 -2.0016 0.9445
11.8079 -7.7543 -2.0016 0.9445
12.0788 -7.3251 -2.0016 0.9445
12.3342 -6.8864 -2.0016 0.9445
13.0035 -5.5195 -2.0016 0.9445
13.1934 -5.0488 -2.0016 0.9445
13.5218 -4.0885 -2.0016 0.9445
13.7805 -3.1071 -2.0016 0.9445
13.8832 -2.6100 -2.0016 0.9445
13.9680 -2.1096 -2.0016 0.9445
14.0348 -1.6064 -2.0016 0.9445
14.1139 -0.5946 -2.0016 0.9445
14.1201 0.4203 -2.0016 0.9445
14.0535 1.4331 -2.0016 0.9445
13.7034 3.4312 -2.0016 0.9445
13.4216 4.4062 -2.0016 0.9445
12.8697 5.8246 -2.0016 0.9445
12.4183 6.7337 -2.0016 0.9445
11.9027 7.6079 -2.0016 0.9445
11.6217 8.0306 -2.0016 0.9445
11.3258 8.4429 -2.0016 0.9445
10.6903 9.2343 -2.0016 0.9445
9.2575 10.6703 -2.0016 0.9445
8.8682 10.9959 -2.0016 0.9445
8.0558 11.6043 -2.0016 0.9445
7.1813 12.1182 -1.9959 0.9447
5.4075 11.8794 -1.8494 0.9486
3.6503 12.5314 -1.8494 0.9486
3.1977 12.6544 -1.8494 0.9486
2.7411 12.7611 -1.8494 0.9486
1.7617 12.5265 -1.7923 0.9502
1.2822 12.3103 -1.7537 0.9512
0.8225 12.1029 -1.7188 0.9522
0.3801 11.9033 -1.6874 0.9530
-0.4605 11.5242 -1.6342 0.9545
-1.2818 11.4175 -1.6279 0.9546
-2.5501 11.4258 -1.6587 0.9538
-4.8269 11.4407 -1.7594 0.9511
-5.3204 11.4440 -1.7882 0.9503
-5.8308 11.4473 -1.8203 0.9494
-6.3381 11.4101 -1.8494 0.9486
-7.1410 10.9255 -1.8494 0.9486
-7.5288 10.6619 -1.8494 0.9486
-7.9070 10.3846 -1.8494 0.9486
-8.2749 10.0939 -1.8494 0.9486
-8.6322 9.7901 -1.8494 0.9486
-8.9783 9.4737 -1.8494 0.9486
-9.3129 9.1450 -1.8494 0.9486
-9.9454 8.4527 -1.8494 0.9486
-10.4489 8.2529 -1.8866 0.9476
-11.6714 7.9276 -1.9991 0.9446
-11.9633 7.5123 -2.0016 0.9445
-12.7021 6.1816 -2.0016 0.9445
-12.9159 5.7214 -2.0016 0.9445
-13.2934 4.7792 -2.0016 0.9445
-13.6022 3.8124 -2.0016 0.9445
-13.7304 3.3213 -2.0016 0.9445
-14.1029 0.8144 -2.0016 0.9445
-14.1250 -0.2003 -2.0016 0.9445
-14.1087 -0.7076 -2.0016 0.9445
-14.0741 -1.2140 -2.0016 0.9445
-13.9506 -2.2214 -2.0016 0.9445
-12.3664 -4.3405 -1.8570 0.9484
-11.8276 -5.6458 -1.8570 0.9484
-12.5216 -6.5394 -2.0016 0.9445
-12.0198 -7.4216 -2.0016 0.9445
-11.4559 -8.2655 -2.0016 0.9445
-10.8328 -9.0667 -2.0016 0.9445
-10.1539 -9.8211 -2.0016 0.9445
-9.4225 -10.5248 -2.0016 0.9445
-9.0383 -10.8565 -2.0016 0.9445
-8.6425 -11.1742 -2.0016 0.9445
-7.8179 -11.7659 -2.0016 0.9445
-7.3902 -12.0391 -2.0016 0.9445
-6.9529 -12.2968 -2.0016 0.9445
-6.5067 -12.5387 -2.0016 0.9445
-6.0520 -12.7643 -2.0016 0.9445
-5.5896 -12.9735 -2.0016 0.9445
-5.1200 -13.1659 -2.0016 0.9445
-4.6437 -13.3413 -2.0016 0.9445
-4.1614 -13.4996 -2.0016 0.9445
-3.6738 -13.6403 -2.0016 0.9445
-3.1814 -13.7635 -2.0016 0.9445
-2.1850 -13.9564 -2.0016 0.9445
-1.6822 -14.0259 -2.0016 0.9445
2.3633 -13.9273 -2.0016 0.9445
3.3572 -13.7217 -2.0016 0.9445
3.8480 -13.5922 -2.0016 0.9445
6.2148 -12.6859 -2.0016 0.9445
2.2436 -4.1914 -0.6736 0.9810
7.9677 -11.6649 -2.0016 0.9445
8.3816 -11.3712 -2.0016 0.9445
8.7847 -11.0627 -2.0016 0.9445
9.1765 -10.7400 -2.0016 0.9445
9.9239 -10.0534 -2.0016 0.9445
10.9479 -8.9274 -2.0016 0.9445
11.5607 -8.1183 -2.0016 0.9445
11.8448 -7.6977 -2.0016 0.9445
12.8253 -5.9218 -2.0016 0.9445
13.2173 -4.9857 -2.0016 0.9445
13.3879 -4.5077 -2.0016 0.9445
13.5412 -4.0238 -2.0016 0.9445
13.6770 -3.5348 -2.0016 0.9445
13.7952 -3.0412 -2.0016 0.9445
13.9779 -2.0428 -2.0016 0.9445
14.0423 -1.5394 -2.0016 0.9445
14.0885 -1.0339 -2.0016 0.9445
14.1264 -0.0197 -2.0016 0.9445
14.1180 0.4878 -2.0016 0.9445
13.9836 2.0039 -2.0016 0.9445
13.9025 2.5049 -2.0016 0.9445
13.5524 3.9861 -2.0016 0.9445
13.4004 4.4703 -2.0016 0.9445
13.0449 5.4210 -2.0016 0.9445
12.8417 5.8861 -2.0016 0.9445
12.1339 7.2335 -2.0016 0.9445
11.8662 7.6647 -2.0016 0.9445
10.9727 8.8969 -2.0016 0.9445
10.6461 9.2853 -2.0016 0.9445
10.3056 9.6618 -2.0016 0.9445
9.5853 10.3768 -2.0016 0.9445
9.2063 10.7144 -2.0016 0.9445
-9.2107 7.9044 -1.9995 0.9520
-9.4985 7.5762 -2.0016 0.9519
-9.7645 7.2301 -2.0016 0.9519
-10.0179 6.8747 -2.0016 0.9519
-10.4857 6.1376 -2.0016 0.9519
-11.2566 4.5725 -2.0016 0.9519
-11.4136 4.1651 -2.0016 0.9519
-11.8925 2.4874 -2.0016 0.9519
-12.1262 0.7584 -2.0016 0.9519
-12.0077 -1.8532 -2.0016 0.9519
-11.6646 -2.2320 -1.9565 0.9530
-10.9881 -2.5148 -1.8570 0.9553
-10.8907 -2.9079 -1.8570 0.9553
-10.7792 -3.2973 -1.8570 0.9553
-10.6538 -3.6824 -1.8570 0.9553
-10.5146 -4.0627 -1.8570 0.9553
-10.0165 -5.1704 -1.8570 0.9553
-9.8869 -7.0618 -2.0016 0.9519
-9.3543 -7.7535 -2.0016 0.9519
-9.0697 -8.0845 -2.0016 0.9519
-8.1473 -9.0134 -2.0016 0.9519
-7.8183 -9.3002 -2.0016 0.9519
-7.1303 -9.8376 -2.0016 0.9519
-6.7723 -10.0874 -2.0016 0.9519
-6.4056 -10.3241 -2.0016 0.9519
-5.6478 -10.7574 -2.0016 0.9519
-5.2577 -10.9534 -2.0016 0.9519
-4.8608 -11.1352 -2.0016 0.9519
-3.2158 -11.7166 -2.0016 0.9519
-2.7928 -11.8245 -2.0016 0.9519
-2.3662 -11.9172 -2.0016 0.9519
0.2379 -12.1475 -2.0016 0.9519
0.6741 -12.1312 -2.0016 0.9519
1.1095 -12.0991 -2.0016 0.9519
1.5434 -12.0514 -2.0016 0.9519
2.4047 -11.9095 -2.0016 0.9519
2.8310 -11.8154 -2.0016 0.9519
3.2536 -11.7061 -2.0016 0.9519
4.0857 -11.4423 -2.0016 0.9519
4.4941 -11.2881 -2.0016 0.9519
4.8967 -11.1194 -2.0016 0.9519
5.2930 -10.9363 -2.0016 0.9519
7.5100 -9.5509 -2.0016 0.9519
7.8483 -9.2749 -2.0016 0.9519
9.6507 -7.3813 -2.0016 0.9519
9.9096 -7.0298 -2.0016 0.9519
10.1558 -6.6693 -2.0016 0.9519
10.3888 -6.3002 -2.0016 0.9519
10.8143 -5.5380 -2.0016 0.9519
11.0063 -5.1459 -2.0016 0.9519
11.3474 -4.3424 -2.0016 0.9519
11.4960 -3.9320 -2.0016 0.9519
11.6299 -3.5165 -2.0016 0.9519
11.9407 -2.2448 -2.0016 0.9519
12.0136 -1.8144 -2.0016 0.9519
12.1129 -0.9472 -2.0016 0.9519
12.1391 -0.5114 -2.0016 0.9519
12.1237 0.7975 -2.0016 0.9519
12.0872 1.2326 -2.0016 0.9519
11.9675 2.0972 -2.0016 0.9519
11.8844 2.5258 -2.0016 0.9519
11.5437 3.7897 -2.0016 0.9519
11.4001 4.2020 -2.0016 0.9519
