ply
format ascii 1.0
element vertex 1551
property float32 x
property float32 y
property float32 z
property float32 I
end_header
-38.4930 8.7158 -2.0016 0.8538
-38.7813 7.3273 -2.0016 0.8538
-39.2073 4.5235 -2.0016 0.8538
-39.3445 3.1120 -2.0016 0.8538
-39.4510 -1.1395 -2.0016 0.8538
-39.2673 -3.9694 -2.0016 0.8538
-38.2937 -9.5534 -2.0016 0.8538
-37.5088 -12.2785 -2.0016 0.8538
-37.0435 -13.6182 -2.0016 0.8538
-36.5303 -14.9403 -2.0016 0.8538
-30.0177 -20.7058 -1.8494 0.8641
-27.8788 -22.3473 -1.8120 0.8667
-24.1162 -22.3577 -1.6678 0.8766
-22.4468 -22.3624 -1.6069 0.8808
-20.8931 -22.3667 -1.5522 0.8846
-19.4398 -22.3707 -1.5030 0.8881
-17.7292 -21.9477 -1.4308 0.8931
-16.6141 -22.1502 -1.4042 0.8950
-14.1491 -21.9935 -1.3263 0.9006
-6.5434 -22.4016 -1.1836 0.9108
-5.6791 -22.4040 -1.1721 0.9116
-4.8526 -22.5106 -1.1678 0.9119
-4.0126 -22.5129 -1.1597 0.9125
-3.1617 -22.3632 -1.1454 0.9135
-1.5396 -22.4155 -1.1395 0.9139
-0.7321 -22.4177 -1.1375 0.9141
0.8459 -21.5546 -1.0940 0.9172
1.6886 -22.4245 -1.1405 0.9139
6.6350 -35.8576 -1.8494 0.8641
7.9190 -35.5961 -1.8494 0.8641
7.0432 -27.0369 -1.4169 0.8941
12.6662 -37.3797 -2.0016 0.8538
14.0009 -36.9006 -2.0016 0.8538
23.8890 -31.4164 -2.0016 0.8538
26.9729 -26.5199 -1.9183 0.8594
28.6028 -22.6200 -1.8494 0.8641
30.1533 -20.5077 -1.8494 0.8641
30.8706 -19.4112 -1.8494 0.8641
33.5367 -16.3457 -1.8921 0.8612
35.9983 -15.9714 -1.9972 0.8541
36.6279 -14.6995 -2.0016 0.8538
38.3558 -9.3011 -2.0016 0.8538
38.6652 -7.9171 -2.0016 0.8538
38.9247 -6.5228 -2.0016 0.8538
32.4743 -4.2488 -1.6609 0.8771
38.2167 -2.2278 -1.9414 0.8579
39.4576 -0.8798 -2.0016 0.8538
39.4637 0.5384 -2.0016 0.8538
39.4189 1.9559 -2.0016 0.8538
39.3232 3.3709 -2.0016 0.8538
38.9796 6.1859 -2.0016 0.8538
34.8254 10.8157 -1.8494 0.8641
33.9589 13.2885 -1.8494 0.8641
32.9170 15.6927 -1.8494 0.8641
32.3320 16.8652 -1.8494 0.8641
31.0374 19.1434 -1.8494 0.8641
29.5826 21.3227 -1.8494 0.8641
27.9751 23.3920 -1.8494 0.8641
27.2692 24.5191 -1.8598 0.8634
27.2677 26.3498 -1.9230 0.8591
25.2655 30.3204 -2.0016 0.8538
12.9890 37.2688 -2.0016 0.8538
5.3053 17.1858 -0.9121 0.9305
3.6366 13.4808 -0.7081 0.9456
3.1223 13.4835 -0.7019 0.9461
2.4971 12.8717 -0.6650 0.9488
2.0214 12.8793 -0.6612 0.9491
1.0292 12.2506 -0.6235 0.9520
0.1419 11.8821 -0.6026 0.9535
-0.2870 11.9591 -0.6067 0.9532
-0.7227 12.0440 -0.6119 0.9528
-1.1712 8.8349 -0.4520 0.9649
-2.0273 11.9730 -0.6158 0.9525
-2.4226 11.7298 -0.6074 0.9532
-3.3400 11.8134 -0.6226 0.9520
-4.2754 11.8073 -0.6368 0.9509
-4.7387 11.7499 -0.6425 0.9505
-5.2583 11.7976 -0.6550 0.9496
-6.3441 11.8610 -0.6822 0.9476
-6.8838 11.8277 -0.6940 0.9467
-8.0740 11.8281 -0.7263 0.9443
-10.0812 11.8059 -0.7873 0.9397
-10.9561 11.9341 -0.8216 0.9372
-12.6419 11.9251 -0.8814 0.9328
-14.5384 11.8618 -0.9516 0.9276
-15.6484 11.8571 -0.9957 0.9244
-16.9678 11.9221 -1.0517 0.9203
-18.2683 11.8790 -1.1051 0.9164
-19.6282 11.7822 -1.1610 0.9124
-21.3728 11.8063 -1.2383 0.9068
-23.1321 11.7139 -1.3150 0.9014
-33.6319 14.0957 -1.8494 0.8641
-36.9243 13.9381 -2.0016 0.8538
-37.8298 11.2507 -2.0016 0.8538
-38.2096 9.8843 -2.0016 0.8538
-38.8208 7.1150 -2.0016 0.8538
-39.0513 5.7156 -2.0016 0.8538
-39.2315 4.3089 -2.0016 0.8538
-39.3610 2.8966 -2.0016 0.8538
-39.4396 1.4807 -2.0016 0.8538
-39.4674 0.0627 -2.0016 0.8538
-39.4441 -1.3553 -2.0016 0.8538
-39.3700 -2.7715 -2.0016 0.8538
-39.0693 -5.5915 -2.0016 0.8538
-38.5669 -8.3825 -2.0016 0.8538
-38.2409 -9.7627 -2.0016 0.8538
-37.4411 -12.4836 -2.0016 0.8538
-35.2668 -17.7181 -2.0016 0.8538
-34.6074 -18.9737 -2.0016 0.8538
-33.9034 -20.2048 -2.0016 0.8538
-29.9040 -20.8696 -1.8494 0.8641
-27.5695 -22.3481 -1.7998 0.8675
-25.6355 -22.3535 -1.7249 0.8726
-22.2032 -22.3631 -1.5982 0.8814
-20.6657 -22.3673 -1.5444 0.8852
-16.5885 -22.3700 -1.4124 0.8945
-15.5031 -22.5573 -1.3881 0.8962
-13.9037 -21.8741 -1.3145 0.9014
-13.1238 -22.3851 -1.3160 0.9013
-12.0680 -22.3912 -1.2900 0.9031
-8.1923 -22.4020 -1.2097 0.9089
-5.4191 -16.6501 -0.8880 0.9323
-6.4107 -22.4020 -1.1817 0.9109
-5.5489 -22.4044 -1.1706 0.9117
-4.7240 -22.5109 -1.1665 0.9120
-3.0436 -22.4113 -1.1470 0.9134
0.9674 -21.6298 -1.0980 0.9169
4.2412 -36.2188 -1.8494 0.8641
5.5397 -36.0430 -1.8494 0.8641
6.8310 -35.8207 -1.8494 0.8641
10.1581 -38.1378 -2.0016 0.8538
12.8704 -37.3099 -2.0016 0.8538
15.5164 -36.2894 -2.0016 0.8538
2.1905 -4.2498 -0.2425 0.9810
21.7519 -32.9322 -2.0016 0.8538
22.9210 -32.1295 -2.0016 0.8538
24.0605 -31.2852 -2.0016 0.8538
25.1690 -30.4006 -2.0016 0.8538
26.9528 -28.1655 -1.9770 0.8554
27.0389 -24.4680 -1.8494 0.8641
27.9006 -23.4808 -1.8494 0.8641
28.7262 -22.4632 -1.8494 0.8641
30.2650 -20.3425 -1.8494 0.8641
24.7051 11.6124 -2.0016 0.8963
24.2720 12.4925 -2.0016 0.8963
23.8075 13.3565 -2.0016 0.8963
23.3122 14.2032 -2.0016 0.8963
22.7869 15.0316 -2.0016 0.8963
22.2321 15.8405 -2.0016 0.8963
21.0372 17.3961 -2.0016 0.8963
20.3987 18.1407 -2.0016 0.8963
19.0434 19.5586 -2.0016 0.8963
18.3284 20.2302 -2.0016 0.8963
16.0453 22.0848 -2.0016 0.8963
15.2415 22.6470 -2.0016 0.8963
11.8402 24.5968 -2.0016 0.8963
10.0433 25.3835 -2.0016 0.8963
7.5716 24.0591 -1.8494 0.9038
2.6163 13.1025 -0.9797 0.9478
1.1048 12.3413 -0.9085 0.9515
-0.2217 11.9682 -0.8777 0.9531
-0.6635 12.1724 -0.8938 0.9523
-1.0821 11.9380 -0.8789 0.9531
-1.5288 12.0376 -0.8897 0.9525
-1.9489 11.9049 -0.8845 0.9528
-2.4339 12.1189 -0.9063 0.9516
-2.8547 11.9688 -0.9022 0.9518
-3.7692 11.9305 -0.9174 0.9511
-4.2401 11.9132 -0.9272 0.9505
-5.1601 11.7496 -0.9409 0.9498
-7.3700 11.8196 -1.0213 0.9457
-8.6299 11.8505 -1.0749 0.9429
-9.9336 11.7627 -1.1289 0.9401
-10.8488 11.9478 -1.1833 0.9373
-12.5151 11.9355 -1.2680 0.9330
-13.9391 11.5004 -1.3250 0.9301
-15.0157 11.5075 -1.3871 0.9269
-22.4391 11.5176 -1.8494 0.9038
-23.2083 9.8766 -1.8494 0.9038
-23.5481 9.0364 -1.8494 0.9038
-26.0942 7.9161 -1.9994 0.8964
-26.3904 6.9811 -2.0016 0.8963
-27.1183 3.1287 -2.0016 0.8963
-27.2132 2.1524 -2.0016 0.8963
-27.2730 1.1733 -2.0016 0.8963
-27.2975 0.1927 -2.0016 0.8963
-27.2409 -1.7680 -2.0016 0.8963
-25.2266 -2.5501 -1.8591 0.9033
-24.9499 -4.3500 -1.8570 0.9034
-25.1136 -5.3147 -1.8822 0.9022
-26.2319 -7.5551 -2.0016 0.8963
-25.9435 -8.4926 -2.0016 0.8963
-25.2667 -10.3337 -2.0016 0.8963
-23.5259 -13.8465 -2.0016 0.8963
-23.0132 -14.6827 -2.0016 0.8963
-22.4708 -15.5001 -2.0016 0.8963
-19.1007 -16.4722 -1.8494 0.9038
-17.2174 -18.4318 -1.8494 0.9038
-16.5441 -19.0385 -1.8494 0.9038
-15.8494 -19.6206 -1.8494 0.9038
-15.1343 -20.1773 -1.8494 0.9038
-14.3996 -20.7080 -1.8494 0.9038
-12.8754 -21.6886 -1.8494 0.9038
-11.2029 -22.3936 -1.8360 0.9045
-10.2154 -22.3964 -1.8049 0.9060
-9.2595 -22.3990 -1.7771 0.9074
-8.3314 -22.4016 -1.7525 0.9086
-5.4882 -16.5542 -1.2788 0.9324
-6.5434 -22.4016 -1.7112 0.9106
-5.6791 -22.4040 -1.6947 0.9115
-3.9661 -22.2520 -1.6573 0.9133
-2.3511 -22.4132 -1.6524 0.9136
-1.5396 -22.4155 -1.6474 0.9138
-0.7321 -22.4177 -1.6446 0.9140
0.0738 -22.4200 -1.6439 0.9140
2.7964 -25.0669 -1.8494 0.9038
3.6954 -24.9502 -1.8494 0.9038
4.5892 -24.8014 -1.8494 0.9038
5.4774 -24.6205 -1.8494 0.9038
7.2311 -24.1636 -1.8494 0.9038
8.7607 -25.8542 -2.0016 0.8963
9.6839 -25.5228 -2.0016 0.8963
10.5946 -25.1584 -2.0016 0.8963
11.4917 -24.7615 -2.0016 0.8963
2.1891 -4.3049 -0.3541 0.9808
14.0892 -23.3813 -2.0016 0.8963
14.9202 -22.8600 -2.0016 0.8963
15.7318 -22.3092 -2.0016 0.8963
16.5232 -21.7296 -2.0016 0.8963
18.7653 -19.8256 -2.0016 0.8963
22.0063 -16.1529 -2.0016 0.8963
23.1094 -14.5309 -2.0016 0.8963
23.6165 -13.6913 -2.0016 0.8963
24.0931 -12.8340 -2.0016 0.8963
24.5387 -11.9601 -2.0016 0.8963
25.6831 -9.2504 -2.0016 0.8963
26.5293 -6.4332 -2.0016 0.8963
26.7433 -5.4760 -2.0016 0.8963
26.9228 -4.5116 -2.0016 0.8963
27.0675 -3.5414 -2.0016 0.8963
27.2519 -1.5886 -2.0016 0.8963
27.2914 -0.6085 -2.0016 0.8963
27.2956 0.3724 -2.0016 0.8963
27.1984 2.3315 -2.0016 0.8963
27.0971 3.3072 -2.0016 0.8963
26.5839 6.2035 -2.0016 0.8963
26.3439 7.1546 -2.0016 0.8963
26.0699 8.0965 -2.0016 0.8963
25.0474 10.8545 -2.0016 0.8963
24.2033 12.6251 -2.0016 0.8963
23.2342 14.3305 -2.0016 0.8963
22.7043 15.1560 -2.0016 0.8963
21.5574 16.7472 -2.0016 0.8963
20.2991 18.2520 -2.0016 0.8963
19.6303 18.9695 -2.0016 0.8963
15.1174 22.7301 -2.0016 0.8963
13.4461 23.7569 -2.0016 0.8963
12.5839 24.2247 -2.0016 0.8963
10.8119 25.0658 -2.0016 0.8963
5.2551 17.0230 -1.3063 0.9310
3.7004 13.7175 -1.0417 0.9446
1.5112 12.5597 -0.9275 0.9505
-0.2882 12.0074 -0.8807 0.9530
-1.1710 8.8335 -0.6534 0.9649
-1.9924 11.7668 -0.8750 0.9533
-2.5053 12.1300 -0.9082 0.9515
-2.9298 11.9925 -0.9052 0.9517
-3.8359 11.9144 -0.9177 0.9510
-7.4640 11.8257 -1.0254 0.9455
-8.7772 11.9153 -1.0851 0.9424
-9.3908 11.8331 -1.1076 0.9412
-11.7432 11.9032 -1.2260 0.9351
-12.5428 11.8316 -1.2643 0.9332
-13.6572 11.9854 -1.3323 0.9297
-19.2164 11.5350 -1.6433 0.9140
-20.9018 11.5461 -1.7508 0.9087
-22.8967 10.5789 -1.8494 0.9038
-26.4282 6.8366 -2.0016 0.8963
-27.0104 3.9533 -2.0016 0.8963
-27.2246 2.0035 -2.0016 0.8963
-27.2981 0.0434 -2.0016 0.8963
-27.2308 -1.9170 -2.0016 0.8963
-25.1836 -2.6850 -1.8570 0.9034
-25.0709 -3.5881 -1.8570 0.9034
-24.9258 -4.4865 -1.8570 0.9034
-25.8967 -8.6344 -2.0016 0.8963
-25.5697 -9.5592 -2.0016 0.8963
-25.2098 -10.4717 -2.0016 0.8963
-22.3857 -15.6228 -2.0016 0.8963
-21.4824 -16.1704 -1.9715 0.8978
-19.9682 -16.1864 -1.8847 0.9020
-19.0103 -16.5765 -1.8494 0.9038
-17.7708 -17.8988 -1.8494 0.9038
-15.0237 -20.2598 -1.8494 0.9038
-13.5300 -21.2863 -1.8494 0.9038
-12.7566 -21.7587 -1.8494 0.9038
-11.0504 -22.3941 -1.8310 0.9047
-9.1165 -22.3994 -1.7732 0.9076
-6.4108 -22.4020 -1.7085 0.9108
-4.6318 -22.0717 -1.6536 0.9135
-3.0436 -22.4113 -1.6583 0.9133
-2.2272 -22.4136 -1.6515 0.9136
0.1535 -17.5144 -1.2842 0.9322
0.9675 -21.6322 -1.5877 0.9168
2.9335 -25.0512 -1.8494 0.9038
3.8318 -24.9296 -1.8494 0.9038
4.7251 -24.7759 -1.8494 0.9038
5.6120 -24.5901 -1.8494 0.9038
11.6269 -24.6983 -2.0016 0.8963
2.1905 -4.2497 -0.3506 0.9810
13.3705 -23.7996 -2.0016 0.8963
14.2169 -23.3038 -2.0016 0.8963
15.0450 -22.7780 -2.0016 0.8963
15.8537 -22.2228 -2.0016 0.8963
18.1527 -20.3880 -2.0016 0.8963
19.5699 -19.0318 -2.0016 0.8963
20.2410 -18.3165 -2.0016 0.8963
20.8860 -17.5774 -2.0016 0.8963
21.5040 -16.8157 -2.0016 0.8963
22.0943 -16.0322 -2.0016 0.8963
18.8681 8.8688 -2.0016 0.9196
17.4031 11.4801 -2.0016 0.9196
16.9794 12.0979 -2.0016 0.9196
16.5338 12.7001 -2.0016 0.9196
16.0669 13.2860 -2.0016 0.9196
15.0713 14.4054 -2.0016 0.9196
14.5440 14.9376 -2.0016 0.9196
13.4338 15.9434 -2.0016 0.9196
12.2543 16.8669 -2.0016 0.9196
11.6404 17.2963 -2.0016 0.9196
11.0115 17.7033 -2.0016 0.9196
9.0427 18.7854 -2.0016 0.9196
7.7263 17.6459 -1.8494 0.9255
6.4390 18.1551 -1.8494 0.9255
5.7826 18.3747 -1.8494 0.9255
3.6928 13.3976 -1.3342 0.9457
3.1105 13.1060 -1.2932 0.9473
2.7076 13.5597 -1.3275 0.9460
2.0727 12.7499 -1.2401 0.9494
0.2096 12.0365 -1.1557 0.9528
-0.2242 12.1046 -1.1623 0.9525
-1.4965 11.7833 -1.1403 0.9534
-1.9468 11.8922 -1.1569 0.9527
-2.3911 11.9056 -1.1658 0.9524
-2.8701 12.0336 -1.1877 0.9515
-3.7169 11.7651 -1.1845 0.9516
-5.2073 11.8571 -1.2433 0.9493
-7.7310 11.4598 -1.3271 0.9460
-8.9993 11.4681 -1.3995 0.9431
-11.2049 11.4825 -1.5403 0.9376
-13.9391 11.5004 -1.7349 0.9300
-19.7204 6.7652 -2.0016 0.9196
-20.3338 4.6041 -2.0016 0.9196
-20.6119 3.1321 -2.0016 0.9196
-20.8480 0.1472 -2.0016 0.9196
-20.7428 -2.0968 -2.0016 0.9196
-20.5387 -3.5809 -2.0016 0.9196
-20.3968 -4.3166 -2.0016 0.9196
-19.8139 -6.4861 -2.0016 0.9196
-19.5681 -7.1938 -2.0016 0.9196
-19.0010 -8.5803 -2.0016 0.9196
-17.9674 -10.5750 -2.0016 0.9196
-15.7883 -13.6157 -2.0016 0.9196
-15.2890 -14.1742 -2.0016 0.9196
-14.7699 -14.7143 -2.0016 0.9196
-14.2317 -15.2354 -2.0016 0.9196
-13.6730 -15.7345 -2.0013 0.9196
-13.0520 -16.1575 -1.9941 0.9199
-10.4221 -16.2003 -1.8494 0.9255
-9.8334 -16.5643 -1.8494 0.9255
-9.2319 -16.9069 -1.8494 0.9255
-8.6185 -17.2276 -1.8494 0.9255
-0.6287 -19.2529 -1.8494 0.9255
0.0580 -17.6187 -1.6915 0.9316
1.4465 -19.2088 -1.8494 0.9255
2.1357 -19.1444 -1.8494 0.9255
2.8221 -19.0553 -1.8494 0.9255
3.5049 -18.9416 -1.8494 0.9255
4.1832 -18.8035 -1.8494 0.9255
4.8575 -18.6467 -1.8499 0.9255
6.6908 -19.7457 -2.0016 0.9196
7.3959 -19.4926 -2.0016 0.9196
8.0915 -19.2143 -2.0016 0.9196
8.7766 -18.9112 -2.0016 0.9196
12.0149 -17.0382 -2.0016 0.9196
12.6193 -16.5956 -2.0016 0.9196
13.7784 -15.6466 -2.0016 0.9196
14.3317 -15.1414 -2.0016 0.9196
14.8664 -14.6168 -2.0016 0.9196
15.3819 -14.0732 -2.0016 0.9196
16.3528 -12.9323 -2.0016 0.9196
16.8069 -12.3365 -2.0016 0.9196
17.2392 -11.7247 -2.0016 0.9196
17.6494 -11.0977 -2.0016 0.9196
18.0367 -10.4565 -2.0016 0.9196
18.7410 -9.1343 -2.0016 0.9196
19.0571 -8.4551 -2.0016 0.9196
19.6150 -7.0648 -2.0016 0.9196
19.8562 -6.3555 -2.0016 0.9196
20.2613 -4.9133 -2.0016 0.9196
20.4247 -4.1822 -2.0016 0.9196
20.5618 -3.4457 -2.0016 0.9196
20.6723 -2.7047 -2.0016 0.9196
20.7561 -1.9603 -2.0016 0.9196
20.8433 -0.4647 -2.0016 0.9196
20.8466 0.2844 -2.0016 0.9196
20.8229 1.0332 -2.0016 0.9196
20.6949 2.5258 -2.0016 0.9196
20.5908 3.2677 -2.0016 0.9196
20.4601 4.0054 -2.0016 0.9196
20.3030 4.7378 -2.0016 0.9196
20.1197 5.4642 -2.0016 0.9196
19.9104 6.1835 -2.0016 0.9196
19.1295 8.2899 -2.0016 0.9196
18.8193 8.9719 -2.0016 0.9196
18.4848 9.6422 -2.0016 0.9196
18.1264 10.3001 -2.0016 0.9196
17.7447 10.9447 -2.0016 0.9196
16.9130 12.1906 -2.0016 0.9196
13.9132 15.5268 -2.0016 0.9196
13.3464 16.0167 -2.0016 0.9196
12.7624 16.4858 -2.0016 0.9196
12.1618 16.9337 -2.0016 0.9196
10.9145 17.7633 -2.0016 0.9196
7.6295 17.6879 -1.8494 0.9255
6.9891 17.9506 -1.8494 0.9255
6.3397 18.1901 -1.8494 0.9255
2.5577 13.1843 -1.2894 0.9475
2.0029 12.7610 -1.2401 0.9494
1.0289 12.2481 -1.1800 0.9518
-0.2885 12.0205 -1.1544 0.9528
-0.7284 12.1392 -1.1675 0.9523
-2.9265 11.9790 -1.1839 0.9517
-3.3268 11.7665 -1.1739 0.9521
-4.2942 11.8593 -1.2109 0.9506
-4.7815 11.8560 -1.2273 0.9499
-6.9483 11.9385 -1.3261 0.9460
-7.3106 11.5827 -1.3150 0.9464
-7.8229 11.4604 -1.3321 0.9458
-8.4451 11.4644 -1.3670 0.9444
-10.5375 11.4782 -1.4959 0.9393
-11.3290 11.4833 -1.5487 0.9372
-12.1795 11.4889 -1.6074 0.9349
-15.1885 11.5086 -1.8295 0.9263
-16.1492 10.5011 -1.8494 0.9255
-16.8616 9.3143 -1.8494 0.9255
-19.1861 8.0412 -1.9972 0.9198
-19.5051 7.3628 -2.0016 0.9196
-19.9835 5.9431 -2.0016 0.9196
-20.1841 5.2213 -2.0016 0.9196
-20.3586 4.4928 -2.0016 0.9196
-20.5069 3.7585 -2.0016 0.9196
-20.8338 0.7822 -2.0016 0.9196
-20.8485 0.0331 -2.0016 0.9196
-20.7970 -1.4640 -2.0016 0.9196
-20.5188 -3.6932 -2.0016 0.9196
-20.3728 -4.4280 -2.0016 0.9196
-20.2006 -5.1571 -2.0016 0.9196
-20.0023 -5.8796 -2.0016 0.9196
-19.5284 -7.3007 -2.0016 0.9196
-17.9093 -10.6731 -2.0016 0.9196
-15.7136 -13.7019 -2.0016 0.9196
-15.2112 -14.2576 -2.0016 0.9196
-14.6891 -14.7949 -2.0016 0.9196
-14.1481 -15.3131 -2.0016 0.9196
-13.5792 -15.8003 -2.0001 0.9197
-11.1245 -16.1863 -1.8856 0.9241
-10.3333 -16.2571 -1.8494 0.9255
-9.7426 -16.6178 -1.8494 0.9255
-9.1393 -16.9571 -1.8494 0.9255
-8.5241 -17.2745 -1.8494 0.9255
-7.8980 -17.5696 -1.8494 0.9255
-7.2617 -17.8420 -1.8494 0.9255
-6.6160 -18.0914 -1.8494 0.9255
-5.3774 -16.5222 -1.6681 0.9326
-3.2763 -18.9825 -1.8494 0.9255
-2.5922 -19.0879 -1.8494 0.9255
-1.9048 -19.1688 -1.8494 0.9255
-1.2149 -19.2248 -1.8494 0.9255
-0.5234 -19.2560 -1.8494 0.9255
0.8607 -19.2439 -1.8494 0.9255
1.5515 -19.2006 -1.8494 0.9255
2.2404 -19.1324 -1.8494 0.9255
3.6085 -18.9222 -1.8494 0.9255
6.0653 -19.8715 -1.9947 0.9199
6.7988 -19.7088 -2.0016 0.9196
7.5025 -19.4518 -2.0016 0.9196
8.1965 -19.1697 -2.0016 0.9196
8.8799 -18.8629 -2.0016 0.9196
10.2115 -18.1765 -2.0016 0.9196
10.8579 -17.7979 -2.0016 0.9196
12.1079 -16.9723 -2.0016 0.9196
14.4143 -15.0628 -2.0016 0.9196
16.8741 -12.2443 -2.0016 0.9196
17.3031 -11.6302 -2.0016 0.9196
15.2495 7.1679 -2.0016 0.9344
14.3898 8.7671 -2.0016 0.9344
13.3629 10.2645 -2.0016 0.9344
12.9855 10.7379 -2.0016 0.9344
12.5913 11.1976 -2.0016 0.9344
12.1809 11.6427 -2.0016 0.9344
11.3134 12.4874 -2.0016 0.9344
10.8575 12.8858 -2.0016 0.9344
10.3875 13.2675 -2.0016 0.9344
9.9041 13.6322 -2.0016 0.9344
9.4080 13.9792 -2.0016 0.9344
8.8997 14.3082 -2.0016 0.9344
8.3695 14.6005 -1.9991 0.9345
6.7527 14.0282 -1.8494 0.9392
6.2444 14.2617 -1.8494 0.9392
5.7280 14.4769 -1.8494 0.9392
4.6736 14.8508 -1.8494 0.9392
3.6928 13.3976 -1.6508 0.9456
2.5745 12.8931 -1.5618 0.9484
2.0580 12.6602 -1.5236 0.9496
1.0944 12.2255 -1.4580 0.9518
0.6419 12.0214 -1.4300 0.9527
-0.6222 11.4132 -1.3577 0.9550
-1.0347 11.4159 -1.3616 0.9549
-1.4502 11.4186 -1.3673 0.9547
-1.8697 11.4213 -1.3748 0.9545
-2.7254 11.4270 -1.3954 0.9538
-3.1642 11.4298 -1.4088 0.9534
-4.5407 11.4389 -1.4619 0.9516
-5.0250 11.4420 -1.4844 0.9509
-5.5251 11.4453 -1.5097 0.9501
-6.0432 11.4487 -1.5378 0.9492
-6.5817 11.4522 -1.5690 0.9482
-8.3483 11.4638 -1.6846 0.9445
-8.9993 11.4681 -1.7316 0.9430
-10.4217 11.4774 -1.8415 0.9395
-10.8733 11.1427 -1.8494 0.9392
-11.2666 10.7449 -1.8494 0.9392
-11.6454 10.3332 -1.8494 0.9392
-13.0055 8.5584 -1.8494 0.9392
-14.9907 7.6945 -2.0016 0.9344
-15.2575 7.1510 -2.0016 0.9344
-15.5046 6.5982 -2.0016 0.9344
-15.7316 6.0369 -2.0016 0.9344
-15.9384 5.4678 -2.0016 0.9344
-16.1245 4.8916 -2.0016 0.9344
-16.2898 4.3092 -2.0016 0.9344
-16.5572 3.1283 -2.0016 0.9344
-16.7391 1.9313 -2.0016 0.9344
-16.7977 1.3286 -2.0016 0.9344
-16.8346 0.7243 -2.0016 0.9344
-16.8431 -0.4865 -2.0016 0.9344
-16.8148 -1.0913 -2.0016 0.9344
-16.5997 -2.8942 -2.0016 0.9344
-16.4850 -3.4887 -2.0016 0.9344
-16.3491 -4.0787 -2.0016 0.9344
-15.8153 -5.8141 -2.0016 0.9344
-15.0979 -7.4821 -2.0016 0.9344
-12.7605 -11.0045 -2.0016 0.9344
-12.3569 -11.4558 -2.0016 0.9344
-10.5884 -13.1078 -2.0016 0.9344
-9.6198 -13.8343 -2.0016 0.9344
-9.1166 -14.1709 -2.0016 0.9344
-8.6016 -14.4893 -2.0016 0.9344
-8.0754 -14.7890 -2.0016 0.9344
-7.5389 -15.0696 -2.0016 0.9344
-6.4373 -15.5720 -2.0016 0.9344
-4.0985 -16.1686 -1.9813 0.9350
0.6439 -16.4069 -1.9504 0.9360
1.2473 -16.5635 -1.9731 0.9353
3.0659 -16.5689 -2.0016 0.9344
3.6592 -16.4480 -2.0016 0.9344
4.2477 -16.3060 -2.0016 0.9344
2.1891 -4.3047 -0.5737 0.9807
2.3284 -4.1982 -0.5703 0.9808
8.6968 -14.4324 -2.0016 0.9344
9.7107 -13.7706 -2.0016 0.9344
10.1992 -13.4129 -2.0016 0.9344
11.5831 -12.2376 -2.0016 0.9344
12.0153 -11.8135 -2.0016 0.9344
13.2167 -10.4522 -2.0016 0.9344
13.5836 -9.9706 -2.0016 0.9344
13.9331 -9.4761 -2.0016 0.9344
14.2646 -8.9694 -2.0016 0.9344
15.4023 -6.8336 -2.0016 0.9344
15.6378 -6.2758 -2.0016 0.9344
16.2223 -4.5568 -2.0016 0.9344
16.5077 -3.3801 -2.0016 0.9344
16.6184 -2.7849 -2.0016 0.9344
16.8216 -0.9806 -2.0016 0.9344
16.8460 -0.3756 -2.0016 0.9344
16.8486 0.2299 -2.0016 0.9344
16.8294 0.8350 -2.0016 0.9344
16.7886 1.4392 -2.0016 0.9344
16.7260 2.0414 -2.0016 0.9344
16.6419 2.6410 -2.0016 0.9344
16.5363 3.2372 -2.0016 0.9344
16.2611 4.4163 -2.0016 0.9344
15.9020 5.5726 -2.0016 0.9344
15.6916 6.1403 -2.0016 0.9344
15.4608 6.7001 -2.0016 0.9344
14.9398 7.7930 -2.0016 0.9344
14.6501 8.3247 -2.0016 0.9344
14.0145 9.3552 -2.0016 0.9344
13.3066 10.3374 -2.0016 0.9344
12.9266 10.8088 -2.0016 0.9344
12.5299 11.2663 -2.0016 0.9344
11.2449 12.5491 -2.0016 0.9344
10.7868 12.9450 -2.0016 0.9344
10.3148 13.3241 -2.0016 0.9344
9.3314 14.0304 -2.0016 0.9344
8.8213 14.3566 -2.0016 0.9344
3.6032 13.3572 -1.6434 0.9458
1.9816 12.6257 -1.5181 0.9498
-0.2786 11.6062 -1.3791 0.9543
-0.6848 11.4136 -1.3582 0.9550
-1.0978 11.4163 -1.3624 0.9549
-1.9340 11.4218 -1.3761 0.9544
-2.7917 11.4274 -1.3973 0.9537
-3.2317 11.4303 -1.4110 0.9533
-3.6810 11.4332 -1.4268 0.9528
-4.6135 11.4393 -1.4652 0.9515
-7.2310 11.4565 -1.6093 0.9469
-7.8229 11.4604 -1.6482 0.9456
-8.4451 11.4644 -1.6914 0.9443
-10.9341 11.0831 -1.8494 0.9392
-11.3252 10.6831 -1.8494 0.9392
-11.7017 10.2693 -1.8494 0.9392
-12.0631 9.8422 -1.8494 0.9392
-12.7388 8.9506 -1.8494 0.9392
-13.7433 8.2497 -1.9040 0.9375
-15.2964 7.0674 -2.0016 0.9344
-15.5404 6.5133 -2.0016 0.9344
-15.7644 5.9507 -2.0016 0.9344
-15.9680 5.3805 -2.0016 0.9344
-16.4542 3.6312 -2.0016 0.9344
-16.6725 2.4402 -2.0016 0.9344
-16.8047 1.2367 -2.0016 0.9344
-16.8383 0.6322 -2.0016 0.9344
-16.7552 -1.7864 -2.0016 0.9344
-16.4657 -3.5788 -2.0016 0.9344
-16.3265 -4.1681 -2.0016 0.9344
-16.1662 -4.7520 -2.0016 0.9344
-15.9850 -5.3297 -2.0016 0.9344
-15.7833 -5.9006 -2.0016 0.9344
-15.0567 -7.5645 -2.0016 0.9344
-14.7752 -8.1006 -2.0016 0.9344
-14.1554 -9.1407 -2.0016 0.9344
-11.8721 -11.9575 -2.0016 0.9344
-10.9828 -12.7792 -2.0016 0.9344
-10.5165 -13.1655 -2.0016 0.9344
-9.5440 -13.8867 -2.0016 0.9344
-9.0389 -14.2206 -2.0016 0.9344
-7.4564 -15.1106 -2.0016 0.9344
-6.9087 -15.3687 -2.0016 0.9344
-6.3520 -15.6070 -2.0016 0.9344
-5.7825 -15.8123 -1.9999 0.9344
-5.2030 -15.9863 -1.9970 0.9345
-4.0046 -16.1690 -1.9787 0.9351
-2.7917 -16.1744 -1.9497 0.9360
-2.1968 -16.1764 -1.9392 0.9364
-1.0231 -16.1897 -1.9269 0.9367
0.1429 -16.3098 -1.9375 0.9364
0.7348 -16.4294 -1.9535 0.9359
3.1565 -16.5519 -2.0016 0.9344
3.7491 -16.4278 -2.0016 0.9344
4.9190 -16.1162 -2.0016 0.9344
6.0636 -15.7213 -2.0016 0.9344
7.1769 -15.2453 -2.0016 0.9344
2.1904 -4.2497 -0.5679 0.9809
10.7456 -12.9792 -2.0016 0.9344
12.4940 -11.3061 -2.0016 0.9344
12.8922 -10.8499 -2.0016 0.9344
13.6380 -9.8961 -2.0016 0.9344
13.9847 -9.3997 -2.0016 0.9344
12.7845 6.0093 -2.0016 0.9445
12.5604 6.4647 -2.0016 0.9445
12.3200 6.9118 -2.0016 0.9445
12.0637 7.3499 -2.0016 0.9445
10.5560 9.3875 -2.0016 0.9445
9.8547 10.1213 -2.0016 0.9445
9.4847 10.4688 -2.0016 0.9445
8.7084 11.1229 -2.0016 0.9445
8.3032 11.4286 -2.0016 0.9445
7.8872 11.7195 -2.0016 0.9445
6.5184 11.3713 -1.8571 0.9484
6.0801 11.5496 -1.8494 0.9486
5.6612 11.7606 -1.8494 0.9486
5.2350 11.9564 -1.8494 0.9486
4.3629 12.3014 -1.8494 0.9486
3.4683 12.5830 -1.8494 0.9486
2.0580 12.6602 -1.8174 0.9495
0.6419 12.0214 -1.7057 0.9525
0.2059 11.8247 -1.6757 0.9533
-0.2156 11.6346 -1.6488 0.9541
-0.6222 11.4132 -1.6195 0.9549
-1.0348 11.4159 -1.6241 0.9547
-1.1096 8.7365 -1.2478 0.9650
-2.2944 11.4241 -1.6510 0.9540
-4.0702 11.4358 -1.7199 0.9521
-5.0250 11.4420 -1.7707 0.9508
-6.5037 11.3165 -1.8494 0.9486
-6.9061 11.0755 -1.8494 0.9486
-7.2995 10.8202 -1.8494 0.9486
-7.6835 10.5510 -1.8494 0.9486
-8.0577 10.2681 -1.8494 0.9486
-9.1157 9.3416 -1.8494 0.9486
-9.4454 9.0080 -1.8494 0.9486
-9.7630 8.6629 -1.8494 0.9486
-10.0679 8.3065 -1.8494 0.9486
-11.8005 7.7655 -2.0016 0.9445
-12.3277 6.8981 -2.0016 0.9445
-12.5676 6.4507 -2.0016 0.9445
-12.9983 5.5316 -2.0016 0.9445
-13.3620 4.5839 -2.0016 0.9445
-13.5181 4.1009 -2.0016 0.9445
-13.6567 3.6126 -2.0016 0.9445
-13.7776 3.1196 -2.0016 0.9445
-14.0824 1.1139 -2.0016 0.9445
-14.1261 0.0997 -2.0016 0.9445
-14.0967 -0.9149 -2.0016 0.9445
-12.7162 -3.1724 -1.8570 0.9484
-12.4556 -4.0774 -1.8570 0.9484
-11.9446 -5.3939 -1.8570 0.9484
-12.6574 -6.2726 -2.0016 0.9445
-12.4239 -6.7233 -2.0016 0.9445
-12.1743 -7.1653 -2.0016 0.9445
-11.0223 -8.8353 -2.0016 0.9445
-10.3594 -9.6040 -2.0016 0.9445
-8.8768 -10.9890 -2.0016 0.9445
-7.6429 -11.8803 -2.0016 0.9445
-4.9242 -13.2404 -2.0016 0.9445
-2.9768 -13.8092 -2.0016 0.9445
-1.9775 -13.9873 -2.0016 0.9445
-0.4611 -14.1189 -2.0016 0.9445
0.5540 -14.1155 -2.0016 0.9445
1.0608 -14.0865 -2.0016 0.9445
1.5662 -14.0393 -2.0016 0.9445
3.0677 -13.7893 -2.0016 0.9445
4.5335 -13.3792 -2.0016 0.9445
5.9468 -12.8137 -2.0016 0.9445
7.2910 -12.0995 -2.0016 0.9445
7.7210 -11.8297 -2.0016 0.9445
8.1410 -11.5447 -2.0016 0.9445
8.5505 -11.2447 -2.0016 0.9445
9.3359 -10.6017 -2.0016 0.9445
9.7108 -10.2594 -2.0016 0.9445
11.0802 -8.7626 -2.0016 0.9445
11.6809 -7.9443 -2.0016 0.9445
12.4678 -6.6414 -2.0016 0.9445
13.1101 -5.2613 -2.0016 0.9445
13.2906 -4.7869 -2.0016 0.9445
13.4540 -4.3063 -2.0016 0.9445
13.6000 -3.8202 -2.0016 0.9445
13.7285 -3.3291 -2.0016 0.9445
13.9321 -2.3347 -2.0016 0.9445
14.1090 0.7001 -2.0016 0.9445
14.0224 1.7114 -2.0016 0.9445
13.9518 2.2141 -2.0016 0.9445
13.8633 2.7139 -2.0016 0.9445
13.4908 4.1898 -2.0016 0.9445
13.3315 4.6718 -2.0016 0.9445
12.9616 5.6170 -2.0016 0.9445
12.7515 6.0791 -2.0016 0.9445
12.5248 6.5333 -2.0016 0.9445
10.8371 9.0616 -2.0016 0.9445
10.5045 9.4451 -2.0016 0.9445
9.7991 10.1751 -2.0016 0.9445
7.3885 12.0248 -1.9997 0.9446
6.4291 11.3590 -1.8494 0.9486
6.0168 11.5827 -1.8494 0.9486
5.5968 11.7914 -1.8494 0.9486
4.2956 12.3251 -1.8494 0.9486
3.8500 12.4715 -1.8494 0.9486
1.9816 12.6257 -1.8108 0.9497
1.4926 12.4051 -1.7704 0.9508
-0.6848 11.4136 -1.6201 0.9549
-1.0978 11.4163 -1.6250 0.9547
-4.6134 11.4393 -1.7477 0.9514
-5.6028 11.4458 -1.8056 0.9498
-6.5655 11.2807 -1.8494 0.9486
-6.9665 11.0376 -1.8494 0.9486
-7.7412 10.5088 -1.8494 0.9486
-8.1137 10.2239 -1.8494 0.9486
-8.4758 9.9258 -1.8494 0.9486
-9.1667 9.2915 -1.8494 0.9486
-9.4946 8.9562 -1.8494 0.9486
-10.1279 8.2633 -1.8521 0.9486
-10.8801 8.2441 -1.9342 0.9463
-12.1119 7.2704 -2.0016 0.9445
-12.3652 6.8305 -2.0016 0.9445
-12.6027 6.3819 -2.0016 0.9445
-13.0284 5.4604 -2.0016 0.9445
-13.3869 4.5108 -2.0016 0.9445
-13.5403 4.0269 -2.0016 0.9445
-13.7945 3.0442 -2.0016 0.9445
-14.0883 1.0368 -2.0016 0.9445
-14.1181 -0.4851 -2.0016 0.9445
-14.0915 -0.9920 -2.0016 0.9445
-13.9839 -2.0013 -2.0016 0.9445
-13.9030 -2.5024 -2.0016 0.9445
-12.8106 -2.7844 -1.8575 0.9484
-12.6987 -3.2419 -1.8570 0.9484
-12.4331 -4.1454 -1.8570 0.9484
-12.2762 -4.5894 -1.8570 0.9484
-12.1034 -5.0275 -1.8570 0.9484
-11.9149 -5.4591 -1.8570 0.9484
-12.6229 -6.3418 -2.0016 0.9445
-12.3869 -6.7912 -2.0016 0.9445
-11.8672 -7.6631 -2.0016 0.9445
-11.2863 -8.4955 -2.0016 0.9445
-10.6471 -9.2840 -2.0016 0.9445
-10.3067 -9.6606 -2.0016 0.9445
-9.9530 -10.0246 -2.0016 0.9445
-9.5864 -10.3757 -2.0016 0.9445
-9.2074 -10.7135 -2.0016 0.9445
-8.8166 -11.0373 -2.0016 0.9445
-8.4144 -11.3470 -2.0016 0.9445
-8.0013 -11.6420 -2.0016 0.9445
-7.1446 -12.1865 -2.0016 0.9445
-6.7022 -12.4353 -2.0016 0.9445
-6.2511 -12.6680 -2.0016 0.9445
-5.7919 -12.8844 -2.0016 0.9445
-4.3720 -13.4328 -2.0016 0.9445
-3.3961 -13.7121 -2.0016 0.9445
-2.9013 -13.8253 -2.0016 0.9445
-0.8909 -14.0983 -2.0016 0.9445
-0.3838 -14.1212 -2.0016 0.9445
2.6462 -13.8763 -2.0016 0.9445
3.6358 -13.6505 -2.0016 0.9445
5.0835 -13.1800 -2.0016 0.9445
6.0168 -12.7810 -2.0016 0.9445
2.1904 -4.2496 -0.6774 0.9809
6.9190 -12.3159 -2.0016 0.9445
7.3570 -12.0594 -2.0016 0.9445
10.4744 -9.4785 -2.0016 0.9445
10.8082 -9.0960 -2.0016 0.9445
11.1280 -8.7019 -2.0016 0.9445
11.4335 -8.2964 -2.0016 0.9445
11.7241 -7.8803 -2.0016 0.9445
10.3758 6.3216 -2.0016 0.9519
10.1420 6.6903 -2.0016 0.9519
9.6354 7.4013 -2.0016 0.9519
9.0790 8.0741 -2.0016 0.9519
8.4758 8.7052 -2.0016 0.9519
7.8288 9.2913 -2.0016 0.9519
7.4900 9.5666 -2.0016 0.9519
6.7837 10.0797 -2.0016 0.9519
6.0268 10.5137 -1.9964 0.9521
5.2889 10.0466 -1.8704 0.9550
4.5025 10.2835 -1.8494 0.9555
4.1302 10.4386 -1.8494 0.9555
3.7525 10.5802 -1.8494 0.9555
2.9831 10.8224 -1.8494 0.9555
2.5923 10.9226 -1.8494 0.9555
2.1982 11.0087 -1.8494 0.9555
1.8013 11.0805 -1.8494 0.9555
0.1955 11.2243 -1.8494 0.9555
-0.2079 11.2241 -1.8494 0.9555
-1.0134 11.1802 -1.8494 0.9555
-1.1062 8.7098 -1.4464 0.9650
-1.8136 11.0785 -1.8494 0.9555
-2.6044 10.9197 -1.8494 0.9555
-3.3818 10.7045 -1.8494 0.9555
-4.5140 10.2785 -1.8494 0.9555
-5.2404 9.9278 -1.8494 0.9555
-5.9398 9.5258 -1.8494 0.9555
-6.6085 9.0747 -1.8494 0.9555
-6.9302 8.8314 -1.8494 0.9555
-7.2431 8.5768 -1.8494 0.9555
-7.5465 8.3110 -1.8494 0.9555
-9.0678 8.0460 -1.9971 0.9520
-9.9029 7.0393 -2.0016 0.9519
-10.1494 6.6790 -2.0016 0.9519
-10.6028 5.9329 -2.0016 0.9519
-10.8091 5.5481 -2.0016 0.9519
-11.0015 5.1562 -2.0016 0.9519
-11.1796 4.7576 -2.0016 0.9519
-11.3433 4.3529 -2.0016 0.9519
-11.6266 3.5271 -2.0016 0.9519
-11.8499 2.6831 -2.0016 0.9519
-11.9386 2.2557 -2.0016 0.9519
-12.0120 1.8253 -2.0016 0.9519
-12.1386 0.5222 -2.0016 0.9519
-12.1448 -0.3508 -2.0016 0.9519
-12.1244 -0.7869 -2.0016 0.9519
-12.0883 -1.2220 -2.0016 0.9519
-12.0366 -1.6555 -2.0016 0.9519
-11.9693 -2.0869 -2.0016 0.9519
-10.9370 -2.7285 -1.8570 0.9553
-10.8319 -3.1197 -1.8570 0.9553
-10.7129 -3.5069 -1.8570 0.9553
-10.5800 -3.8895 -1.8570 0.9553
-10.2733 -4.6392 -1.8570 0.9553
-9.9137 -5.3649 -1.8570 0.9553
-10.4709 -6.1628 -2.0016 0.9519
-10.2427 -6.5350 -2.0016 0.9519
-10.0013 -6.8988 -2.0016 0.9519
-9.4801 -7.5991 -2.0016 0.9519
-8.6074 -8.5751 -2.0016 0.9519
-8.2938 -8.8788 -2.0016 0.9519
-6.9364 -9.9753 -2.0016 0.9519
-6.5736 -10.2180 -2.0016 0.9519
-6.2022 -10.4476 -2.0016 0.9519
-5.0421 -11.0543 -2.0016 0.9519
-4.2353 -11.3878 -2.0016 0.9519
-3.8234 -11.5326 -2.0016 0.9519
-2.9854 -11.7774 -2.0016 0.9519
-2.5603 -11.8770 -2.0016 0.9519
-2.1320 -11.9614 -2.0016 0.9519
-0.8326 -12.1213 -2.0016 0.9519
0.0400 -12.1498 -2.0016 0.9519
0.4765 -12.1405 -2.0016 0.9519
0.9123 -12.1156 -2.0016 0.9519
2.6384 -11.8599 -2.0016 0.9519
3.0629 -11.7575 -2.0016 0.9519
3.8992 -11.5072 -2.0016 0.9519
4.7155 -11.1975 -2.0016 0.9519
5.1147 -11.0209 -2.0016 0.9519
2.1890 -4.3045 -0.7955 0.9806
7.0019 -9.9294 -2.0016 0.9519
7.6969 -9.4009 -2.0016 0.9519
8.3521 -8.8240 -2.0016 0.9519
8.6637 -8.5182 -2.0016 0.9519
9.2530 -7.8741 -2.0016 0.9519
9.5299 -7.5366 -2.0016 0.9519
9.7945 -7.1893 -2.0016 0.9519
10.0465 -6.8328 -2.0016 0.9519
10.2855 -6.4674 -2.0016 0.9519
10.7234 -5.7121 -2.0016 0.9519
10.9217 -5.3232 -2.0016 0.9519
11.5716 -3.7038 -2.0016 0.9519
11.6972 -3.2857 -2.0016 0.9519
11.8077 -2.8633 -2.0016 0.9519
11.9029 -2.4372 -2.0016 0.9519
11.9828 -2.0080 -2.0016 0.9519
12.0960 -1.1424 -2.0016 0.9519
12.1469 -0.2708 -2.0016 0.9519
12.1349 0.6021 -2.0016 0.9519
12.1055 1.0377 -2.0016 0.9519
12.0604 1.4720 -2.0016 0.9519
11.9997 1.9043 -2.0016 0.9519
11.9235 2.3342 -2.0016 0.9519
11.7252 3.1844 -2.0016 0.9519
11.4662 4.0181 -2.0016 0.9519
10.3411 6.3782 -2.0016 0.9519
10.1052 6.7456 -2.0016 0.9519
9.5948 7.4539 -2.0016 0.9519
9.3208 7.7938 -2.0016 0.9519
9.0347 8.1236 -2.0016 0.9519
8.4281 8.7514 -2.0016 0.9519
8.1082 9.0485 -2.0016 0.9519
7.7779 9.3340 -2.0016 0.9519
6.7284 10.1167 -2.0016 0.9519
5.1749 9.9621 -1.8494 0.9555
4.8137 10.1415 -1.8494 0.9555
4.0730 10.4610 -1.8494 0.9555
3.6946 10.6006 -1.8494 0.9555
2.9238 10.8386 -1.8494 0.9555
2.5325 10.9366 -1.8494 0.9555
0.9398 11.1866 -1.8494 0.9555
-1.0745 11.1744 -1.8494 0.9555
-2.2706 10.9940 -1.8494 0.9555
-3.4404 10.6858 -1.8494 0.9555
-3.8220 10.5553 -1.8494 0.9555
-4.1988 10.4112 -1.8494 0.9555
-4.9356 10.0828 -1.8494 0.9555
-5.9918 9.4932 -1.8494 0.9555
-6.6580 9.0384 -1.8494 0.9555
-6.9785 8.7934 -1.8494 0.9555
-9.1153 7.9995 -1.9979 0.9520
-9.4140 7.6808 -2.0016 0.9519
-9.6839 7.3377 -2.0016 0.9519
-9.9413 6.9850 -2.0016 0.9519
-10.4172 6.2531 -2.0016 0.9519
-10.6351 5.8748 -2.0016 0.9519
-10.8393 5.4889 -2.0016 0.9519
-11.0295 5.0960 -2.0016 0.9519
-11.2055 4.6964 -2.0016 0.9519
-11.5138 3.8796 -2.0016 0.9519
-11.6458 3.4635 -2.0016 0.9519
-11.8644 2.6183 -2.0016 0.9519
-11.9508 2.1903 -2.0016 0.9519
-12.0218 1.7595 -2.0016 0.9519
-12.0772 1.3265 -2.0016 0.9519
-12.1171 0.8917 -2.0016 0.9519
-12.1413 0.4558 -2.0016 0.9519
-12.1499 0.0193 -2.0016 0.9519
-12.1199 -0.8532 -2.0016 0.9519
-12.0814 -1.2881 -2.0016 0.9519
-12.0273 -1.7213 -2.0016 0.9519
-10.9219 -2.7883 -1.8570 0.9553
-10.8147 -3.1789 -1.8570 0.9553
-10.6935 -3.5654 -1.8570 0.9553
-10.5585 -3.9473 -1.8570 0.9553
-10.4099 -4.3241 -1.8570 0.9553
-10.0725 -5.0604 -1.8570 0.9553
-9.8842 -5.4191 -1.8570 0.9553
-10.4370 -6.2200 -2.0016 0.9519
-9.4384 -7.6509 -2.0016 0.9519
-9.1574 -7.9850 -2.0016 0.9519
-8.8646 -8.3089 -2.0016 0.9519
-8.2451 -8.9240 -2.0016 0.9519
-7.9192 -9.2145 -2.0016 0.9519
-6.8817 -10.0130 -2.0016 0.9519
-6.5176 -10.2538 -2.0016 0.9519
-5.3764 -10.8956 -2.0016 0.9519
-4.5802 -11.2535 -2.0016 0.9519
-3.7602 -11.5534 -2.0016 0.9519
-3.3427 -11.6810 -2.0016 0.9519
-2.0665 -11.9728 -2.0016 0.9519
-1.6350 -12.0394 -2.0016 0.9519
-1.2014 -12.0903 -2.0016 0.9519
-0.7662 -12.1257 -2.0016 0.9519
0.9786 -12.1104 -2.0016 0.9519
1.4131 -12.0674 -2.0016 0.9519
1.8457 -12.0089 -2.0016 0.9519
3.5469 -11.6206 -2.0016 0.9519
3.9621 -11.4857 -2.0016 0.9519
4.3722 -11.3359 -2.0016 0.9519
4.7767 -11.1715 -2.0016 0.9519
7.0561 -9.8909 -2.0016 0.9519
7.4069 -9.6310 -2.0016 0.9519
8.0794 -9.0743 -2.0016 0.9519
8.4002 -8.7782 -2.0016 0.9519
8.7102 -8.4707 -2.0016 0.9519
9.0089 -8.1523 -2.0016 0.9519
9.5710 -7.4843 -2.0016 0.9519
10.0837 -6.7777 -2.0016 0.9519
9.6373 4.5299 -2.0016 0.9576
9.2871 5.2103 -2.0016 0.9576
8.8890 5.8637 -2.0016 0.9576
8.4450 6.4869 -2.0016 0.9576
7.6980 7.3579 -2.0016 0.9576
7.4287 7.6297 -2.0016 0.9576
7.1498 7.8916 -2.0016 0.9576
6.8616 8.1434 -2.0016 0.9576
5.9456 8.8344 -2.0016 0.9576
4.5593 9.4715 -1.9758 0.9581
4.0131 9.1657 -1.8807 0.9601
3.6199 9.1490 -1.8494 0.9607
2.2720 9.5732 -1.8494 0.9607
1.2288 9.7620 -1.8494 0.9607
0.1713 9.8376 -1.8494 0.9607
-0.5356 9.8245 -1.8494 0.9607
-0.8882 9.7989 -1.8494 0.9607
-1.5895 9.7098 -1.8494 0.9607
-1.9374 9.6465 -1.8494 0.9607
-2.6250 9.4824 -1.8494 0.9607
-3.2992 9.2694 -1.8494 0.9607
-3.9563 9.0086 -1.8494 0.9607
-5.5694 8.2556 -1.8718 0.9603
-6.0058 8.2471 -1.9176 0.9593
-6.4644 8.2378 -1.9682 0.9583
-6.8515 8.1131 -1.9960 0.9577
-7.1528 7.8774 -2.0000 0.9576
-7.7062 7.3493 -2.0016 0.9576
-8.8955 5.8538 -2.0016 0.9576
-9.1001 5.5304 -2.0016 0.9576
-9.2929 5.1999 -2.0016 0.9576
-9.4737 4.8627 -2.0016 0.9576
-10.0726 3.4555 -2.0016 0.9576
-10.1902 3.0914 -2.0016 0.9576
-10.3859 2.3516 -2.0016 0.9576
-10.6444 -0.3074 -2.0016 0.9576
-10.5948 -1.0710 -2.0016 0.9576
-10.4181 -2.2048 -2.0016 0.9576
-9.6097 -2.3974 -1.8616 0.9605
-9.4937 -2.7343 -1.8570 0.9606
-9.3893 -3.0736 -1.8570 0.9606
-9.1444 -3.7399 -1.8570 0.9606
-9.0041 -4.0660 -1.8570 0.9606
-8.8522 -4.3869 -1.8570 0.9606
-8.6889 -4.7021 -1.8570 0.9606
-8.3288 -5.3139 -1.8570 0.9606
-8.1325 -5.6097 -1.8570 0.9606
-7.8092 -7.2398 -2.0016 0.9576
-6.9849 -8.0380 -2.0016 0.9576
-6.6916 -8.2837 -2.0016 0.9576
-6.0794 -8.7429 -2.0016 0.9576
-5.7614 -8.9556 -2.0016 0.9576
-5.4359 -9.1568 -2.0016 0.9576
-4.7644 -9.5236 -2.0016 0.9576
-4.0682 -9.8411 -2.0016 0.9576
-3.7120 -9.9809 -2.0016 0.9576
-3.3510 -10.1078 -2.0016 0.9576
-2.2440 -10.4097 -2.0016 0.9576
-1.8686 -10.4836 -2.0016 0.9576
-1.4907 -10.5440 -2.0016 0.9576
-0.3476 -10.6431 -2.0016 0.9576
0.0350 -10.6488 -2.0016 0.9576
3.4175 -10.0855 -2.0016 0.9576
4.4828 -9.6593 -2.0016 0.9576
2.3283 -4.1981 -0.9023 0.9807
5.8202 -8.9175 -2.0016 0.9576
6.1369 -8.7026 -2.0016 0.9576
6.7459 -8.2395 -2.0016 0.9576
7.0376 -7.9918 -2.0016 0.9576
7.3202 -7.7338 -2.0016 0.9576
7.5933 -7.4658 -2.0016 0.9576
8.1098 -6.9013 -2.0016 0.9576
8.3525 -6.6055 -2.0016 0.9576
8.5845 -6.3011 -2.0016 0.9576
8.8053 -5.9886 -2.0016 0.9576
9.0148 -5.6684 -2.0016 0.9576
9.2126 -5.3409 -2.0016 0.9576
9.3986 -5.0064 -2.0016 0.9576
9.5724 -4.6655 -2.0016 0.9576
9.7338 -4.3186 -2.0016 0.9576
9.8827 -3.9661 -2.0016 0.9576
10.0188 -3.6085 -2.0016 0.9576
10.3489 -2.5096 -2.0016 0.9576
10.4324 -2.1361 -2.0016 0.9576
10.5024 -1.7599 -2.0016 0.9576
10.5588 -1.3815 -2.0016 0.9576
10.6016 -1.0012 -2.0016 0.9576
10.3702 2.4200 -2.0016 0.9576
10.2766 2.7910 -2.0016 0.9576
10.0496 3.5217 -2.0016 0.9576
9.9166 3.8805 -2.0016 0.9576
8.6387 6.2266 -2.0016 0.9576
8.4094 6.5330 -2.0016 0.9576
7.9185 7.1200 -2.0016 0.9576
7.1065 7.9306 -2.0016 0.9576
6.5186 8.4205 -2.0016 0.9576
4.8996 9.4320 -1.9978 0.9577
4.4726 9.4230 -1.9605 0.9584
3.5698 9.1686 -1.8494 0.9607
2.9022 9.4013 -1.8494 0.9607
2.2196 9.5854 -1.8494 0.9607
1.1754 9.7686 -1.8494 0.9607
0.8237 9.8045 -1.8494 0.9607
0.4709 9.8278 -1.8494 0.9607
-0.5893 9.8214 -1.8494 0.9607
-1.1539 8.7045 -1.6504 0.9649
-1.6426 9.7010 -1.8494 0.9607
-1.9901 9.6357 -1.8494 0.9607
-2.3350 9.5580 -1.8494 0.9607
-3.3498 9.2513 -1.8494 0.9607
-4.0055 8.9868 -1.8494 0.9607
-4.3258 8.8371 -1.8494 0.9607
-4.9492 8.5037 -1.8494 0.9607
-5.2516 8.3204 -1.8494 0.9607
-5.6345 8.2544 -1.8785 0.9601
-6.5363 8.2363 -1.9764 0.9581
-7.4787 7.5806 -2.0016 0.9576
-8.0038 7.0240 -2.0016 0.9576
-8.2510 6.7319 -2.0016 0.9576
-8.4875 6.4311 -2.0016 0.9576
-8.9274 5.8051 -2.0016 0.9576
-9.3212 5.1490 -2.0016 0.9576
-9.5002 4.8108 -2.0016 0.9576
-9.6669 4.4664 -2.0016 0.9576
-9.8211 4.1162 -2.0016 0.9576
-9.9627 3.7607 -2.0016 0.9576
-10.0913 3.4003 -2.0016 0.9576
-10.2070 3.0356 -2.0016 0.9576
-10.4743 1.9197 -2.0016 0.9576
-10.6413 0.3995 -2.0016 0.9576
-10.6225 -0.7478 -2.0016 0.9576
-10.5888 -1.1289 -2.0016 0.9576
-10.4804 -1.8864 -2.0016 0.9576
-9.5726 -2.4438 -1.8570 0.9606
-9.3724 -3.1249 -1.8570 0.9606
-8.6630 -4.7496 -1.8570 0.9606
-8.4868 -5.0577 -1.8570 0.9606
-8.2996 -5.3594 -1.8570 0.9606
-8.5079 -6.4041 -2.0016 0.9576
-7.7695 -7.2824 -2.0016 0.9576
-7.2265 -7.8215 -2.0016 0.9576
-6.9408 -8.0761 -2.0016 0.9576
-6.6461 -8.3202 -2.0016 0.9576
-6.3429 -8.5536 -2.0016 0.9576
-5.3858 -9.1864 -2.0016 0.9576
-4.7122 -9.5495 -2.0016 0.9576
-3.6574 -10.0010 -2.0016 0.9576
-2.9298 -10.2379 -2.0016 0.9576
-2.5600 -10.3365 -2.0016 0.9576
-1.4330 -10.5520 -2.0016 0.9576
-0.2893 -10.6449 -2.0016 0.9576
0.0933 -10.6484 -2.0016 0.9576
0.4758 -10.6382 -2.0016 0.9576
0.8577 -10.6142 -2.0016 0.9576
1.2385 -10.5765 -2.0016 0.9576
1.6177 -10.5252 -2.0016 0.9576
1.9948 -10.4603 -2.0016 0.9576
2.7408 -10.2901 -2.0016 0.9576
3.1087 -10.1850 -2.0016 0.9576
3.4726 -10.0667 -2.0016 0.9576
4.1865 -9.7913 -2.0016 0.9576
4.5356 -9.6346 -2.0016 0.9576
5.5459 -9.0907 -2.0016 0.9576
6.1844 -8.6689 -2.0016 0.9576
7.3624 -7.6937 -2.0016 0.9576
7.6341 -7.4242 -2.0016 0.9576
7.8959 -7.1451 -2.0016 0.9576
8.8379 -5.9404 -2.0016 0.9576
8.5696 4.0280 -2.0016 0.9620
7.7117 5.4947 -2.0016 0.9620
7.5094 5.7682 -2.0016 0.9620
7.2973 6.0342 -2.0016 0.9620
6.8451 6.5427 -2.0016 0.9620
6.1014 7.2412 -2.0016 0.9620
5.8373 7.4557 -2.0016 0.9620
5.5657 7.6606 -2.0016 0.9620
5.0012 8.0405 -2.0016 0.9620
4.7091 8.2150 -2.0016 0.9620
4.4109 8.3789 -2.0016 0.9620
4.1070 8.5320 -2.0016 0.9620
3.4733 8.7783 -1.9955 0.9621
3.0981 8.7352 -1.9591 0.9628
2.7085 8.6064 -1.9072 0.9638
2.3465 8.5130 -1.8666 0.9645
2.0203 8.5125 -1.8494 0.9649
1.0927 8.6805 -1.8494 0.9649
0.7801 8.7141 -1.8494 0.9649
0.4665 8.7365 -1.8494 0.9649
0.1523 8.7477 -1.8494 0.9649
-0.4762 8.7360 -1.8494 0.9649
-1.7227 8.5777 -1.8494 0.9649
-2.3342 8.4319 -1.8494 0.9649
-2.9405 8.2617 -1.8537 0.9648
-3.6229 8.2496 -1.9045 0.9638
-3.9797 8.2439 -1.9350 0.9633
-4.3482 8.2376 -1.9690 0.9626
-4.7023 8.1821 -1.9948 0.9622
-5.0002 8.0189 -1.9976 0.9621
-5.2928 7.8456 -2.0005 0.9620
-5.5742 7.6545 -2.0016 0.9620
-5.8456 7.4493 -2.0016 0.9620
-6.3654 7.0103 -2.0016 0.9620
-6.8524 6.5351 -2.0016 0.9620
-7.3040 6.0261 -2.0016 0.9620
-7.9100 5.2053 -2.0016 0.9620
-8.0919 4.9177 -2.0016 0.9620
-8.2633 4.6238 -2.0016 0.9620
-8.4241 4.3240 -2.0016 0.9620
-8.5740 4.0185 -2.0016 0.9620
-9.3616 1.4225 -2.0016 0.9620
-9.4066 1.0853 -2.0016 0.9620
-9.4395 0.7466 -2.0016 0.9620
-9.4603 0.4070 -2.0016 0.9620
-9.4688 0.0669 -2.0016 0.9620
-9.4651 -0.2734 -2.0016 0.9620
-9.4210 -0.9523 -2.0016 0.9620
-9.3283 -1.6264 -2.0016 0.9620
-8.9272 -2.2271 -1.9449 0.9631
-8.4419 -2.4314 -1.8570 0.9647
-8.3491 -2.7331 -1.8570 0.9647
-8.2455 -3.0313 -1.8570 0.9647
-8.1313 -3.3256 -1.8570 0.9647
-7.4061 -4.7252 -1.8570 0.9647
-7.0476 -5.2448 -1.8570 0.9647
-6.9440 -6.4377 -2.0016 0.9620
-6.4638 -6.9197 -2.0016 0.9620
-6.2110 -7.1474 -2.0016 0.9620
-4.8337 -8.1423 -2.0016 0.9620
-3.6175 -8.7508 -2.0016 0.9620
-2.9798 -8.9880 -2.0016 0.9620
-2.3267 -9.1787 -2.0016 0.9620
-0.9878 -9.4174 -2.0016 0.9620
-0.3091 -9.4640 -2.0016 0.9620
0.3713 -9.4617 -2.0016 0.9620
0.7110 -9.4423 -2.0016 0.9620
1.0498 -9.4106 -2.0016 0.9620
1.3872 -9.3669 -2.0016 0.9620
1.7229 -9.3110 -2.0016 0.9620
2.7147 -9.0715 -2.0016 0.9620
3.0389 -8.9681 -2.0016 0.9620
3.3591 -8.8532 -2.0016 0.9620
3.6750 -8.7268 -2.0016 0.9620
3.9862 -8.5891 -2.0016 0.9620
2.1889 -4.3043 -1.0207 0.9805
2.3283 -4.1980 -1.0147 0.9806
4.8872 -8.1103 -2.0016 0.9620
5.4570 -7.7385 -2.0016 0.9620
5.9985 -7.3266 -2.0016 0.9620
6.2579 -7.1064 -2.0016 0.9620
6.5092 -6.8770 -2.0016 0.9620
6.9862 -6.3918 -2.0016 0.9620
7.6334 -5.6030 -2.0016 0.9620
8.0160 -5.0404 -2.0016 0.9620
8.1919 -4.7492 -2.0016 0.9620
8.5118 -4.1486 -2.0016 0.9620
8.7878 -3.5267 -2.0016 0.9620
9.0183 -2.8866 -2.0016 0.9620
9.1162 -2.5607 -2.0016 0.9620
9.2023 -2.2315 -2.0016 0.9620
9.2765 -1.8995 -2.0016 0.9620
9.3890 -1.2284 -2.0016 0.9620
9.4271 -0.8903 -2.0016 0.9620
9.4681 0.1292 -2.0016 0.9620
9.4574 0.4693 -2.0016 0.9620
9.3993 1.1472 -2.0016 0.9620
9.3520 1.4841 -2.0016 0.9620
8.8179 3.4506 -2.0016 0.9620
8.5474 4.0749 -2.0016 0.9620
8.0593 4.9709 -2.0016 0.9620
7.6816 5.5368 -2.0016 0.9620
6.8092 6.5800 -2.0016 0.9620
5.5237 7.6910 -2.0016 0.9620
4.9572 8.0678 -2.0016 0.9620
4.6641 8.2407 -2.0016 0.9620
4.0603 8.5543 -2.0016 0.9620
3.7455 8.6833 -1.9990 0.9621
3.0375 8.7152 -1.9509 0.9630
2.6510 8.5874 -1.8997 0.9639
2.2931 8.5007 -1.8611 0.9646
1.9737 8.5235 -1.8494 0.9649
0.4187 8.7390 -1.8494 0.9649
-0.8374 8.7088 -1.8494 0.9649
-1.1498 8.6731 -1.8494 0.9649
-1.4606 8.6262 -1.8494 0.9649
-1.7696 8.5682 -1.8494 0.9649
-2.0763 8.4990 -1.8494 0.9649
-2.3803 8.4190 -1.8494 0.9649
-2.6812 8.3280 -1.8494 0.9649
-3.3288 8.2539 -1.8812 0.9643
-4.0350 8.2430 -1.9400 0.9632
-4.4055 8.2366 -1.9745 0.9625
-4.7480 8.1579 -1.9952 0.9621
-5.0451 7.9932 -1.9980 0.9621
-5.6160 7.6238 -2.0016 0.9620
-6.1490 7.2009 -2.0016 0.9620
-6.8880 6.4975 -2.0016 0.9620
-7.1170 6.2458 -2.0016 0.9620
-7.3368 5.9861 -2.0016 0.9620
-7.9383 5.1619 -2.0016 0.9620
-8.1186 4.8734 -2.0016 0.9620
-8.2885 4.5785 -2.0016 0.9620
-8.4476 4.2778 -2.0016 0.9620
-8.7330 3.6602 -2.0016 0.9620
-9.2465 2.0406 -2.0016 0.9620
-9.3692 1.3713 -2.0016 0.9620
-9.4435 0.6950 -2.0016 0.9620
-9.4623 0.3552 -2.0016 0.9620
-9.4690 0.0151 -2.0016 0.9620
-9.4456 -0.6649 -2.0016 0.9620
-9.3193 -1.6774 -2.0016 0.9620
-9.2530 -2.0111 -2.0016 0.9620
-8.4285 -2.4775 -1.8570 0.9647
-8.3340 -2.7787 -1.8570 0.9647
-8.2288 -3.0763 -1.8570 0.9647
-7.9866 -3.6593 -1.8570 0.9647
-7.8500 -3.9439 -1.8570 0.9647
-7.7033 -4.2234 -1.8570 0.9647
-7.2041 -5.0277 -1.8570 0.9647
-7.0188 -5.2833 -1.8570 0.9647
-6.8245 -5.5320 -1.8570 0.9647
-7.1369 -6.2232 -2.0016 0.9620
-6.9087 -6.4756 -2.0016 0.9620
-6.1718 -7.1813 -2.0016 0.9620
-5.9098 -7.3984 -2.0016 0.9620
-5.0795 -7.9913 -2.0016 0.9620
-4.7891 -8.1687 -2.0016 0.9620
-4.4925 -8.3355 -2.0016 0.9620
-4.1901 -8.4915 -2.0016 0.9620
-1.9447 -9.2672 -2.0016 0.9620
-1.6105 -9.3311 -2.0016 0.9620
-1.2742 -9.3829 -2.0016 0.9620
-0.5972 -9.4502 -2.0016 0.9620
-0.2573 -9.4655 -2.0016 0.9620
0.0830 -9.4687 -2.0016 0.9620
0.4231 -9.4596 -2.0016 0.9620
0.7627 -9.4383 -2.0016 0.9620
2.1068 -9.2317 -2.0016 0.9620
2.4371 -9.1500 -2.0016 0.9620
2.7643 -9.0565 -2.0016 0.9620
3.0879 -8.9514 -2.0016 0.9620
3.4075 -8.8347 -2.0016 0.9620
4.0331 -8.5672 -2.0016 0.9620
2.1903 -4.2495 -1.0106 0.9806
4.9315 -8.0835 -2.0016 0.9620
6.0385 -7.2937 -2.0016 0.9620
6.7883 -6.6016 -2.0016 0.9620
7.2448 -6.0971 -2.0016 0.9620
7.4592 -5.8329 -2.0016 0.9620
7.8588 -5.2822 -2.0016 0.9620
7.7075 3.6228 -2.0016 0.9656
7.1090 4.6895 -2.0016 0.9656
6.9360 4.9419 -2.0016 0.9656
6.3640 5.6595 -2.0016 0.9656
5.9411 6.1019 -2.0016 0.9656
5.4876 6.5127 -2.0016 0.9656
5.2501 6.7057 -2.0016 0.9656
3.9672 7.5360 -2.0016 0.9656
2.8468 8.0266 -2.0016 0.9656
2.5557 8.1208 -2.0009 0.9656
1.3491 8.2988 -1.9760 0.9660
0.7391 8.2563 -1.9482 0.9665
0.4402 8.2431 -1.9401 0.9666
0.1435 8.2434 -1.9377 0.9667
-0.1527 8.2434 -1.9377 0.9667
-0.7471 8.2421 -1.9450 0.9666
-1.6542 8.2366 -1.9744 0.9661
-1.9638 8.2338 -1.9894 0.9658
-2.5587 8.0991 -1.9962 0.9657
-2.8503 8.0081 -1.9978 0.9657
-3.7024 7.6696 -2.0016 0.9656
-3.9756 7.5316 -2.0016 0.9656
-4.2436 7.3839 -2.0016 0.9656
-4.7629 7.0601 -2.0016 0.9656
-5.0134 6.8844 -2.0016 0.9656
-5.2575 6.6999 -2.0016 0.9656
-6.3702 5.6524 -2.0016 0.9656
-6.5692 5.4199 -2.0016 0.9656
-7.1142 4.6816 -2.0016 0.9656
-7.2778 4.4230 -2.0016 0.9656
-7.4320 4.1587 -2.0016 0.9656
-7.8364 3.3349 -2.0016 0.9656
-7.9511 3.0512 -2.0016 0.9656
-8.0556 2.7635 -2.0016 0.9656
-8.1497 2.4723 -2.0016 0.9656
-8.3684 1.5811 -2.0016 0.9656
-8.4198 1.2794 -2.0016 0.9656
-8.4899 0.6715 -2.0016 0.9656
-8.5162 0.0601 -2.0016 0.9656
-8.5129 -0.2459 -2.0016 0.9656
-8.4986 -0.5516 -2.0016 0.9656
-8.4733 -0.8565 -2.0016 0.9656
-8.4370 -1.1604 -2.0016 0.9656
-8.3319 -1.7633 -2.0016 0.9656
-8.2632 -2.0615 -2.0016 0.9656
-7.7626 -2.2357 -1.8986 0.9674
-7.4160 -2.7263 -1.8570 0.9681
-7.2011 -3.2518 -1.8570 0.9681
-7.0796 -3.5084 -1.8570 0.9681
-6.8094 -4.0078 -1.8570 0.9681
-6.3386 -4.7172 -1.8570 0.9681
-6.1651 -4.9418 -1.8570 0.9681
-5.9835 -5.1602 -1.8570 0.9681
-5.8135 -6.2236 -2.0016 0.9656
-5.3516 -6.6250 -2.0016 0.9656
-5.1102 -6.8129 -2.0016 0.9656
-4.3474 -7.3232 -2.0016 0.9656
-3.8103 -7.6165 -2.0016 0.9656
-3.2536 -7.8705 -2.0016 0.9656
-2.9687 -7.9823 -2.0016 0.9656
-2.3878 -8.1748 -2.0016 0.9656
-1.7947 -8.3252 -2.0016 0.9656
-1.4944 -8.3843 -2.0016 0.9656
-0.8885 -8.4700 -2.0016 0.9656
-0.2780 -8.5119 -2.0016 0.9656
0.0280 -8.5164 -2.0016 0.9656
1.5495 -8.3743 -2.0016 0.9656
2.4416 -8.1589 -2.0016 0.9656
2.7332 -8.0660 -2.0016 0.9656
3.3053 -7.8489 -2.0016 0.9656
3.5852 -7.7251 -2.0016 0.9656
2.1553 -4.2384 -1.1175 0.9807
4.6548 -7.1318 -2.0016 0.9656
5.1549 -6.7792 -2.0016 0.9656
5.3951 -6.5896 -2.0016 0.9656
5.8544 -6.1852 -2.0016 0.9656
6.0728 -5.9708 -2.0016 0.9656
6.6800 -5.2828 -2.0016 0.9656
7.0421 -4.7894 -2.0016 0.9656
7.2096 -4.5333 -2.0016 0.9656
7.5165 -4.0039 -2.0016 0.9656
7.6555 -3.7313 -2.0016 0.9656
8.0126 -2.8859 -2.0016 0.9656
8.1111 -2.5962 -2.0016 0.9656
8.1991 -2.3031 -2.0016 0.9656
8.4445 -1.1048 -2.0016 0.9656
8.4787 -0.8007 -2.0016 0.9656
8.5020 -0.4956 -2.0016 0.9656
8.5143 -0.1898 -2.0016 0.9656
8.5060 0.4221 -2.0016 0.9656
8.4537 1.0318 -2.0016 0.9656
8.4112 1.3348 -2.0016 0.9656
8.3578 1.6362 -2.0016 0.9656
8.2936 1.9354 -2.0016 0.9656
8.1332 2.5259 -2.0016 0.9656
8.0372 2.8165 -2.0016 0.9656
7.9309 3.1034 -2.0016 0.9656
7.8142 3.3864 -2.0016 0.9656
7.5509 3.9388 -2.0016 0.9656
7.4045 4.2075 -2.0016 0.9656
7.2486 4.4708 -2.0016 0.9656
7.0833 4.7283 -2.0016 0.9656
6.9088 4.9798 -2.0016 0.9656
6.7254 5.2248 -2.0016 0.9656
6.5334 5.4630 -2.0016 0.9656
5.9077 6.1343 -2.0016 0.9656
4.9680 6.9173 -2.0016 0.9656
4.7163 7.0913 -2.0016 0.9656
4.4585 7.2562 -2.0016 0.9656
4.1949 7.4117 -2.0016 0.9656
3.6518 7.6938 -2.0016 0.9656
3.3731 7.8200 -2.0016 0.9656
3.0899 7.9361 -2.0016 0.9656
2.8028 8.0420 -2.0016 0.9656
1.6158 8.3291 -1.9940 0.9657
0.6934 8.2543 -1.9468 0.9665
0.3950 8.2432 -1.9396 0.9667
-0.1978 8.2434 -1.9379 0.9667
-0.4946 8.2429 -1.9407 0.9666
-0.7925 8.2419 -1.9460 0.9666
-1.0924 8.2405 -1.9536 0.9664
-2.3095 8.1685 -1.9950 0.9657
-2.6033 8.0859 -1.9964 0.9657
-2.8944 7.9934 -1.9980 0.9657
-3.4671 7.7788 -2.0016 0.9656
-3.7443 7.6492 -2.0016 0.9656
-4.2839 7.3606 -2.0016 0.9656
-4.5456 7.2019 -2.0016 0.9656
-5.0510 6.8569 -2.0016 0.9656
-5.7595 6.2736 -2.0016 0.9656
-5.9812 6.0626 -2.0016 0.9656
-6.1951 5.8438 -2.0016 0.9656
-6.4011 5.6175 -2.0016 0.9656
-6.5988 5.3839 -2.0016 0.9656
-6.7879 5.1433 -2.0016 0.9656
-7.9677 3.0076 -2.0016 0.9656
-8.3163 1.8353 -2.0016 0.9656
-8.3769 1.5353 -2.0016 0.9656
-8.4267 1.2333 -2.0016 0.9656
-8.5104 0.3195 -2.0016 0.9656
-8.4954 -0.5980 -2.0016 0.9656
-8.4684 -0.9029 -2.0016 0.9656
-8.4305 -1.2066 -2.0016 0.9656
-8.3818 -1.5087 -2.0016 0.9656
-8.2518 -2.1066 -2.0016 0.9656
-7.6252 -2.2414 -1.8679 0.9679
-7.4956 -2.4992 -1.8570 0.9681
-7.4010 -2.7669 -1.8570 0.9681
-6.6377 -4.2862 -1.8570 0.9681
-6.4794 -4.5219 -1.8570 0.9681
-6.3128 -4.7518 -1.8570 0.9681
-6.1380 -4.9755 -1.8570 0.9681
-5.9552 -5.1928 -1.8570 0.9681
-5.7648 -5.4034 -1.8570 0.9681
-5.5509 -6.4589 -2.0016 0.9656
-5.0728 -6.8408 -2.0016 0.9656
-4.8238 -7.0186 -2.0016 0.9656
-4.3073 -7.3469 -2.0016 0.9656
-4.0406 -7.4969 -2.0016 0.9656
-3.4918 -7.7677 -2.0016 0.9656
-2.9250 -7.9984 -2.0016 0.9656
-2.6357 -8.0983 -2.0016 0.9656
-2.3431 -8.1878 -2.0016 0.9656
-2.0474 -8.2667 -2.0016 0.9656
-1.7491 -8.3349 -2.0016 0.9656
-1.4485 -8.3924 -2.0016 0.9656
-1.1461 -8.4390 -2.0016 0.9656
-0.8421 -8.4747 -2.0016 0.9656
-0.5371 -8.4995 -2.0016 0.9656
-0.2314 -8.5133 -2.0016 0.9656
0.0746 -8.5161 -2.0016 0.9656
0.9905 -8.4586 -2.0016 0.9656
1.2937 -8.4176 -2.0016 0.9656
1.5953 -8.3657 -2.0016 0.9656
1.8949 -8.3030 -2.0016 0.9656
2.4862 -8.1455 -2.0016 0.9656
3.6274 -7.7053 -2.0016 0.9656
2.1707 -4.2114 -1.1135 0.9807
