ply
format ascii 1.0
element vertex 1593
property float32 x
property float32 y
property float32 z
property float32 I
end_header
0.2286 7.0666 -2.0016 0.9710
-0.2797 7.0648 -2.0016 0.9710
-0.5335 7.0502 -2.0016 0.9710
-0.7866 7.0264 -2.0016 0.9710
-1.0386 6.9936 -2.0016 0.9710
-1.2894 6.9518 -2.0016 0.9710
-1.7855 6.8412 -2.0016 0.9710
-2.2723 6.6952 -2.0016 0.9710
-2.5115 6.6092 -2.0016 0.9710
-3.2084 6.3004 -2.0016 0.9710
-3.6528 6.0537 -2.0016 0.9710
-4.2832 5.6253 -2.0016 0.9710
-4.4826 5.4677 -2.0016 0.9710
-5.3880 4.5781 -2.0016 0.9710
-5.5491 4.3814 -2.0016 0.9710
-5.8495 3.9715 -2.0016 0.9710
-5.9885 3.7586 -2.0016 0.9710
-6.1198 3.5409 -2.0016 0.9710
-6.2431 3.3187 -2.0016 0.9710
-6.3583 3.0921 -2.0016 0.9710
-6.4654 2.8616 -2.0016 0.9710
-6.5640 2.6273 -2.0016 0.9710
-6.7358 2.1489 -2.0016 0.9710
-6.8087 1.9054 -2.0016 0.9710
-6.8728 1.6595 -2.0016 0.9710
-6.9280 1.4114 -2.0016 0.9710
-7.0115 0.9100 -2.0016 0.9710
-7.0588 0.4039 -2.0016 0.9710
-7.0687 0.1499 -2.0016 0.9710
-7.0696 -0.1043 -2.0016 0.9710
-7.0612 -0.3583 -2.0016 0.9710
-7.0438 -0.6119 -2.0016 0.9710
-6.9816 -1.1164 -2.0016 0.9710
-6.9370 -1.3666 -2.0016 0.9710
-6.8834 -1.6151 -2.0016 0.9710
-6.3503 -2.2344 -1.9058 0.9724
-6.1110 -2.4004 -1.8586 0.9731
-6.0154 -2.6161 -1.8570 0.9731
-5.8119 -3.0415 -1.8570 0.9731
-5.6988 -3.2485 -1.8570 0.9731
-5.5783 -3.4512 -1.8570 0.9731
-5.1744 -4.0317 -1.8570 0.9731
-5.0261 -4.2151 -1.8570 0.9731
-4.7103 -4.5653 -1.8570 0.9731
-4.3702 -4.8919 -1.8570 0.9731
-3.4251 -5.5944 -1.8570 0.9731
-3.4726 -6.1588 -2.0016 0.9710
-3.0212 -6.3923 -2.0016 0.9710
-2.5541 -6.5929 -2.0016 0.9710
-2.0738 -6.7593 -2.0016 0.9710
-1.3342 -6.9433 -2.0016 0.9710
-1.0837 -6.9868 -2.0016 0.9710
-0.8319 -7.0212 -2.0016 0.9710
-0.3253 -7.0628 -2.0016 0.9710
-0.0712 -7.0700 -2.0016 0.9710
0.6903 -7.0366 -2.0016 0.9710
0.9428 -7.0072 -2.0016 0.9710
1.1940 -6.9688 -2.0016 0.9710
1.4438 -6.9214 -2.0016 0.9710
1.6916 -6.8650 -2.0016 0.9710
1.9373 -6.7997 -2.0016 0.9710
2.0947 -4.2566 -1.3430 0.9805
2.3948 -4.0946 -1.3428 0.9805
3.7866 -5.9709 -2.0016 0.9710
4.9769 -5.0220 -2.0016 0.9710
5.1542 -4.8398 -2.0016 0.9710
5.3248 -4.6514 -2.0016 0.9710
5.7946 -4.0512 -2.0016 0.9710
6.1970 -3.4039 -2.0016 0.9710
6.3154 -3.1789 -2.0016 0.9710
6.4256 -2.9498 -2.0016 0.9710
6.5275 -2.7170 -2.0016 0.9710
6.6209 -2.4806 -2.0016 0.9710
6.7058 -2.2410 -2.0016 0.9710
6.8495 -1.7534 -2.0016 0.9710
6.9081 -1.5061 -2.0016 0.9710
6.9577 -1.2568 -2.0016 0.9710
6.9984 -1.0059 -2.0016 0.9710
7.0526 -0.5005 -2.0016 0.9710
7.0703 0.0075 -2.0016 0.9710
7.0655 0.2616 -2.0016 0.9710
7.0515 0.5154 -2.0016 0.9710
7.0284 0.7685 -2.0016 0.9710
6.9551 1.2715 -2.0016 0.9710
6.9049 1.5207 -2.0016 0.9710
6.8457 1.7679 -2.0016 0.9710
6.7778 2.0128 -2.0016 0.9710
6.5217 2.7308 -2.0016 0.9710
6.4193 2.9634 -2.0016 0.9710
6.3087 3.1922 -2.0016 0.9710
6.1898 3.4169 -2.0016 0.9710
5.6362 4.2688 -2.0016 0.9710
5.1439 4.8507 -2.0016 0.9710
4.9663 5.0325 -2.0016 0.9710
4.7822 5.2077 -2.0016 0.9710
4.3957 5.5378 -2.0016 0.9710
4.1938 5.6923 -2.0016 0.9710
3.3347 6.2345 -2.0016 0.9710
3.1084 6.3504 -2.0016 0.9710
2.4067 6.6481 -2.0016 0.9710
2.1662 6.7303 -2.0016 0.9710
1.9229 6.8038 -2.0016 0.9710
-6.3124 1.5815 -2.0016 0.9731
-6.3652 1.3536 -2.0016 0.9731
-6.4459 0.8928 -2.0016 0.9731
-6.4739 0.6605 -2.0016 0.9731
-6.4934 0.4274 -2.0016 0.9731
-6.5046 0.1937 -2.0016 0.9731
-6.5073 -0.0403 -2.0016 0.9731
-6.5017 -0.2741 -2.0016 0.9731
-6.4344 -0.9725 -2.0016 0.9731
-6.2923 -1.6595 -2.0016 0.9731
-6.2286 -1.8846 -2.0016 0.9731
-5.3730 -2.7535 -1.8570 0.9751
-5.2705 -2.9448 -1.8570 0.9751
-5.1613 -3.1324 -1.8570 0.9751
-5.0453 -3.3159 -1.8570 0.9751
-4.9229 -3.4951 -1.8570 0.9751
-4.7941 -3.6698 -1.8570 0.9751
-4.6591 -3.8397 -1.8570 0.9751
-4.5180 -4.0047 -1.8570 0.9751
-4.3712 -4.1645 -1.8570 0.9751
-4.2186 -4.3190 -1.8570 0.9751
-3.5561 -4.8790 -1.8570 0.9751
-3.1964 -5.1219 -1.8570 0.9751
-2.4293 -5.5271 -1.8570 0.9751
-2.1837 -6.1301 -2.0016 0.9731
-1.7377 -6.2712 -2.0016 0.9731
-1.0525 -6.4218 -2.0016 0.9731
-0.3551 -6.4978 -2.0016 0.9731
-0.1213 -6.5063 -2.0016 0.9731
0.1127 -6.5065 -2.0016 0.9731
0.3465 -6.4982 -2.0016 0.9731
1.0440 -6.4232 -2.0016 0.9731
1.2742 -6.3815 -2.0016 0.9731
1.5028 -6.3316 -2.0016 0.9731
1.9538 -6.2073 -2.0016 0.9731
2.2217 -5.6138 -1.8570 0.9751
2.1505 -4.0838 -1.4196 0.9809
3.4380 -5.5252 -2.0016 0.9731
4.0128 -5.1230 -2.0016 0.9731
4.1943 -4.9754 -2.0016 0.9731
4.3705 -4.8214 -2.0016 0.9731
4.5409 -4.6612 -2.0016 0.9731
4.7056 -4.4950 -2.0016 0.9731
5.0163 -4.1453 -2.0016 0.9731
5.1621 -3.9623 -2.0016 0.9731
5.3012 -3.7742 -2.0016 0.9731
5.5586 -3.3836 -2.0016 0.9731
5.6767 -3.1816 -2.0016 0.9731
5.8906 -2.7656 -2.0016 0.9731
5.9862 -2.5520 -2.0016 0.9731
6.0740 -2.3352 -2.0016 0.9731
6.2901 -1.6678 -2.0016 0.9731
6.3460 -1.4406 -2.0016 0.9731
6.3937 -1.2116 -2.0016 0.9731
6.4331 -0.9810 -2.0016 0.9731
6.4642 -0.7491 -2.0016 0.9731
6.4870 -0.5162 -2.0016 0.9731
6.5073 -0.0489 -2.0016 0.9731
6.5048 0.1851 -2.0016 0.9731
6.4471 0.8843 -2.0016 0.9731
6.3145 1.5731 -2.0016 0.9731
6.1851 2.0227 -2.0016 0.9731
6.1084 2.2437 -2.0016 0.9731
5.9314 2.6768 -2.0016 0.9731
5.8314 2.8883 -2.0016 0.9731
5.7238 3.0960 -2.0016 0.9731
5.2210 3.8844 -2.0016 0.9731
5.0780 4.0695 -2.0016 0.9731
4.7725 4.4238 -2.0016 0.9731
4.6104 4.5925 -2.0016 0.9731
4.2686 4.9119 -2.0016 0.9731
4.0892 5.0622 -2.0016 0.9731
3.9046 5.2059 -2.0016 0.9731
3.5205 5.4729 -2.0016 0.9731
3.3215 5.5960 -2.0016 0.9731
2.9109 5.8201 -2.0016 0.9731
2.6998 5.9210 -2.0016 0.9731
2.4853 6.0142 -2.0016 0.9731
2.0468 6.1772 -2.0016 0.9731
1.8234 6.2468 -2.0016 0.9731
1.1403 6.4068 -2.0016 0.9731
0.9093 6.4436 -2.0016 0.9731
0.4440 6.4923 -2.0016 0.9731
0.2104 6.5041 -2.0016 0.9731
-0.0236 6.5074 -2.0016 0.9731
-0.4910 6.4889 -2.0016 0.9731
-0.9559 6.4369 -2.0016 0.9731
-1.1867 6.3984 -2.0016 0.9731
-1.4159 6.3516 -2.0016 0.9731
-1.8686 6.2334 -2.0016 0.9731
-2.5288 5.9961 -2.0016 0.9731
-3.1595 5.6890 -2.0016 0.9731
-3.9422 5.1775 -2.0016 0.9731
-4.1258 5.0324 -2.0016 0.9731
-4.6436 4.5590 -2.0016 0.9731
-4.8044 4.3892 -2.0016 0.9731
-5.1073 4.0326 -2.0016 0.9731
-5.2490 3.8465 -2.0016 0.9731
-5.3839 3.6553 -2.0016 0.9731
-5.6326 3.2591 -2.0016 0.9731
-6.0415 2.4182 -2.0016 0.9731
-6.3257 1.5274 -2.0016 0.9731
-6.3765 1.2990 -2.0016 0.9731
-6.4534 0.8375 -2.0016 0.9731
-6.4793 0.6050 -2.0016 0.9731
-6.4969 0.3717 -2.0016 0.9731
-6.5060 0.1380 -2.0016 0.9731
-6.5068 -0.0960 -2.0016 0.9731
-6.4831 -0.5632 -2.0016 0.9731
-6.3848 -1.2578 -2.0016 0.9731
-6.3354 -1.4865 -2.0016 0.9731
-5.6990 -2.2385 -1.8833 0.9747
-5.3492 -2.7994 -1.8570 0.9751
-4.8928 -3.5371 -1.8570 0.9751
-4.7625 -3.7107 -1.8570 0.9751
-4.6260 -3.8795 -1.8570 0.9751
-4.4836 -4.0433 -1.8570 0.9751
-4.3353 -4.2018 -1.8570 0.9751
-3.5142 -4.9093 -1.8570 0.9751
-3.3355 -5.0324 -1.8570 0.9751
-2.9653 -5.2590 -1.8570 0.9751
-2.7743 -5.3622 -1.8570 0.9751
-2.5798 -5.4585 -1.8570 0.9751
-2.3819 -5.5477 -1.8570 0.9751
-2.1810 -5.6297 -1.8570 0.9751
-1.9088 -6.2212 -2.0016 0.9731
-1.2279 -6.3906 -2.0016 0.9731
-0.9974 -6.4306 -2.0016 0.9731
-0.7657 -6.4623 -2.0016 0.9731
-0.5329 -6.4856 -2.0016 0.9731
-0.2994 -6.5006 -2.0016 0.9731
-0.0656 -6.5071 -2.0016 0.9731
0.4021 -6.4950 -2.0016 0.9731
0.8677 -6.4494 -2.0016 0.9731
1.0990 -6.4140 -2.0016 0.9731
1.3288 -6.3704 -2.0016 0.9731
1.5569 -6.3185 -2.0016 0.9731
1.7831 -6.2584 -2.0016 0.9731
2.0069 -6.1903 -2.0016 0.9731
2.2281 -6.1142 -2.0016 0.9731
2.4693 -5.5093 -1.8570 0.9751
2.0808 -4.2283 -1.4495 0.9805
2.1950 -4.0831 -1.4258 0.9808
2.3863 -4.0800 -1.4538 0.9804
4.0565 -5.0884 -2.0016 0.9731
4.2368 -4.9393 -2.0016 0.9731
4.4116 -4.7838 -2.0016 0.9731
4.5807 -4.6222 -2.0016 0.9731
4.7439 -4.4545 -2.0016 0.9731
4.9009 -4.2811 -2.0016 0.9731
5.1958 -3.9180 -2.0016 0.9731
5.7037 -3.1329 -2.0016 0.9731
6.0078 -2.5007 -2.0016 0.9731
6.1719 -2.0626 -2.0016 0.9731
6.2421 -1.8394 -2.0016 0.9731
6.3042 -1.6139 -2.0016 0.9731
6.3581 -1.3862 -2.0016 0.9731
6.4038 -1.1568 -2.0016 0.9731
6.4704 -0.6937 -2.0016 0.9731
6.4912 -0.4607 -2.0016 0.9731
6.5075 0.0069 -2.0016 0.9731
6.5030 0.2408 -2.0016 0.9731
6.4393 0.9394 -2.0016 0.9731
6.3552 1.3996 -2.0016 0.9731
6.3008 1.6272 -2.0016 0.9731
6.2382 1.8526 -2.0016 0.9731
5.9083 2.7275 -2.0016 0.9731
5.8064 2.9381 -2.0016 0.9731
5.6971 3.1449 -2.0016 0.9731
5.3254 3.7399 -2.0016 0.9731
4.4015 4.7932 -2.0016 0.9731
4.0457 5.0970 -2.0016 0.9731
3.8599 5.2391 -2.0016 0.9731
3.4735 5.5029 -2.0016 0.9731
3.0692 5.7382 -2.0016 0.9731
2.8610 5.8448 -2.0016 0.9731
2.6490 5.9439 -2.0016 0.9731
2.4337 6.0353 -2.0016 0.9731
1.9938 6.1945 -2.0016 0.9731
-5.7845 1.6724 -2.0016 0.9749
-6.0188 0.1792 -2.0016 0.9749
-6.0213 -0.0373 -2.0016 0.9749
-6.0031 -0.4698 -2.0016 0.9749
-5.9823 -0.6852 -2.0016 0.9749
-5.9538 -0.8998 -2.0016 0.9749
-5.9176 -1.1133 -2.0016 0.9749
-5.8738 -1.3252 -2.0016 0.9749
-5.8224 -1.5355 -2.0016 0.9749
-5.7634 -1.7438 -2.0016 0.9749
-5.6970 -1.9499 -2.0016 0.9749
-5.6232 -2.1534 -2.0016 0.9749
-5.2626 -2.2353 -1.9006 0.9762
-5.0600 -2.3675 -1.8570 0.9767
-4.8769 -2.7249 -1.8570 0.9767
-4.6685 -3.0682 -1.8570 0.9767
-4.5552 -3.2341 -1.8570 0.9767
-4.3111 -3.5530 -1.8570 0.9767
-3.9036 -3.9964 -1.8570 0.9767
-3.6063 -4.2665 -1.8570 0.9767
-3.4507 -4.3934 -1.8570 0.9767
-3.1261 -4.6299 -1.8570 0.9767
-2.7854 -4.8426 -1.8570 0.9767
-2.6095 -4.9396 -1.8570 0.9767
-2.4303 -5.0302 -1.8570 0.9767
-2.2479 -5.1143 -1.8570 0.9767
-2.0626 -5.1918 -1.8570 0.9767
-1.6843 -5.3265 -1.8570 0.9767
0.0967 -5.5857 -1.8570 0.9767
0.2974 -5.5786 -1.8570 0.9767
1.0939 -5.4783 -1.8570 0.9767
1.6773 -5.3288 -1.8570 0.9767
1.8677 -5.2650 -1.8570 0.9767
2.0634 -4.2852 -1.5810 0.9802
2.1430 -4.0694 -1.5288 0.9808
2.3317 -4.0661 -1.5581 0.9804
3.2845 -4.5189 -1.8570 0.9767
3.4449 -4.3979 -1.8570 0.9767
4.3541 -4.1593 -2.0016 0.9749
4.7765 -3.6664 -2.0016 0.9749
5.1435 -3.1309 -2.0016 0.9749
5.3551 -2.7533 -2.0016 0.9749
5.4506 -2.5590 -2.0016 0.9749
5.5391 -2.3614 -2.0016 0.9749
5.6204 -2.1608 -2.0016 0.9749
5.6944 -1.9574 -2.0016 0.9749
5.7611 -1.7514 -2.0016 0.9749
5.8203 -1.5432 -2.0016 0.9749
5.8720 -1.3330 -2.0016 0.9749
5.9162 -1.1211 -2.0016 0.9749
5.9814 -0.6931 -2.0016 0.9749
6.0158 -0.2616 -2.0016 0.9749
6.0213 -0.0452 -2.0016 0.9749
6.0190 0.1713 -2.0016 0.9749
5.9911 0.6032 -2.0016 0.9749
5.9656 0.8182 -2.0016 0.9749
5.8914 1.2447 -2.0016 0.9749
5.8428 1.4556 -2.0016 0.9749
5.7867 1.6647 -2.0016 0.9749
5.7232 1.8717 -2.0016 0.9749
5.4884 2.4769 -2.0016 0.9749
5.3958 2.6726 -2.0016 0.9749
5.0768 3.2379 -2.0016 0.9749
4.9571 3.4183 -2.0016 0.9749
4.5603 3.9321 -2.0016 0.9749
4.2661 4.2495 -2.0016 0.9749
3.7838 4.6841 -2.0016 0.9749
3.6130 4.8171 -2.0016 0.9749
3.4375 4.9438 -2.0016 0.9749
3.2576 5.0642 -2.0016 0.9749
2.0981 5.6441 -2.0016 0.9749
1.4783 5.8371 -2.0016 0.9749
0.8414 5.9624 -2.0016 0.9749
0.6265 5.9888 -2.0016 0.9749
0.4109 6.0074 -2.0016 0.9749
0.1946 6.0183 -2.0016 0.9749
-0.2382 6.0167 -2.0016 0.9749
-0.4544 6.0043 -2.0016 0.9749
-0.8845 5.9561 -2.0016 0.9749
-1.0981 5.9205 -2.0016 0.9749
-1.3102 5.8772 -2.0016 0.9749
-1.9352 5.7020 -2.0016 0.9749
-2.1389 5.6287 -2.0016 0.9749
-2.3399 5.5482 -2.0016 0.9749
-2.7324 5.3658 -2.0016 0.9749
-3.1109 5.1556 -2.0016 0.9749
-3.2942 5.0404 -2.0016 0.9749
-3.4732 4.9188 -2.0016 0.9749
-3.6478 4.7908 -2.0016 0.9749
-3.8176 4.6565 -2.0016 0.9749
-4.5887 3.8989 -2.0016 0.9749
-4.7259 3.7314 -2.0016 0.9749
-4.9817 3.3823 -2.0016 0.9749
-5.1001 3.2010 -2.0016 0.9749
-5.2119 3.0156 -2.0016 0.9749
-5.5062 2.4370 -2.0016 0.9749
-5.5903 2.2376 -2.0016 0.9749
-5.7366 1.8302 -2.0016 0.9749
-5.7987 1.6228 -2.0016 0.9749
-5.8532 1.4133 -2.0016 0.9749
-5.9002 1.2020 -2.0016 0.9749
-5.9396 0.9891 -2.0016 0.9749
-5.9714 0.7750 -2.0016 0.9749
-5.9954 0.5598 -2.0016 0.9749
-6.0116 0.3440 -2.0016 0.9749
-6.0208 -0.0888 -2.0016 0.9749
-5.6801 -1.9986 -2.0016 0.9749
-5.6046 -2.2015 -2.0016 0.9749
-5.1536 -2.2414 -1.8681 0.9766
-4.6421 -3.1081 -1.8570 0.9767
-4.5273 -3.2729 -1.8570 0.9767
-4.4068 -3.4336 -1.8570 0.9767
-4.2805 -3.5897 -1.8570 0.9767
-4.1487 -3.7413 -1.8570 0.9767
-4.0115 -3.8880 -1.8570 0.9767
-3.5697 -4.2972 -1.8570 0.9767
-3.2517 -4.5426 -1.8570 0.9767
-2.7438 -4.8662 -1.8570 0.9767
-2.3871 -5.0508 -1.8570 0.9767
-2.0181 -5.2092 -1.8570 0.9767
-1.8295 -5.2784 -1.8570 0.9767
-1.6386 -5.3408 -1.8570 0.9767
-1.0542 -5.4861 -1.8570 0.9767
-0.6573 -5.5477 -1.8570 0.9767
-0.2570 -5.5806 -1.8570 0.9767
-0.0563 -5.5862 -1.8570 0.9767
0.3452 -5.5758 -1.8570 0.9767
0.5454 -5.5598 -1.8570 0.9767
0.7459 -5.5440 -1.8594 0.9767
0.9434 -5.5062 -1.8570 0.9767
2.2849 -5.0979 -1.8570 0.9767
2.0669 -4.2001 -1.5560 0.9805
2.1873 -4.0687 -1.5355 0.9807
3.3267 -4.4954 -1.8590 0.9767
3.4824 -4.3683 -1.8570 0.9767
4.8078 -3.6253 -2.0016 0.9749
5.2777 -2.8989 -2.0016 0.9749
5.7759 -1.7020 -2.0016 0.9749
5.8333 -1.4933 -2.0016 0.9749
5.8832 -1.2827 -2.0016 0.9749
5.9255 -1.0704 -2.0016 0.9749
5.9602 -0.8567 -2.0016 0.9749
5.9871 -0.6419 -2.0016 0.9749
6.0178 -0.2101 -2.0016 0.9749
6.0214 0.0064 -2.0016 0.9749
6.0173 0.2228 -2.0016 0.9749
5.9584 0.8693 -2.0016 0.9749
5.9233 1.0829 -2.0016 0.9749
5.8805 1.2951 -2.0016 0.9749
5.7069 1.9206 -2.0016 0.9749
5.4670 2.5238 -2.0016 0.9749
5.3728 2.7187 -2.0016 0.9749
5.1636 3.0976 -2.0016 0.9749
5.0489 3.2812 -2.0016 0.9749
4.9277 3.4606 -2.0016 0.9749
4.8001 3.6355 -2.0016 0.9749
4.6663 3.8057 -2.0016 0.9749
4.3808 4.1311 -2.0016 0.9749
4.2295 4.2859 -2.0016 0.9749
3.9107 4.5787 -2.0016 0.9749
3.5716 4.8478 -2.0016 0.9749
3.0290 5.2041 -2.0016 0.9749
2.8400 5.3096 -2.0016 0.9749
2.6473 5.4083 -2.0016 0.9749
2.2519 5.5845 -2.0016 0.9749
2.0497 5.6618 -2.0016 0.9749
1.8449 5.7319 -2.0016 0.9749
-5.3769 1.5545 -2.0016 0.9765
-5.4293 1.3602 -2.0016 0.9765
-5.5682 0.5681 -2.0016 0.9765
-5.5850 0.3676 -2.0016 0.9765
-5.5946 0.1666 -2.0016 0.9765
-5.5970 -0.0346 -2.0016 0.9765
-5.5800 -0.4367 -2.0016 0.9765
-5.5342 -0.8364 -2.0016 0.9765
-5.4599 -1.2319 -2.0016 0.9765
-5.4120 -1.4273 -2.0016 0.9765
-5.2955 -1.8124 -2.0016 0.9765
-5.2269 -2.0016 -2.0016 0.9765
-5.1516 -2.1882 -2.0016 0.9765
-4.7825 -2.2376 -1.8882 0.9778
-4.6213 -2.3683 -1.8570 0.9782
-4.4392 -2.6942 -1.8570 0.9782
-4.3395 -2.8520 -1.8570 0.9782
-4.2342 -3.0061 -1.8570 0.9782
-4.1234 -3.1564 -1.8570 0.9782
-4.0073 -3.3026 -1.8570 0.9782
-3.7596 -3.5819 -1.8570 0.9782
-3.2075 -4.0838 -1.8570 0.9782
-3.0586 -4.1964 -1.8570 0.9782
-2.9058 -4.3037 -1.8570 0.9782
-2.7492 -4.4053 -1.8570 0.9782
-2.4256 -4.5915 -1.8570 0.9782
-2.2590 -4.6757 -1.8570 0.9782
-2.0895 -4.7539 -1.8570 0.9782
-1.7425 -4.8917 -1.8570 0.9782
-1.5656 -4.9512 -1.8570 0.9782
-1.0235 -5.0909 -1.8570 0.9782
-0.8399 -5.1244 -1.8570 0.9782
-0.6551 -5.1513 -1.8570 0.9782
-0.4695 -5.1715 -1.8570 0.9782
-0.2833 -5.1851 -1.8570 0.9782
-0.0968 -5.1919 -1.8570 0.9782
0.2765 -5.1854 -1.8570 0.9782
0.4627 -5.1721 -1.8570 0.9782
0.8331 -5.1255 -1.8570 0.9782
1.0168 -5.0923 -1.8570 0.9782
1.1992 -5.0524 -1.8570 0.9782
1.3800 -5.0061 -1.8570 0.9782
1.5591 -4.9532 -1.8570 0.9782
2.0409 -4.2385 -1.6823 0.9802
2.3201 -4.0459 -1.6678 0.9804
2.4947 -4.0092 -1.6886 0.9801
3.0531 -4.2005 -1.8570 0.9782
3.3470 -3.9703 -1.8570 0.9782
3.9057 -4.0091 -2.0016 0.9765
4.0473 -3.8662 -2.0016 0.9765
4.1836 -3.7182 -2.0016 0.9765
4.3145 -3.5654 -2.0016 0.9765
4.4399 -3.4080 -2.0016 0.9765
4.6733 -3.0802 -2.0016 0.9765
4.8825 -2.7365 -2.0016 0.9765
5.1487 -2.1950 -2.0016 0.9765
5.3551 -1.6280 -2.0016 0.9765
5.4102 -1.4344 -2.0016 0.9765
5.4582 -1.2391 -2.0016 0.9765
5.4992 -1.0421 -2.0016 0.9765
5.5795 -0.4440 -2.0016 0.9765
5.5969 -0.0420 -2.0016 0.9765
5.5855 0.3602 -2.0016 0.9765
5.5689 0.5607 -2.0016 0.9765
5.5452 0.7605 -2.0016 0.9765
5.5143 0.9594 -2.0016 0.9765
5.3198 1.7398 -2.0016 0.9765
5.1811 2.1175 -2.0016 0.9765
5.0156 2.4842 -2.0016 0.9765
4.8242 2.8381 -2.0016 0.9765
4.7190 3.0097 -2.0016 0.9765
4.4906 3.3410 -2.0016 0.9765
4.3676 3.5002 -2.0016 0.9765
4.1048 3.8050 -2.0016 0.9765
3.6714 4.2247 -2.0016 0.9765
3.5172 4.3540 -2.0016 0.9765
3.3584 4.4776 -2.0016 0.9765
3.1953 4.5954 -2.0016 0.9765
3.0280 4.7073 -2.0016 0.9765
2.8569 4.8131 -2.0016 0.9765
1.7604 5.3130 -2.0016 0.9765
0.9808 5.5105 -2.0016 0.9765
0.5824 5.5667 -2.0016 0.9765
0.1809 5.5942 -2.0016 0.9765
-0.0203 5.5971 -2.0016 0.9765
-0.4223 5.5811 -2.0016 0.9765
-0.6227 5.5623 -2.0016 0.9765
-0.8222 5.5364 -2.0016 0.9765
-1.0207 5.5032 -2.0016 0.9765
-1.4134 5.4157 -2.0016 0.9765
-1.9882 5.2321 -2.0016 0.9765
-2.1750 5.1572 -2.0016 0.9765
-2.5399 4.9876 -2.0016 0.9765
-2.7175 4.8931 -2.0016 0.9765
-2.8916 4.7923 -2.0016 0.9765
-3.2285 4.5721 -2.0016 0.9765
-3.3907 4.4531 -2.0016 0.9765
-3.7019 4.1980 -2.0016 0.9765
-3.8504 4.0622 -2.0016 0.9765
-3.9939 3.9212 -2.0016 0.9765
-4.1323 3.7751 -2.0016 0.9765
-4.5147 3.3083 -2.0016 0.9765
-4.6307 3.1439 -2.0016 0.9765
-4.7407 2.9754 -2.0016 0.9765
-4.8446 2.8031 -2.0016 0.9765
-5.0335 2.4478 -2.0016 0.9765
-5.1182 2.2653 -2.0016 0.9765
-5.2677 1.8917 -2.0016 0.9765
-5.3323 1.7012 -2.0016 0.9765
-5.3900 1.5084 -2.0016 0.9765
-5.4407 1.3137 -2.0016 0.9765
-5.4844 1.1173 -2.0016 0.9765
-5.5211 0.9194 -2.0016 0.9765
-5.5505 0.7204 -2.0016 0.9765
-5.5880 0.3197 -2.0016 0.9765
-5.5965 -0.0826 -2.0016 0.9765
-5.5899 -0.2837 -2.0016 0.9765
-5.5761 -0.4844 -2.0016 0.9765
-5.5269 -0.8838 -2.0016 0.9765
-5.4491 -1.2786 -2.0016 0.9765
-5.2798 -1.8577 -2.0016 0.9765
-4.6945 -2.2456 -1.8610 0.9781
-4.5113 -2.5716 -1.8570 0.9782
-4.4160 -2.7321 -1.8570 0.9782
-4.0962 -3.1916 -1.8570 0.9782
-3.9788 -3.3368 -1.8570 0.9782
-3.8563 -3.4776 -1.8570 0.9782
-3.4595 -3.8726 -1.8570 0.9782
-3.0226 -4.2225 -1.8570 0.9782
-2.8688 -4.3284 -1.8570 0.9782
-2.7114 -4.4287 -1.8570 0.9782
-2.3862 -4.6121 -1.8570 0.9782
-2.2189 -4.6948 -1.8570 0.9782
-2.0487 -4.7716 -1.8570 0.9782
-1.7006 -4.9064 -1.8570 0.9782
-0.2389 -5.1873 -1.8570 0.9782
0.1344 -5.1911 -1.8570 0.9782
0.5070 -5.1680 -1.8570 0.9782
0.6924 -5.1464 -1.8570 0.9782
1.2424 -5.0420 -1.8570 0.9782
1.7779 -4.8789 -1.8570 0.9782
2.0004 -4.4631 -1.7490 0.9794
2.0530 -4.1718 -1.6627 0.9804
2.3664 -4.0460 -1.6762 0.9803
3.2370 -4.0604 -1.8570 0.9782
3.3854 -3.9467 -1.8595 0.9782
3.9399 -3.9755 -2.0016 0.9765
4.0802 -3.8314 -2.0016 0.9765
4.2153 -3.6822 -2.0016 0.9765
4.3449 -3.5283 -2.0016 0.9765
4.4689 -3.3699 -2.0016 0.9765
4.6995 -3.0401 -2.0016 0.9765
4.9995 -2.5165 -2.0016 0.9765
5.0867 -2.3352 -2.0016 0.9765
5.2413 -1.9637 -2.0016 0.9765
5.4222 -1.3881 -2.0016 0.9765
5.4686 -1.1923 -2.0016 0.9765
5.5080 -0.9949 -2.0016 0.9765
5.5402 -0.7963 -2.0016 0.9765
5.5652 -0.5966 -2.0016 0.9765
5.5937 -0.1953 -2.0016 0.9765
5.5822 0.4080 -2.0016 0.9765
5.5639 0.6084 -2.0016 0.9765
5.5058 1.0066 -2.0016 0.9765
5.4661 1.2038 -2.0016 0.9765
5.4193 1.3995 -2.0016 0.9765
5.3047 1.7853 -2.0016 0.9765
4.9001 2.7050 -2.0016 0.9765
4.6931 3.0500 -2.0016 0.9765
4.3375 3.5375 -2.0016 0.9765
4.0721 3.8400 -2.0016 0.9765
3.7857 4.1226 -2.0016 0.9765
3.4797 4.3839 -2.0016 0.9765
3.3199 4.5062 -2.0016 0.9765
2.9876 4.7330 -2.0016 0.9765
2.6398 4.9355 -2.0016 0.9765
2.4607 5.0272 -2.0016 0.9765
2.2784 5.1124 -2.0016 0.9765
2.0932 5.1910 -2.0016 0.9765
1.9053 5.2628 -2.0016 0.9765
1.7149 5.3279 -2.0016 0.9765
-4.9622 1.6300 -2.0016 0.9779
-5.0175 1.4506 -2.0016 0.9779
-5.1445 0.9021 -2.0016 0.9779
-5.2118 0.3430 -2.0016 0.9779
-5.2229 -0.0323 -2.0016 0.9779
-5.2071 -0.4075 -2.0016 0.9779
-5.1891 -0.5944 -2.0016 0.9779
-5.1644 -0.7805 -2.0016 0.9779
-5.0950 -1.1495 -2.0016 0.9779
-4.9992 -1.5126 -2.0016 0.9779
-4.8073 -2.0420 -2.0016 0.9779
-4.1425 -2.5141 -1.8570 0.9795
-3.9512 -2.8052 -1.8570 0.9795
-3.7395 -3.0819 -1.8570 0.9795
-3.6263 -3.2143 -1.8570 0.9795
-3.1282 -3.7008 -1.8570 0.9795
-2.9931 -3.8108 -1.8570 0.9795
-2.8542 -3.9160 -1.8570 0.9795
-2.5655 -4.1109 -1.8570 0.9795
-2.2635 -4.2846 -1.8570 0.9795
-2.1080 -4.3632 -1.8570 0.9795
-1.9498 -4.4362 -1.8570 0.9795
-1.1253 -4.7133 -1.8570 0.9795
-0.7837 -4.7820 -1.8570 0.9795
0.2580 -4.8389 -1.8570 0.9795
0.4318 -4.8265 -1.8570 0.9795
0.7774 -4.7830 -1.8570 0.9795
0.9488 -4.7520 -1.8570 0.9795
1.1190 -4.7148 -1.8570 0.9795
1.2878 -4.6715 -1.8570 0.9795
1.4549 -4.6222 -1.8570 0.9795
1.6201 -4.5669 -1.8570 0.9795
1.7832 -4.5057 -1.8570 0.9795
1.9440 -4.4387 -1.8570 0.9795
2.0012 -4.1561 -1.7677 0.9804
2.2940 -4.0005 -1.7672 0.9804
2.4896 -4.0010 -1.8059 0.9800
2.9881 -3.8148 -1.8570 0.9795
3.1233 -3.7049 -1.8570 0.9795
3.3814 -3.4710 -1.8570 0.9795
3.7768 -3.6078 -2.0016 0.9779
4.1432 -3.1802 -2.0016 0.9779
4.2548 -3.0293 -2.0016 0.9779
4.6451 -2.3882 -2.0016 0.9779
4.7279 -2.2197 -2.0016 0.9779
4.8046 -2.0483 -2.0016 0.9779
4.9972 -1.5192 -2.0016 0.9779
5.0486 -1.3386 -2.0016 0.9779
5.1883 -0.6012 -2.0016 0.9779
5.2181 -0.2269 -2.0016 0.9779
5.2229 -0.0392 -2.0016 0.9779
5.2122 0.3361 -2.0016 0.9779
5.1968 0.5233 -2.0016 0.9779
5.1746 0.7097 -2.0016 0.9779
5.1457 0.8953 -2.0016 0.9779
5.1102 1.0797 -2.0016 0.9779
5.0681 1.2626 -2.0016 0.9779
5.0195 1.4440 -2.0016 0.9779
4.8348 1.9759 -2.0016 0.9779
4.6804 2.3182 -2.0016 0.9779
4.2998 2.9650 -2.0016 0.9779
3.7004 3.6861 -2.0016 0.9779
3.4260 3.9424 -2.0016 0.9779
3.2821 4.0630 -2.0016 0.9779
2.9817 4.2883 -2.0016 0.9779
2.8257 4.3927 -2.0016 0.9779
2.6659 4.4914 -2.0016 0.9779
2.3364 4.6714 -2.0016 0.9779
1.4635 5.0138 -2.0016 0.9779
0.9153 5.1422 -2.0016 0.9779
0.5434 5.1947 -2.0016 0.9779
-0.0189 5.2230 -2.0016 0.9779
-0.2066 5.2189 -2.0016 0.9779
-0.3941 5.2081 -2.0016 0.9779
-0.5810 5.1906 -2.0016 0.9779
-0.7673 5.1664 -2.0016 0.9779
-0.9525 5.1355 -2.0016 0.9779
-1.3190 5.0538 -2.0016 0.9779
-1.4998 5.0031 -2.0016 0.9779
-2.2013 4.7365 -2.0016 0.9779
-2.5359 4.5661 -2.0016 0.9779
-2.8574 4.3721 -2.0016 0.9779
-3.0127 4.2666 -2.0016 0.9779
-3.4545 3.9175 -2.0016 0.9779
-3.5931 3.7908 -2.0016 0.9779
-3.7270 3.6592 -2.0016 0.9779
-3.8561 3.5228 -2.0016 0.9779
-3.9803 3.3819 -2.0016 0.9779
-4.2130 3.0872 -2.0016 0.9779
-4.4239 2.7766 -2.0016 0.9779
-4.6971 2.2842 -2.0016 0.9779
-4.7761 2.1139 -2.0016 0.9779
-4.9157 1.7653 -2.0016 0.9779
-5.0298 1.4076 -2.0016 0.9779
-5.0771 1.2259 -2.0016 0.9779
-5.1179 1.0426 -2.0016 0.9779
-5.1521 0.8580 -2.0016 0.9779
-5.1796 0.6722 -2.0016 0.9779
-5.2219 0.1107 -2.0016 0.9779
-5.2163 -0.2647 -2.0016 0.9779
-5.2034 -0.4520 -2.0016 0.9779
-5.1245 -1.0096 -2.0016 0.9779
-5.0388 -1.3751 -2.0016 0.9779
-4.9861 -1.5553 -2.0016 0.9779
-4.9269 -1.7336 -2.0016 0.9779
-4.8615 -1.9096 -2.0016 0.9779
-4.2098 -2.3997 -1.8570 0.9795
-3.7129 -3.1138 -1.8570 0.9795
-3.3562 -3.4954 -1.8570 0.9795
-3.2283 -3.6137 -1.8570 0.9795
-2.8206 -3.9403 -1.8570 0.9795
-2.6771 -4.0391 -1.8570 0.9795
-2.5302 -4.1327 -1.8570 0.9795
-2.3800 -4.2210 -1.8570 0.9795
-2.2267 -4.3038 -1.8570 0.9795
-2.0706 -4.3811 -1.8570 0.9795
-0.7427 -4.7885 -1.8570 0.9795
-0.5701 -4.8121 -1.8570 0.9795
-0.3968 -4.8295 -1.8570 0.9795
-0.0488 -4.8455 -1.8570 0.9795
0.2994 -4.8365 -1.8570 0.9795
0.6461 -4.8025 -1.8570 0.9795
0.8183 -4.7761 -1.8570 0.9795
1.3277 -4.6603 -1.8570 0.9795
1.6591 -4.5529 -1.8570 0.9795
1.9819 -4.4219 -1.8570 0.9795
2.1504 -4.0001 -1.7404 0.9807
2.5952 -4.0922 -1.8570 0.9795
2.7406 -3.9963 -1.8570 0.9795
2.8825 -3.8952 -1.8570 0.9795
3.0206 -3.7891 -1.8570 0.9795
3.1549 -3.6780 -1.8570 0.9795
3.2851 -3.5623 -1.8570 0.9795
3.4110 -3.4419 -1.8570 0.9795
3.8075 -3.5753 -2.0016 0.9779
4.1703 -3.1447 -2.0016 0.9779
4.3854 -2.8369 -2.0016 0.9779
4.4846 -2.6774 -2.0016 0.9779
4.5779 -2.5145 -2.0016 0.9779
4.7467 -2.1791 -2.0016 0.9779
4.8220 -2.0071 -2.0016 0.9779
4.8910 -1.8325 -2.0016 0.9779
4.9537 -1.6555 -2.0016 0.9779
5.1398 -0.9284 -2.0016 0.9779
5.1699 -0.7431 -2.0016 0.9779
5.2099 -0.3697 -2.0016 0.9779
5.2091 0.3807 -2.0016 0.9779
5.1921 0.5677 -2.0016 0.9779
5.1683 0.7540 -2.0016 0.9779
5.0069 1.4869 -2.0016 0.9779
4.9502 1.6659 -2.0016 0.9779
4.8871 1.8428 -2.0016 0.9779
4.8177 2.0173 -2.0016 0.9779
4.6604 2.3582 -2.0016 0.9779
4.3794 2.8462 -2.0016 0.9779
4.2743 3.0018 -2.0016 0.9779
4.0476 3.3011 -2.0016 0.9779
3.8000 3.5833 -2.0016 0.9779
3.6687 3.7176 -2.0016 0.9779
3.3921 3.9716 -2.0016 0.9779
3.2472 4.0909 -2.0016 0.9779
3.0980 4.2050 -2.0016 0.9779
2.9449 4.3137 -2.0016 0.9779
2.7879 4.4167 -2.0016 0.9779
2.6274 4.5141 -2.0016 0.9779
2.2963 4.6912 -2.0016 0.9779
1.9533 4.8440 -2.0016 0.9779
1.7779 4.9111 -2.0016 0.9779
-4.6462 1.5263 -2.0016 0.9791
-4.6981 1.3583 -2.0016 0.9791
-2.1499 0.3770 -0.8933 0.9906
-1.9475 0.2697 -0.8047 0.9915
-1.9576 0.1997 -0.8053 0.9915
-1.9261 0.0573 -0.7887 0.9917
-1.9043 -0.0118 -0.7794 0.9918
-1.9356 -0.0816 -0.7929 0.9917
-1.9557 -0.2240 -0.8056 0.9915
-1.9677 -0.2974 -0.8145 0.9914
-4.7288 -1.2471 -2.0016 0.9791
-4.6809 -1.4163 -2.0016 0.9791
-4.6270 -1.5836 -2.0016 0.9791
-4.5013 -1.9120 -2.0016 0.9791
-4.4296 -2.0725 -2.0016 0.9791
-4.3292 -2.2186 -1.9910 0.9792
-4.0079 -2.2393 -1.8790 0.9804
-3.6996 -2.6266 -1.8570 0.9806
-3.6028 -2.7579 -1.8570 0.9806
-3.5014 -2.8856 -1.8570 0.9806
-3.2850 -3.1297 -1.8570 0.9806
-3.1704 -3.2458 -1.8570 0.9806
-2.5390 -3.7604 -1.8570 0.9806
-2.1194 -4.0118 -1.8570 0.9806
-1.9738 -4.0854 -1.8570 0.9806
-1.5226 -4.2742 -1.8570 0.9806
-1.3680 -4.3261 -1.8570 0.9806
-1.2116 -4.3725 -1.8570 0.9806
-1.0536 -4.4132 -1.8570 0.9806
-0.7338 -4.4775 -1.8570 0.9806
-0.5724 -4.5010 -1.8570 0.9806
-0.4103 -4.5187 -1.8570 0.9806
-0.2476 -4.5305 -1.8570 0.9806
-0.0846 -4.5365 -1.8570 0.9806
0.0786 -4.5366 -1.8570 0.9806
0.4043 -4.5192 -1.8570 0.9806
0.7279 -4.4785 -1.8570 0.9806
1.0478 -4.4146 -1.8570 0.9806
1.2058 -4.3741 -1.8570 0.9806
1.5169 -4.2762 -1.8570 0.9806
1.6696 -4.2189 -1.8570 0.9806
1.9684 -4.0880 -1.8570 0.9806
2.2571 -3.9360 -1.8570 0.9806
2.3971 -3.8524 -1.8570 0.9806
2.7979 -3.5719 -1.8570 0.9806
2.9244 -3.4690 -1.8570 0.9806
3.0472 -3.3617 -1.8570 0.9806
3.6555 -3.2488 -2.0016 0.9791
3.7699 -3.1153 -2.0016 0.9791
3.9840 -2.8364 -2.0016 0.9791
4.0833 -2.6914 -2.0016 0.9791
4.1774 -2.5429 -2.0016 0.9791
4.2661 -2.3910 -2.0016 0.9791
4.6249 -1.5897 -2.0016 0.9791
4.7272 -1.2534 -2.0016 0.9791
4.8346 -0.7372 -2.0016 0.9791
4.8580 -0.5629 -2.0016 0.9791
4.8751 -0.3880 -2.0016 0.9791
4.8859 -0.2125 -2.0016 0.9791
4.8885 0.1391 -2.0016 0.9791
4.8804 0.3147 -2.0016 0.9791
4.8451 0.6645 -2.0016 0.9791
4.7454 1.1823 -2.0016 0.9791
4.5906 1.6862 -2.0016 0.9791
4.5270 1.8501 -2.0016 0.9791
4.4576 2.0117 -2.0016 0.9791
4.3016 2.3267 -2.0016 0.9791
4.2151 2.4798 -2.0016 0.9791
4.1233 2.6298 -2.0016 0.9791
3.9237 2.9192 -2.0016 0.9791
3.5866 3.3246 -2.0016 0.9791
3.4648 3.4514 -2.0016 0.9791
3.2079 3.6914 -2.0016 0.9791
3.0731 3.8043 -2.0016 0.9791
2.9344 3.9123 -2.0016 0.9791
2.7919 4.0153 -2.0016 0.9791
2.1876 4.3739 -2.0016 0.9791
2.0290 4.4498 -2.0016 0.9791
1.8677 4.5198 -2.0016 0.9791
1.5382 4.6423 -2.0016 0.9791
0.5089 4.8640 -2.0016 0.9791
0.3337 4.8791 -2.0016 0.9791
-0.0177 4.8905 -2.0016 0.9791
-0.1935 4.8867 -2.0016 0.9791
-0.5441 4.8601 -2.0016 0.9791
-0.7184 4.8375 -2.0016 0.9791
-0.8918 4.8085 -2.0016 0.9791
-1.0641 4.7733 -2.0016 0.9791
-1.5718 4.6310 -2.0016 0.9791
-1.9004 4.5062 -2.0016 0.9791
-2.0612 4.4349 -2.0016 0.9791
-2.2192 4.3580 -2.0016 0.9791
-2.5266 4.1873 -2.0016 0.9791
-2.6755 4.0938 -2.0016 0.9791
-2.8209 3.9949 -2.0016 0.9791
-3.1006 3.7820 -2.0016 0.9791
-3.4897 3.4262 -2.0016 0.9791
-3.6106 3.2985 -2.0016 0.9791
-3.7269 3.1666 -2.0016 0.9791
-3.8383 3.0306 -2.0016 0.9791
-4.0461 2.7470 -2.0016 0.9791
-4.1422 2.5998 -2.0016 0.9791
-4.4721 1.9793 -2.0016 0.9791
-4.5403 1.8173 -2.0016 0.9791
-4.6027 1.6529 -2.0016 0.9791
-4.6591 1.4864 -2.0016 0.9791
-4.7921 0.9762 -2.0016 0.9791
-2.0908 0.3482 -0.8675 0.9909
-1.9511 0.2532 -0.8053 0.9915
-1.9127 -0.0282 -0.7829 0.9918
-1.9414 -0.0985 -0.7956 0.9916
-4.7612 -1.1172 -2.0016 0.9791
-4.5519 -1.7880 -2.0016 0.9791
-4.4117 -2.1104 -2.0016 0.9791
-3.8720 -2.3955 -1.8635 0.9805
-3.6770 -2.6582 -1.8570 0.9806
-3.5791 -2.7887 -1.8570 0.9806
-3.4765 -2.9155 -1.8570 0.9806
-3.3695 -3.0386 -1.8570 0.9806
-3.0228 -3.3837 -1.8570 0.9806
-2.7719 -3.5921 -1.8570 0.9806
-2.5067 -3.7820 -1.8570 0.9806
-2.3691 -3.8696 -1.8570 0.9806
-1.7901 -4.1692 -1.8570 0.9806
-1.6391 -4.2309 -1.8570 0.9806
-1.0158 -4.4221 -1.8570 0.9806
-0.2088 -4.5324 -1.8570 0.9806
0.1174 -4.5357 -1.8570 0.9806
0.2804 -4.5286 -1.8570 0.9806
1.0856 -4.4055 -1.8570 0.9806
1.2432 -4.3636 -1.8570 0.9806
1.3993 -4.3161 -1.8570 0.9806
1.7057 -4.2044 -1.8570 0.9806
1.8557 -4.1404 -1.8570 0.9806
2.0015 -4.0671 -1.8552 0.9806
2.2907 -3.9166 -1.8570 0.9806
2.4300 -3.8317 -1.8570 0.9806
2.6990 -3.6472 -1.8570 0.9806
2.8283 -3.5478 -1.8570 0.9806
3.3076 -3.1059 -1.8570 0.9806
3.9048 -2.9444 -2.0016 0.9791
4.2865 -2.3544 -2.0016 0.9791
4.3683 -2.1988 -2.0016 0.9791
4.5796 -1.7158 -2.0016 0.9791
4.7377 -1.2128 -2.0016 0.9791
4.7783 -1.0418 -2.0016 0.9791
4.8126 -0.8693 -2.0016 0.9791
4.8626 -0.5213 -2.0016 0.9791
4.8782 -0.3462 -2.0016 0.9791
4.8872 0.1810 -2.0016 0.9791
4.8393 0.7060 -2.0016 0.9791
4.8108 0.8795 -2.0016 0.9791
4.7351 1.2228 -2.0016 0.9791
4.6881 1.3923 -2.0016 0.9791
4.6351 1.5599 -2.0016 0.9791
4.4402 2.0498 -2.0016 0.9791
4.3637 2.2081 -2.0016 0.9791
4.1937 2.5158 -2.0016 0.9791
4.0022 2.8106 -2.0016 0.9791
3.7899 3.0909 -2.0016 0.9791
3.6763 3.2251 -2.0016 0.9791
3.5580 3.3552 -2.0016 0.9791
3.4351 3.4809 -2.0016 0.9791
3.3078 3.6022 -2.0016 0.9791
2.4601 4.2267 -2.0016 0.9791
2.3066 4.3124 -2.0016 0.9791
2.1501 4.3925 -2.0016 0.9791
1.8290 4.5356 -2.0016 0.9791
1.6647 4.5984 -2.0016 0.9791
1.4984 4.6553 -2.0016 0.9791
1.3301 4.7062 -2.0016 0.9791
-1.5860 0.5210 -0.7275 0.9927
-1.5169 0.2101 -0.6674 0.9933
-1.5295 0.1007 -0.6680 0.9933
-1.5277 0.0455 -0.6661 0.9934
-1.5236 -0.0094 -0.6640 0.9934
-1.5290 -0.0645 -0.6669 0.9933
-1.5289 -0.1196 -0.6684 0.9933
-1.5234 -0.1745 -0.6683 0.9933
-1.5125 -0.2286 -0.6667 0.9933
-1.4968 -0.2816 -0.6638 0.9934
-1.5277 -0.3447 -0.6825 0.9932
-1.5750 -0.4766 -0.7172 0.9928
-4.2271 -1.7955 -2.0016 0.9802
-4.1599 -1.9463 -2.0016 0.9802
-4.0872 -2.0946 -2.0016 0.9802
-3.9732 -2.2200 -1.9835 0.9803
-3.6892 -2.2390 -1.8808 0.9813
-3.5607 -2.3402 -1.8570 0.9816
-3.4743 -2.4667 -1.8570 0.9816
-3.3834 -2.5900 -1.8570 0.9816
-3.2881 -2.7099 -1.8570 0.9816
-3.0849 -2.9391 -1.8570 0.9816
-2.5097 -3.4434 -1.8570 0.9816
-2.3843 -3.5313 -1.8570 0.9816
-2.2559 -3.6148 -1.8570 0.9816
-2.1245 -3.6935 -1.8570 0.9816
-1.9903 -3.7675 -1.8570 0.9816
-1.8536 -3.8366 -1.8570 0.9816
-1.5732 -3.9599 -1.8570 0.9816
-1.4298 -4.0139 -1.8570 0.9816
-1.2846 -4.0627 -1.8570 0.9816
-0.0794 -4.2602 -1.8570 0.9816
0.0738 -4.2603 -1.8570 0.9816
0.3797 -4.2440 -1.8570 0.9816
0.5320 -4.2276 -1.8570 0.9816
0.6836 -4.2057 -1.8570 0.9816
0.8343 -4.1784 -1.8570 0.9816
0.9840 -4.1457 -1.8570 0.9816
1.5680 -3.9619 -1.8570 0.9816
1.7094 -3.9030 -1.8570 0.9816
2.1196 -3.6963 -1.8570 0.9816
2.2511 -3.6177 -1.8570 0.9816
2.5052 -3.4467 -1.8570 0.9816
2.7463 -3.2578 -1.8570 0.9816
3.1933 -2.8380 -1.8619 0.9815
3.8346 -2.5275 -2.0016 0.9802
3.9230 -2.3880 -2.0016 0.9802
4.0063 -2.2454 -2.0016 0.9802
4.3432 -1.4929 -2.0016 0.9802
4.5124 -0.8551 -2.0016 0.9802
4.5402 -0.6923 -2.0016 0.9802
4.5621 -0.5287 -2.0016 0.9802
4.5883 -0.1995 -2.0016 0.9802
4.5925 -0.0345 -2.0016 0.9802
4.5831 0.2956 -2.0016 0.9802
4.5247 0.7872 -2.0016 0.9802
4.4935 0.9493 -2.0016 0.9802
4.4137 1.2697 -2.0016 0.9802
4.3652 1.4275 -2.0016 0.9802
4.1155 2.0384 -2.0016 0.9802
3.9584 2.3288 -2.0016 0.9802
3.8722 2.4696 -2.0016 0.9802
3.7809 2.6072 -2.0016 0.9802
3.5838 2.8721 -2.0016 0.9802
3.4783 2.9991 -2.0016 0.9802
3.1352 3.3561 -2.0016 0.9802
2.8860 3.5726 -2.0016 0.9802
2.4846 3.8625 -2.0016 0.9802
2.0544 4.1076 -2.0016 0.9802
1.7540 4.2445 -2.0016 0.9802
1.6003 4.3048 -2.0016 0.9802
1.4445 4.3596 -2.0016 0.9802
1.2869 4.4087 -2.0016 0.9802
0.9668 4.4898 -2.0016 0.9802
0.6417 4.5476 -2.0016 0.9802
0.4779 4.5677 -2.0016 0.9802
0.3134 4.5820 -2.0016 0.9802
0.1485 4.5903 -2.0016 0.9802
-0.0166 4.5926 -2.0016 0.9802
-0.1817 4.5891 -2.0016 0.9802
-0.3465 4.5796 -2.0016 0.9802
-0.5109 4.5642 -2.0016 0.9802
-0.8375 4.5157 -2.0016 0.9802
-0.9993 4.4826 -2.0016 0.9802
-1.1598 4.4438 -2.0016 0.9802
-1.3188 4.3993 -2.0016 0.9802
-1.4760 4.3490 -2.0016 0.9802
-1.7847 4.2317 -2.0016 0.9802
-1.9356 4.1648 -2.0016 0.9802
-2.2298 4.0150 -2.0016 0.9802
-2.7822 3.6540 -2.0016 0.9802
-2.9118 3.5516 -2.0016 0.9802
-3.2772 3.2175 -2.0016 0.9802
-3.3907 3.0977 -2.0016 0.9802
-3.6045 2.8460 -2.0016 0.9802
-3.7045 2.7146 -2.0016 0.9802
-3.8900 2.4415 -2.0016 0.9802
-4.1302 2.0085 -2.0016 0.9802
-4.1997 1.8588 -2.0016 0.9802
-4.2638 1.7066 -2.0016 0.9802
-1.5954 0.5729 -0.7388 0.9926
-1.5633 0.4375 -0.7075 0.9929
-1.5392 0.3717 -0.6901 0.9931
-1.5101 0.3076 -0.6717 0.9933
-1.5064 0.2509 -0.6656 0.9934
-1.5195 0.1972 -0.6678 0.9933
-1.5296 0.0875 -0.6677 0.9933
-1.5254 -0.0225 -0.6649 0.9934
-1.5294 -0.0776 -0.6674 0.9933
-1.5344 -0.3600 -0.6869 0.9931
-4.2116 -1.8317 -2.0016 0.9802
-4.1430 -1.9819 -2.0016 0.9802
-3.9028 -2.2247 -1.9579 0.9806
-3.6304 -2.2461 -1.8605 0.9815
-3.5406 -2.3706 -1.8570 0.9816
-2.8387 -3.1776 -1.8570 0.9816
-2.7227 -3.2776 -1.8570 0.9816
-2.6031 -3.3733 -1.8570 0.9816
-2.4801 -3.4647 -1.8570 0.9816
-1.8207 -3.8523 -1.8570 0.9816
-1.3954 -4.0259 -1.8570 0.9816
-1.2498 -4.0735 -1.8570 0.9816
-1.1026 -4.1158 -1.8570 0.9816
-0.3489 -4.2466 -1.8570 0.9816
-0.1960 -4.2564 -1.8570 0.9816
-0.0429 -4.2607 -1.8570 0.9816
0.1103 -4.2595 -1.8570 0.9816
0.2633 -4.2528 -1.8570 0.9816
0.7196 -4.1997 -1.8570 0.9816
1.0194 -4.1372 -1.8570 0.9816
1.1675 -4.0978 -1.8570 0.9816
1.3140 -4.0532 -1.8570 0.9816
1.4589 -4.0034 -1.8570 0.9816
1.6018 -3.9484 -1.8570 0.9816
1.7427 -3.8882 -1.8570 0.9816
1.8814 -3.8231 -1.8570 0.9816
2.0176 -3.7530 -1.8570 0.9816
2.2820 -3.5983 -1.8570 0.9816
2.7741 -3.2341 -1.8570 0.9816
2.8886 -3.1323 -1.8570 0.9816
2.9993 -3.0265 -1.8570 0.9816
3.9433 -2.3543 -2.0016 0.9802
4.1023 -2.0649 -2.0016 0.9802
4.1738 -1.9161 -2.0016 0.9802
4.2400 -1.7649 -2.0016 0.9802
4.3007 -1.6113 -2.0016 0.9802
4.4054 -1.2982 -2.0016 0.9802
4.4492 -1.1390 -2.0016 0.9802
4.4873 -0.9783 -2.0016 0.9802
4.5460 -0.6534 -2.0016 0.9802
4.5811 -0.3251 -2.0016 0.9802
4.5899 -0.1602 -2.0016 0.9802
4.5446 0.6630 -2.0016 0.9802
4.5178 0.8259 -2.0016 0.9802
4.4468 1.1484 -2.0016 0.9802
4.4026 1.3075 -2.0016 0.9802
4.3528 1.4649 -2.0016 0.9802
4.2363 1.7738 -2.0016 0.9802
4.0979 2.0736 -2.0016 0.9802
4.0207 2.2195 -2.0016 0.9802
3.9383 2.3626 -2.0016 0.9802
3.8509 2.5027 -2.0016 0.9802
3.4524 3.0287 -2.0016 0.9802
3.3413 3.1509 -2.0016 0.9802
3.1063 3.3828 -2.0016 0.9802
2.9827 3.4923 -2.0016 0.9802
2.7241 3.6975 -2.0016 0.9802
2.4515 3.8837 -2.0016 0.9802
2.3103 3.9693 -2.0016 0.9802
2.1661 4.0498 -2.0016 0.9802
2.0191 4.1250 -2.0016 0.9802
1.5633 4.3184 -2.0016 0.9802
1.4071 4.3718 -2.0016 0.9802
-1.3317 0.4375 -0.6488 0.9938
-1.3098 0.3282 -0.6250 0.9941
-1.3034 0.2772 -0.6168 0.9941
-1.3178 0.2311 -0.6193 0.9941
-1.3286 0.1840 -0.6209 0.9941
-1.3371 0.0398 -0.6192 0.9941
-1.3380 -0.0564 -0.6199 0.9941
-1.3382 -0.1047 -0.6213 0.9941
-1.3338 -0.1528 -0.6214 0.9941
-1.3253 -0.2003 -0.6204 0.9941
-1.3132 -0.2470 -0.6185 0.9941
-1.2993 -0.2931 -0.6165 0.9941
-1.3263 -0.4013 -0.6414 0.9939
-1.3336 -0.4565 -0.6525 0.9938
-1.3314 -0.5098 -0.6599 0.9937
-1.3240 -0.5624 -0.6658 0.9937
-1.3113 -0.6135 -0.6701 0.9936
-3.8482 -1.9721 -2.0016 0.9811
-3.6586 -2.2204 -1.9810 0.9813
-3.4053 -2.2380 -1.8862 0.9822
-3.0959 -2.5514 -1.8570 0.9825
-3.0021 -2.6611 -1.8570 0.9825
-2.9046 -2.7673 -1.8570 0.9825
-2.3630 -3.2420 -1.8570 0.9825
-2.2449 -3.3248 -1.8570 0.9825
-2.1240 -3.4034 -1.8570 0.9825
-2.0002 -3.4775 -1.8570 0.9825
-1.8739 -3.5472 -1.8570 0.9825
-1.7452 -3.6122 -1.8570 0.9825
-1.6143 -3.6726 -1.8570 0.9825
-1.3462 -3.7791 -1.8570 0.9825
-1.2095 -3.8251 -1.8570 0.9825
-1.0712 -3.8661 -1.8570 0.9825
-0.6488 -3.9589 -1.8570 0.9825
-0.3627 -3.9953 -1.8570 0.9825
-0.0748 -4.0111 -1.8570 0.9825
0.0695 -4.0112 -1.8570 0.9825
0.3575 -3.9958 -1.8570 0.9825
0.5009 -3.9804 -1.8570 0.9825
0.7855 -3.9341 -1.8570 0.9825
0.9264 -3.9033 -1.8570 0.9825
1.4763 -3.7302 -1.8570 0.9825
1.6094 -3.6748 -1.8570 0.9825
1.8693 -3.5497 -1.8570 0.9825
2.3587 -3.2451 -1.8570 0.9825
2.4738 -3.1582 -1.8570 0.9825
2.6943 -2.9723 -1.8570 0.9825
2.9009 -2.7711 -1.8570 0.9825
3.4301 -2.6329 -2.0016 0.9811
3.5225 -2.5079 -2.0016 0.9811
3.6936 -2.2483 -2.0016 0.9811
3.7720 -2.1141 -2.0016 0.9811
3.9777 -1.6958 -2.0016 0.9811
4.0361 -1.5517 -2.0016 0.9811
4.2168 -0.9572 -2.0016 0.9811
4.2485 -0.8051 -2.0016 0.9811
4.2954 -0.4977 -2.0016 0.9811
4.3240 -0.0325 -2.0016 0.9811
4.3023 0.4332 -2.0016 0.9811
4.2840 0.5876 -2.0016 0.9811
4.2307 0.8938 -2.0016 0.9811
4.1556 1.1955 -2.0016 0.9811
4.1099 1.3441 -2.0016 0.9811
4.0589 1.4909 -2.0016 0.9811
4.0027 1.6359 -2.0016 0.9811
3.9413 1.7787 -2.0016 0.9811
3.8749 1.9192 -2.0016 0.9811
3.8034 2.0573 -2.0016 0.9811
3.6457 2.3252 -2.0016 0.9811
3.4693 2.5811 -2.0016 0.9811
3.2749 2.8237 -2.0016 0.9811
3.0635 3.0517 -2.0016 0.9811
2.8364 3.2639 -2.0016 0.9811
2.4685 3.5502 -2.0016 0.9811
2.2071 3.7184 -2.0016 0.9811
1.9343 3.8674 -2.0016 0.9811
1.6514 3.9963 -2.0016 0.9811
0.9103 4.2272 -2.0016 0.9811
0.4499 4.3006 -2.0016 0.9811
0.1398 4.3218 -2.0016 0.9811
-0.0157 4.3241 -2.0016 0.9811
-0.3263 4.3118 -2.0016 0.9811
-0.7885 4.2516 -2.0016 0.9811
-1.5360 4.0421 -2.0016 0.9811
-1.8224 3.9213 -2.0016 0.9811
-1.9622 3.8533 -2.0016 0.9811
-2.2340 3.7023 -2.0016 0.9811
-2.6195 3.4403 -2.0016 0.9811
-2.7415 3.3439 -2.0016 0.9811
-2.8599 3.2432 -2.0016 0.9811
-3.0856 3.0294 -2.0016 0.9811
-3.2952 2.7999 -2.0016 0.9811
-3.4879 2.5559 -2.0016 0.9811
-3.5775 2.4289 -2.0016 0.9811
-3.7427 2.1656 -2.0016 0.9811
-1.3333 0.4788 -0.6558 0.9938
-1.3062 0.3154 -0.6220 0.9941
-1.3207 0.2199 -0.6197 0.9941
-1.3371 0.1249 -0.6216 0.9941
-1.3385 0.0766 -0.6206 0.9941
-1.3363 0.0283 -0.6187 0.9941
-1.3355 -0.0197 -0.6182 0.9941
-1.3384 -0.0679 -0.6203 0.9941
-1.3321 -0.1642 -0.6213 0.9941
-1.3098 -0.2580 -0.6179 0.9941
-1.3336 -0.4692 -0.6544 0.9938
-1.3301 -0.5224 -0.6615 0.9937
-1.3214 -0.5747 -0.6670 0.9937
-3.9008 -1.8660 -2.0016 0.9811
-3.8312 -2.0050 -2.0016 0.9811
-3.5961 -2.2248 -1.9574 0.9815
-3.1646 -2.4657 -1.8570 0.9825
-3.0739 -2.5779 -1.8570 0.9825
-2.8807 -2.7920 -1.8570 0.9825
-2.7785 -2.8938 -1.8570 0.9825
-2.6727 -2.9918 -1.8570 0.9825
-2.5634 -3.0859 -1.8570 0.9825
-2.4509 -3.1761 -1.8570 0.9825
-2.3351 -3.2621 -1.8570 0.9825
-1.8435 -3.5631 -1.8570 0.9825
-1.7142 -3.6271 -1.8570 0.9825
-1.4492 -3.7408 -1.8570 0.9825
-0.8981 -3.9099 -1.8570 0.9825
-0.7570 -3.9397 -1.8570 0.9825
-0.6149 -3.9643 -1.8570 0.9825
-0.3285 -3.9983 -1.8570 0.9825
-0.1846 -4.0075 -1.8570 0.9825
-0.0404 -4.0116 -1.8570 0.9825
0.3917 -3.9926 -1.8570 0.9825
0.5349 -3.9759 -1.8570 0.9825
0.6775 -3.9541 -1.8570 0.9825
0.8192 -3.9272 -1.8570 0.9825
0.9598 -3.8952 -1.8570 0.9825
1.3736 -3.7693 -1.8570 0.9825
1.5082 -3.7175 -1.8570 0.9825
1.6408 -3.6609 -1.8570 0.9825
2.0254 -3.4629 -1.8570 0.9825
2.1485 -3.3879 -1.8570 0.9825
2.3864 -3.2248 -1.8570 0.9825
2.7197 -2.9492 -1.8570 0.9825
2.8239 -2.8495 -1.8570 0.9825
3.2566 -2.8447 -2.0016 0.9811
3.3567 -2.7258 -2.0016 0.9811
3.4525 -2.6034 -2.0016 0.9811
3.5439 -2.4776 -2.0016 0.9811
3.6307 -2.3486 -2.0016 0.9811
3.7900 -2.0817 -2.0016 0.9811
3.9298 -1.8041 -2.0016 0.9811
4.0492 -1.5171 -2.0016 0.9811
4.1012 -1.3706 -2.0016 0.9811
4.1890 -1.0724 -2.0016 0.9811
4.2249 -0.9211 -2.0016 0.9811
4.3133 -0.3061 -2.0016 0.9811
4.3215 -0.1509 -2.0016 0.9811
4.3241 0.0046 -2.0016 0.9811
4.2985 0.4700 -2.0016 0.9811
4.2788 0.6242 -2.0016 0.9811
4.2536 0.7776 -2.0016 0.9811
4.1867 1.0812 -2.0016 0.9811
4.1452 1.2310 -2.0016 0.9811
4.0982 1.3792 -2.0016 0.9811
4.0460 1.5256 -2.0016 0.9811
3.9886 1.6701 -2.0016 0.9811
3.9260 1.8124 -2.0016 0.9811
3.8583 1.9523 -2.0016 0.9811
3.5386 2.4851 -2.0016 0.9811
3.3510 2.7329 -2.0016 0.9811
3.2506 2.8516 -2.0016 0.9811
3.0373 3.0778 -2.0016 0.9811
2.9247 3.1850 -2.0016 0.9811
2.8083 3.2880 -2.0016 0.9811
2.4380 3.5712 -2.0016 0.9811
2.1752 3.7372 -2.0016 0.9811
2.0394 3.8129 -2.0016 0.9811
1.7602 3.9496 -2.0016 0.9811
1.6171 4.0103 -2.0016 0.9811
-1.1581 0.3804 -0.5979 0.9946
-1.1590 0.3351 -0.5918 0.9946
-1.1803 0.2070 -0.5878 0.9947
-1.1876 0.1645 -0.5881 0.9947
-1.1957 0.0787 -0.5878 0.9947
-1.1964 0.0356 -0.5871 0.9947
-1.1949 -0.0935 -0.5879 0.9947
-1.1853 -0.1791 -0.5880 0.9947
-1.1671 -0.2633 -0.5869 0.9947
-1.1583 -0.3055 -0.5876 0.9947
-1.1589 -0.3507 -0.5939 0.9946
-1.1572 -0.3961 -0.6000 0.9946
-1.1531 -0.4416 -0.6057 0.9945
-1.1258 -0.5770 -0.6205 0.9944
-3.3780 -2.2201 -1.9828 0.9822
-3.0061 -2.3011 -1.8570 0.9833
-2.9214 -2.4077 -1.8570 0.9833
-2.7409 -2.6113 -1.8570 0.9833
-2.4439 -2.8912 -1.8570 0.9833
-2.0043 -3.2116 -1.8570 0.9833
-1.8875 -3.2816 -1.8570 0.9833
-1.7684 -3.3473 -1.8570 0.9833
-1.6469 -3.4087 -1.8570 0.9833
-1.2704 -3.5662 -1.8570 0.9833
-1.0109 -3.6482 -1.8570 0.9833
-0.8791 -3.6822 -1.8570 0.9833
-0.7462 -3.7114 -1.8570 0.9833
-0.6123 -3.7359 -1.8570 0.9833
-0.4776 -3.7555 -1.8570 0.9833
-0.3423 -3.7702 -1.8570 0.9833
0.4726 -3.7561 -1.8570 0.9833
0.7413 -3.7124 -1.8570 0.9833
0.8742 -3.6834 -1.8570 0.9833
1.0061 -3.6496 -1.8570 0.9833
1.7639 -3.3496 -1.8570 0.9833
2.0000 -3.2143 -1.8570 0.9833
2.1143 -3.1403 -1.8570 0.9833
2.2258 -3.0623 -1.8570 0.9833
2.3344 -2.9803 -1.8570 0.9833
2.5425 -2.8049 -1.8570 0.9833
2.7375 -2.6150 -1.8570 0.9833
2.8534 -2.5360 -1.8726 0.9831
3.1455 -2.5993 -2.0016 0.9820
3.2369 -2.4845 -2.0016 0.9820
3.5595 -1.9950 -2.0016 0.9820
3.8589 -1.3264 -2.0016 0.9820
3.9442 -1.0458 -2.0016 0.9820
3.9792 -0.9033 -2.0016 0.9820
4.0676 -0.3237 -2.0016 0.9820
4.0803 -0.0306 -2.0016 0.9820
4.0720 0.2626 -2.0016 0.9820
4.0201 0.6994 -2.0016 0.9820
3.9766 0.8401 -1.9937 0.9821
3.9350 0.9803 -1.9892 0.9821
3.8783 1.2683 -2.0016 0.9820
3.8302 1.4069 -2.0016 0.9820
3.7193 1.6785 -2.0016 0.9820
3.5891 1.9413 -2.0016 0.9820
3.1841 2.5518 -2.0016 0.9820
3.0903 2.6646 -2.0016 0.9820
2.9926 2.7739 -2.0016 0.9820
2.8909 2.8797 -2.0016 0.9820
2.7855 2.9818 -2.0016 0.9820
2.6766 3.0800 -2.0016 0.9820
2.5641 3.1742 -2.0016 0.9820
2.3294 3.3502 -2.0016 0.9820
2.2075 3.4318 -2.0016 0.9820
1.5584 3.7712 -2.0016 0.9820
1.2834 3.8734 -2.0016 0.9820
0.8590 3.9890 -2.0016 0.9820
0.7150 4.0173 -2.0016 0.9820
0.2784 4.0709 -2.0016 0.9820
0.1319 4.0783 -2.0016 0.9820
-0.1614 4.0773 -2.0016 0.9820
-0.3079 4.0688 -2.0016 0.9820
-0.5994 4.0362 -2.0016 0.9820
-0.7441 4.0120 -2.0016 0.9820
-1.0304 3.9482 -2.0016 0.9820
-1.4495 3.8143 -2.0016 0.9820
-1.5856 3.7598 -2.0016 0.9820
-1.7198 3.7003 -2.0016 0.9820
-1.8516 3.6361 -2.0016 0.9820
-1.9812 3.5672 -2.0016 0.9820
-2.2323 3.4157 -2.0016 0.9820
-2.3537 3.3332 -2.0016 0.9820
-2.4719 3.2465 -2.0016 0.9820
-2.5870 3.1555 -2.0016 0.9820
-2.6988 3.0605 -2.0016 0.9820
-3.0126 2.7522 -2.0016 0.9820
-3.1096 2.6421 -2.0016 0.9820
-3.2913 2.4119 -2.0016 0.9820
-3.5319 2.0436 -2.0016 0.9820
-1.1431 0.5059 -0.6132 0.9944
-1.1507 0.4606 -0.6080 0.9945
-1.1585 0.3696 -0.5965 0.9946
-1.1621 0.2806 -0.5864 0.9947
-1.1822 0.1969 -0.5879 0.9947
-1.1936 0.1115 -0.5880 0.9947
-1.1960 0.0684 -0.5876 0.9947
-1.1942 -0.1037 -0.5880 0.9947
-1.1836 -0.1893 -0.5880 0.9947
-1.1643 -0.2732 -0.5866 0.9947
-1.1587 -0.3615 -0.5954 0.9946
-1.1565 -0.4069 -0.6014 0.9946
-1.1518 -0.4524 -0.6070 0.9945
-1.1446 -0.4978 -0.6123 0.9945
-1.1349 -0.5429 -0.6171 0.9944
-1.1213 -0.5868 -0.6208 0.9944
-3.5450 -2.0207 -2.0016 0.9820
-3.3219 -2.2242 -1.9610 0.9823
-3.0985 -2.2400 -1.8755 0.9831
-2.9863 -2.3268 -1.8570 0.9833
-2.9007 -2.4326 -1.8570 0.9833
-2.8114 -2.5353 -1.8570 0.9833
-2.6220 -2.7307 -1.8570 0.9833
-2.5221 -2.8232 -1.8570 0.9833
-2.4190 -2.9121 -1.8570 0.9833
-2.3128 -2.9971 -1.8570 0.9833
-1.7396 -3.3623 -1.8570 0.9833
-1.6176 -3.4227 -1.8570 0.9833
-1.4936 -3.4786 -1.8570 0.9833
-1.3676 -3.5301 -1.8570 0.9833
-1.2398 -3.5769 -1.8570 0.9833
-1.1104 -3.6192 -1.8570 0.9833
-0.9796 -3.6568 -1.8570 0.9833
-0.8475 -3.6896 -1.8570 0.9833
-0.4454 -3.7594 -1.8570 0.9833
-0.3100 -3.7730 -1.8570 0.9833
-0.1742 -3.7817 -1.8570 0.9833
0.0980 -3.7844 -1.8570 0.9833
0.2339 -3.7785 -1.8570 0.9833
0.3696 -3.7676 -1.8570 0.9833
0.5048 -3.7519 -1.8570 0.9833
0.6393 -3.7313 -1.8570 0.9833
1.5484 -3.4546 -1.8570 0.9833
1.9113 -3.2678 -1.8570 0.9833
2.1411 -3.1221 -1.8570 0.9833
2.2519 -3.0431 -1.8570 0.9833
2.3599 -2.9602 -1.8570 0.9833
2.4647 -2.8734 -1.8570 0.9833
2.7597 -2.5914 -1.8570 0.9833
2.9971 -2.6181 -1.9521 0.9824
3.1676 -2.5723 -2.0016 0.9820
3.7084 -1.7024 -2.0016 0.9820
3.7672 -1.5680 -2.0016 0.9820
3.8211 -1.4316 -2.0016 0.9820
3.8701 -1.2933 -2.0016 0.9820
3.9530 -1.0120 -2.0016 0.9820
4.0155 -0.7253 -2.0016 0.9820
4.0389 -0.5805 -2.0016 0.9820
4.0572 -0.4350 -2.0016 0.9820
4.0780 -0.1424 -2.0016 0.9820
4.0805 0.0043 -2.0016 0.9820
4.0563 0.4435 -2.0016 0.9820
4.0377 0.5891 -2.0016 0.9820
3.8673 1.3015 -2.0016 0.9820
3.8180 1.4397 -2.0016 0.9820
3.7638 1.5760 -2.0016 0.9820
3.7048 1.7103 -2.0016 0.9820
3.6409 1.8423 -2.0016 0.9820
3.5723 1.9720 -2.0016 0.9820
3.4991 2.0991 -2.0016 0.9820
3.3393 2.3451 -2.0016 0.9820
3.0674 2.6909 -2.0016 0.9820
2.9687 2.7995 -2.0016 0.9820
2.8662 2.9044 -2.0016 0.9820
2.7599 3.0055 -2.0016 0.9820
2.1781 3.4505 -2.0016 0.9820
2.0526 3.5266 -2.0016 0.9820
1.9245 3.5981 -2.0016 0.9820
1.7939 3.6650 -2.0016 0.9820
-1.0620 0.3489 -0.5799 0.9950
-1.0827 0.2302 -0.5743 0.9950
-1.1061 -0.0068 -0.5738 0.9950
-1.1016 -0.1262 -0.5752 0.9950
-1.0962 -0.1657 -0.5751 0.9950
-1.0888 -0.2048 -0.5748 0.9950
-1.0677 -0.2816 -0.5728 0.9950
-1.0634 -0.3217 -0.5763 0.9950
-1.0609 -0.3631 -0.5817 0.9950
-1.0252 -0.5254 -0.5976 0.9948
-1.0065 -0.5624 -0.5981 0.9948
-2.9187 -2.2342 -1.9068 0.9836
-2.6787 -2.3744 -1.8570 0.9840
-2.4075 -2.6489 -1.8570 0.9840
-2.1084 -2.8927 -1.8570 0.9840
-2.0030 -2.9666 -1.8570 0.9840
-1.7847 -3.1029 -1.8570 0.9840
-1.6720 -3.1650 -1.8570 0.9840
-1.5572 -3.2231 -1.8570 0.9840
-1.4403 -3.2769 -1.8570 0.9840
-1.2012 -3.3720 -1.8570 0.9840
-0.9558 -3.4495 -1.8570 0.9840
-0.8312 -3.4817 -1.8570 0.9840
-0.7055 -3.5093 -1.8570 0.9840
-0.1953 -3.5742 -1.8570 0.9840
0.3190 -3.5653 -1.8570 0.9840
0.5743 -3.5332 -1.8570 0.9840
0.8266 -3.4828 -1.8570 0.9840
1.1967 -3.3735 -1.8570 0.9840
1.6679 -3.1672 -1.8570 0.9840
1.7806 -3.1052 -1.8570 0.9840
1.9991 -2.9693 -1.8570 0.9840
2.1046 -2.8955 -1.8570 0.9840
2.2073 -2.8180 -1.8570 0.9840
2.3071 -2.7368 -1.8570 0.9840
2.4040 -2.6521 -1.8570 0.9840
2.4978 -2.5640 -1.8570 0.9840
2.5883 -2.4725 -1.8570 0.9840
3.2957 -2.0061 -2.0016 0.9828
3.3656 -1.8863 -2.0016 0.9828
3.4925 -1.6397 -2.0016 0.9828
3.6012 -1.3845 -2.0016 0.9828
3.6487 -1.2542 -2.0016 0.9828
3.6914 -1.1222 -2.0016 0.9828
3.7625 -0.8541 -2.0016 0.9828
3.8326 -0.4441 -2.0016 0.9828
3.8461 -0.3061 -2.0016 0.9828
3.8581 -0.0290 -2.0016 0.9828
3.8502 0.2483 -2.0016 0.9828
3.8388 0.3865 -2.0016 0.9828
3.8224 0.5243 -2.0016 0.9828
3.7749 0.7975 -2.0016 0.9828
3.7150 0.9255 -1.9862 0.9829
3.6445 1.1919 -1.9892 0.9829
3.5715 1.4596 -2.0016 0.9828
3.5167 1.5871 -2.0016 0.9828
3.0955 2.3030 -2.0016 0.9828
3.0107 2.4128 -2.0016 0.9828
2.9220 2.5194 -2.0016 0.9828
2.3150 3.0865 -2.0016 0.9828
2.2026 3.1677 -2.0016 0.9828
1.9693 3.3178 -2.0016 0.9828
1.7258 3.4507 -2.0016 0.9828
1.3444 3.6164 -2.0016 0.9828
1.2135 3.6624 -2.0016 0.9828
1.0811 3.7037 -2.0016 0.9828
0.9472 3.7401 -2.0016 0.9828
0.5391 3.8204 -2.0016 0.9828
-0.0140 3.8582 -2.0016 0.9828
-0.2911 3.8472 -2.0016 0.9828
-0.4292 3.8343 -2.0016 0.9828
-0.8395 3.7658 -2.0016 0.9828
-1.2400 3.6535 -2.0016 0.9828
-1.3705 3.6066 -2.0016 0.9828
-1.6261 3.4988 -2.0016 0.9828
-1.9933 3.3034 -2.0016 0.9828
-2.3373 3.0697 -2.0016 0.9828
-2.4461 2.9837 -2.0016 0.9828
-2.6542 2.8002 -2.0016 0.9828
-2.7531 2.7030 -2.0016 0.9828
-2.8485 2.6023 -2.0016 0.9828
-3.1121 2.2805 -2.0016 0.9828
-0.9764 0.6128 -0.5980 0.9948
-1.0177 0.5410 -0.5979 0.9948
-1.0351 0.5034 -0.5971 0.9948
-1.0460 0.4630 -0.5934 0.9949
-1.0593 0.3804 -0.5839 0.9949
-1.0746 0.2595 -0.5735 0.9950
-1.1062 0.0633 -0.5748 0.9950
-1.1063 -0.0163 -0.5740 0.9950
-1.1064 -0.0561 -0.5747 0.9950
-1.1005 -0.1356 -0.5752 0.9950
-1.0946 -0.1750 -0.5751 0.9950
-1.0600 -0.3730 -0.5830 0.9949
-1.0549 -0.4144 -0.5880 0.9949
-1.0018 -0.5710 -0.5982 0.9948
-3.2060 -2.1466 -2.0016 0.9828
-2.8718 -2.2376 -1.8886 0.9837
-2.7427 -2.3001 -1.8570 0.9840
-2.6613 -2.3999 -1.8591 0.9840
-2.5704 -2.4912 -1.8570 0.9840
-2.3848 -2.6694 -1.8570 0.9840
-2.0835 -2.9107 -1.8570 0.9840
-1.7581 -3.1180 -1.8570 0.9840
-1.5295 -3.2363 -1.8570 0.9840
