ply
format ascii 1.0
element vertex 1552
property float32 x
property float32 y
property float32 z
property float32 I
end_header
12.4889 -37.4393 -2.0016 0.8538
15.1463 -36.4454 -2.0016 0.8538
16.4466 -35.8774 -2.0016 0.8538
17.7255 -35.2630 -2.0016 0.8538
20.2131 -33.8985 -2.0016 0.8538
23.7447 -31.5256 -2.0016 0.8538
26.9067 -28.6866 -1.9946 0.8543
29.3007 -21.7085 -1.8494 0.8641
30.7845 -19.5474 -1.8494 0.8641
31.4673 -18.4283 -1.8494 0.8641
32.1093 -17.2853 -1.8494 0.8641
33.2773 -16.3996 -1.8814 0.8619
37.5367 -12.1930 -2.0016 0.8538
37.9507 -10.8359 -2.0016 0.8538
38.6312 -8.0814 -2.0016 0.8538
36.5452 -2.2839 -1.8570 0.8636
39.4536 -1.0442 -2.0016 0.8538
39.4267 1.7929 -2.0016 0.8538
39.3367 3.2089 -2.0016 0.8538
39.1960 4.6207 -2.0016 0.8538
39.0046 6.0266 -2.0016 0.8538
36.0344 8.2551 -1.8748 0.8624
34.4623 11.9221 -1.8494 0.8641
34.0115 13.1531 -1.8494 0.8641
33.5168 14.3671 -1.8494 0.8641
29.5887 18.0909 -1.7588 0.8703
30.4080 20.1282 -1.8494 0.8641
28.8834 22.2607 -1.8494 0.8641
28.0646 23.2845 -1.8494 0.8641
27.2720 24.3341 -1.8536 0.8638
27.2709 28.1036 -1.9860 0.8548
26.4491 29.2937 -2.0016 0.8538
25.3791 30.2255 -2.0016 0.8538
23.1420 31.9706 -2.0016 0.8538
21.9779 32.7818 -2.0016 0.8538
18.3214 34.9572 -2.0016 0.8538
15.7626 36.1831 -2.0016 0.8538
14.4519 36.7263 -2.0016 0.8538
13.1224 37.2220 -2.0016 0.8538
11.7761 37.6696 -2.0016 0.8538
3.8149 13.9448 -0.7332 0.9437
3.1543 13.4062 -0.6985 0.9463
2.5751 13.0287 -0.6735 0.9482
2.0859 12.9932 -0.6674 0.9487
1.5650 12.6354 -0.6457 0.9503
1.0904 12.4616 -0.6344 0.9511
0.6180 12.0303 -0.6109 0.9529
-1.1076 11.9419 -0.6082 0.9531
-1.5281 11.8322 -0.6050 0.9533
-1.9996 12.0540 -0.6197 0.9522
-2.3980 11.8094 -0.6111 0.9529
-3.7533 11.7904 -0.6275 0.9517
-4.2547 11.8710 -0.6395 0.9507
-5.2818 11.9541 -0.6628 0.9490
-5.7803 11.9052 -0.6712 0.9484
-6.3178 11.9032 -0.6834 0.9475
-6.8520 11.8597 -0.6946 0.9466
-9.3657 11.8773 -0.7671 0.9412
-10.9293 11.9788 -0.8224 0.9371
-11.6899 11.9220 -0.8468 0.9353
-14.4650 11.8747 -0.9491 0.9278
-15.5751 11.8752 -0.9933 0.9246
-16.7037 11.8110 -1.0375 0.9213
-18.2201 11.9246 -1.1043 0.9165
-19.6032 11.8459 -1.1616 0.9123
-33.5911 14.1925 -1.8494 0.8641
-36.8842 14.0438 -2.0016 0.8538
-38.8008 7.2229 -2.0016 0.8538
-39.2195 4.4166 -2.0016 0.8538
-39.4355 1.5876 -2.0016 0.8538
-39.4671 0.1691 -2.0016 0.8538
-39.4476 -1.2496 -2.0016 0.8538
-39.2559 -4.0804 -2.0016 0.8538
-38.2659 -9.6641 -2.0016 0.8538
-37.8938 -11.0333 -2.0016 0.8538
-36.4859 -15.0483 -2.0016 0.8538
-34.6540 -18.8885 -2.0016 0.8538
-33.9527 -20.1219 -2.0016 0.8538
-30.6824 -19.7074 -1.8494 0.8641
-27.7034 -22.3478 -1.8051 0.8671
-19.3157 -22.3711 -1.4989 0.8884
-15.5776 -22.5571 -1.3902 0.8960
-12.1314 -22.3910 -1.2915 0.9030
-10.1261 -22.3966 -1.2465 0.9062
-8.2463 -22.4018 -1.2106 0.9088
-2.2727 -22.4135 -1.1425 0.9137
0.1525 -22.4202 -1.1371 0.9141
0.9235 -21.5880 -1.0958 0.9171
1.7686 -22.4247 -1.1408 0.9138
4.1720 -36.2268 -1.8494 0.8641
5.4715 -36.0535 -1.8494 0.8641
8.7098 -38.4944 -2.0016 0.8538
12.8029 -37.3331 -2.0016 0.8538
14.1366 -36.8488 -2.0016 0.8538
16.7473 -35.7380 -2.0016 0.8538
2.1878 -4.2629 -0.2430 0.9810
19.2715 -34.4425 -2.0016 0.8538
21.6962 -32.9690 -2.0016 0.8538
22.8672 -32.1678 -2.0016 0.8538
24.0086 -31.3251 -2.0016 0.8538
25.1191 -30.4419 -2.0016 0.8538
26.1971 -29.5193 -2.0016 0.8538
26.9517 -28.2551 -1.9803 0.8552
29.4820 -21.4617 -1.8494 0.8641
30.2343 -20.3881 -1.8494 0.8641
30.1983 -18.8211 -1.8046 0.8672
31.6209 -18.1633 -1.8494 0.8641
33.7786 -16.2954 -1.9020 0.8605
37.1866 -13.2225 -2.0016 0.8538
37.6378 -11.8773 -2.0016 0.8538
38.0404 -10.5167 -2.0016 0.8538
38.3939 -9.1426 -2.0016 0.8538
38.6977 -7.7567 -2.0016 0.8538
38.9515 -6.3607 -2.0016 0.8538
32.4748 -4.1109 -1.6601 0.8771
34.5942 -3.1207 -1.7615 0.8701
39.4611 0.7060 -2.0016 0.8538
39.1558 4.9498 -2.0016 0.8538
38.9526 6.3540 -2.0016 0.8538
38.6990 7.7501 -2.0016 0.8538
3.2912 13.4793 -1.0174 0.9459
2.2032 13.0239 -0.9685 0.9484
1.6785 12.6785 -0.9377 0.9500
1.1735 12.2283 -0.9007 0.9519
0.7256 12.1348 -0.8913 0.9524
0.2896 12.1781 -0.8932 0.9523
-0.1472 12.0824 -0.8860 0.9527
-0.5780 11.9994 -0.8808 0.9530
-1.0094 11.9763 -0.8812 0.9529
-2.7941 12.0476 -0.9068 0.9516
-3.1643 11.7136 -0.8897 0.9525
-5.1335 11.8876 -0.9494 0.9494
-6.7048 11.8333 -0.9972 0.9469
-7.8776 11.8315 -1.0422 0.9446
-8.5074 11.8323 -1.0685 0.9432
-9.2022 11.8737 -1.1015 0.9415
-11.4297 11.8542 -1.2074 0.9361
-12.4592 12.0252 -1.2696 0.9329
-22.1909 11.5545 -1.8344 0.9045
-23.4954 9.1726 -1.8494 0.9038
-23.8099 8.3222 -1.8494 0.9038
-26.0166 8.0564 -1.9970 0.8965
-26.5893 6.1808 -2.0016 0.8963
-26.7942 5.2210 -2.0016 0.8963
-26.9646 4.2546 -2.0016 0.8963
-27.0364 3.2749 -1.9969 0.8965
-27.2006 2.3064 -2.0016 0.8963
-27.2960 0.3463 -2.0016 0.8963
-27.2503 -1.6156 -2.0016 0.8963
-25.4399 -2.4285 -1.8738 0.9026
-24.9204 -5.1302 -1.8655 0.9030
-26.5224 -6.4618 -2.0016 0.8963
-26.2730 -7.4109 -2.0016 0.8963
-25.9896 -8.3505 -2.0016 0.8963
-25.6727 -9.2793 -2.0016 0.8963
-24.9397 -11.0996 -2.0016 0.8963
-24.5246 -11.9889 -2.0016 0.8963
-23.5999 -13.7198 -2.0016 0.8963
-22.5533 -15.3799 -2.0016 0.8963
-21.9099 -16.1247 -1.9946 0.8966
-19.1875 -16.3709 -1.8494 0.9038
-18.5867 -17.0501 -1.8494 0.9038
-17.9618 -17.7071 -1.8494 0.9038
-16.6433 -18.9518 -1.8494 0.9038
-15.2388 -20.0985 -1.8494 0.9038
-13.7555 -21.1413 -1.8494 0.9038
-12.2011 -22.0749 -1.8494 0.9038
-10.3532 -22.3960 -1.8091 0.9058
-9.3927 -22.3987 -1.7809 0.9072
-8.4604 -22.4012 -1.7557 0.9084
-7.5513 -22.3988 -1.7331 0.9096
-6.6656 -22.4012 -1.7137 0.9105
-5.7985 -22.4037 -1.6968 0.9114
-4.0476 -22.0734 -1.6455 0.9139
-3.2818 -22.4107 -1.6607 0.9132
-2.4630 -22.4129 -1.6533 0.9135
-0.0358 -22.4197 -1.6439 0.9140
3.5751 -24.9677 -1.8494 0.9038
4.4703 -24.8231 -1.8494 0.9038
5.3596 -24.6464 -1.8494 0.9038
6.2418 -24.4379 -1.8494 0.9038
8.6381 -25.8954 -2.0016 0.8963
10.4762 -25.2079 -2.0016 0.8963
11.3755 -24.8151 -2.0016 0.8963
13.9807 -23.4463 -2.0016 0.8963
14.8144 -22.9287 -2.0016 0.8963
15.6290 -22.3814 -2.0016 0.8963
19.3788 -19.2264 -2.0016 0.8963
22.5040 -15.4518 -2.0016 0.8963
23.5560 -13.7951 -2.0016 0.8963
24.4862 -12.0672 -2.0016 0.8963
25.6429 -9.3612 -2.0016 0.8963
25.9628 -8.4334 -2.0016 0.8963
26.2492 -7.4948 -2.0016 0.8963
26.7198 -5.5896 -2.0016 0.8963
26.9034 -4.6256 -2.0016 0.8963
27.0523 -3.6556 -2.0016 0.8963
27.2078 2.2195 -2.0016 0.8963
27.1104 3.1960 -2.0016 0.8963
26.9780 4.1684 -2.0016 0.8963
26.8108 5.1354 -2.0016 0.8963
25.7981 8.9247 -2.0016 0.8963
25.4606 9.8462 -2.0016 0.8963
24.6874 11.6499 -2.0016 0.8963
24.2527 12.5298 -2.0016 0.8963
23.2899 14.2398 -2.0016 0.8963
22.7630 15.0677 -2.0016 0.8963
22.2067 15.8761 -2.0016 0.8963
21.0088 17.4305 -2.0016 0.8963
20.3687 18.1744 -2.0016 0.8963
19.7022 18.8948 -2.0016 0.8963
19.0103 19.5907 -2.0016 0.8963
18.2939 20.2614 -2.0016 0.8963
16.7910 21.5233 -2.0016 0.8963
13.5331 23.7075 -2.0016 0.8963
11.7950 24.6185 -2.0016 0.8963
9.0763 25.7451 -2.0016 0.8963
2.0371 12.6894 -0.9423 0.9498
1.5813 12.7674 -0.9433 0.9497
0.1892 12.3050 -0.9023 0.9518
-1.5503 12.0040 -0.8875 0.9526
-1.9659 11.8510 -0.8808 0.9530
-2.8833 11.9743 -0.9031 0.9518
-3.3216 11.8979 -0.9057 0.9517
-4.2571 11.8779 -0.9252 0.9507
-5.7515 11.8460 -0.9655 0.9486
-8.0517 11.8756 -1.0520 0.9441
-8.7278 11.9263 -1.0836 0.9424
-10.1571 11.9697 -1.1510 0.9390
-11.6948 11.9270 -1.2248 0.9352
-14.0096 11.5009 -1.3290 0.9299
-15.0935 11.5080 -1.3917 0.9267
-16.2863 11.5158 -1.4625 0.9231
-22.8659 10.6452 -1.8494 0.9038
-23.5716 8.9750 -1.8494 0.9038
-26.1297 7.8516 -2.0005 0.8963
-27.1267 3.0548 -2.0016 0.8963
-27.2190 2.0778 -2.0016 0.8963
-27.2979 0.1170 -2.0016 0.8963
-27.2845 -0.8643 -2.0016 0.8963
-27.2358 -1.8445 -2.0016 0.8963
-25.0802 -3.5221 -1.8570 0.9034
-24.9374 -4.4214 -1.8570 0.9034
-25.9185 -8.5685 -2.0016 0.8963
-25.2360 -10.4084 -2.0016 0.8963
-24.8456 -11.3087 -2.0016 0.8963
-24.4230 -12.1945 -2.0016 0.8963
-23.9689 -13.0645 -2.0016 0.8963
-19.0493 -16.5316 -1.8494 0.9038
-15.7867 -19.6711 -1.8494 0.9038
-14.3327 -20.7544 -1.8494 0.9038
-13.5774 -21.2561 -1.8494 0.9038
-12.8046 -21.7304 -1.8494 0.9038
-11.1110 -22.3939 -1.8330 0.9046
-5.4269 -16.5552 -1.2774 0.9325
-3.9149 -22.4089 -1.6680 0.9128
-1.4614 -22.4157 -1.6471 0.9138
0.1525 -22.4202 -1.6439 0.9140
0.9236 -21.5898 -1.5845 0.9170
1.7686 -22.4247 -1.6493 0.9137
2.8856 -25.0568 -1.8494 0.9038
3.7847 -24.9368 -1.8494 0.9038
4.6784 -24.7847 -1.8494 0.9038
6.4468 -24.3846 -1.8494 0.9038
7.3191 -24.1371 -1.8494 0.9038
9.7778 -25.4870 -2.0016 0.8963
11.5835 -24.7187 -2.0016 0.8963
2.1878 -4.2628 -0.3513 0.9810
15.0064 -22.8034 -2.0016 0.8963
16.6059 -21.6664 -2.0016 0.8963
17.3739 -21.0555 -2.0016 0.8963
20.2121 -18.3483 -2.0016 0.8963
20.8586 -17.6099 -2.0016 0.8963
22.0698 -16.0659 -2.0016 0.8963
22.6330 -15.2623 -2.0016 0.8963
23.6710 -13.5968 -2.0016 0.8963
24.1445 -12.7372 -2.0016 0.8963
24.5867 -11.8611 -2.0016 0.8963
24.9971 -10.9697 -2.0016 0.8963
25.3753 -10.0641 -2.0016 0.8963
26.5556 -6.3236 -2.0016 0.8963
26.7658 -5.3650 -2.0016 0.8963
26.9413 -4.3995 -2.0016 0.8963
27.0821 -3.4282 -2.0016 0.8963
27.0826 3.4236 -2.0016 0.8963
26.9421 4.3948 -2.0016 0.8963
26.7667 5.3604 -2.0016 0.8963
26.5567 6.3191 -2.0016 0.8963
1.6828 12.7105 -1.2309 0.9498
0.7451 12.4602 -1.1984 0.9511
-0.1452 11.9208 -1.1445 0.9532
-0.9899 11.7452 -1.1316 0.9537
-1.8715 11.9001 -1.1565 0.9527
-2.3030 11.8510 -1.1590 0.9526
-4.1852 11.9934 -1.2195 0.9502
-5.1877 12.0130 -1.2563 0.9488
-6.7880 11.9800 -1.3219 0.9462
-7.6296 11.4591 -1.3217 0.9462
-8.2419 11.4631 -1.3554 0.9448
-8.8872 11.4673 -1.3928 0.9434
-9.5701 11.4718 -1.4343 0.9417
-10.2958 11.4766 -1.4802 0.9399
-11.0705 11.4816 -1.5312 0.9379
-12.7980 11.4930 -1.6514 0.9332
-13.7703 11.4993 -1.7224 0.9304
-15.6345 11.2531 -1.8494 0.9255
-16.7550 9.5048 -1.8494 0.9255
-17.0858 8.8963 -1.8494 0.9255
-17.3946 8.2765 -1.8494 0.9255
-19.6810 6.8790 -2.0016 0.9196
-19.9155 6.1672 -2.0016 0.9196
-20.3071 4.7204 -2.0016 0.9196
-20.5937 3.2493 -2.0016 0.9196
-20.6972 2.5070 -2.0016 0.9196
-20.7740 1.7615 -2.0016 0.9196
-20.8468 0.2645 -2.0016 0.9196
-20.8429 -0.4850 -2.0016 0.9196
-20.8120 -1.2339 -2.0016 0.9196
-20.6695 -2.7259 -2.0016 0.9196
-20.5582 -3.4671 -2.0016 0.9196
-20.2560 -4.9351 -2.0016 0.9196
-20.0655 -5.6600 -2.0016 0.9196
-19.8491 -6.3775 -2.0016 0.9196
-19.3397 -7.7871 -2.0016 0.9196
-19.0472 -8.4772 -2.0016 0.9196
-18.3890 -9.8236 -2.0016 0.9196
-17.6357 -11.1194 -2.0016 0.9196
-17.2247 -11.7461 -2.0016 0.9196
-16.7914 -12.3576 -2.0016 0.9196
-15.8602 -13.5320 -2.0016 0.9196
-15.3635 -14.0933 -2.0016 0.9196
-14.8470 -14.6365 -2.0016 0.9196
-14.3113 -15.1607 -2.0016 0.9196
-13.7571 -15.6653 -2.0016 0.9196
-11.3782 -16.1837 -1.8993 0.9236
-10.5364 -16.1938 -1.8548 0.9253
-9.9184 -16.5135 -1.8494 0.9255
-8.7064 -17.1834 -1.8494 0.9255
-8.0831 -17.4852 -1.8494 0.9255
-7.4494 -17.7645 -1.8494 0.9255
-6.1539 -18.2537 -1.8494 0.9255
-5.4938 -18.4631 -1.8494 0.9255
-2.7911 -19.0599 -1.8494 0.9255
-0.7231 -19.2496 -1.8494 0.9255
1.3532 -19.2156 -1.8494 0.9255
2.0430 -19.1545 -1.8494 0.9255
3.4139 -18.9582 -1.8494 0.9255
5.7505 -19.5541 -1.9568 0.9214
6.5972 -19.7772 -2.0016 0.9196
8.0010 -19.2521 -2.0016 0.9196
9.3634 -18.6276 -2.0016 0.9196
13.1335 -16.1917 -2.0016 0.9196
14.8002 -14.6838 -2.0016 0.9196
15.3184 -14.1424 -2.0016 0.9196
16.2948 -13.0053 -2.0016 0.9196
16.7518 -12.4112 -2.0016 0.9196
17.1871 -11.8010 -2.0016 0.9196
18.3575 -9.8823 -2.0016 0.9196
19.3147 -7.8488 -2.0016 0.9196
20.0473 -5.7240 -2.0016 0.9196
20.2401 -4.9997 -2.0016 0.9196
20.4068 -4.2690 -2.0016 0.9196
20.6040 3.1835 -2.0016 0.9196
20.4762 3.9221 -2.0016 0.9196
20.1416 5.3830 -2.0016 0.9196
19.9351 6.1035 -2.0016 0.9196
19.7028 6.8161 -2.0016 0.9196
19.4451 7.5199 -2.0016 0.9196
18.8546 8.8974 -2.0016 0.9196
18.5226 9.5694 -2.0016 0.9196
17.3848 11.5077 -2.0016 0.9196
16.5132 12.7269 -2.0016 0.9196
15.5562 13.8804 -2.0016 0.9196
15.0472 14.4305 -2.0016 0.9196
14.5188 14.9621 -2.0016 0.9196
13.9716 15.4743 -2.0016 0.9196
13.4064 15.9665 -2.0016 0.9196
12.8238 16.4381 -2.0016 0.9196
12.2247 16.8884 -2.0016 0.9196
11.6098 17.3169 -2.0016 0.9196
10.3357 18.1062 -2.0016 0.9196
9.0082 18.8019 -2.0016 0.9196
7.6934 17.6602 -1.8494 0.9255
5.7476 18.3857 -1.8494 0.9255
2.6603 13.4598 -1.3172 0.9464
1.0704 12.2327 -1.1789 0.9519
0.1852 12.0420 -1.1562 0.9528
-1.5251 11.8095 -1.1432 0.9533
-1.9999 12.0561 -1.1733 0.9521
-2.4214 11.9244 -1.1682 0.9523
-4.2728 11.9215 -1.2158 0.9504
-4.7381 11.8593 -1.2261 0.9500
-5.8161 11.9790 -1.2784 0.9479
-6.8800 11.9080 -1.3203 0.9462
-7.2739 11.6058 -1.3150 0.9464
-9.0432 11.4684 -1.4021 0.9430
-13.0180 11.4944 -1.6673 0.9326
-14.0096 11.5009 -1.7402 0.9298
-15.0935 11.5080 -1.8222 0.9266
-16.1180 10.5489 -1.8494 0.9255
-16.8342 9.3637 -1.8494 0.9255
-19.4840 7.4186 -2.0016 0.9196
-19.7380 6.7134 -2.0016 0.9196
-20.3460 4.5497 -2.0016 0.9196
-20.4964 3.8155 -2.0016 0.9196
-20.6203 3.0763 -2.0016 0.9196
-20.7175 2.3331 -2.0016 0.9196
-20.8380 -0.6601 -2.0016 0.9196
-20.8009 -1.4087 -2.0016 0.9196
-20.7368 -2.1554 -2.0016 0.9196
-20.6459 -2.8994 -2.0016 0.9196
-20.5283 -3.6396 -2.0016 0.9196
-20.0173 -5.8283 -2.0016 0.9196
-18.6527 -9.3133 -2.0016 0.9196
-18.3058 -9.9778 -2.0016 0.9196
-17.5417 -11.2671 -2.0016 0.9196
-15.7459 -13.6648 -2.0016 0.9196
-14.7235 -14.7607 -2.0016 0.9196
-14.1835 -15.2803 -2.0016 0.9196
-13.6186 -15.7728 -2.0006 0.9197
-12.9745 -16.1669 -1.9901 0.9201
-11.1777 -16.1858 -1.8884 0.9240
-10.3695 -16.2340 -1.8494 0.9255
-9.7793 -16.5962 -1.8494 0.9255
-9.1764 -16.9370 -1.8494 0.9255
-8.5617 -17.2559 -1.8494 0.9255
-7.2999 -17.8264 -1.8494 0.9255
-5.4159 -16.5219 -1.6692 0.9325
-3.9950 -18.8443 -1.8494 0.9255
-1.9433 -19.1649 -1.8494 0.9255
-0.5614 -19.2550 -1.8494 0.9255
0.1167 -17.1608 -1.6476 0.9334
2.2039 -19.1367 -1.8494 0.9255
2.8903 -19.0451 -1.8494 0.9255
3.5730 -18.9289 -1.8494 0.9255
4.2511 -18.7882 -1.8494 0.9255
4.9495 -18.7211 -1.8591 0.9251
6.0273 -19.8768 -1.9941 0.9199
7.4676 -19.4652 -2.0016 0.9196
8.8467 -18.8784 -2.0016 0.9196
10.1801 -18.1941 -2.0016 0.9196
10.8275 -17.8164 -2.0016 0.9196
12.6825 -16.5473 -2.0016 0.9196
14.3900 -15.0860 -2.0016 0.9196
14.9230 -14.5590 -2.0016 0.9196
15.9304 -13.4493 -2.0016 0.9196
16.4036 -12.8680 -2.0016 0.9196
16.8554 -12.2700 -2.0016 0.9196
17.2856 -11.6563 -2.0016 0.9196
17.6934 -11.0274 -2.0016 0.9196
19.0911 -8.3779 -2.0016 0.9196
19.3799 -7.6863 -2.0016 0.9196
20.2814 -4.8296 -2.0016 0.9196
20.8181 -1.1255 -2.0016 0.9196
20.8451 -0.3765 -2.0016 0.9196
20.8183 1.1220 -2.0016 0.9196
20.5765 3.3565 -2.0016 0.9196
20.4426 4.0939 -2.0016 0.9196
20.2822 4.8261 -2.0016 0.9196
1.6518 12.4770 -1.4950 0.9506
1.1768 12.2627 -1.4633 0.9516
0.7209 12.0571 -1.4348 0.9525
-0.5497 11.4127 -1.3572 0.9550
-0.9621 11.4154 -1.3608 0.9549
-3.5338 11.4323 -1.4214 0.9529
-3.9904 11.4352 -1.4387 0.9524
-4.9409 11.4415 -1.4804 0.9510
-7.0463 11.4553 -1.5975 0.9473
-7.6296 11.4591 -1.6353 0.9461
-8.8872 11.4673 -1.7233 0.9432
-10.2958 11.4766 -1.8314 0.9398
-10.8063 11.2077 -1.8494 0.9392
-11.2022 10.8120 -1.8494 0.9392
-11.5836 10.4024 -1.8494 0.9392
-11.9500 9.9793 -1.8494 0.9392
-12.3010 9.5433 -1.8494 0.9392
-14.5169 8.2351 -1.9825 0.9350
-14.9455 7.7819 -2.0016 0.9344
-15.2156 7.2397 -2.0016 0.9344
-15.4660 6.6881 -2.0016 0.9344
-15.6964 6.1279 -2.0016 0.9344
-16.0961 4.9844 -2.0016 0.9344
-16.7279 2.0262 -2.0016 0.9344
-16.7899 1.4236 -2.0016 0.9344
-16.8302 0.8192 -2.0016 0.9344
-16.8488 0.2137 -2.0016 0.9344
-16.8456 -0.3920 -2.0016 0.9344
-16.7055 -2.2031 -2.0016 0.9344
-16.5041 -3.3976 -2.0016 0.9344
-16.3713 -3.9886 -2.0016 0.9344
-16.2173 -4.5745 -2.0016 0.9344
-16.0424 -5.1545 -2.0016 0.9344
-15.8468 -5.7277 -2.0016 0.9344
-15.6307 -6.2936 -2.0016 0.9344
-14.8624 -7.9397 -2.0016 0.9344
-14.2535 -8.9869 -2.0016 0.9344
-13.9213 -9.4934 -2.0016 0.9344
-13.2033 -10.4690 -2.0016 0.9344
-12.8185 -10.9368 -2.0016 0.9344
-11.9996 -11.8295 -2.0016 0.9344
-11.1188 -12.6610 -2.0016 0.9344
-10.6565 -13.0525 -2.0016 0.9344
-9.6912 -13.7843 -2.0016 0.9344
-5.3730 -15.9373 -1.9978 0.9345
-2.9658 -16.1738 -1.9532 0.9359
-1.7778 -16.1775 -1.9332 0.9365
0.5633 -16.3905 -1.9481 0.9361
3.5804 -16.4654 -2.0016 0.9344
4.7540 -16.1656 -2.0016 0.9344
5.9031 -15.7823 -2.0016 0.9344
2.2968 -4.1870 -0.5673 0.9809
8.6298 -14.4726 -2.0016 0.9344
10.6148 -13.0864 -2.0016 0.9344
11.0783 -12.6964 -2.0016 0.9344
11.5275 -12.2900 -2.0016 0.9344
11.9618 -11.8677 -2.0016 0.9344
12.7835 -10.9777 -2.0016 0.9344
13.1698 -10.5111 -2.0016 0.9344
13.8909 -9.5378 -2.0016 0.9344
14.5402 -8.5152 -2.0016 0.9344
14.8369 -7.9871 -2.0016 0.9344
15.3724 -6.9005 -2.0016 0.9344
16.2026 -4.6263 -2.0016 0.9344
16.3584 -4.0409 -2.0016 0.9344
16.4931 -3.4503 -2.0016 0.9344
16.6065 -2.8552 -2.0016 0.9344
16.6984 -2.2565 -2.0016 0.9344
16.8173 -1.0510 -2.0016 0.9344
16.8443 -0.4458 -2.0016 0.9344
16.8494 0.1599 -2.0016 0.9344
16.8328 0.7654 -2.0016 0.9344
16.7343 1.9728 -2.0016 0.9344
16.6525 2.5730 -2.0016 0.9344
16.5493 3.1699 -2.0016 0.9344
15.2386 7.1911 -2.0016 0.9344
14.0508 9.3007 -2.0016 0.9344
13.7074 9.7998 -2.0016 0.9344
10.8353 12.9044 -2.0016 0.9344
10.3644 13.2856 -2.0016 0.9344
9.8802 13.6495 -2.0016 0.9344
9.3832 13.9958 -2.0016 0.9344
7.2273 13.7897 -1.8494 0.9392
5.1765 14.6831 -1.8494 0.9392
4.6454 14.8597 -1.8494 0.9392
3.6613 13.3834 -1.6482 0.9456
3.0881 13.1248 -1.6016 0.9471
2.5457 12.8802 -1.5596 0.9485
1.5390 12.4261 -1.4873 0.9508
1.0687 12.2139 -1.4564 0.9518
0.6169 12.0102 -1.4285 0.9527
-0.2393 11.6240 -1.3811 0.9542
-1.0588 11.4160 -1.3619 0.9549
-2.3198 11.4243 -1.3847 0.9541
-3.1910 11.4300 -1.4096 0.9533
-4.0988 11.4360 -1.4430 0.9522
-4.5702 11.4390 -1.4632 0.9516
-5.0557 11.4422 -1.4859 0.9509
-5.5571 11.4455 -1.5113 0.9500
-7.1801 11.4562 -1.6060 0.9470
-7.7699 11.4600 -1.6447 0.9458
-8.3896 11.4641 -1.6875 0.9444
-9.7356 11.4729 -1.7874 0.9412
-10.4721 11.4777 -1.8456 0.9393
-10.9001 11.1165 -1.8494 0.9392
-11.6706 10.3047 -1.8494 0.9392
-12.7120 8.9885 -1.8494 0.9392
-13.0269 8.5258 -1.8494 0.9392
-15.2759 7.1116 -2.0016 0.9344
-15.7473 5.9958 -2.0016 0.9344
-15.9526 5.4259 -2.0016 0.9344
-16.3012 4.2659 -2.0016 0.9344
-16.5656 3.0837 -2.0016 0.9344
-16.8500 0.0722 -2.0016 0.9344
-16.7599 -1.7421 -2.0016 0.9344
-16.5914 -2.9416 -2.0016 0.9344
-16.1783 -4.7106 -2.0016 0.9344
-15.9986 -5.2890 -2.0016 0.9344
-15.7981 -5.8607 -2.0016 0.9344
-15.3363 -6.9805 -2.0016 0.9344
-15.0754 -7.5272 -2.0016 0.9344
-14.4957 -8.5908 -2.0016 0.9344
-14.1775 -9.1063 -2.0016 0.9344
-12.7262 -11.0441 -2.0016 0.9344
-12.3210 -11.4944 -2.0016 0.9344
-11.0120 -12.7539 -2.0016 0.9344
-10.0673 -13.5121 -2.0016 0.9344
-9.5751 -13.8652 -2.0016 0.9344
-9.0706 -14.2004 -2.0016 0.9344
-5.2372 -15.9766 -1.9972 0.9345
-3.4285 -16.1718 -1.9637 0.9356
-2.8257 -16.1743 -1.9504 0.9360
-1.6404 -16.1778 -1.9315 0.9366
1.9220 -16.6892 -1.9955 0.9346
3.1254 -16.5578 -2.0016 0.9344
3.7185 -16.4347 -2.0016 0.9344
5.4661 -15.9389 -2.0016 0.9344
6.0354 -15.7322 -2.0016 0.9344
6.5970 -15.5051 -2.0016 0.9344
7.1501 -15.2579 -2.0016 0.9344
8.2278 -14.7048 -2.0016 0.9344
8.7510 -14.3996 -2.0016 0.9344
9.2629 -14.0757 -2.0016 0.9344
9.7629 -13.7337 -2.0016 0.9344
10.7243 -12.9968 -2.0016 0.9344
11.6303 -12.1928 -2.0016 0.9344
12.0610 -11.7668 -2.0016 0.9344
12.8752 -10.8699 -2.0016 0.9344
13.2576 -10.4001 -2.0016 0.9344
13.6229 -9.9169 -2.0016 0.9344
13.9705 -9.4208 -2.0016 0.9344
14.3001 -8.9126 -2.0016 0.9344
14.6112 -8.3928 -2.0016 0.9344
14.9035 -7.8622 -2.0016 0.9344
15.1764 -7.3214 -2.0016 0.9344
15.4298 -6.7712 -2.0016 0.9344
15.6632 -6.2122 -2.0016 0.9344
15.8764 -5.6452 -2.0016 0.9344
16.0690 -5.0709 -2.0016 0.9344
16.6299 -2.7156 -2.0016 0.9344
16.8257 0.9068 -2.0016 0.9344
16.7823 1.5110 -2.0016 0.9344
16.7171 2.1133 -2.0016 0.9344
16.6304 2.7128 -2.0016 0.9344
16.3925 3.9005 -2.0016 0.9344
3.0960 12.6797 -1.8494 0.9486
1.6518 12.4770 -1.7833 0.9504
0.7209 12.0571 -1.7114 0.9524
0.2819 11.8591 -1.6808 0.9532
-0.5497 11.4127 -1.6189 0.9549
-1.0783 8.9397 -1.2758 0.9643
-1.7961 11.4209 -1.6381 0.9544
-2.2200 11.4236 -1.6489 0.9541
-2.6500 11.4265 -1.6620 0.9537
-3.0875 11.4293 -1.6775 0.9533
-3.5338 11.4323 -1.6955 0.9528
-3.9904 11.4352 -1.7161 0.9522
-4.4589 11.4383 -1.7395 0.9516
-4.9409 11.4415 -1.7658 0.9509
-5.9535 11.4481 -1.8283 0.9492
-6.4344 11.3560 -1.8494 0.9486
-6.8384 11.1174 -1.8494 0.9486
-7.6195 10.5974 -1.8494 0.9486
-7.9955 10.3167 -1.8494 0.9486
-8.3611 10.0226 -1.8494 0.9486
-8.7160 9.7156 -1.8494 0.9486
-9.0596 9.3960 -1.8494 0.9486
-9.7112 8.7209 -1.8494 0.9486
-10.0184 8.3662 -1.8494 0.9486
-10.6329 8.2491 -1.9068 0.9471
-11.4228 8.2217 -1.9941 0.9447
-11.7498 7.8317 -2.0007 0.9445
-12.5297 6.5240 -2.0016 0.9445
-12.9660 5.6070 -2.0016 0.9445
-13.1591 5.1373 -2.0016 0.9445
-13.3353 4.6610 -2.0016 0.9445
-13.6357 3.6910 -2.0016 0.9445
-13.7596 3.1984 -2.0016 0.9445
-13.8656 2.7018 -2.0016 0.9445
-14.1253 0.1792 -2.0016 0.9445
-14.1226 -0.3287 -2.0016 0.9445
-14.1016 -0.8361 -2.0016 0.9445
-14.0625 -1.3424 -2.0016 0.9445
-14.0051 -1.8470 -2.0016 0.9445
-13.9297 -2.3492 -2.0016 0.9445
-12.7335 -3.1023 -1.8570 0.9484
-12.4778 -4.0091 -1.8570 0.9484
-11.9737 -5.3290 -1.8570 0.9484
-12.6911 -6.2041 -2.0016 0.9445
-11.6710 -7.9588 -2.0016 0.9445
-9.3215 -10.6144 -2.0016 0.9445
-8.9339 -10.9426 -2.0016 0.9445
-8.5348 -11.2566 -2.0016 0.9445
-6.8335 -12.3636 -2.0016 0.9445
-5.9276 -12.8226 -2.0016 0.9445
-3.0457 -13.7942 -2.0016 0.9445
-2.5479 -13.8947 -2.0016 0.9445
-2.0468 -13.9773 -2.0016 0.9445
-1.5431 -14.0419 -2.0016 0.9445
-0.5303 -14.1164 -2.0016 0.9445
-0.0226 -14.1264 -2.0016 0.9445
1.4982 -14.0467 -2.0016 0.9445
2.0022 -13.9838 -2.0016 0.9445
2.5035 -13.9028 -2.0016 0.9445
3.0016 -13.8038 -2.0016 0.9445
4.4701 -13.4005 -2.0016 0.9445
4.9489 -13.2312 -2.0016 0.9445
5.4213 -13.0447 -2.0016 0.9445
5.8866 -12.8414 -2.0016 0.9445
6.3444 -12.6216 -2.0016 0.9445
7.2348 -12.1331 -2.0016 0.9445
8.8989 -10.9711 -2.0016 0.9445
9.2875 -10.6441 -2.0016 0.9445
9.6641 -10.3034 -2.0016 0.9445
10.3794 -9.5825 -2.0016 0.9445
11.6455 -7.9961 -2.0016 0.9445
12.6712 -6.2446 -2.0016 0.9445
13.0871 -5.3181 -2.0016 0.9445
13.8271 -2.8925 -2.0016 0.9445
13.9992 -1.8917 -2.0016 0.9445
14.0581 -1.3873 -2.0016 0.9445
14.1118 0.6417 -2.0016 0.9445
14.0796 1.1485 -2.0016 0.9445
13.9607 2.1571 -2.0016 0.9445
13.7697 3.1545 -2.0016 0.9445
13.5075 4.1356 -2.0016 0.9445
13.1755 5.0953 -2.0016 0.9445
12.9838 5.5656 -2.0016 0.9445
12.3092 6.9309 -2.0016 0.9445
12.0522 7.3689 -2.0016 0.9445
11.7795 7.7973 -2.0016 0.9445
11.1889 8.6234 -2.0016 0.9445
10.1956 9.7778 -2.0016 0.9445
9.8376 10.1379 -2.0016 0.9445
9.4668 10.4850 -2.0016 0.9445
9.0838 10.8185 -2.0016 0.9445
8.6891 11.1380 -2.0016 0.9445
8.2831 11.4431 -2.0016 0.9445
6.0590 11.5607 -1.8494 0.9486
4.7793 12.1457 -1.8494 0.9486
2.0304 12.6477 -1.8150 0.9496
-1.8946 11.4215 -1.6404 0.9543
-2.3198 11.4243 -1.6517 0.9540
-2.7515 11.4271 -1.6654 0.9536
-3.1910 11.4300 -1.6814 0.9532
-4.0988 11.4360 -1.7213 0.9521
-5.0557 11.4422 -1.7724 0.9507
-6.0766 11.4489 -1.8365 0.9490
-6.9316 11.0596 -1.8494 0.9486
-7.3246 10.8033 -1.8494 0.9486
-8.4450 9.9520 -1.8494 0.9486
-8.7973 9.6420 -1.8494 0.9486
-9.4672 8.9851 -1.8494 0.9486
-9.7841 8.6390 -1.8494 0.9486
-10.8144 8.2454 -1.9269 0.9465
-11.5002 8.1317 -1.9957 0.9447
-11.8200 7.7359 -2.0016 0.9445
-12.0904 7.3060 -2.0016 0.9445
-12.5840 6.4186 -2.0016 0.9445
-13.0126 5.4979 -2.0016 0.9445
-13.6662 3.5763 -2.0016 0.9445
-13.8878 2.5853 -2.0016 0.9445
-13.9718 2.0844 -2.0016 0.9445
-14.1150 0.5683 -2.0016 0.9445
-14.0941 -0.9545 -2.0016 0.9445
-13.9891 -1.9646 -2.0016 0.9445
-12.8142 -2.7504 -1.8570 0.9484
-12.7070 -3.2092 -1.8570 0.9484
-12.5835 -3.6639 -1.8570 0.9484
-12.4436 -4.1138 -1.8570 0.9484
-12.1159 -4.9971 -1.8570 0.9484
-11.8858 -7.6343 -2.0016 0.9445
-11.6037 -8.0566 -2.0016 0.9445
-11.3067 -8.4685 -2.0016 0.9445
-10.6690 -9.2589 -2.0016 0.9445
-10.3293 -9.6364 -2.0016 0.9445
-9.9763 -10.0014 -2.0016 0.9445
-7.1715 -12.1706 -2.0016 0.9445
-4.8799 -13.2567 -2.0016 0.9445
-4.4003 -13.4236 -2.0016 0.9445
-3.9150 -13.5731 -2.0016 0.9445
-2.9297 -13.8193 -2.0016 0.9445
-2.4311 -13.9156 -2.0016 0.9445
-1.4251 -14.0543 -2.0016 0.9445
-0.9190 -14.0965 -2.0016 0.9445
0.0961 -14.1261 -2.0016 0.9445
0.6038 -14.1135 -2.0016 0.9445
1.1107 -14.0827 -2.0016 0.9445
2.1195 -13.9665 -2.0016 0.9445
3.6107 -13.6572 -2.0016 0.9445
4.0992 -13.5186 -2.0016 0.9445
4.5825 -13.3625 -2.0016 0.9445
5.5306 -12.9987 -2.0016 0.9445
5.9943 -12.7915 -2.0016 0.9445
2.1878 -4.2627 -0.6789 0.9808
6.8978 -12.3278 -2.0016 0.9445
7.3364 -12.0719 -2.0016 0.9445
7.7656 -11.8004 -2.0016 0.9445
8.1848 -11.5137 -2.0016 0.9445
9.3766 -10.5657 -2.0016 0.9445
9.7503 -10.2219 -2.0016 0.9445
10.1114 -9.8648 -2.0016 0.9445
10.4595 -9.4950 -2.0016 0.9445
11.1146 -8.7190 -2.0016 0.9445
11.4208 -8.3139 -2.0016 0.9445
11.7123 -7.8980 -2.0016 0.9445
11.9886 -7.4719 -2.0016 0.9445
12.7232 -6.1379 -2.0016 0.9445
13.1313 -5.2080 -2.0016 0.9445
13.3100 -4.7327 -2.0016 0.9445
13.4715 -4.2512 -2.0016 0.9445
13.7422 -3.2724 -2.0016 0.9445
13.8509 -2.7763 -2.0016 0.9445
14.0693 -1.2692 -2.0016 0.9445
14.1241 0.2527 -2.0016 0.9445
14.1059 0.7602 -2.0016 0.9445
14.0149 1.7717 -2.0016 0.9445
13.9421 2.2743 -2.0016 0.9445
13.7427 3.2700 -2.0016 0.9445
2.2691 10.9943 -1.8494 0.9555
1.8725 11.0687 -1.8494 0.9555
1.4734 11.1289 -1.8494 0.9555
1.0724 11.1747 -1.8494 0.9555
-0.1367 11.2252 -1.8494 0.9555
-1.0562 8.7567 -1.4530 0.9649
-1.3725 8.7273 -1.4554 0.9648
-2.5362 10.9357 -1.8494 0.9555
-2.9277 10.8375 -1.8494 0.9555
-3.6987 10.5992 -1.8494 0.9555
-4.4506 10.3061 -1.8494 0.9555
-5.8816 9.5619 -1.8494 0.9555
-6.5534 9.1146 -1.8494 0.9555
-6.8768 8.8732 -1.8494 0.9555
-7.1912 8.6203 -1.8494 0.9555
-7.4964 8.3562 -1.8494 0.9555
-7.9570 8.2525 -1.8885 0.9546
-8.5377 8.2403 -1.9547 0.9530
-9.3254 7.7875 -2.0015 0.9519
-9.5997 7.4476 -2.0016 0.9519
-10.1099 6.7387 -2.0016 0.9519
-10.5679 5.9949 -2.0016 0.9519
-11.3179 4.4185 -2.0016 0.9519
-11.4695 4.0089 -2.0016 0.9519
-11.6061 3.5940 -2.0016 0.9519
-11.7278 3.1745 -2.0016 0.9519
-11.8344 2.7509 -2.0016 0.9519
-12.0617 1.4610 -2.0016 0.9519
-12.1064 1.0265 -2.0016 0.9519
-12.1489 0.1541 -2.0016 0.9519
-12.1466 -0.2827 -2.0016 0.9519
-12.0949 -1.1546 -2.0016 0.9519
-12.0456 -1.5886 -2.0016 0.9519
-10.9519 -2.6683 -1.8570 0.9553
-10.6010 -3.8317 -1.8570 0.9553
-10.4564 -4.2103 -1.8570 0.9553
-10.2984 -4.5834 -1.8570 0.9553
-10.1270 -4.9506 -1.8570 0.9553
-9.9425 -5.3114 -1.8570 0.9553
-9.7451 -5.6653 -1.8570 0.9553
-9.5203 -7.5487 -2.0016 0.9519
-9.2428 -7.8860 -2.0016 0.9519
-8.9534 -8.2132 -2.0016 0.9519
-7.6839 -9.4115 -2.0016 0.9519
-7.3407 -9.6816 -2.0016 0.9519
-6.6262 -10.1840 -2.0016 0.9519
-5.8774 -10.6337 -2.0016 0.9519
-5.4914 -10.8381 -2.0016 0.9519
-4.6985 -11.2046 -2.0016 0.9519
-3.0443 -11.7623 -2.0016 0.9519
-1.3272 -12.0772 -2.0016 0.9519
-0.0194 -12.1499 -2.0016 0.9519
0.4173 -12.1427 -2.0016 0.9519
0.8535 -12.1199 -2.0016 0.9519
1.2886 -12.0813 -2.0016 0.9519
2.1532 -11.9576 -2.0016 0.9519
2.5816 -11.8724 -2.0016 0.9519
4.2565 -11.3799 -2.0016 0.9519
4.6627 -11.2195 -2.0016 0.9519
5.4567 -10.8556 -2.0016 0.9519
2.2967 -4.1869 -0.7867 0.9808
6.2225 -10.4355 -2.0016 0.9519
6.5936 -10.2051 -2.0016 0.9519
6.9561 -9.9615 -2.0016 0.9519
7.9880 -9.1548 -2.0016 0.9519
8.6251 -8.5573 -2.0016 0.9519
8.9271 -8.2417 -2.0016 0.9519
9.2176 -7.9155 -2.0016 0.9519
9.7624 -7.2329 -2.0016 0.9519
10.2568 -6.5128 -2.0016 0.9519
10.6982 -5.7591 -2.0016 0.9519
11.6830 -3.3358 -2.0016 0.9519
11.8924 -2.4878 -2.0016 0.9519
12.0911 -1.1932 -2.0016 0.9519
12.1262 -0.7578 -2.0016 0.9519
12.1456 -0.3215 -2.0016 0.9519
12.1493 0.1153 -2.0016 0.9519
12.1097 0.9878 -2.0016 0.9519
12.0074 1.8553 -2.0016 0.9519
11.8431 2.7131 -2.0016 0.9519
11.1672 4.7869 -2.0016 0.9519
10.5870 5.9612 -2.0016 0.9519
10.3659 6.3378 -2.0016 0.9519
10.1314 6.7063 -2.0016 0.9519
9.8838 7.0662 -2.0016 0.9519
9.6234 7.4169 -2.0016 0.9519
7.8128 9.3048 -2.0016 0.9519
7.1242 9.8420 -2.0016 0.9519
6.7658 10.0917 -2.0016 0.9519
6.0067 10.5227 -1.9961 0.9521
3.7325 10.5873 -1.8494 0.9555
3.3495 10.7146 -1.8494 0.9555
2.5711 10.9276 -1.8494 0.9555
2.1767 11.0129 -1.8494 0.9555
1.7794 11.0841 -1.8494 0.9555
0.1726 11.2247 -1.8494 0.9555
-0.2310 11.2236 -1.8494 0.9555
-0.6343 11.2081 -1.8494 0.9555
-1.0367 11.1780 -1.8494 0.9555
-1.1248 8.7100 -1.4468 0.9650
-1.8371 11.0747 -1.8494 0.9555
-2.6280 10.9141 -1.8494 0.9555
-4.1650 10.4248 -1.8494 0.9555
-4.5370 10.2683 -1.8494 0.9555
-4.9031 10.0986 -1.8494 0.9555
-5.2630 9.9159 -1.8494 0.9555
-5.9617 9.5121 -1.8494 0.9555
-6.6297 9.0592 -1.8494 0.9555
-9.0890 8.0253 -1.9975 0.9520
-9.6619 7.3667 -2.0016 0.9519
-10.3987 6.2838 -2.0016 0.9519
-10.6179 5.9060 -2.0016 0.9519
-11.3547 4.3233 -2.0016 0.9519
-11.5027 3.9124 -2.0016 0.9519
-11.6359 3.4964 -2.0016 0.9519
-11.7541 3.0759 -2.0016 0.9519
-12.0169 1.7928 -2.0016 0.9519
-12.1146 0.9248 -2.0016 0.9519
-12.1498 0.0521 -2.0016 0.9519
-12.1438 -0.3847 -2.0016 0.9519
-11.9633 -2.1211 -2.0016 0.9519
-10.7026 -3.5382 -1.8570 0.9553
-10.4207 -4.2979 -1.8570 0.9553
-10.2595 -4.6697 -1.8570 0.9553
-10.0850 -5.0355 -1.8570 0.9553
-9.9802 -6.9293 -2.0016 0.9519
-9.4566 -7.6284 -2.0016 0.9519
-8.8841 -8.2881 -2.0016 0.9519
-7.9403 -9.1963 -2.0016 0.9519
-7.2591 -9.7430 -2.0016 0.9519
-6.9042 -9.9976 -2.0016 0.9519
-6.1681 -10.4678 -2.0016 0.9519
-5.7879 -10.6827 -2.0016 0.9519
-5.4001 -10.8838 -2.0016 0.9519
-5.0054 -11.0709 -2.0016 0.9519
-4.1972 -11.4019 -2.0016 0.9519
-3.7846 -11.5454 -2.0016 0.9519
-2.0910 -11.9686 -2.0016 0.9519
-1.2257 -12.0879 -2.0016 0.9519
-0.7904 -12.1241 -2.0016 0.9519
0.0827 -12.1496 -2.0016 0.9519
0.5193 -12.1388 -2.0016 0.9519
0.9553 -12.1123 -2.0016 0.9519
1.8230 -12.0123 -2.0016 0.9519
4.7568 -11.1800 -2.0016 0.9519
5.9327 -10.6030 -2.0016 0.9519
7.0396 -9.9027 -2.0016 0.9519
7.3910 -9.6433 -2.0016 0.9519
7.7328 -9.3714 -2.0016 0.9519
8.0647 -9.0874 -2.0016 0.9519
8.3861 -8.7916 -2.0016 0.9519
8.9960 -8.1665 -2.0016 0.9519
9.2838 -7.8378 -2.0016 0.9519
9.5595 -7.4991 -2.0016 0.9519
9.8228 -7.1506 -2.0016 0.9519
10.7462 -5.6691 -2.0016 0.9519
10.9430 -5.2791 -2.0016 0.9519
11.1257 -4.8824 -2.0016 0.9519
11.7106 -3.2375 -2.0016 0.9519
11.9911 -1.9581 -2.0016 0.9519
12.0537 -1.5258 -2.0016 0.9519
12.1322 -0.6559 -2.0016 0.9519
12.1479 -0.2194 -2.0016 0.9519
12.1479 0.2174 -2.0016 0.9519
12.1323 0.6539 -2.0016 0.9519
12.1009 1.0895 -2.0016 0.9519
12.0539 1.5238 -2.0016 0.9519
0.2339 9.8363 -1.8494 0.9607
-0.4734 9.8277 -1.8494 0.9607
-1.3666 8.6895 -1.6534 0.9648
-1.8769 9.6584 -1.8494 0.9607
-2.2229 9.5847 -1.8494 0.9607
-2.5660 9.4986 -1.8494 0.9607
-2.9057 9.4002 -1.8494 0.9607
-3.2417 9.2897 -1.8494 0.9607
-3.5735 9.1672 -1.8494 0.9607
-3.9007 9.0328 -1.8494 0.9607
-4.8504 8.5604 -1.8494 0.9607
-5.1550 8.3805 -1.8494 0.9607
-7.1029 7.9176 -1.9993 0.9576
-7.6621 7.3952 -2.0016 0.9576
-8.4137 6.5275 -2.0016 0.9576
-9.0674 5.5838 -2.0016 0.9576
-9.6158 4.5753 -2.0016 0.9576
-9.7741 4.2267 -2.0016 0.9576
-9.9197 3.8727 -2.0016 0.9576
-10.0525 3.5136 -2.0016 0.9576
-10.1723 3.1500 -2.0016 0.9576
-10.2789 2.7823 -2.0016 0.9576
-10.3723 2.4111 -2.0016 0.9576
-10.4522 2.0367 -2.0016 0.9576
-10.5715 1.2805 -2.0016 0.9576
-10.6108 0.8997 -2.0016 0.9576
-10.6480 0.1351 -2.0016 0.9576
-10.5574 -1.3923 -2.0016 0.9576
-10.5005 -1.7709 -2.0016 0.9576
-10.4301 -2.1472 -2.0016 0.9576
-9.5988 -2.3386 -1.8570 0.9606
-9.5086 -2.6821 -1.8570 0.9606
-9.2913 -3.3583 -1.8570 0.9606
-8.7141 -4.6552 -1.8570 0.9606
-8.1624 -5.5662 -1.8570 0.9606
-7.5834 -7.4759 -2.0016 0.9576
-7.3098 -7.7436 -2.0016 0.9576
-6.7346 -8.2488 -2.0016 0.9576
-6.1246 -8.7113 -2.0016 0.9576
-5.8075 -8.9258 -2.0016 0.9576
-5.4829 -9.1288 -2.0016 0.9576
-4.8129 -9.4991 -2.0016 0.9576
-4.1181 -9.8203 -2.0016 0.9576
-3.0370 -10.2066 -2.0016 0.9576
-2.6682 -10.3091 -2.0016 0.9576
-2.2959 -10.3984 -2.0016 0.9576
-1.9207 -10.4742 -2.0016 0.9576
-1.1632 -10.5851 -2.0016 0.9576
-0.7820 -10.6201 -2.0016 0.9576
-0.0170 -10.6488 -2.0016 0.9576
0.3658 -10.6425 -2.0016 0.9576
0.7481 -10.6225 -2.0016 0.9576
1.8872 -10.4803 -2.0016 0.9576
3.0044 -10.2162 -2.0016 0.9576
4.0867 -9.8334 -2.0016 0.9576
4.4375 -9.6802 -2.0016 0.9576
4.7826 -9.5144 -2.0016 0.9576
2.2967 -4.1869 -0.8976 0.9808
5.7790 -8.9443 -2.0016 0.9576
6.4066 -8.5060 -2.0016 0.9576
6.7082 -8.2702 -2.0016 0.9576
7.0012 -8.0238 -2.0016 0.9576
7.8242 -7.2235 -2.0016 0.9576
9.1890 -5.3814 -2.0016 0.9576
9.3765 -5.0476 -2.0016 0.9576
9.5519 -4.7073 -2.0016 0.9576
9.8654 -4.0089 -2.0016 0.9576
10.0031 -3.6517 -2.0016 0.9576
10.1279 -3.2898 -2.0016 0.9576
10.3381 -2.5537 -2.0016 0.9576
10.4232 -2.1805 -2.0016 0.9576
10.6281 -0.6642 -2.0016 0.9576
10.6451 -0.2817 -2.0016 0.9576
10.6136 0.8658 -2.0016 0.9576
10.5239 1.6261 -2.0016 0.9576
10.4587 2.0033 -2.0016 0.9576
10.3799 2.3779 -2.0016 0.9576
10.1823 3.1175 -2.0016 0.9576
10.0636 3.4815 -2.0016 0.9576
9.9320 3.8409 -2.0016 0.9576
9.7875 4.1955 -2.0016 0.9576
9.6304 4.5446 -2.0016 0.9576
9.4608 4.8878 -2.0016 0.9576
9.0852 5.5548 -2.0016 0.9576
8.8797 5.8778 -2.0016 0.9576
8.4345 6.5005 -2.0016 0.9576
7.9457 7.0897 -2.0016 0.9576
6.8476 8.1552 -2.0016 0.9576
6.5500 8.3961 -2.0016 0.9576
5.2792 9.2481 -2.0016 0.9576
4.9354 9.4167 -1.9983 0.9577
4.5300 9.4551 -1.9706 0.9582
3.9864 9.1507 -1.8761 0.9602
3.2714 9.2793 -1.8494 0.9607
2.9357 9.3909 -1.8494 0.9607
2.5963 9.4903 -1.8494 0.9607
2.2535 9.5775 -1.8494 0.9607
1.9078 9.6523 -1.8494 0.9607
1.2094 9.7645 -1.8494 0.9607
0.5048 9.8261 -1.8494 0.9607
-0.5559 9.8234 -1.8494 0.9607
-1.1223 8.6905 -1.6470 0.9650
-1.6101 9.7064 -1.8494 0.9607
-1.9580 9.6423 -1.8494 0.9607
-2.3033 9.5657 -1.8494 0.9607
-4.2974 8.8510 -1.8494 0.9607
-4.9222 8.5194 -1.8494 0.9607
-5.2252 8.3370 -1.8494 0.9607
-6.0350 8.2466 -1.9208 0.9593
-7.1726 7.8614 -2.0002 0.9576
-7.9825 7.0482 -2.0016 0.9576
-8.4682 6.4565 -2.0016 0.9576
-8.6948 6.1480 -2.0016 0.9576
-9.3061 5.1763 -2.0016 0.9576
-9.4861 4.8385 -2.0016 0.9576
-9.6539 4.4944 -2.0016 0.9576
-9.8092 4.1445 -2.0016 0.9576
-9.9518 3.7892 -2.0016 0.9576
-10.0816 3.4290 -2.0016 0.9576
-10.1984 3.0645 -2.0016 0.9576
-10.3922 2.3239 -2.0016 0.9576
-10.4690 1.9488 -2.0016 0.9576
-10.5819 1.1917 -2.0016 0.9576
-10.6435 -0.3372 -2.0016 0.9576
-9.5789 -2.4192 -1.8570 0.9606
-9.1333 -3.7670 -1.8570 0.9606
-8.9920 -4.0928 -1.8570 0.9606
-8.8391 -4.4134 -1.8570 0.9606
-8.6747 -4.7282 -1.8570 0.9606
-8.3126 -5.3392 -1.8570 0.9606
-8.5232 -6.3837 -2.0016 0.9576
-8.2883 -6.6860 -2.0016 0.9576
-7.2445 -7.8048 -2.0016 0.9576
-6.9593 -8.0601 -2.0016 0.9576
-6.6651 -8.3051 -2.0016 0.9576
-6.3623 -8.5393 -2.0016 0.9576
-6.0512 -8.7624 -2.0016 0.9576
-5.7323 -8.9743 -2.0016 0.9576
-5.0728 -9.3629 -2.0016 0.9576
-4.7330 -9.5392 -2.0016 0.9576
-4.3870 -9.7031 -2.0016 0.9576
-4.0354 -9.8546 -2.0016 0.9576
-3.6786 -9.9933 -2.0016 0.9576
-3.3170 -10.1190 -2.0016 0.9576
-2.9512 -10.2317 -2.0016 0.9576
-2.5815 -10.3312 -2.0016 0.9576
-2.2085 -10.4173 -2.0016 0.9576
-1.4544 -10.5490 -2.0016 0.9576
-1.0743 -10.5945 -2.0016 0.9576
-0.3104 -10.6443 -2.0016 0.9576
0.0724 -10.6486 -2.0016 0.9576
1.2183 -10.5789 -2.0016 0.9576
1.9752 -10.4640 -2.0016 0.9576
2.3500 -10.3863 -2.0016 0.9576
2.7218 -10.2951 -2.0016 0.9576
3.4544 -10.0730 -2.0016 0.9576
3.8142 -9.9423 -2.0016 0.9576
4.1691 -9.7988 -2.0016 0.9576
4.5186 -9.6426 -2.0016 0.9576
2.1877 -4.2626 -0.9006 0.9807
5.1997 -9.2930 -2.0016 0.9576
5.5304 -9.1001 -2.0016 0.9576
6.1699 -8.6793 -2.0016 0.9576
6.4778 -8.4519 -2.0016 0.9576
6.7774 -8.2136 -2.0016 0.9576
7.3500 -7.7055 -2.0016 0.9576
7.6222 -7.4363 -2.0016 0.9576
8.1368 -6.8695 -2.0016 0.9576
8.6093 -6.2672 -2.0016 0.9576
9.5911 -4.6269 -2.0016 0.9576
9.7512 -4.2792 -2.0016 0.9576
10.1552 -3.2046 -2.0016 0.9576
10.2638 -2.8376 -2.0016 0.9576
10.5645 -1.3373 -2.0016 0.9576
10.6057 -0.9567 -2.0016 0.9576
10.6333 -0.5749 -2.0016 0.9576
10.6334 0.5731 -2.0016 0.9576
10.5099 1.7144 -2.0016 0.9576
10.4415 2.0911 -2.0016 0.9576
2.0753 8.4993 -1.8494 0.9649
1.4593 8.6264 -1.8494 0.9649
1.1483 8.6733 -1.8494 0.9649
0.8358 8.7090 -1.8494 0.9649
-0.1066 8.7483 -1.8494 0.9649
-0.7348 8.7181 -1.8494 0.9649
-1.0462 8.6738 -1.8467 0.9649
-1.3592 8.6428 -1.8494 0.9649
-1.6690 8.5883 -1.8494 0.9649
-4.6512 8.2088 -1.9944 0.9622
-4.9500 8.0473 -1.9971 0.9621
-5.5277 7.6881 -2.0016 0.9620
-5.8005 7.4844 -2.0016 0.9620
-6.0658 7.2711 -2.0016 0.9620
-6.3232 7.0484 -2.0016 0.9620
-7.2680 6.0694 -2.0016 0.9620
-7.4815 5.8043 -2.0016 0.9620
-7.6853 5.5316 -2.0016 0.9620
-8.2361 4.6722 -2.0016 0.9620
-8.3987 4.3731 -2.0016 0.9620
-8.5505 4.0684 -2.0016 0.9620
-8.6912 3.7584 -2.0016 0.9620
-8.9387 3.1243 -2.0016 0.9620
-9.0453 2.8010 -2.0016 0.9620
-9.1401 2.4741 -2.0016 0.9620
-9.2942 1.8110 -2.0016 0.9620
-9.3533 1.4758 -2.0016 0.9620
-9.4003 1.1386 -2.0016 0.9620
-9.4578 0.4604 -2.0016 0.9620
-9.4683 0.1201 -2.0016 0.9620
-9.4524 -0.5604 -2.0016 0.9620
-9.3877 -1.2381 -2.0016 0.9620
-9.3372 -1.5747 -2.0016 0.9620
-8.4551 -2.3850 -1.8570 0.9647
-7.7487 -4.1394 -1.8570 0.9647
-7.2580 -4.9495 -1.8570 0.9647
-7.2034 -6.1460 -2.0016 0.9620
-6.9778 -6.4009 -2.0016 0.9620
-5.9885 -7.3349 -2.0016 0.9620
-5.1641 -7.9369 -2.0016 0.9620
-4.5805 -8.2874 -2.0016 0.9620
-3.6618 -8.7323 -2.0016 0.9620
-1.0343 -9.4124 -2.0016 0.9620
-0.6954 -9.4435 -2.0016 0.9620
-0.3555 -9.4623 -2.0016 0.9620
-0.0151 -9.4690 -2.0016 0.9620
0.3252 -9.4634 -2.0016 0.9620
2.3433 -9.1745 -2.0016 0.9620
2.6715 -9.0843 -2.0016 0.9620
3.3173 -8.8689 -2.0016 0.9620
2.2967 -4.1869 -1.0094 0.9807
5.1387 -7.9534 -2.0016 0.9620
5.9650 -7.3540 -2.0016 0.9620
6.2255 -7.1348 -2.0016 0.9620
6.9574 -6.4232 -2.0016 0.9620
7.4008 -5.9068 -2.0016 0.9620
7.6084 -5.6370 -2.0016 0.9620
7.8061 -5.3598 -2.0016 0.9620
8.1710 -4.7852 -2.0016 0.9620
8.7724 -3.5648 -2.0016 0.9620
9.0058 -2.9253 -2.0016 0.9620
9.1051 -2.5997 -2.0016 0.9620
9.1927 -2.2708 -2.0016 0.9620
9.2684 -1.9389 -2.0016 0.9620
9.3321 -1.6045 -2.0016 0.9620
9.4233 -0.9299 -2.0016 0.9620
9.4686 0.0899 -2.0016 0.9620
9.4592 0.4301 -2.0016 0.9620
9.4377 0.7699 -2.0016 0.9620
9.4039 1.1086 -2.0016 0.9620
9.2299 2.1145 -2.0016 0.9620
8.5634 4.0411 -2.0016 0.9620
8.4126 4.3463 -2.0016 0.9620
8.2510 4.6458 -2.0016 0.9620
7.0654 6.3042 -2.0016 0.9620
6.8342 6.5541 -2.0016 0.9620
6.5942 6.7955 -2.0016 0.9620
5.5522 7.6704 -2.0016 0.9620
4.6943 8.2235 -2.0016 0.9620
4.3957 8.3869 -2.0016 0.9620
4.0914 8.5395 -2.0016 0.9620
2.3277 8.5086 -1.8646 0.9646
2.0038 8.5164 -1.8494 0.9649
1.6964 8.5830 -1.8494 0.9649
0.4488 8.7375 -1.8494 0.9649
-0.1800 8.7471 -1.8494 0.9649
-0.4943 8.7350 -1.8494 0.9649
-1.4317 8.6310 -1.8494 0.9649
-1.7411 8.5740 -1.8494 0.9649
-2.0481 8.5059 -1.8494 0.9649
-2.6539 8.3368 -1.8494 0.9649
-2.9606 8.2605 -1.8549 0.9648
-3.2978 8.2543 -1.8789 0.9643
-5.3115 7.8341 -2.0007 0.9620
-5.5921 7.6414 -2.0016 0.9620
-5.8631 7.4355 -2.0016 0.9620
-6.3822 6.9950 -2.0016 0.9620
-6.6295 6.7611 -2.0016 0.9620
-6.8682 6.5184 -2.0016 0.9620
-7.5300 5.7412 -2.0016 0.9620
-7.9230 5.1854 -2.0016 0.9620
-8.1043 4.8973 -2.0016 0.9620
-8.2750 4.6028 -2.0016 0.9620
-8.4351 4.3024 -2.0016 0.9620
-8.7224 3.6853 -2.0016 0.9620
-8.9647 3.0491 -2.0016 0.9620
-9.0685 2.7249 -2.0016 0.9620
-9.3091 1.7329 -2.0016 0.9620
-9.3654 1.3972 -2.0016 0.9620
-9.4095 1.0596 -2.0016 0.9620
-9.4415 0.7207 -2.0016 0.9620
-9.4689 0.0406 -2.0016 0.9620
-9.4643 -0.2998 -2.0016 0.9620
-9.4474 -0.6398 -2.0016 0.9620
-9.3770 -1.3169 -2.0016 0.9620
-9.2582 -1.9871 -2.0016 0.9620
-8.3410 -2.7575 -1.8570 0.9647
-8.2365 -3.0555 -1.8570 0.9647
-7.8598 -3.9244 -1.8570 0.9647
-7.5575 -4.4789 -1.8570 0.9647
-7.3916 -4.7477 -1.8570 0.9647
-7.2162 -5.0103 -1.8570 0.9647
-6.9238 -6.4593 -2.0016 0.9620
-6.4419 -6.9401 -2.0016 0.9620
-5.9267 -7.3849 -2.0016 0.9620
-5.6574 -7.5932 -2.0016 0.9620
-4.8071 -8.1581 -2.0016 0.9620
-3.2711 -8.8861 -2.0016 0.9620
-2.9495 -8.9979 -2.0016 0.9620
-2.6242 -9.0981 -2.0016 0.9620
-1.9638 -9.2631 -2.0016 0.9620
-0.6160 -9.4490 -2.0016 0.9620
-0.2760 -9.4650 -2.0016 0.9620
0.0644 -9.4688 -2.0016 0.9620
0.7445 -9.4397 -2.0016 0.9620
1.0833 -9.4068 -2.0016 0.9620
1.7563 -9.3047 -2.0016 0.9620
2.4203 -9.1545 -2.0016 0.9620
2.7477 -9.0616 -2.0016 0.9620
3.7072 -8.7131 -2.0016 0.9620
2.1877 -4.2626 -1.0128 0.9806
5.2053 -7.9099 -2.0016 0.9620
6.0266 -7.3036 -2.0016 0.9620
6.2852 -7.0823 -2.0016 0.9620
6.5357 -6.8518 -2.0016 0.9620
6.7778 -6.6124 -2.0016 0.9620
7.4502 -5.8444 -2.0016 0.9620
7.6554 -5.5728 -2.0016 0.9620
7.8508 -5.2941 -2.0016 0.9620
8.0360 -5.0085 -2.0016 0.9620
8.3751 -4.4182 -2.0016 0.9620
8.6708 -3.8051 -2.0016 0.9620
8.8020 -3.4910 -2.0016 0.9620
9.2115 -2.1935 -2.0016 0.9620
9.2844 -1.8610 -2.0016 0.9620
9.3452 -1.5261 -2.0016 0.9620
9.3941 -1.1892 -2.0016 0.9620
9.4309 0.8491 -2.0016 0.9620
9.3943 1.1876 -2.0016 0.9620
9.3455 1.5245 -2.0016 0.9620
9.2847 1.8594 -2.0016 0.9620
1.7154 8.3116 -1.9946 0.9657
1.4052 8.3064 -1.9799 0.9660
1.0951 8.2714 -1.9609 0.9663
0.7926 8.2586 -1.9499 0.9665
0.4930 8.2454 -1.9413 0.9666
0.1960 8.2434 -1.9379 0.9667
-0.1004 8.2435 -1.9375 0.9667
-0.3971 8.2431 -1.9396 0.9667
-1.9097 8.2344 -1.9866 0.9659
-2.5081 8.1138 -1.9960 0.9657
-2.8002 8.0245 -1.9975 0.9657
-3.0894 7.9253 -1.9992 0.9657
-3.3754 7.8164 -2.0010 0.9656
-4.9716 6.9147 -2.0016 0.9656
-5.2170 6.7315 -2.0016 0.9656
-5.4556 6.5396 -2.0016 0.9656
-5.6871 6.3393 -2.0016 0.9656
-5.9113 6.1308 -2.0016 0.9656
-6.1278 5.9144 -2.0016 0.9656
-7.0865 4.7235 -2.0016 0.9656
-7.2517 4.4657 -2.0016 0.9656
-7.4076 4.2021 -2.0016 0.9656
-7.5538 3.9332 -2.0016 0.9656
-7.9333 3.0972 -2.0016 0.9656
-8.0395 2.8100 -2.0016 0.9656
-8.2206 2.2252 -2.0016 0.9656
-8.4546 1.0241 -2.0016 0.9656
-8.4860 0.7195 -2.0016 0.9656
-8.5064 0.4141 -2.0016 0.9656
-8.5158 0.1080 -2.0016 0.9656
-8.5015 -0.5040 -2.0016 0.9656
-8.3415 -1.7172 -2.0016 0.9656
-8.2744 -2.0159 -2.0016 0.9656
-7.9051 -2.2298 -1.9304 0.9668
-7.4308 -2.6858 -1.8570 0.9681
-7.2186 -3.2127 -1.8570 0.9681
-7.0985 -3.4701 -1.8570 0.9681
-6.6837 -4.2141 -1.8570 0.9681
-6.1912 -4.9091 -1.8570 0.9681
-5.6268 -5.5470 -1.8570 0.9681
-5.6197 -6.3991 -2.0016 0.9656
-5.3860 -6.5970 -2.0016 0.9656
-5.1454 -6.7863 -2.0016 0.9656
-4.8982 -6.9669 -2.0016 0.9656
-4.1198 -7.4537 -2.0016 0.9656
-3.8492 -7.5970 -2.0016 0.9656
-3.5736 -7.7304 -2.0016 0.9656
-2.7207 -8.0702 -2.0016 0.9656
-2.4289 -8.1627 -2.0016 0.9656
-1.8362 -8.3162 -2.0016 0.9656
-1.5361 -8.3768 -2.0016 0.9656
-1.2340 -8.4266 -2.0016 0.9656
-0.9303 -8.4655 -2.0016 0.9656
-0.6254 -8.4935 -2.0016 0.9656
-0.3197 -8.5104 -2.0016 0.9656
-0.0136 -8.5164 -2.0016 0.9656
0.2925 -8.5114 -2.0016 0.9656
0.9032 -8.4684 -2.0016 0.9656
1.2071 -8.4305 -2.0016 0.9656
2.1076 -8.2515 -2.0016 0.9656
2.9836 -7.9767 -2.0016 0.9656
3.2683 -7.8643 -2.0016 0.9656
3.5489 -7.7418 -2.0016 0.9656
2.1466 -4.2705 -1.1233 0.9806
2.2762 -4.1494 -1.1123 0.9807
4.3617 -7.3148 -2.0016 0.9656
4.6218 -7.1533 -2.0016 0.9656
4.8759 -6.9825 -2.0016 0.9656
5.3649 -6.6142 -2.0016 0.9656
6.2575 -5.7770 -2.0016 0.9656
6.6563 -5.3126 -2.0016 0.9656
7.0208 -4.8206 -2.0016 0.9656
7.1895 -4.5652 -2.0016 0.9656
7.3490 -4.3038 -2.0016 0.9656
7.7696 -3.4877 -2.0016 0.9656
8.3360 -1.7438 -2.0016 0.9656
8.4397 -1.1405 -2.0016 0.9656
8.4753 -0.8364 -2.0016 0.9656
8.4999 -0.5312 -2.0016 0.9656
8.5135 -0.2253 -2.0016 0.9656
8.5077 0.3869 -2.0016 0.9656
8.4882 0.6924 -2.0016 0.9656
8.4579 0.9971 -2.0016 0.9656
8.4166 1.3004 -2.0016 0.9656
8.3644 1.6021 -2.0016 0.9656
8.3014 1.9018 -2.0016 0.9656
8.2277 2.1989 -2.0016 0.9656
7.9432 3.0718 -2.0016 0.9656
7.1016 4.7008 -2.0016 0.9656
5.9308 6.1119 -2.0016 0.9656
5.4764 6.5222 -2.0016 0.9656
3.1185 7.9250 -2.0016 0.9656
2.8316 8.0319 -2.0016 0.9656
2.2435 8.2010 -1.9983 0.9657
1.9451 8.2668 -1.9959 0.9657
0.4235 8.2431 -1.9399 0.9667
-0.1697 8.2434 -1.9378 0.9667
-0.4665 8.2429 -1.9404 0.9666
-0.7644 8.2420 -1.9454 0.9666
-1.0642 8.2406 -1.9528 0.9664
-1.3667 8.2388 -1.9628 0.9663
-2.8681 8.0022 -1.9979 0.9657
-5.2733 6.6875 -2.0016 0.9656
-5.7401 6.2913 -2.0016 0.9656
-5.9625 6.0809 -2.0016 0.9656
-6.1773 5.8627 -2.0016 0.9656
-6.3840 5.6369 -2.0016 0.9656
-6.7725 5.1637 -2.0016 0.9656
-6.9537 4.9169 -2.0016 0.9656
-7.2890 4.4046 -2.0016 0.9656
-7.5866 3.8696 -2.0016 0.9656
-7.7208 3.5944 -2.0016 0.9656
-7.8450 3.3146 -2.0016 0.9656
-8.3112 1.8585 -2.0016 0.9656
-8.3726 1.5586 -2.0016 0.9656
-8.4232 1.2566 -2.0016 0.9656
-8.4630 0.9530 -2.0016 0.9656
-8.5095 0.3426 -2.0016 0.9656
-8.4970 -0.5754 -2.0016 0.9656
-8.4708 -0.8805 -2.0016 0.9656
-8.2572 -2.0854 -2.0016 0.9656
-7.4079 -2.7481 -1.8570 0.9681
-7.1914 -3.2732 -1.8570 0.9681
-6.9376 -3.7814 -1.8570 0.9681
-6.6481 -4.2701 -1.8570 0.9681
-6.4903 -4.5063 -1.8570 0.9681
-6.3241 -4.7366 -1.8570 0.9681
-6.1498 -4.9609 -1.8570 0.9681
-5.9675 -5.1787 -1.8570 0.9681
-5.0882 -6.8293 -2.0016 0.9656
-4.8395 -7.0078 -2.0016 0.9656
-4.5845 -7.1772 -2.0016 0.9656
-4.0570 -7.4880 -2.0016 0.9656
-3.5086 -7.7601 -2.0016 0.9656
-3.2274 -7.8812 -2.0016 0.9656
-2.9420 -7.9922 -2.0016 0.9656
-2.6528 -8.0927 -2.0016 0.9656
-2.3602 -8.1829 -2.0016 0.9656
-1.7663 -8.3313 -2.0016 0.9656
-1.1631 -8.4366 -2.0016 0.9656
-0.8591 -8.4730 -2.0016 0.9656
0.3640 -8.5087 -2.0016 0.9656
0.9743 -8.4605 -2.0016 0.9656
1.8794 -8.3065 -2.0016 0.9656
2.1768 -8.2336 -2.0016 0.9656
3.3343 -7.8366 -2.0016 0.9656
3.6138 -7.7117 -2.0016 0.9656
2.3247 -4.1547 -1.1189 0.9806
4.4230 -7.2779 -2.0016 0.9656
4.6817 -7.1142 -2.0016 0.9656
4.9344 -6.9413 -2.0016 0.9656
5.1807 -6.7595 -2.0016 0.9656
5.4203 -6.5689 -2.0016 0.9656
5.6529 -6.3698 -2.0016 0.9656
6.0959 -5.9472 -2.0016 0.9656
6.3058 -5.7243 -2.0016 0.9656
6.5074 -5.4939 -2.0016 0.9656
6.7007 -5.2565 -2.0016 0.9656
7.3849 -4.2419 -2.0016 0.9656
7.5325 -3.9737 -2.0016 0.9656
7.7986 -3.4223 -2.0016 0.9656
7.9165 -3.1398 -2.0016 0.9656
8.0243 -2.8532 -2.0016 0.9656
8.1216 -2.5629 -2.0016 0.9656
8.2085 -2.2694 -2.0016 0.9656
8.4051 -1.3725 -2.0016 0.9656
8.4490 -1.0695 -2.0016 0.9656
8.5151 -0.1538 -2.0016 0.9656
8.5151 0.1524 -2.0016 0.9656
8.4054 1.3711 -2.0016 0.9656
8.3506 1.6723 -2.0016 0.9656
1.8337 7.5099 -2.0016 0.9686
1.0146 7.6636 -2.0016 0.9686
0.7385 7.6951 -2.0016 0.9686
0.4614 7.7167 -2.0016 0.9686
0.1838 7.7283 -2.0016 0.9686
-0.9257 7.6749 -2.0016 0.9686
-1.2010 7.6366 -2.0016 0.9686
-1.7465 7.5306 -2.0016 0.9686
-2.0160 7.4630 -2.0016 0.9686
-2.2830 7.3857 -2.0016 0.9686
-3.0648 7.0970 -2.0016 0.9686
-3.3179 6.9823 -2.0016 0.9686
-3.5667 6.8585 -2.0016 0.9686
-4.0502 6.5845 -2.0016 0.9686
-4.2843 6.4347 -2.0016 0.9686
-4.5128 6.2765 -2.0016 0.9686
-4.7355 6.1103 -2.0016 0.9686
-5.1622 5.7543 -2.0016 0.9686
-5.3657 5.5650 -2.0016 0.9686
-5.7517 5.1651 -2.0016 0.9686
-6.7239 3.8143 -2.0016 0.9686
-7.0955 3.0684 -2.0016 0.9686
-7.2012 2.8113 -2.0016 0.9686
-7.4620 2.0198 -2.0016 0.9686
-7.5297 1.7503 -2.0016 0.9686
-7.5878 1.4785 -2.0016 0.9686
-7.6744 0.9296 -2.0016 0.9686
-7.7029 0.6531 -2.0016 0.9686
-7.7299 0.0981 -2.0016 0.9686
-7.5717 -1.5587 -2.0016 0.9686
-7.5108 -1.8299 -2.0016 0.9686
-6.7450 -2.4380 -1.8570 0.9708
-6.4434 -3.1499 -1.8570 0.9708
-6.3260 -3.3794 -1.8570 0.9708
-6.2004 -3.6046 -1.8570 0.9708
-5.7764 -4.2511 -1.8570 0.9708
-5.6198 -4.4560 -1.8570 0.9708
-5.4560 -4.6551 -1.8570 0.9708
-5.1075 -5.0351 -1.8570 0.9708
-4.9232 -5.2154 -1.8570 0.9708
-4.7326 -5.3890 -1.8570 0.9708
-4.5358 -5.5556 -1.8570 0.9708
-4.6706 -6.1600 -2.0016 0.9686
-4.2160 -6.4797 -2.0016 0.9686
-3.2438 -7.0170 -2.0016 0.9686
-2.2047 -7.4094 -2.0016 0.9686
-1.9370 -7.4839 -2.0016 0.9686
-0.2902 -7.7250 -2.0016 0.9686
1.0957 -7.6524 -2.0016 0.9686
1.6426 -7.5540 -2.0016 0.9686
1.9131 -7.4900 -2.0016 0.9686
2.1810 -7.4164 -2.0016 0.9686
2.7082 -7.2406 -2.0016 0.9686
2.9667 -7.1386 -2.0016 0.9686
2.1114 -4.2004 -1.2172 0.9808
2.2551 -4.1111 -1.2141 0.9808
3.9591 -6.6397 -2.0016 0.9686
4.1952 -6.4931 -2.0016 0.9686
4.4259 -6.3381 -2.0016 0.9686
4.6509 -6.1749 -2.0016 0.9686
4.8698 -6.0038 -2.0016 0.9686
5.2886 -5.6384 -2.0016 0.9686
5.6800 -5.2439 -2.0016 0.9686
6.2115 -4.6020 -2.0016 0.9686
6.5260 -4.1438 -2.0016 0.9686
6.6707 -3.9066 -2.0016 0.9686
7.2617 -2.6510 -2.0016 0.9686
7.4334 -2.1224 -2.0016 0.9686
7.6609 -1.0352 -2.0016 0.9686
7.7154 -0.4822 -2.0016 0.9686
7.7278 -0.2045 -2.0016 0.9686
7.7301 0.0734 -2.0016 0.9686
7.7049 0.6285 -2.0016 0.9686
7.6773 0.9051 -2.0016 0.9686
7.6398 1.1804 -2.0016 0.9686
7.4684 1.9960 -2.0016 0.9686
