ply
format ascii 1.0
element vertex 1594
property float32 x
property float32 y
property float32 z
property float32 I
end_header
-3.5260 4.8811 -2.0016 0.9749
-3.6988 4.7515 -2.0016 0.9749
-4.0300 4.4740 -2.0016 0.9749
-4.1879 4.3265 -2.0016 0.9749
-4.3405 4.1735 -2.0016 0.9749
-4.4874 4.0151 -2.0016 0.9749
-4.6286 3.8515 -2.0016 0.9749
-4.7638 3.6830 -2.0016 0.9749
-4.8928 3.5097 -2.0016 0.9749
-5.0156 3.3319 -2.0016 0.9749
-5.2416 2.9637 -2.0016 0.9749
-5.5297 2.3833 -2.0016 0.9749
-5.6116 2.1834 -2.0016 0.9749
-5.8137 1.5678 -2.0016 0.9749
-5.9112 1.1469 -2.0016 0.9749
-5.9485 0.9341 -2.0016 0.9749
-5.9782 0.7200 -2.0016 0.9749
-6.0145 0.2895 -2.0016 0.9749
-6.0210 0.0735 -2.0016 0.9749
-6.0198 -0.1425 -2.0016 0.9749
-6.0108 -0.3584 -2.0016 0.9749
-5.9696 -0.7885 -2.0016 0.9749
-5.8977 -1.2145 -2.0016 0.9749
-5.8503 -1.4253 -2.0016 0.9749
-5.7330 -1.8412 -2.0016 0.9749
-5.1046 -2.2698 -1.8570 0.9767
-4.9287 -2.6300 -1.8570 0.9767
-4.8312 -2.8051 -1.8570 0.9767
-4.7274 -2.9766 -1.8570 0.9767
-4.3802 -3.4673 -1.8570 0.9767
-4.2530 -3.6223 -1.8570 0.9767
-3.9823 -3.9179 -1.8570 0.9767
-3.8392 -4.0583 -1.8570 0.9767
-3.6911 -4.1934 -1.8570 0.9767
-3.5383 -4.3231 -1.8570 0.9767
-3.3809 -4.4473 -1.8570 0.9767
-3.2192 -4.5657 -1.8570 0.9767
-3.0533 -4.6783 -1.8570 0.9767
-2.8835 -4.7848 -1.8570 0.9767
-2.7100 -4.8852 -1.8570 0.9767
-2.5330 -4.9792 -1.8570 0.9767
-2.1694 -5.1481 -1.8570 0.9767
-1.9833 -5.2226 -1.8570 0.9767
-1.7947 -5.2904 -1.8570 0.9767
-1.6037 -5.3513 -1.8570 0.9767
-1.4107 -5.4054 -1.8570 0.9767
-1.2159 -5.4526 -1.8570 0.9767
-0.8217 -5.5257 -1.8570 0.9767
-0.4234 -5.5704 -1.8570 0.9767
-0.2233 -5.5820 -1.8570 0.9767
0.5775 -5.5566 -1.8570 0.9767
0.9745 -5.5008 -1.8570 0.9767
1.7513 -5.3049 -1.8570 0.9767
2.1272 -5.1656 -1.8570 0.9767
2.0443 -4.4986 -1.6425 0.9794
3.0149 -4.7031 -1.8570 0.9767
4.1022 -4.4079 -2.0016 0.9749
4.8230 -3.6051 -2.0016 0.9749
4.9492 -3.4297 -2.0016 0.9749
5.1824 -3.0660 -2.0016 0.9749
5.3889 -2.6865 -2.0016 0.9749
5.5677 -2.2932 -2.0016 0.9749
5.6464 -2.0919 -2.0016 0.9749
5.7178 -1.8880 -2.0016 0.9749
5.8385 -1.4732 -2.0016 0.9749
5.8875 -1.2627 -2.0016 0.9749
5.9291 -1.0507 -2.0016 0.9749
5.9629 -0.8373 -2.0016 0.9749
6.0184 -0.1918 -2.0016 0.9749
6.0214 0.0243 -2.0016 0.9749
6.0166 0.2403 -2.0016 0.9749
6.0042 0.4560 -2.0016 0.9749
5.9839 0.6711 -2.0016 0.9749
5.8772 1.3102 -2.0016 0.9749
5.8264 1.5202 -2.0016 0.9749
5.6293 2.1374 -2.0016 0.9749
5.5490 2.3380 -2.0016 0.9749
5.4616 2.5356 -2.0016 0.9749
5.1575 3.1077 -2.0016 0.9749
5.0427 3.2907 -2.0016 0.9749
4.9214 3.4695 -2.0016 0.9749
4.6599 3.8135 -2.0016 0.9749
4.5201 3.9782 -2.0016 0.9749
4.2232 4.2921 -2.0016 0.9749
3.9046 4.5839 -2.0016 0.9749
3.5658 4.8521 -2.0016 0.9749
3.3894 4.9769 -2.0016 0.9749
3.2087 5.0953 -2.0016 0.9749
3.0238 5.2071 -2.0016 0.9749
2.6427 5.4106 -2.0016 0.9749
2.4468 5.5019 -2.0016 0.9749
2.2479 5.5861 -2.0016 0.9749
2.0460 5.6632 -2.0016 0.9749
1.8415 5.7329 -2.0016 0.9749
0.3588 6.0107 -2.0016 0.9749
0.1429 6.0197 -2.0016 0.9749
-0.0732 6.0210 -2.0016 0.9749
-0.5047 6.0003 -2.0016 0.9749
-0.7197 5.9783 -2.0016 0.9749
-0.9337 5.9486 -2.0016 0.9749
-1.5674 5.8139 -2.0016 0.9749
-1.7750 5.7539 -2.0016 0.9749
-2.5798 5.4408 -2.0016 0.9749
-2.9633 5.2418 -2.0016 0.9749
-3.5094 4.8931 -2.0016 0.9749
-3.8512 4.6288 -2.0016 0.9749
-4.0148 4.4877 -2.0016 0.9749
-5.2315 2.9814 -2.0016 0.9749
-5.4318 2.5986 -2.0016 0.9749
-5.6042 2.2024 -2.0016 0.9749
-5.6796 2.0000 -2.0016 0.9749
-5.8084 1.5875 -2.0016 0.9749
-5.8616 1.3781 -2.0016 0.9749
-5.9073 1.1669 -2.0016 0.9749
-5.9453 0.9543 -2.0016 0.9749
-5.9985 0.5255 -2.0016 0.9749
-6.0135 0.3099 -2.0016 0.9749
-5.9722 -0.7682 -2.0016 0.9749
-5.9408 -0.9820 -2.0016 0.9749
-5.8009 -1.6146 -2.0016 0.9749
-5.5682 -2.2183 -1.9924 0.9751
-5.1123 -2.2524 -1.8570 0.9767
-4.9376 -2.6132 -1.8570 0.9767
-4.6282 -3.1286 -1.8570 0.9767
-4.5130 -3.2927 -1.8570 0.9767
-4.3920 -3.4524 -1.8570 0.9767
-4.2653 -3.6078 -1.8570 0.9767
-4.1331 -3.7585 -1.8570 0.9767
-3.8530 -4.0452 -1.8570 0.9767
-3.7053 -4.1808 -1.8570 0.9767
-3.2347 -4.5547 -1.8570 0.9767
-3.0692 -4.6679 -1.8570 0.9767
-2.8998 -4.7750 -1.8570 0.9767
-2.7266 -4.8759 -1.8570 0.9767
-1.8126 -5.2842 -1.8570 0.9767
-1.4290 -5.4006 -1.8570 0.9767
-1.2344 -5.4484 -1.8570 0.9767
-1.0381 -5.4892 -1.8570 0.9767
-0.8405 -5.5229 -1.8570 0.9767
-0.4423 -5.5690 -1.8570 0.9767
0.5587 -5.5585 -1.8570 0.9767
0.7589 -5.5435 -1.8599 0.9767
0.9558 -5.5041 -1.8570 0.9767
1.5417 -5.3696 -1.8570 0.9767
1.9227 -5.2452 -1.8570 0.9767
2.0676 -4.1835 -1.5512 0.9805
2.1958 -4.0685 -1.5368 0.9807
2.3861 -4.0651 -1.5668 0.9803
3.1661 -4.6027 -1.8570 0.9767
3.3300 -4.4872 -1.8574 0.9767
3.4880 -4.3638 -1.8570 0.9767
4.2432 -4.2724 -2.0016 0.9749
4.3937 -4.1174 -2.0016 0.9749
4.5386 -3.9571 -2.0016 0.9749
4.6777 -3.7917 -2.0016 0.9749
5.0580 -3.2672 -2.0016 0.9749
5.1720 -3.0836 -2.0016 0.9749
5.2793 -2.8961 -2.0016 0.9749
5.4733 -2.5100 -2.0016 0.9749
5.5599 -2.3121 -2.0016 0.9749
5.6392 -2.1111 -2.0016 0.9749
5.7114 -1.9074 -2.0016 0.9749
5.7761 -1.7013 -2.0016 0.9749
5.8334 -1.4930 -2.0016 0.9749
5.8832 -1.2827 -2.0016 0.9749
6.0062 -0.4280 -2.0016 0.9749
6.0214 0.0038 -2.0016 0.9749
6.0174 0.2199 -2.0016 0.9749
6.0057 0.4356 -2.0016 0.9749
5.5334 0.8418 -2.0016 0.9765
5.4110 1.4314 -2.0016 0.9765
5.2258 2.0045 -2.0016 0.9765
5.0686 2.3741 -2.0016 0.9765
4.9802 2.5544 -2.0016 0.9765
4.7842 2.9050 -2.0016 0.9765
4.4444 3.4022 -2.0016 0.9765
4.1890 3.7121 -2.0016 0.9765
3.7659 4.1407 -2.0016 0.9765
3.6149 4.2732 -2.0016 0.9765
3.4593 4.4001 -2.0016 0.9765
3.2992 4.5214 -2.0016 0.9765
3.1348 4.6368 -2.0016 0.9765
2.9665 4.7463 -2.0016 0.9765
2.4393 5.0376 -2.0016 0.9765
1.1106 5.4858 -2.0016 0.9765
0.7144 5.5513 -2.0016 0.9765
0.5148 5.5734 -2.0016 0.9765
-0.2878 5.5897 -2.0016 0.9765
-0.8867 5.5264 -2.0016 0.9765
-1.2807 5.4486 -2.0016 0.9765
-1.8587 5.2795 -2.0016 0.9765
-2.2325 5.1326 -2.0016 0.9765
-2.4152 5.0492 -2.0016 0.9765
-2.5948 4.9593 -2.0016 0.9765
-3.7460 4.1587 -2.0016 0.9765
-4.3024 3.5801 -2.0016 0.9765
-4.5480 3.2624 -2.0016 0.9765
-4.7702 2.9278 -2.0016 0.9765
-5.0572 2.3983 -2.0016 0.9765
-5.2162 2.0295 -2.0016 0.9765
-5.2856 1.8411 -2.0016 0.9765
-5.3483 1.6503 -2.0016 0.9765
-5.4528 1.2625 -2.0016 0.9765
-5.5569 0.6693 -2.0016 0.9765
-5.5774 0.4695 -2.0016 0.9765
-5.5967 0.0684 -2.0016 0.9765
-5.5955 -0.1325 -2.0016 0.9765
-5.5872 -0.3331 -2.0016 0.9765
-5.5716 -0.5334 -2.0016 0.9765
-5.5489 -0.7329 -2.0016 0.9765
-5.4380 -1.3249 -2.0016 0.9765
-5.3870 -1.5191 -2.0016 0.9765
-5.3290 -1.7114 -2.0016 0.9765
-5.2642 -1.9015 -2.0016 0.9765
-4.5814 -2.4446 -1.8570 0.9782
-4.4907 -2.6074 -1.8570 0.9782
-4.0715 -3.2230 -1.8570 0.9782
-3.9533 -3.3670 -1.8570 0.9782
-3.7017 -3.6418 -1.8570 0.9782
-3.5686 -3.7723 -1.8570 0.9782
-3.4310 -3.8979 -1.8570 0.9782
-3.2889 -4.0184 -1.8570 0.9782
-3.1427 -4.1339 -1.8570 0.9782
-2.9923 -4.2439 -1.8570 0.9782
-2.8381 -4.3486 -1.8570 0.9782
-2.5190 -4.5409 -1.8570 0.9782
-2.1869 -4.7098 -1.8570 0.9782
-1.8435 -4.8545 -1.8570 0.9782
-1.6682 -4.9175 -1.8570 0.9782
-0.7638 -5.1363 -1.8570 0.9782
-0.0212 -5.1927 -1.8570 0.9782
0.1651 -5.1902 -1.8570 0.9782
0.3512 -5.1809 -1.8570 0.9782
0.9058 -5.1132 -1.8570 0.9782
1.0887 -5.0774 -1.8570 0.9782
1.4500 -4.9863 -1.8570 0.9782
1.6279 -4.9310 -1.8570 0.9782
1.8038 -4.8694 -1.8570 0.9782
1.9773 -4.8016 -1.8570 0.9782
2.0006 -4.4024 -1.7293 0.9797
2.0551 -4.1230 -1.6474 0.9806
2.3934 -4.0461 -1.6811 0.9802
2.8025 -4.3716 -1.8570 0.9782
2.9575 -4.2683 -1.8570 0.9782
3.1087 -4.1594 -1.8570 0.9782
3.2560 -4.0452 -1.8570 0.9782
3.3990 -3.9258 -1.8570 0.9782
3.8131 -4.0973 -2.0016 0.9765
4.2312 -3.6639 -2.0016 0.9765
4.3600 -3.5097 -2.0016 0.9765
4.4831 -3.3510 -2.0016 0.9765
4.7118 -3.0209 -2.0016 0.9765
4.9163 -2.6753 -2.0016 0.9765
5.0091 -2.4972 -2.0016 0.9765
5.0955 -2.3159 -2.0016 0.9765
5.1753 -2.1316 -2.0016 0.9765
5.3148 -1.7550 -2.0016 0.9765
5.3744 -1.5632 -2.0016 0.9765
5.4270 -1.3693 -2.0016 0.9765
5.4726 -1.1738 -2.0016 0.9765
5.5112 -0.9767 -2.0016 0.9765
5.5671 -0.5789 -2.0016 0.9765
5.5843 -0.3788 -2.0016 0.9765
5.5943 -0.1783 -2.0016 0.9765
5.5971 0.0226 -2.0016 0.9765
5.5926 0.2234 -2.0016 0.9765
5.5810 0.4239 -2.0016 0.9765
5.5622 0.6238 -2.0016 0.9765
5.5363 0.8230 -2.0016 0.9765
5.5032 1.0211 -2.0016 0.9765
5.4158 1.4130 -2.0016 0.9765
5.2326 1.9868 -2.0016 0.9765
5.1580 2.1732 -2.0016 0.9765
5.0767 2.3569 -2.0016 0.9765
4.9889 2.5375 -2.0016 0.9765
4.8946 2.7148 -2.0016 0.9765
4.7940 2.8887 -2.0016 0.9765
4.6873 3.0588 -2.0016 0.9765
4.4559 3.3871 -2.0016 0.9765
4.0662 3.8462 -2.0016 0.9765
3.7799 4.1279 -2.0016 0.9765
3.6294 4.2609 -2.0016 0.9765
2.6353 4.9379 -2.0016 0.9765
2.2744 5.1142 -2.0016 0.9765
2.0895 5.1925 -2.0016 0.9765
1.7117 5.3289 -2.0016 0.9765
1.5195 5.3869 -2.0016 0.9765
1.3252 5.4379 -2.0016 0.9765
1.1293 5.4820 -2.0016 0.9765
0.9319 5.5190 -2.0016 0.9765
0.7333 5.5489 -2.0016 0.9765
0.3335 5.5871 -2.0016 0.9765
-0.0680 5.5967 -2.0016 0.9765
-0.4692 5.5774 -2.0016 0.9765
-0.8679 5.5294 -2.0016 0.9765
-1.2622 5.4529 -2.0016 0.9765
-1.4570 5.4041 -2.0016 0.9765
-1.6499 5.3484 -2.0016 0.9765
-2.0292 5.2163 -2.0016 0.9765
-2.2150 5.1401 -2.0016 0.9765
-2.5779 4.9681 -2.0016 0.9765
-2.7545 4.8724 -2.0016 0.9765
-3.8791 4.0348 -2.0016 0.9765
-4.0214 3.8930 -2.0016 0.9765
-4.4164 3.4384 -2.0016 0.9765
-4.5369 3.2778 -2.0016 0.9765
-4.6516 3.1129 -2.0016 0.9765
-4.7603 2.9440 -2.0016 0.9765
-4.8628 2.7713 -2.0016 0.9765
-4.9591 2.5951 -2.0016 0.9765
-5.0490 2.4155 -2.0016 0.9765
-5.1325 2.2328 -2.0016 0.9765
-5.3426 1.6684 -2.0016 0.9765
-5.5264 0.8870 -2.0016 0.9765
-5.5546 0.6882 -2.0016 0.9765
-5.5964 0.0874 -2.0016 0.9765
-5.5734 -0.5145 -2.0016 0.9765
-5.4859 -1.1103 -2.0016 0.9765
-5.4425 -1.3064 -2.0016 0.9765
-5.3921 -1.5008 -2.0016 0.9765
-5.2706 -1.8836 -2.0016 0.9765
-5.1996 -2.0715 -2.0016 0.9765
-5.0439 -2.2223 -1.9710 0.9769
-4.6738 -2.2628 -1.8570 0.9782
-4.5896 -2.4291 -1.8570 0.9782
-4.4995 -2.5922 -1.8570 0.9782
-4.4036 -2.7519 -1.8570 0.9782
-4.3021 -2.9081 -1.8570 0.9782
-4.0825 -3.2091 -1.8570 0.9782
-3.7140 -3.6292 -1.8570 0.9782
-3.4442 -3.8862 -1.8570 0.9782
-3.3026 -4.0073 -1.8570 0.9782
-3.0067 -4.2338 -1.8570 0.9782
-2.3702 -4.6203 -1.8570 0.9782
-2.2029 -4.7024 -1.8570 0.9782
-2.0328 -4.7784 -1.8570 0.9782
-1.5076 -4.9691 -1.8570 0.9782
-1.3283 -5.0200 -1.8570 0.9782
-0.9649 -5.1023 -1.8570 0.9782
-0.7813 -5.1337 -1.8570 0.9782
-0.5966 -5.1584 -1.8570 0.9782
-0.4111 -5.1765 -1.8570 0.9782
-0.0389 -5.1926 -1.8570 0.9782
0.1475 -5.1907 -1.8570 0.9782
0.3336 -5.1821 -1.8570 0.9782
0.7043 -5.1448 -1.8570 0.9782
1.2530 -5.0393 -1.8570 0.9782
2.0004 -4.4422 -1.7422 0.9795
2.0537 -4.1554 -1.6576 0.9805
2.1879 -4.0540 -1.6474 0.9806
3.0946 -4.1700 -1.8570 0.9782
3.2422 -4.0563 -1.8570 0.9782
4.3480 -3.5245 -2.0016 0.9765
4.4717 -3.3662 -2.0016 0.9765
4.5896 -3.2036 -2.0016 0.9765
4.7015 -3.0369 -2.0016 0.9765
4.8075 -2.8663 -2.0016 0.9765
4.9072 -2.6920 -2.0016 0.9765
5.0006 -2.5142 -2.0016 0.9765
5.0876 -2.3332 -2.0016 0.9765
5.1680 -2.1491 -2.0016 0.9765
5.2418 -1.9623 -2.0016 0.9765
5.3089 -1.7730 -2.0016 0.9765
5.3690 -1.5814 -2.0016 0.9765
5.4223 -1.3878 -2.0016 0.9765
5.5400 -0.7971 -2.0016 0.9765
5.5651 -0.5979 -2.0016 0.9765
5.5829 -0.3978 -2.0016 0.9765
5.5643 0.6049 -2.0016 0.9765
5.1636 0.7855 -2.0016 0.9779
5.1321 0.9703 -2.0016 0.9779
5.0493 1.3358 -2.0016 0.9779
4.9406 1.6944 -2.0016 0.9779
4.8063 2.0443 -2.0016 0.9779
4.7299 2.2154 -2.0016 0.9779
4.6474 2.3837 -2.0016 0.9779
4.5589 2.5489 -2.0016 0.9779
4.3643 2.8692 -2.0016 0.9779
4.1474 3.1748 -2.0016 0.9779
4.0308 3.3216 -2.0016 0.9779
3.5142 3.8640 -2.0016 0.9779
3.3733 3.9876 -2.0016 0.9779
3.0787 4.2192 -2.0016 0.9779
2.9253 4.3269 -2.0016 0.9779
2.4435 4.6162 -2.0016 0.9779
2.2763 4.7009 -2.0016 0.9779
2.1062 4.7795 -2.0016 0.9779
1.9334 4.8520 -2.0016 0.9779
1.2194 5.0787 -2.0016 0.9779
0.8521 5.1531 -2.0016 0.9779
0.6667 5.1803 -2.0016 0.9779
0.2935 5.2148 -2.0016 0.9779
-0.0812 5.2224 -2.0016 0.9779
-0.4555 5.2031 -2.0016 0.9779
-0.6419 5.1834 -2.0016 0.9779
-0.8274 5.1571 -2.0016 0.9779
-1.0119 5.1241 -2.0016 0.9779
-1.1951 5.0845 -2.0016 0.9779
-1.3767 5.0383 -2.0016 0.9779
-1.5566 4.9857 -2.0016 0.9779
-1.7345 4.9266 -2.0016 0.9779
-1.9101 4.8612 -2.0016 0.9779
-2.4214 4.6279 -2.0016 0.9779
-2.5858 4.5380 -2.0016 0.9779
-2.7470 4.4423 -2.0016 0.9779
-2.9046 4.3409 -2.0016 0.9779
-3.0585 4.2339 -2.0016 0.9779
-3.6326 3.7529 -2.0016 0.9779
-3.8924 3.4827 -2.0016 0.9779
-4.0148 3.3408 -2.0016 0.9779
-4.1321 3.1946 -2.0016 0.9779
-4.4514 2.7322 -2.0016 0.9779
-4.6359 2.4059 -2.0016 0.9779
-4.7192 2.2380 -2.0016 0.9779
-4.7965 2.0673 -2.0016 0.9779
-4.9324 1.7180 -2.0016 0.9779
-4.9908 1.5400 -2.0016 0.9779
-5.0429 1.3599 -2.0016 0.9779
-5.0884 1.1781 -2.0016 0.9779
-5.1598 0.8102 -2.0016 0.9779
-5.2046 0.4381 -2.0016 0.9779
-5.2216 -0.1236 -2.0016 0.9779
-5.1781 -0.6839 -2.0016 0.9779
-5.1502 -0.8693 -2.0016 0.9779
-5.0746 -1.2363 -2.0016 0.9779
-5.0270 -1.4176 -2.0016 0.9779
-4.9729 -1.5971 -2.0016 0.9779
-4.8456 -1.9495 -2.0016 0.9779
-4.7725 -2.1221 -2.0016 0.9779
-4.5605 -2.2271 -1.9449 0.9785
-4.1006 -2.5820 -1.8570 0.9795
-3.9049 -2.8694 -1.8570 0.9795
-3.6891 -3.1420 -1.8570 0.9795
-3.5740 -3.2723 -1.8570 0.9795
-3.3301 -3.5202 -1.8570 0.9795
-2.9326 -3.8576 -1.8570 0.9795
-2.7923 -3.9603 -1.8570 0.9795
-2.5012 -4.1504 -1.8570 0.9795
-2.3507 -4.2374 -1.8570 0.9795
-2.1971 -4.3190 -1.8570 0.9795
-1.8818 -4.4655 -1.8570 0.9795
-1.3911 -4.6418 -1.8570 0.9795
-1.2236 -4.6887 -1.8570 0.9795
-0.7128 -4.7930 -1.8570 0.9795
-0.3672 -4.8318 -1.8570 0.9795
-0.0198 -4.8457 -1.8570 0.9795
0.1540 -4.8433 -1.8570 0.9795
0.3277 -4.8347 -1.8570 0.9795
0.5009 -4.8198 -1.8570 0.9795
0.6735 -4.7987 -1.8570 0.9795
0.8453 -4.7715 -1.8570 0.9795
1.3530 -4.6530 -1.8570 0.9795
1.5191 -4.6015 -1.8570 0.9795
2.0105 -4.0334 -1.7271 0.9809
2.3666 -4.0007 -1.7813 0.9803
3.0384 -3.7749 -1.8570 0.9795
3.1718 -3.6634 -1.8570 0.9795
3.8233 -3.5585 -2.0016 0.9779
4.0686 -3.2752 -2.0016 0.9779
4.2930 -2.9750 -2.0016 0.9779
4.3969 -2.8191 -2.0016 0.9779
4.4952 -2.6595 -2.0016 0.9779
4.5878 -2.4965 -2.0016 0.9779
4.6744 -2.3303 -2.0016 0.9779
4.8294 -1.9891 -2.0016 0.9779
4.9596 -1.6377 -2.0016 0.9779
5.0152 -1.4587 -2.0016 0.9779
5.1429 -0.9114 -2.0016 0.9779
5.1723 -0.7263 -2.0016 0.9779
5.1950 -0.5403 -2.0016 0.9779
5.2204 -0.1663 -2.0016 0.9779
5.2230 0.0211 -2.0016 0.9779
5.2189 0.2084 -2.0016 0.9779
5.1905 0.5821 -2.0016 0.9779
5.0979 1.1364 -2.0016 0.9779
5.0538 1.3186 -2.0016 0.9779
4.8829 1.8540 -2.0016 0.9779
4.4737 2.6956 -2.0016 0.9779
3.9208 3.4507 -2.0016 0.9779
3.6632 3.7230 -2.0016 0.9779
3.5273 3.8520 -2.0016 0.9779
2.9400 4.3170 -2.0016 0.9779
2.7832 4.4197 -2.0016 0.9779
2.6229 4.5167 -2.0016 0.9779
2.2923 4.6931 -2.0016 0.9779
2.1224 4.7724 -2.0016 0.9779
1.9498 4.8454 -2.0016 0.9779
1.7747 4.9123 -2.0016 0.9779
1.5974 4.9728 -2.0016 0.9779
1.4179 5.0269 -2.0016 0.9779
1.2367 5.0745 -2.0016 0.9779
1.0538 5.1156 -2.0016 0.9779
0.6843 5.1780 -2.0016 0.9779
0.3112 5.2138 -2.0016 0.9779
-0.2508 5.2170 -2.0016 0.9779
-0.6242 5.1856 -2.0016 0.9779
-0.8099 5.1599 -2.0016 0.9779
-0.9945 5.1275 -2.0016 0.9779
-1.8936 4.8677 -2.0016 0.9779
-2.0670 4.7966 -2.0016 0.9779
-2.2378 4.7194 -2.0016 0.9779
-2.4056 4.6361 -2.0016 0.9779
-2.5704 4.5468 -2.0016 0.9779
-2.7319 4.4516 -2.0016 0.9779
-3.0441 4.2443 -2.0016 0.9779
-3.1944 4.1323 -2.0016 0.9779
-3.3406 4.0151 -2.0016 0.9779
-3.7526 3.6329 -2.0016 0.9779
-3.8806 3.4959 -2.0016 0.9779
-4.0035 3.3544 -2.0016 0.9779
-4.4421 2.7473 -2.0016 0.9779
-4.6277 2.4217 -2.0016 0.9779
-4.7116 2.2541 -2.0016 0.9779
-4.7894 2.0836 -2.0016 0.9779
-4.8611 1.9104 -2.0016 0.9779
-4.9856 1.5569 -2.0016 0.9779
-5.0382 1.3770 -2.0016 0.9779
-5.1240 1.0122 -2.0016 0.9779
-5.1834 0.6422 -2.0016 0.9779
-5.2220 -0.1059 -2.0016 0.9779
-5.2148 -0.2932 -2.0016 0.9779
-5.2009 -0.4801 -2.0016 0.9779
-5.1804 -0.6664 -2.0016 0.9779
-5.1531 -0.8518 -2.0016 0.9779
-5.1192 -1.0361 -2.0016 0.9779
-5.0788 -1.2191 -2.0016 0.9779
-5.0318 -1.4005 -2.0016 0.9779
-4.9783 -1.5802 -2.0016 0.9779
-4.8521 -1.9331 -2.0016 0.9779
-4.5956 -2.2250 -1.9567 0.9784
-4.1988 -2.4189 -1.8570 0.9795
-4.0146 -2.7138 -1.8570 0.9795
-3.9146 -2.8561 -1.8570 0.9795
-3.8096 -2.9947 -1.8570 0.9795
-3.6997 -3.1294 -1.8570 0.9795
-3.4658 -3.3867 -1.8570 0.9795
-3.3421 -3.5088 -1.8570 0.9795
-3.2140 -3.6265 -1.8570 0.9795
-3.0819 -3.7395 -1.8570 0.9795
-2.8058 -3.9508 -1.8570 0.9795
-2.6622 -4.0489 -1.8570 0.9795
-2.0557 -4.3881 -1.8570 0.9795
-1.7357 -4.5242 -1.8570 0.9795
-1.5723 -4.5836 -1.8570 0.9795
-1.4068 -4.6370 -1.8570 0.9795
-1.2396 -4.6845 -1.8570 0.9795
-0.5567 -4.8137 -1.8570 0.9795
-0.3837 -4.8305 -1.8570 0.9795
-0.2101 -4.8412 -1.8570 0.9795
0.1376 -4.8438 -1.8570 0.9795
0.3113 -4.8357 -1.8570 0.9795
0.4846 -4.8215 -1.8570 0.9795
0.8291 -4.7743 -1.8570 0.9795
0.9998 -4.7415 -1.8570 0.9795
1.1693 -4.7026 -1.8570 0.9795
1.3372 -4.6576 -1.8570 0.9795
1.5035 -4.6066 -1.8570 0.9795
1.6678 -4.5497 -1.8570 0.9795
2.3482 -4.0006 -1.7777 0.9803
2.7463 -3.9924 -1.8570 0.9795
3.1594 -3.6742 -1.8570 0.9795
3.2892 -3.5585 -1.8570 0.9795
3.4147 -3.4382 -1.8570 0.9795
3.8112 -3.5714 -2.0016 0.9779
4.0574 -3.2890 -2.0016 0.9779
4.3873 -2.8340 -2.0016 0.9779
4.4862 -2.6747 -2.0016 0.9779
4.6664 -2.3462 -2.0016 0.9779
4.7476 -2.1772 -2.0016 0.9779
4.8227 -2.0055 -2.0016 0.9779
4.8915 -1.8312 -2.0016 0.9779
5.0102 -1.4757 -2.0016 0.9779
5.1031 -1.1126 -2.0016 0.9779
5.2230 0.0033 -2.0016 0.9779
5.2196 0.1907 -2.0016 0.9779
5.1924 0.5645 -2.0016 0.9779
4.7279 1.2507 -2.0016 0.9791
4.6260 1.5865 -2.0016 0.9791
4.5661 1.7515 -2.0016 0.9791
4.0865 2.6866 -2.0016 0.9791
3.9875 2.8315 -2.0016 0.9791
3.8833 2.9727 -2.0016 0.9791
3.2905 3.6180 -2.0016 0.9791
3.1586 3.7337 -2.0016 0.9791
2.8827 3.9506 -2.0016 0.9791
2.4415 4.2375 -2.0016 0.9791
2.1314 4.4016 -2.0016 0.9791
1.9721 4.4753 -2.0016 0.9791
1.6461 4.6051 -2.0016 0.9791
1.4798 4.6612 -2.0016 0.9791
0.9704 4.7933 -2.0016 0.9791
0.7978 4.8250 -2.0016 0.9791
0.6242 4.8505 -2.0016 0.9791
0.2748 4.8828 -2.0016 0.9791
0.0994 4.8895 -2.0016 0.9791
-0.2514 4.8840 -2.0016 0.9791
-0.4265 4.8719 -2.0016 0.9791
-0.6010 4.8534 -2.0016 0.9791
-2.7197 4.0645 -2.0016 0.9791
-2.8637 3.9643 -2.0016 0.9791
-3.0041 3.8590 -2.0016 0.9791
-3.5253 3.3896 -2.0016 0.9791
-3.6446 3.2610 -2.0016 0.9791
-3.7592 3.1281 -2.0016 0.9791
-3.8690 2.9912 -2.0016 0.9791
-3.9739 2.8505 -2.0016 0.9791
-4.0736 2.7061 -2.0016 0.9791
-4.3408 2.2527 -2.0016 0.9791
-4.4188 2.0956 -2.0016 0.9791
-4.4911 1.9357 -2.0016 0.9791
-4.5577 1.7733 -2.0016 0.9791
-4.6184 1.6086 -2.0016 0.9791
-4.6731 1.4419 -2.0016 0.9791
-4.7218 1.2733 -2.0016 0.9791
-4.7645 1.1031 -2.0016 0.9791
-4.8010 0.9315 -2.0016 0.9791
-2.0136 0.3162 -0.8342 0.9912
-1.9542 0.2354 -0.8056 0.9915
-1.9209 -0.0455 -0.7864 0.9917
-1.9466 -0.1161 -0.7981 0.9916
-2.1156 -0.3571 -0.8781 0.9908
-4.7900 -0.9864 -2.0016 0.9791
-4.5996 -1.6615 -2.0016 0.9791
-4.5371 -1.8254 -2.0016 0.9791
-4.4686 -1.9870 -2.0016 0.9791
-4.3945 -2.1460 -2.0016 0.9791
-4.1764 -2.2285 -1.9374 0.9797
-3.7503 -2.5538 -1.8570 0.9806
-3.3464 -3.0640 -1.8570 0.9806
-3.2344 -3.1821 -1.8570 0.9806
-3.1181 -3.2960 -1.8570 0.9806
-2.8737 -3.5112 -1.8570 0.9806
-2.4798 -3.7996 -1.8570 0.9806
-1.9108 -4.1153 -1.8570 0.9806
-1.6108 -4.2417 -1.8570 0.9806
-0.9875 -4.4285 -1.8570 0.9806
-0.8280 -4.4611 -1.8570 0.9806
-0.6674 -4.4879 -1.8570 0.9806
-0.5060 -4.5089 -1.8570 0.9806
-0.3439 -4.5242 -1.8570 0.9806
-0.1813 -4.5336 -1.8570 0.9806
0.7915 -4.4677 -1.8570 0.9806
0.9512 -4.4364 -1.8570 0.9806
1.2669 -4.3568 -1.8570 0.9806
1.4224 -4.3085 -1.8570 0.9806
1.5760 -4.2547 -1.8570 0.9806
1.7277 -4.1954 -1.8570 0.9806
1.8771 -4.1307 -1.8570 0.9806
2.0105 -4.0334 -1.8445 0.9807
2.3101 -3.9052 -1.8570 0.9806
2.4487 -3.8198 -1.8570 0.9806
2.7163 -3.6343 -1.8570 0.9806
2.8449 -3.5345 -1.8570 0.9806
2.9699 -3.4302 -1.8570 0.9806
3.0910 -3.3214 -1.8570 0.9806
3.2082 -3.2084 -1.8570 0.9806
4.0196 -2.7856 -2.0016 0.9791
4.1170 -2.6396 -2.0016 0.9791
4.2091 -2.4902 -2.0016 0.9791
4.4522 -2.0235 -2.0016 0.9791
4.5859 -1.6990 -2.0016 0.9791
4.6439 -1.5334 -2.0016 0.9791
4.6959 -1.3658 -2.0016 0.9791
4.7419 -1.1965 -2.0016 0.9791
4.7818 -1.0256 -2.0016 0.9791
4.8155 -0.8534 -2.0016 0.9791
4.8430 -0.6801 -2.0016 0.9791
4.8793 -0.3310 -2.0016 0.9791
4.8765 0.3703 -2.0016 0.9791
4.8373 0.7191 -2.0016 0.9791
4.8084 0.8922 -2.0016 0.9791
4.6847 1.4036 -2.0016 0.9791
4.5720 1.7360 -2.0016 0.9791
4.3590 2.2172 -2.0016 0.9791
4.2767 2.3721 -2.0016 0.9791
4.1888 2.5240 -2.0016 0.9791
3.9971 2.8179 -2.0016 0.9791
3.7847 3.0973 -2.0016 0.9791
3.5529 3.3607 -2.0016 0.9791
3.1712 3.7230 -2.0016 0.9791
2.8961 3.9408 -2.0016 0.9791
2.7528 4.0421 -2.0016 0.9791
2.6060 4.1383 -2.0016 0.9791
2.4559 4.2291 -2.0016 0.9791
1.9873 4.4685 -2.0016 0.9791
1.6617 4.5995 -2.0016 0.9791
1.4957 4.6562 -2.0016 0.9791
1.3276 4.7068 -2.0016 0.9791
0.4663 4.8682 -2.0016 0.9791
-0.0594 4.8901 -2.0016 0.9791
-0.2348 4.8849 -2.0016 0.9791
-0.4099 4.8733 -2.0016 0.9791
-0.9312 4.8010 -2.0016 0.9791
-1.2731 4.7219 -2.0016 0.9791
-1.7730 4.5577 -2.0016 0.9791
-1.9354 4.4912 -2.0016 0.9791
-2.0953 4.4189 -2.0016 0.9791
-2.2525 4.3409 -2.0016 0.9791
-2.8503 3.9740 -2.0016 0.9791
-3.1279 3.7594 -2.0016 0.9791
-3.5137 3.4016 -2.0016 0.9791
-3.6335 3.2733 -2.0016 0.9791
-3.7486 3.1409 -2.0016 0.9791
-3.8589 3.0044 -2.0016 0.9791
-3.9642 2.8640 -2.0016 0.9791
-4.0644 2.7199 -2.0016 0.9791
-4.1593 2.5723 -2.0016 0.9791
-4.2489 2.4215 -2.0016 0.9791
-4.4116 2.1106 -2.0016 0.9791
-4.4845 1.9509 -2.0016 0.9791
-4.6129 1.6243 -2.0016 0.9791
-4.6682 1.4578 -2.0016 0.9791
-4.7175 1.2894 -2.0016 0.9791
-4.7607 1.1193 -2.0016 0.9791
-4.7978 0.9478 -2.0016 0.9791
-2.0414 0.3277 -0.8462 0.9911
-1.9532 0.2420 -0.8055 0.9915
-1.9577 0.1715 -0.8043 0.9915
-1.9179 -0.0389 -0.7851 0.9917
-1.9447 -0.1093 -0.7972 0.9916
-1.9516 -0.2510 -0.8053 0.9915
-4.7554 -1.1415 -2.0016 0.9791
-4.7114 -1.3114 -2.0016 0.9791
-4.6613 -1.4795 -2.0016 0.9791
-4.5432 -1.8100 -2.0016 0.9791
-4.4754 -1.9718 -2.0016 0.9791
-4.2070 -2.2265 -1.9481 0.9796
-3.7590 -2.5410 -1.8570 0.9806
-3.6654 -2.6742 -1.8570 0.9806
-3.0094 -3.3956 -1.8570 0.9806
-2.8857 -3.5014 -1.8570 0.9806
-2.4927 -3.7912 -1.8570 0.9806
-2.0710 -4.0370 -1.8570 0.9806
-1.9248 -4.1087 -1.8570 0.9806
-1.6252 -4.2362 -1.8570 0.9806
-1.4722 -4.2918 -1.8570 0.9806
-1.3173 -4.3418 -1.8570 0.9806
-1.1606 -4.3863 -1.8570 0.9806
-0.8431 -4.4582 -1.8570 0.9806
-0.6826 -4.4856 -1.8570 0.9806
-0.5213 -4.5072 -1.8570 0.9806
0.1288 -4.5354 -1.8570 0.9806
0.4537 -4.5145 -1.8570 0.9806
0.6154 -4.4953 -1.8570 0.9806
0.7763 -4.4703 -1.8570 0.9806
0.9362 -4.4396 -1.8570 0.9806
1.0948 -4.4032 -1.8570 0.9806
1.5616 -4.2600 -1.8570 0.9806
1.8631 -4.1371 -1.8570 0.9806
2.1549 -3.9929 -1.8570 0.9806
2.2968 -3.9130 -1.8570 0.9806
2.7039 -3.6435 -1.8570 0.9806
2.8329 -3.5442 -1.8570 0.9806
3.7991 -3.0796 -2.0016 0.9791
4.0102 -2.7992 -2.0016 0.9791
4.1080 -2.6535 -2.0016 0.9791
4.2877 -2.3521 -2.0016 0.9791
4.5156 -1.8778 -2.0016 0.9791
4.5801 -1.7146 -2.0016 0.9791
4.7378 -1.2126 -2.0016 0.9791
4.8406 -0.6965 -2.0016 0.9791
4.8781 -0.3476 -2.0016 0.9791
4.8905 0.0031 -2.0016 0.9791
4.8619 0.5285 -2.0016 0.9791
4.5404 0.6907 -2.0016 0.9802
4.5127 0.8532 -2.0016 0.9802
4.4792 1.0145 -2.0016 0.9802
4.1590 1.9480 -2.0016 0.9802
4.0865 2.0960 -2.0016 0.9802
4.0086 2.2413 -2.0016 0.9802
3.8376 2.5230 -2.0016 0.9802
3.3258 3.1673 -2.0016 0.9802
3.2100 3.2846 -2.0016 0.9802
3.0901 3.3976 -2.0016 0.9802
2.9662 3.5063 -2.0016 0.9802
2.7071 3.7100 -2.0016 0.9802
2.5723 3.8047 -2.0016 0.9802
2.1486 4.0591 -2.0016 0.9802
1.8520 4.2027 -2.0016 0.9802
1.7000 4.2664 -2.0016 0.9802
1.5459 4.3247 -2.0016 0.9802
1.3897 4.3774 -2.0016 0.9802
1.2318 4.4244 -2.0016 0.9802
0.7493 4.5311 -2.0016 0.9802
0.0934 4.5917 -2.0016 0.9802
-0.0714 4.5921 -2.0016 0.9802
-0.2361 4.5866 -2.0016 0.9802
-0.4005 4.5752 -2.0016 0.9802
-0.7276 4.5347 -2.0016 0.9802
-0.8898 4.5056 -2.0016 0.9802
-1.2106 4.4302 -2.0016 0.9802
-1.5251 4.3320 -2.0016 0.9802
-1.8318 4.2115 -2.0016 0.9802
-1.9818 4.1431 -2.0016 0.9802
-2.1291 4.0693 -2.0016 0.9802
-2.2738 3.9903 -2.0016 0.9802
-2.4154 3.9062 -2.0016 0.9802
-2.9494 3.5205 -2.0016 0.9802
-3.1942 3.2999 -2.0016 0.9802
-3.3106 3.1832 -2.0016 0.9802
-3.4226 3.0624 -2.0016 0.9802
-3.6334 2.8091 -2.0016 0.9802
-3.8255 2.5413 -2.0016 0.9802
-3.9142 2.4024 -2.0016 0.9802
-4.1497 1.9679 -2.0016 0.9802
-4.2176 1.8178 -2.0016 0.9802
-1.5925 0.5547 -0.7349 0.9927
-1.5778 0.4868 -0.7196 0.9928
-1.5293 0.0736 -0.6673 0.9933
-1.5249 0.0186 -0.6646 0.9934
-1.5269 -0.0361 -0.6656 0.9934
-1.5296 -0.0912 -0.6678 0.9933
-1.5120 -0.3114 -0.6728 0.9933
-1.5407 -0.3754 -0.6911 0.9931
-1.5645 -0.4412 -0.7084 0.9929
-1.5831 -0.5084 -0.7247 0.9928
-4.1965 -1.8660 -2.0016 0.9802
-4.1269 -2.0154 -2.0016 0.9802
-4.0519 -2.1621 -2.0016 0.9802
-3.8390 -2.2290 -1.9347 0.9808
-3.3409 -2.6446 -1.8570 0.9816
-3.2438 -2.7628 -1.8570 0.9816
-2.9282 -3.0953 -1.8570 0.9816
-2.5787 -3.3920 -1.8570 0.9816
-2.4553 -3.4823 -1.8570 0.9816
-2.3288 -3.5682 -1.8570 0.9816
-2.0670 -3.7260 -1.8570 0.9816
-1.9319 -3.7978 -1.8570 0.9816
-1.6547 -3.9265 -1.8570 0.9816
-1.5127 -3.9834 -1.8570 0.9816
-1.2232 -4.0816 -1.8570 0.9816
-1.0760 -4.1228 -1.8570 0.9816
-0.9274 -4.1588 -1.8570 0.9816
-0.6267 -4.2146 -1.8570 0.9816
-0.4751 -4.2343 -1.8570 0.9816
-0.1703 -4.2575 -1.8570 0.9816
-0.0174 -4.2609 -1.8570 0.9816
0.1354 -4.2588 -1.8570 0.9816
0.2881 -4.2512 -1.8570 0.9816
0.5923 -4.2196 -1.8570 0.9816
0.7433 -4.1956 -1.8570 0.9816
1.0422 -4.1315 -1.8570 0.9816
1.1898 -4.0914 -1.8570 0.9816
1.3358 -4.0461 -1.8570 0.9816
1.6225 -3.9399 -1.8570 0.9816
1.7628 -3.8792 -1.8570 0.9816
2.2995 -3.5871 -1.8570 0.9816
2.4268 -3.5023 -1.8570 0.9816
2.6717 -3.3193 -1.8570 0.9816
2.7890 -3.2213 -1.8570 0.9816
3.0128 -3.0130 -1.8570 0.9816
3.1190 -2.9030 -1.8570 0.9816
3.4719 -3.0064 -2.0016 0.9802
3.5775 -2.8799 -2.0016 0.9802
4.1811 -1.9003 -2.0016 0.9802
4.2466 -1.7490 -2.0016 0.9802
4.3066 -1.5956 -2.0016 0.9802
4.4531 -1.1236 -2.0016 0.9802
4.5222 -0.8014 -2.0016 0.9802
4.5480 -0.6386 -2.0016 0.9802
4.5680 -0.4751 -2.0016 0.9802
4.5821 -0.3109 -2.0016 0.9802
4.5903 -0.1463 -2.0016 0.9802
4.5926 0.0185 -2.0016 0.9802
4.5890 0.1833 -2.0016 0.9802
4.5795 0.3478 -2.0016 0.9802
4.5641 0.5119 -2.0016 0.9802
4.5427 0.6753 -2.0016 0.9802
4.5156 0.8378 -2.0016 0.9802
4.4826 0.9993 -2.0016 0.9802
4.4439 1.1595 -2.0016 0.9802
4.3994 1.3182 -2.0016 0.9802
4.3493 1.4751 -2.0016 0.9802
4.2936 1.6302 -2.0016 0.9802
4.2323 1.7832 -2.0016 0.9802
4.0936 2.0821 -2.0016 0.9802
3.8462 2.5099 -2.0016 0.9802
3.3365 3.1560 -2.0016 0.9802
3.1016 3.3871 -2.0016 0.9802
2.9781 3.4962 -2.0016 0.9802
2.8507 3.6008 -2.0016 0.9802
2.5852 3.7960 -2.0016 0.9802
2.3063 3.9716 -2.0016 0.9802
1.8663 4.1964 -2.0016 0.9802
1.7145 4.2606 -2.0016 0.9802
1.0874 4.4621 -2.0016 0.9802
0.9266 4.4982 -2.0016 0.9802
0.6017 4.5531 -2.0016 0.9802
0.2736 4.5845 -2.0016 0.9802
-0.0558 4.5923 -2.0016 0.9802
-0.5489 4.5597 -2.0016 0.9802
-0.7121 4.5371 -2.0016 0.9802
-0.8745 4.5086 -2.0016 0.9802
-1.1955 4.4343 -2.0016 0.9802
-1.6650 4.2802 -2.0016 0.9802
-1.8175 4.2177 -2.0016 0.9802
-1.9677 4.1498 -2.0016 0.9802
-2.1153 4.0765 -2.0016 0.9802
-2.4022 3.9143 -2.0016 0.9802
-3.0622 3.4228 -2.0016 0.9802
-3.2997 3.1944 -2.0016 0.9802
-3.4122 3.0740 -2.0016 0.9802
-3.9060 2.4157 -2.0016 0.9802
-4.1430 1.9820 -2.0016 0.9802
-4.2114 1.8321 -2.0016 0.9802
-4.2744 1.6798 -2.0016 0.9802
-1.5936 0.5611 -0.7363 0.9927
-1.5794 0.4932 -0.7211 0.9928
-1.5596 0.4263 -0.7046 0.9930
-1.5089 0.2422 -0.6660 0.9934
-1.5280 0.1339 -0.6685 0.9933
-1.5255 0.0238 -0.6649 0.9934
-1.5296 -0.0860 -0.6677 0.9933
-1.5198 -0.1955 -0.6678 0.9933
-1.5069 -0.2491 -0.6657 0.9934
-1.5382 -0.3692 -0.6894 0.9931
-1.5625 -0.4349 -0.7068 0.9929
-1.5816 -0.5020 -0.7232 0.9928
-1.5949 -0.5700 -0.7382 0.9926
-4.0592 -2.1483 -2.0016 0.9802
-3.8660 -2.2272 -1.9445 0.9807
-3.5300 -2.3863 -1.8570 0.9816
-3.4422 -2.5114 -1.8570 0.9816
-3.3498 -2.6332 -1.8570 0.9816
-3.0475 -2.9779 -1.8570 0.9816
-2.9387 -3.0853 -1.8570 0.9816
-2.8261 -3.1888 -1.8570 0.9816
-2.7099 -3.2881 -1.8570 0.9816
-2.5902 -3.3832 -1.8570 0.9816
-2.4671 -3.4740 -1.8570 0.9816
-2.3409 -3.5603 -1.8570 0.9816
-2.2117 -3.6420 -1.8570 0.9816
-1.6680 -3.9209 -1.8570 0.9816
-1.3825 -4.0304 -1.8570 0.9816
-1.0900 -4.1192 -1.8570 0.9816
-0.7918 -4.1867 -1.8570 0.9816
-0.3373 -4.2475 -1.8570 0.9816
-0.1847 -4.2569 -1.8570 0.9816
0.1210 -4.2592 -1.8570 0.9816
0.4261 -4.2396 -1.8570 0.9816
0.8791 -4.1692 -1.8570 0.9816
1.0282 -4.1350 -1.8570 0.9816
1.3220 -4.0506 -1.8570 0.9816
1.7496 -3.8851 -1.8570 0.9816
1.8879 -3.8199 -1.8570 0.9816
2.0237 -3.7497 -1.8570 0.9816
2.1569 -3.6747 -1.8570 0.9816
2.2874 -3.5949 -1.8570 0.9816
2.4149 -3.5105 -1.8570 0.9816
2.5392 -3.4216 -1.8570 0.9816
2.8922 -3.1290 -1.8570 0.9816
3.0026 -3.0232 -1.8570 0.9816
3.5677 -2.8920 -2.0016 0.9802
3.9447 -2.3519 -2.0016 0.9802
4.1746 -1.9145 -2.0016 0.9802
4.2406 -1.7635 -2.0016 0.9802
4.3012 -1.6102 -2.0016 0.9802
4.3562 -1.4548 -2.0016 0.9802
4.4055 -1.2976 -2.0016 0.9802
4.4873 -0.9784 -2.0016 0.9802
4.5459 -0.6541 -2.0016 0.9802
4.5810 -0.3264 -2.0016 0.9802
4.5927 0.0029 -2.0016 0.9802
4.5658 0.4964 -2.0016 0.9802
4.2749 0.6503 -2.0016 0.9811
4.2173 0.9552 -2.0016 0.9811
3.9791 1.6925 -2.0016 0.9811
3.8475 1.9734 -2.0016 0.9811
3.7742 2.1102 -2.0016 0.9811
3.4336 2.6284 -2.0016 0.9811
3.0223 3.0925 -2.0016 0.9811
2.7927 3.3013 -2.0016 0.9811
2.6725 3.3994 -2.0016 0.9811
2.4219 3.5822 -2.0016 0.9811
2.0229 3.8217 -2.0016 0.9811
1.8845 3.8918 -2.0016 0.9811
1.1597 4.1657 -2.0016 0.9811
0.8580 4.2381 -2.0016 0.9811
0.7054 4.2662 -2.0016 0.9811
0.5519 4.2887 -2.0016 0.9811
0.3977 4.3058 -2.0016 0.9811
0.2430 4.3173 -2.0016 0.9811
-0.0672 4.3236 -2.0016 0.9811
-0.3771 4.3076 -2.0016 0.9811
-0.8377 4.2422 -2.0016 0.9811
-0.9894 4.2094 -2.0016 0.9811
-1.1398 4.1712 -2.0016 0.9811
-1.2887 4.1276 -2.0016 0.9811
-1.4360 4.0787 -2.0016 0.9811
-1.5814 4.0246 -2.0016 0.9811
-1.7247 3.9652 -2.0016 0.9811
-2.0046 3.8314 -2.0016 0.9811
-2.1408 3.7570 -2.0016 0.9811
-2.2742 3.6777 -2.0016 0.9811
-2.4047 3.5938 -2.0016 0.9811
-2.7769 3.3146 -2.0016 0.9811
-2.8940 3.2128 -2.0016 0.9811
-3.1170 2.9971 -2.0016 0.9811
-3.6018 2.3927 -2.0016 0.9811
-3.6853 2.2619 -2.0016 0.9811
-3.7641 2.1283 -2.0016 0.9811
-3.8380 1.9918 -2.0016 0.9811
-3.9070 1.8529 -2.0016 0.9811
-1.3224 0.5700 -0.6666 0.9937
-1.3306 0.5177 -0.6609 0.9937
-1.3336 0.4645 -0.6537 0.9938
-1.3019 0.3014 -0.6186 0.9941
-1.3110 0.2544 -0.6181 0.9941
-1.3236 0.2078 -0.6202 0.9941
-1.3327 0.1605 -0.6213 0.9941
-1.3383 0.0644 -0.6202 0.9941
-1.3352 0.0163 -0.6181 0.9941
-1.3365 -0.0316 -0.6188 0.9941
-1.3385 -0.0798 -0.6207 0.9941
-1.3368 -0.1280 -0.6216 0.9941
-1.3199 -0.2228 -0.6196 0.9941
-1.3062 -0.2690 -0.6173 0.9941
-1.3071 -0.3184 -0.6227 0.9941
-1.3207 -0.3724 -0.6352 0.9940
-1.3304 -0.4273 -0.6468 0.9939
-3.8855 -1.8975 -2.0016 0.9811
-3.8150 -2.0357 -2.0016 0.9811
-3.7395 -2.1712 -2.0016 0.9811
-3.5396 -2.2287 -1.9362 0.9817
-3.3160 -2.2580 -1.8570 0.9825
-3.2328 -2.3755 -1.8570 0.9825
-3.1455 -2.4900 -1.8570 0.9825
-3.0542 -2.6012 -1.8570 0.9825
-2.9589 -2.7091 -1.8570 0.9825
-2.8598 -2.8135 -1.8570 0.9825
-2.7570 -2.9143 -1.8570 0.9825
-2.4279 -3.1937 -1.8570 0.9825
-2.1926 -3.3595 -1.8570 0.9825
-2.0707 -3.4360 -1.8570 0.9825
-1.0130 -3.8817 -1.8570 0.9825
-0.7321 -3.9444 -1.8570 0.9825
-0.5901 -3.9681 -1.8570 0.9825
-0.4474 -3.9867 -1.8570 0.9825
-0.0164 -4.0117 -1.8570 0.9825
0.4147 -3.9903 -1.8570 0.9825
0.5576 -3.9728 -1.8570 0.9825
0.6998 -3.9502 -1.8570 0.9825
1.2577 -3.8095 -1.8570 0.9825
1.6597 -3.6523 -1.8570 0.9825
1.7897 -3.5904 -1.8570 0.9825
2.4017 -3.2134 -1.8570 0.9825
2.7331 -2.9368 -1.8570 0.9825
2.9366 -2.7332 -1.8570 0.9825
3.3683 -2.7115 -2.0016 0.9811
3.4635 -2.5889 -2.0016 0.9811
4.0548 -1.5023 -2.0016 0.9811
4.1060 -1.3558 -2.0016 0.9811
4.2280 -0.9068 -2.0016 0.9811
4.2578 -0.7545 -2.0016 0.9811
4.2821 -0.6013 -2.0016 0.9811
4.3009 -0.4473 -2.0016 0.9811
4.3219 -0.1377 -2.0016 0.9811
4.2972 0.4819 -2.0016 0.9811
4.2771 0.6358 -2.0016 0.9811
4.1840 1.0917 -2.0016 0.9811
4.0950 1.3889 -2.0016 0.9811
4.0425 1.5349 -2.0016 0.9811
3.9848 1.6789 -2.0016 0.9811
3.6212 2.3631 -2.0016 0.9811
3.5341 2.4915 -2.0016 0.9811
3.4425 2.6167 -2.0016 0.9811
3.3464 2.7385 -2.0016 0.9811
3.2460 2.8568 -2.0016 0.9811
3.1414 2.9715 -2.0016 0.9811
3.0328 3.0822 -2.0016 0.9811
2.9202 3.1891 -2.0016 0.9811
2.5607 3.4844 -2.0016 0.9811
2.3042 3.6590 -2.0016 0.9811
2.1715 3.7393 -2.0016 0.9811
2.0359 3.8148 -2.0016 0.9811
1.8977 3.8854 -2.0016 0.9811
1.4693 4.0668 -2.0016 0.9811
1.1739 4.1617 -2.0016 0.9811
1.0238 4.2011 -2.0016 0.9811
0.7199 4.2638 -2.0016 0.9811
0.4123 4.3044 -2.0016 0.9811
0.2576 4.3164 -2.0016 0.9811
0.1026 4.3229 -2.0016 0.9811
-0.0526 4.3238 -2.0016 0.9811
-0.6705 4.2718 -2.0016 0.9811
-0.8233 4.2450 -2.0016 0.9811
-1.1256 4.1750 -2.0016 0.9811
-1.5677 4.0299 -2.0016 0.9811
-1.7113 3.9711 -2.0016 0.9811
-2.1280 3.7642 -2.0016 0.9811
-2.2617 3.6855 -2.0016 0.9811
-2.7656 3.3240 -2.0016 0.9811
-2.8831 3.2227 -2.0016 0.9811
-2.9969 3.1172 -2.0016 0.9811
-3.3144 2.7771 -2.0016 0.9811
-3.7568 2.1410 -2.0016 0.9811
-3.9007 1.8661 -2.0016 0.9811
-1.3300 0.5227 -0.6615 0.9937
-1.3336 0.4696 -0.6544 0.9938
-1.3286 0.4149 -0.6443 0.9939
-1.3180 0.3602 -0.6325 0.9940
-1.3035 0.3065 -0.6198 0.9941
-1.3096 0.2587 -0.6179 0.9941
-1.3225 0.2123 -0.6200 0.9941
-1.3320 0.1650 -0.6213 0.9941
-1.3377 0.1172 -0.6216 0.9941
-1.3356 0.0208 -0.6183 0.9941
-1.3362 -0.0271 -0.6186 0.9941
-1.3385 -0.0752 -0.6205 0.9941
-1.3373 -0.1234 -0.6216 0.9941
-1.3310 -0.1712 -0.6212 0.9941
-1.3211 -0.2184 -0.6198 0.9941
-1.3077 -0.2647 -0.6176 0.9941
-1.3056 -0.3134 -0.6215 0.9941
-1.3196 -0.3673 -0.6340 0.9940
-1.3334 -0.4765 -0.6554 0.9938
-3.3260 -2.2483 -1.8583 0.9825
-3.2409 -2.3645 -1.8570 0.9825
-3.0630 -2.5908 -1.8570 0.9825
-2.9681 -2.6990 -1.8570 0.9825
-2.8693 -2.8038 -1.8570 0.9825
-2.7669 -2.9049 -1.8570 0.9825
-2.5514 -3.0959 -1.8570 0.9825
-2.4387 -3.1854 -1.8570 0.9825
-2.0823 -3.4290 -1.8570 0.9825
-1.8311 -3.5695 -1.8570 0.9825
-1.5704 -3.6916 -1.8570 0.9825
-1.4370 -3.7456 -1.8570 0.9825
-1.1647 -3.8390 -1.8570 0.9825
-1.0262 -3.8783 -1.8570 0.9825
-0.7455 -3.9419 -1.8570 0.9825
-0.6036 -3.9661 -1.8570 0.9825
-0.3176 -3.9992 -1.8570 0.9825
-0.1739 -4.0080 -1.8570 0.9825
0.1139 -4.0101 -1.8570 0.9825
0.2577 -4.0035 -1.8570 0.9825
0.4012 -3.9916 -1.8570 0.9825
0.5441 -3.9747 -1.8570 0.9825
0.6864 -3.9526 -1.8570 0.9825
0.9680 -3.8932 -1.8570 0.9825
1.3807 -3.7667 -1.8570 0.9825
1.6473 -3.6580 -1.8570 0.9825
1.7775 -3.5965 -1.8570 0.9825
1.9053 -3.5304 -1.8570 0.9825
2.1536 -3.3847 -1.8570 0.9825
2.2736 -3.3053 -1.8570 0.9825
2.5048 -3.1337 -1.8570 0.9825
2.6156 -3.0418 -1.8570 0.9825
2.7231 -2.9460 -1.8570 0.9825
2.8270 -2.8464 -1.8570 0.9825
2.9273 -2.7432 -1.8570 0.9825
3.3591 -2.7229 -2.0016 0.9811
3.6322 -2.3462 -2.0016 0.9811
3.7141 -2.2144 -2.0016 0.9811
3.9926 -1.6603 -2.0016 0.9811
4.0496 -1.5160 -2.0016 0.9811
4.1891 -1.0721 -2.0016 0.9811
4.2552 -0.7690 -2.0016 0.9811
4.2800 -0.6158 -2.0016 0.9811
4.2994 -0.4619 -2.0016 0.9811
4.3132 -0.3073 -2.0016 0.9811
4.3241 0.0027 -2.0016 0.9811
4.3128 0.3128 -2.0016 0.9811
4.0094 0.7580 -2.0016 0.9820
3.9255 1.0385 -1.9918 0.9821
3.8598 1.3237 -2.0016 0.9820
3.6952 1.7308 -2.0016 0.9820
3.5616 1.9913 -2.0016 0.9820
3.4096 2.2416 -2.0016 0.9820
3.0539 2.7063 -2.0016 0.9820
2.8520 2.9183 -2.0016 0.9820
2.6354 3.1153 -2.0016 0.9820
2.4052 3.2962 -2.0016 0.9820
2.1627 3.4602 -2.0016 0.9820
2.0371 3.5356 -2.0016 0.9820
1.9090 3.6064 -2.0016 0.9820
1.5104 3.7906 -2.0016 0.9820
1.0944 3.9310 -2.0016 0.9820
0.9527 3.9677 -2.0016 0.9820
0.8097 3.9993 -2.0016 0.9820
0.6657 4.0258 -2.0016 0.9820
0.5208 4.0471 -2.0016 0.9820
-0.0634 4.0800 -2.0016 0.9820
-0.2098 4.0751 -2.0016 0.9820
-0.3558 4.0649 -2.0016 0.9820
-0.6464 4.0289 -2.0016 0.9820
-1.6275 3.7418 -2.0016 0.9820
-1.8917 3.6155 -2.0016 0.9820
-2.1461 3.4705 -2.0016 0.9820
-2.3894 3.3077 -2.0016 0.9820
-2.5065 3.2198 -2.0016 0.9820
-2.6204 3.1278 -2.0016 0.9820
-2.7310 3.0318 -2.0016 0.9820
-2.9413 2.8282 -2.0016 0.9820
-3.0409 2.7208 -2.0016 0.9820
-3.2282 2.4958 -2.0016 0.9820
-3.3157 2.3784 -2.0016 0.9820
-3.5520 2.0083 -2.0016 0.9820
-1.1359 0.5387 -0.6167 0.9944
-1.1454 0.4937 -0.6118 0.9945
-1.1568 0.4029 -0.6009 0.9946
-1.1588 0.3576 -0.5949 0.9946
-1.1585 0.3124 -0.5886 0.9947
-1.1904 0.1434 -0.5881 0.9947
-1.1963 0.0576 -0.5875 0.9947
-1.1963 -0.0283 -0.5870 0.9947
-1.1959 -0.0713 -0.5877 0.9947
-1.1934 -0.1142 -0.5881 0.9947
-1.1727 -0.2415 -0.5873 0.9947
-1.1614 -0.2830 -0.5864 0.9947
-1.1589 -0.3268 -0.5906 0.9946
-1.1584 -0.3720 -0.5968 0.9946
-1.1504 -0.4628 -0.6082 0.9945
-1.1426 -0.5081 -0.6134 0.9944
-1.1168 -0.5959 -0.6209 0.9944
-3.5288 -2.0489 -2.0016 0.9820
-3.2716 -2.2278 -1.9415 0.9825
-3.0566 -2.2460 -1.8606 0.9832
-2.8821 -2.4546 -1.8570 0.9833
-2.7922 -2.5565 -1.8570 0.9833
-2.6017 -2.7501 -1.8570 0.9833
-2.5013 -2.8417 -1.8570 0.9833
-2.1815 -3.0940 -1.8570 0.9833
-2.0691 -3.1702 -1.8570 0.9833
-1.9540 -3.2424 -1.8570 0.9833
-1.8364 -3.3105 -1.8570 0.9833
-1.7165 -3.3742 -1.8570 0.9833
-1.5943 -3.4336 -1.8570 0.9833
-1.4701 -3.4886 -1.8570 0.9833
-1.0868 -3.6264 -1.8570 0.9833
-0.9560 -3.6630 -1.8570 0.9833
-0.8239 -3.6950 -1.8570 0.9833
-0.4222 -3.7621 -1.8570 0.9833
-0.2869 -3.7748 -1.8570 0.9833
-0.1513 -3.7827 -1.8570 0.9833
0.3914 -3.7654 -1.8570 0.9833
0.5262 -3.7490 -1.8570 0.9833
0.6604 -3.7277 -1.8570 0.9833
0.9260 -3.6707 -1.8570 0.9833
1.0571 -3.6351 -1.8570 0.9833
1.3150 -3.5500 -1.8570 0.9833
1.4415 -3.5005 -1.8570 0.9833
1.5662 -3.4465 -1.8570 0.9833
1.6888 -3.3881 -1.8570 0.9833
1.8093 -3.3254 -1.8570 0.9833
2.0431 -3.1871 -1.8570 0.9833
2.2664 -3.0324 -1.8570 0.9833
2.4780 -2.8620 -1.8570 0.9833
2.7711 -2.5792 -1.8570 0.9833
3.0847 -2.6711 -2.0016 0.9820
3.1786 -2.5587 -2.0016 0.9820
3.2683 -2.4430 -2.0016 0.9820
3.3538 -2.3242 -2.0016 0.9820
3.4351 -2.2024 -2.0016 0.9820
3.5119 -2.0777 -2.0016 0.9820
3.5842 -1.9504 -2.0016 0.9820
3.7148 -1.6883 -2.0016 0.9820
3.8747 -1.2794 -2.0016 0.9820
3.9181 -1.1396 -2.0016 0.9820
3.9565 -0.9983 -2.0016 0.9820
3.9897 -0.8557 -2.0016 0.9820
4.0586 -0.4221 -2.0016 0.9820
4.0711 -0.2762 -2.0016 0.9820
4.0772 0.1628 -2.0016 0.9820
3.9599 0.8828 -1.9901 0.9821
3.8885 1.1651 -1.9912 0.9821
3.8642 1.3106 -2.0016 0.9820
3.7011 1.7182 -2.0016 0.9820
3.6370 1.8499 -2.0016 0.9820
3.3350 2.3511 -2.0016 0.9820
3.2485 2.4693 -2.0016 0.9820
3.1578 2.5842 -2.0016 0.9820
3.0631 2.6959 -2.0016 0.9820
2.8619 2.9086 -2.0016 0.9820
2.6459 3.1063 -2.0016 0.9820
2.5328 3.1992 -2.0016 0.9820
2.4164 3.2880 -2.0016 0.9820
2.2969 3.3726 -2.0016 0.9820
1.3865 3.8377 -2.0016 0.9820
0.6794 4.0235 -2.0016 0.9820
0.5346 4.0453 -2.0016 0.9820
0.3891 4.0619 -2.0016 0.9820
-0.0496 4.0802 -2.0016 0.9820
-0.3420 4.0661 -2.0016 0.9820
-0.4877 4.0512 -2.0016 0.9820
-0.7769 4.0058 -2.0016 0.9820
-0.9202 3.9754 -2.0016 0.9820
-1.6148 3.7473 -2.0016 0.9820
-1.8794 3.6219 -2.0016 0.9820
-2.0081 3.5521 -2.0016 0.9820
-2.7207 3.0411 -2.0016 0.9820
-2.9317 2.8382 -2.0016 0.9820
-3.0317 2.7312 -2.0016 0.9820
-3.3076 2.3896 -2.0016 0.9820
-3.3912 2.2694 -2.0016 0.9820
-3.5452 2.0204 -2.0016 0.9820
-1.1213 0.5868 -0.6208 0.9944
-1.1349 0.5429 -0.6171 0.9944
-1.1446 0.4979 -0.6123 0.9945
-1.1518 0.4526 -0.6070 0.9945
-1.1565 0.4072 -0.6014 0.9946
-1.1587 0.3619 -0.5955 0.9946
-1.1642 0.2737 -0.5866 0.9947
-1.1749 0.2321 -0.5875 0.9947
-1.1941 0.1046 -0.5880 0.9947
-1.1962 0.0617 -0.5876 0.9947
-1.1961 0.0187 -0.5868 0.9947
-1.1963 -0.0243 -0.5869 0.9947
-1.1961 -0.0672 -0.5876 0.9947
-1.1937 -0.1102 -0.5880 0.9947
-1.1626 -0.2791 -0.5865 0.9947
-1.1586 -0.3677 -0.5962 0.9946
-1.1560 -0.4131 -0.6022 0.9945
-1.1510 -0.4585 -0.6077 0.9945
-1.1435 -0.5038 -0.6129 0.9944
-1.1335 -0.5488 -0.6177 0.9944
-1.1187 -0.5921 -0.6209 0.9944
-3.4603 -2.1624 -2.0016 0.9820
-2.9762 -2.3396 -1.8570 0.9833
-2.8008 -2.5470 -1.8570 0.9833
-2.7076 -2.6458 -1.8570 0.9833
-2.6110 -2.7413 -1.8570 0.9833
-2.3013 -3.0059 -1.8570 0.9833
-2.1920 -3.0865 -1.8570 0.9833
-1.8477 -3.3042 -1.8570 0.9833
-1.6060 -3.4282 -1.8570 0.9833
-1.4820 -3.4836 -1.8570 0.9833
-1.2283 -3.5809 -1.8570 0.9833
-1.0991 -3.6227 -1.8570 0.9833
-0.9684 -3.6598 -1.8570 0.9833
-0.5696 -3.7426 -1.8570 0.9833
-0.4349 -3.7606 -1.8570 0.9833
0.2432 -3.7779 -1.8570 0.9833
0.7811 -3.7043 -1.8570 0.9833
1.0447 -3.6387 -1.8570 0.9833
1.3029 -3.5544 -1.8570 0.9833
1.4296 -3.5054 -1.8570 0.9833
1.6773 -3.3939 -1.8570 0.9833
2.2561 -3.0400 -1.8570 0.9833
2.4682 -2.8704 -1.8570 0.9833
2.5696 -2.7800 -1.8570 0.9833
2.6677 -2.6861 -1.8570 0.9833
2.7624 -2.5886 -1.8570 0.9833
3.0185 -2.6317 -1.9644 0.9823
3.2600 -2.4541 -2.0016 0.9820
3.4276 -2.2140 -2.0016 0.9820
3.5775 -1.9625 -2.0016 0.9820
3.6456 -1.8329 -2.0016 0.9820
3.7090 -1.7009 -2.0016 0.9820
3.7677 -1.5668 -2.0016 0.9820
3.8703 -1.2926 -2.0016 0.9820
3.9142 -1.1529 -2.0016 0.9820
4.0154 -0.7257 -2.0016 0.9820
4.0389 -0.5811 -2.0016 0.9820
4.0571 -0.4359 -2.0016 0.9820
4.0698 0.2952 -2.0016 0.9820
4.0566 0.4410 -2.0016 0.9820
3.8143 0.5802 -2.0016 0.9828
3.7911 0.7167 -2.0016 0.9828
3.7446 0.8481 -1.9918 0.9828
3.7047 0.9801 -1.9881 0.9829
3.6496 1.2516 -2.0016 0.9828
3.6023 1.3818 -2.0016 0.9828
3.5504 1.5101 -2.0016 0.9828
3.4939 1.6365 -2.0016 0.9828
3.4330 1.7608 -2.0016 0.9828
3.2239 2.1195 -2.0016 0.9828
3.1458 2.2338 -2.0016 0.9828
3.0636 2.3452 -2.0016 0.9828
2.9775 2.4536 -2.0016 0.9828
2.8876 2.5589 -2.0016 0.9828
2.7939 2.6608 -2.0016 0.9828
2.6966 2.7593 -2.0016 0.9828
2.4918 2.9456 -2.0016 0.9828
2.2742 3.1167 -2.0016 0.9828
2.1609 3.1963 -2.0016 0.9828
2.0449 3.2717 -2.0016 0.9828
1.8050 3.4100 -2.0016 0.9828
0.9008 3.7516 -2.0016 0.9828
0.6294 3.8065 -2.0016 0.9828
0.4925 3.8267 -2.0016 0.9828
-0.0600 3.8577 -2.0016 0.9828
-0.3365 3.8435 -2.0016 0.9828
-0.4741 3.8290 -2.0016 0.9828
-0.6112 3.8095 -2.0016 0.9828
-0.7475 3.7851 -2.0016 0.9828
-0.8828 3.7559 -2.0016 0.9828
-1.1498 3.6829 -2.0016 0.9828
-1.5389 3.5380 -2.0016 0.9828
-1.6648 3.4805 -2.0016 0.9828
-1.9101 3.3522 -2.0016 0.9828
-2.1456 3.2066 -2.0016 0.9828
-2.2593 3.1275 -2.0016 0.9828
-2.3700 3.0445 -2.0016 0.9828
-2.4777 2.9575 -2.0016 0.9828
-2.5822 2.8667 -2.0016 0.9828
-2.7811 2.6741 -2.0016 0.9828
-3.0524 2.3598 -2.0016 0.9828
-3.2137 2.1349 -2.0016 0.9828
-0.9826 0.6031 -0.5981 0.9948
-1.0483 0.4518 -0.5922 0.9949
-1.0554 0.4107 -0.5875 0.9949
-1.0631 0.3280 -0.5772 0.9950
-1.0657 0.2874 -0.5726 0.9950
-1.0775 0.2495 -0.5738 0.9950
-1.0874 0.2110 -0.5747 0.9950
-1.0951 0.1720 -0.5751 0.9950
-1.1046 0.0930 -0.5751 0.9950
-1.1064 0.0533 -0.5747 0.9950
-1.1036 -0.1057 -0.5752 0.9950
-1.0929 -0.1845 -0.5750 0.9950
-1.0638 -0.3000 -0.5734 0.9950
-1.0625 -0.3412 -0.5789 0.9950
-1.0590 -0.3825 -0.5841 0.9949
-1.0456 -0.4649 -0.5936 0.9949
-1.0343 -0.5051 -0.5971 0.9948
-1.0169 -0.5426 -0.5979 0.9948
-0.9972 -0.5790 -0.5982 0.9948
-3.0295 -2.2261 -1.9503 0.9832
-2.6401 -2.4172 -1.8570 0.9840
-2.5517 -2.5104 -1.8570 0.9840
-2.1663 -2.8496 -1.8570 0.9840
-2.0627 -2.9255 -1.8570 0.9840
-1.9564 -2.9976 -1.8570 0.9840
-1.7364 -3.1301 -1.8570 0.9840
-1.3900 -3.2986 -1.8570 0.9840
-1.2708 -3.3463 -1.8570 0.9840
-1.1499 -3.3898 -1.8570 0.9840
-1.0276 -3.4288 -1.8570 0.9840
-0.9039 -3.4635 -1.8570 0.9840
-0.7791 -3.4937 -1.8570 0.9840
-0.6532 -3.5194 -1.8570 0.9840
-0.3992 -3.5572 -1.8570 0.9840
-0.2713 -3.5692 -1.8570 0.9840
-0.0146 -3.5795 -1.8570 0.9840
0.3700 -3.5603 -1.8570 0.9840
0.7504 -3.5000 -1.8570 0.9840
0.8755 -3.4708 -1.8570 0.9840
1.1222 -3.3991 -1.8570 0.9840
1.2434 -3.3566 -1.8570 0.9840
1.3630 -3.3099 -1.8570 0.9840
1.4809 -3.2588 -1.8570 0.9840
1.5968 -3.2036 -1.8570 0.9840
1.7108 -3.1443 -1.8570 0.9840
2.0387 -2.9422 -1.8570 0.9840
2.2444 -2.7885 -1.8570 0.9840
2.4386 -2.6204 -1.8570 0.9840
3.0903 -2.3099 -2.0016 0.9828
3.3206 -1.9645 -2.0016 0.9828
3.3889 -1.8441 -2.0016 0.9828
3.4529 -1.7214 -2.0016 0.9828
3.7410 -0.9439 -2.0016 0.9828
3.7724 -0.8091 -2.0016 0.9828
3.8207 -0.5365 -2.0016 0.9828
3.8494 -0.2611 -2.0016 0.9828
3.8582 0.0156 -2.0016 0.9828
3.7496 0.8359 -1.9930 0.9828
3.7067 0.9671 -1.9874 0.9829
3.6737 1.1007 -1.9896 0.9829
3.6538 1.2392 -2.0016 0.9828
3.6070 1.3695 -2.0016 0.9828
3.5555 1.4981 -2.0016 0.9828
3.4995 1.6246 -2.0016 0.9828
3.4389 1.7492 -2.0016 0.9828
3.3740 1.8714 -2.0016 0.9828
2.8029 2.6513 -2.0016 0.9828
2.5018 2.9371 -2.0016 0.9828
2.3948 3.0250 -2.0016 0.9828
2.2848 3.1090 -2.0016 0.9828
2.1718 3.1889 -2.0016 0.9828
2.0560 3.2648 -2.0016 0.9828
1.6933 3.4668 -2.0016 0.9828
1.5678 3.5253 -2.0016 0.9828
1.4403 3.5793 -2.0016 0.9828
1.3110 3.6287 -2.0016 0.9828
1.1800 3.6733 -2.0016 0.9828
1.0474 3.7133 -2.0016 0.9828
0.9135 3.7485 -2.0016 0.9828
0.5055 3.8250 -2.0016 0.9828
0.3679 3.8406 -2.0016 0.9828
0.2299 3.8514 -2.0016 0.9828
0.0916 3.8571 -2.0016 0.9828
-0.0469 3.8579 -2.0016 0.9828
-0.1853 3.8538 -2.0016 0.9828
-0.3234 3.8446 -2.0016 0.9828
-0.4611 3.8306 -2.0016 0.9828
-0.5983 3.8115 -2.0016 0.9828
-1.2689 3.6436 -2.0016 0.9828
-1.5269 3.5432 -2.0016 0.9828
-1.7770 3.4246 -2.0016 0.9828
-1.8987 3.3586 -2.0016 0.9828
-2.0180 3.2884 -2.0016 0.9828
-2.1347 3.2139 -2.0016 0.9828
-2.4677 2.9659 -2.0016 0.9828
-2.5725 2.8754 -2.0016 0.9828
-3.0443 2.3702 -2.0016 0.9828
-3.1274 2.2595 -2.0016 0.9828
-3.2065 2.1458 -2.0016 0.9828
-0.9805 0.6064 -0.5981 0.9948
-1.0379 0.4966 -0.5969 0.9948
-1.0475 0.4557 -0.5926 0.9949
-1.0600 0.3733 -0.5830 0.9949
-1.0630 0.3319 -0.5777 0.9950
-1.0645 0.2909 -0.5725 0.9950
-1.0765 0.2531 -0.5737 0.9950
-1.0945 0.1757 -0.5751 0.9950
-1.1004 0.1363 -0.5752 0.9950
-1.1044 0.0967 -0.5751 0.9950
-1.1063 0.0570 -0.5747 0.9950
-1.1065 -0.0224 -0.5741 0.9950
-1.1040 -0.1019 -0.5751 0.9950
-1.0854 -0.2197 -0.5745 0.9950
-1.0750 -0.2580 -0.5735 0.9950
-1.0627 -0.3373 -0.5784 0.9950
-1.0594 -0.3786 -0.5837 0.9949
-1.0540 -0.4199 -0.5886 0.9949
-1.0359 -0.5015 -0.5970 0.9948
-0.9992 -0.5756 -0.5982 0.9948
-0.9776 -0.6109 -0.5981 0.9948
-3.1964 -2.1607 -2.0016 0.9828
-2.8486 -2.2392 -1.8797 0.9838
-2.7330 -2.3117 -1.8570 0.9840
-2.5602 -2.5017 -1.8570 0.9840
-2.4688 -2.5919 -1.8570 0.9840
-2.3742 -2.6788 -1.8570 0.9840
-2.1760 -2.8422 -1.8570 0.9840
-2.0726 -2.9184 -1.8570 0.9840
-1.8580 -3.0595 -1.8570 0.9840
-1.7470 -3.1242 -1.8570 0.9840
-1.6338 -3.1849 -1.8570 0.9840
-1.5185 -3.2415 -1.8570 0.9840
-1.2822 -3.3420 -1.8570 0.9840
-1.1614 -3.3859 -1.8570 0.9840
-0.7909 -3.4910 -1.8570 0.9840
-0.5385 -3.5388 -1.8570 0.9840
-0.2834 -3.5683 -1.8570 0.9840
0.1016 -3.5781 -1.8570 0.9840
0.3580 -3.5616 -1.8570 0.9840
0.4855 -3.5464 -1.8570 0.9840
0.6124 -3.5267 -1.8570 0.9840
1.1106 -3.4029 -1.8570 0.9840
1.2320 -3.3608 -1.8570 0.9840
1.3518 -3.3145 -1.8570 0.9840
1.4698 -3.2638 -1.8570 0.9840
1.5859 -3.2090 -1.8570 0.9840
1.7001 -3.1500 -1.8570 0.9840
1.8120 -3.0870 -1.8570 0.9840
2.0287 -2.9491 -1.8570 0.9840
2.1332 -2.8745 -1.8570 0.9840
2.3338 -2.7141 -1.8570 0.9840
2.5310 -2.5484 -1.8633 0.9839
2.6119 -2.4476 -1.8570 0.9840
3.0824 -2.3204 -2.0016 0.9828
3.1637 -2.2083 -2.0016 0.9828
3.3827 -1.8556 -2.0016 0.9828
3.5625 -1.4814 -2.0016 0.9828
3.6133 -1.3527 -2.0016 0.9828
3.7010 -1.0901 -2.0016 0.9828
3.7377 -0.9566 -2.0016 0.9828
3.7696 -0.8219 -2.0016 0.9828
3.7967 -0.6861 -2.0016 0.9828
3.8189 -0.5495 -2.0016 0.9828
3.6129 0.5496 -2.0016 0.9835
3.5442 0.8027 -1.9904 0.9836
3.4761 1.0544 -1.9895 0.9836
3.3629 1.4304 -2.0016 0.9835
3.3094 1.5501 -2.0016 0.9835
3.2517 1.6678 -2.0016 0.9835
3.1237 1.8967 -2.0016 0.9835
3.0537 2.0076 -2.0016 0.9835
2.9797 2.1158 -2.0016 0.9835
2.9018 2.2214 -2.0016 0.9835
2.8203 2.3240 -2.0016 0.9835
2.7351 2.4237 -2.0016 0.9835
2.5542 2.6136 -2.0016 0.9835
2.2586 2.8729 -2.0016 0.9835
2.0468 3.0275 -2.0016 0.9835
1.9369 3.0990 -2.0016 0.9835
1.5927 3.2891 -2.0016 0.9835
1.3527 3.3949 -2.0016 0.9835
1.2301 3.4412 -2.0016 0.9835
0.9801 3.5206 -2.0016 0.9835
0.4665 3.6246 -2.0016 0.9835
-0.0568 3.6540 -2.0016 0.9835
-0.5789 3.6083 -2.0016 0.9835
-0.7080 3.5852 -2.0016 0.9835
-0.8362 3.5575 -2.0016 0.9835
-0.9633 3.5252 -2.0016 0.9835
-1.2136 3.4471 -2.0016 0.9835
-1.3365 3.4013 -2.0016 0.9835
-1.6942 3.2380 -2.0016 0.9835
-1.8093 3.1752 -2.0016 0.9835
-2.0323 3.0372 -2.0016 0.9835
-2.1399 2.9624 -2.0016 0.9835
