ply
format ascii 1.0
element vertex 1588
property float32 x
property float32 y
property float32 z
property float32 I
end_header
-13.7052 3.4239 -2.0016 0.9445
-13.9154 2.4327 -2.0016 0.9445
-14.0540 1.4289 -2.0016 0.9445
-14.1202 0.4177 -2.0016 0.9445
-14.1261 -0.0890 -2.0016 0.9445
-14.1138 -0.5956 -2.0016 0.9445
-14.0834 -1.1014 -2.0016 0.9445
-14.0348 -1.6058 -2.0016 0.9445
-12.5464 -3.7889 -1.8570 0.9484
-12.0668 -5.1147 -1.8570 0.9484
-11.8756 -5.5442 -1.8570 0.9484
-12.0843 -7.3162 -2.0016 0.9445
-11.8141 -7.7449 -2.0016 0.9445
-11.2285 -8.5718 -2.0016 0.9445
-10.2428 -9.7283 -2.0016 0.9445
-9.8873 -10.0894 -2.0016 0.9445
-9.1386 -10.7722 -2.0016 0.9445
-8.7464 -11.0931 -2.0016 0.9445
-7.9287 -11.6915 -2.0016 0.9445
-7.0701 -12.2298 -2.0016 0.9445
-6.1752 -12.7052 -2.0016 0.9445
-5.2486 -13.1152 -2.0016 0.9445
-4.7748 -13.2950 -2.0016 0.9445
-3.8095 -13.6031 -2.0016 0.9445
-3.3192 -13.7309 -2.0016 0.9445
-2.3263 -13.9335 -2.0016 0.9445
-1.8251 -14.0080 -2.0016 0.9445
-1.3215 -14.0645 -2.0016 0.9445
0.7033 -14.1089 -2.0016 0.9445
1.2089 -14.0746 -2.0016 0.9445
1.7129 -14.0222 -2.0016 0.9445
3.7005 -13.6331 -2.0016 0.9445
4.1871 -13.4916 -2.0016 0.9445
4.6683 -13.3327 -2.0016 0.9445
5.1435 -13.1567 -2.0016 0.9445
7.4082 -12.0280 -2.0016 0.9445
7.8349 -11.7546 -2.0016 0.9445
8.6573 -11.1627 -2.0016 0.9445
9.8063 -10.1682 -2.0016 0.9445
10.1646 -9.8100 -2.0016 0.9445
10.8417 -9.0561 -2.0016 0.9445
11.4630 -8.2556 -2.0016 0.9445
11.7517 -7.8391 -2.0016 0.9445
12.5258 -6.5315 -2.0016 0.9445
13.7559 -3.2142 -2.0016 0.9445
13.9509 -2.2198 -2.0016 0.9445
14.0741 -1.2140 -2.0016 0.9445
14.1231 0.3047 -2.0016 0.9445
14.1031 0.8111 -2.0016 0.9445
14.0087 1.8200 -2.0016 0.9445
13.9344 2.3212 -2.0016 0.9445
13.6044 3.8045 -2.0016 0.9445
13.1171 5.2438 -2.0016 0.9445
12.7074 6.1706 -2.0016 0.9445
12.4779 6.6224 -2.0016 0.9445
11.9711 7.4999 -2.0016 0.9445
11.6944 7.9244 -2.0016 0.9445
11.4027 8.3387 -2.0016 0.9445
11.0962 8.7423 -2.0016 0.9445
10.7756 9.1347 -2.0016 0.9445
10.4410 9.5153 -2.0016 0.9445
10.0930 9.8836 -2.0016 0.9445
9.3586 10.5817 -2.0016 0.9445
8.9730 10.9106 -2.0016 0.9445
6.3592 11.3983 -1.8494 0.9486
5.0980 12.0154 -1.8494 0.9486
4.6638 12.1905 -1.8494 0.9486
4.2236 12.3500 -1.8494 0.9486
2.8726 12.7322 -1.8494 0.9486
2.4128 12.8202 -1.8484 0.9487
1.9050 12.5911 -1.8043 0.9499
1.4201 12.3725 -1.7646 0.9509
0.9556 12.1629 -1.7287 0.9519
0.5091 11.9615 -1.6964 0.9528
0.0784 11.7672 -1.6673 0.9536
-0.7439 11.4140 -1.6207 0.9548
-1.1565 11.4167 -1.6259 0.9547
-2.8506 11.4278 -1.6688 0.9535
-3.2910 11.4307 -1.6854 0.9531
-3.7408 11.4336 -1.7045 0.9526
-4.6749 11.4397 -1.7510 0.9513
-10.9834 -2.5354 -1.8570 0.9553
-10.8854 -2.9277 -1.8570 0.9553
-10.6475 -3.7005 -1.8570 0.9553
-10.5080 -4.0800 -1.8570 0.9553
-10.1884 -4.8228 -1.8570 0.9553
-9.8241 -5.5450 -1.8584 0.9553
-10.3598 -6.3477 -2.0016 0.9519
-10.1255 -6.7152 -2.0016 0.9519
-9.8781 -7.0741 -2.0016 0.9519
-8.7650 -8.4139 -2.0016 0.9519
-8.4576 -8.7229 -2.0016 0.9519
-7.8105 -9.3067 -2.0016 0.9519
-7.4717 -9.5809 -2.0016 0.9519
-7.1233 -9.8427 -2.0016 0.9519
-6.7656 -10.0918 -2.0016 0.9519
-4.8566 -11.1370 -2.0016 0.9519
-4.0458 -11.4565 -2.0016 0.9519
-2.3659 -11.9173 -2.0016 0.9519
-1.5055 -12.0562 -2.0016 0.9519
-1.0722 -12.1025 -2.0016 0.9519
-0.6374 -12.1331 -2.0016 0.9519
0.2340 -12.1476 -2.0016 0.9519
0.6695 -12.1314 -2.0016 0.9519
1.5375 -12.0522 -2.0016 0.9519
2.3975 -11.9110 -2.0016 0.9519
3.2452 -11.7085 -2.0016 0.9519
3.6630 -11.5846 -2.0016 0.9519
4.0761 -11.4457 -2.0016 0.9519
4.4840 -11.2922 -2.0016 0.9519
5.2820 -10.9417 -2.0016 0.9519
2.2203 -4.2069 -0.7836 0.9809
6.7924 -10.0739 -2.0016 0.9519
7.1493 -9.8238 -2.0016 0.9519
8.1631 -8.9990 -2.0016 0.9519
8.4806 -8.7005 -2.0016 0.9519
8.7872 -8.3907 -2.0016 0.9519
9.6377 -7.3983 -2.0016 0.9519
10.3766 -6.3203 -2.0016 0.9519
10.5966 -5.9441 -2.0016 0.9519
11.4870 -3.9582 -2.0016 0.9519
11.7412 -3.1245 -2.0016 0.9519
11.9350 -2.2748 -2.0016 0.9519
12.0674 -1.4134 -2.0016 0.9519
12.1103 -0.9797 -2.0016 0.9519
12.1377 -0.5447 -2.0016 0.9519
12.1455 0.3268 -2.0016 0.9519
12.0908 1.1966 -2.0016 0.9519
11.9739 2.0602 -2.0016 0.9519
11.8923 2.4884 -2.0016 0.9519
11.6833 3.3345 -2.0016 0.9519
11.5562 3.7514 -2.0016 0.9519
11.2576 4.5701 -2.0016 0.9519
10.7016 5.7529 -2.0016 0.9519
10.4884 6.1330 -2.0016 0.9519
10.2616 6.5052 -2.0016 0.9519
9.5035 7.5698 -2.0016 0.9519
8.0005 9.1439 -2.0016 0.9519
7.6674 9.4250 -2.0016 0.9519
6.2363 10.4170 -2.0001 0.9520
5.0610 10.0204 -1.8494 0.9555
4.6983 10.1955 -1.8494 0.9555
4.3297 10.3575 -1.8494 0.9555
3.9554 10.5061 -1.8494 0.9555
3.1921 10.7626 -1.8494 0.9555
2.4124 10.9637 -1.8494 0.9555
2.0176 11.0432 -1.8494 0.9555
1.2207 11.1594 -1.8494 0.9555
-0.7898 11.1982 -1.8494 0.9555
-1.1909 11.1626 -1.8494 0.9555
-1.2489 8.7263 -1.4522 0.9649
-1.9880 11.0486 -1.8494 0.9555
-2.3830 10.9701 -1.8494 0.9555
-4.3019 10.3690 -1.8494 0.9555
-4.6710 10.2080 -1.8494 0.9555
-5.0342 10.0339 -1.8494 0.9555
-6.4173 9.2109 -1.8494 0.9555
-6.7435 8.9748 -1.8494 0.9555
-8.2866 8.2456 -1.9258 0.9537
-8.8811 8.2247 -1.9941 0.9521
-9.4832 7.5952 -2.0016 0.9519
-10.2442 6.5327 -2.0016 0.9519
-10.4719 6.1611 -2.0016 0.9519
-11.5462 3.7823 -2.0016 0.9519
-11.6744 3.3657 -2.0016 0.9519
-11.8856 2.5202 -2.0016 0.9519
-11.9684 2.0923 -2.0016 0.9519
-12.1239 0.7946 -2.0016 0.9519
-12.1496 -0.0765 -2.0016 0.9519
-10.9008 -2.8697 -1.8570 0.9553
-10.7909 -3.2588 -1.8570 0.9553
-10.5295 -4.0240 -1.8570 0.9553
-10.3784 -4.3990 -1.8570 0.9553
-10.0364 -5.1317 -1.8570 0.9553
-9.8459 -5.4884 -1.8570 0.9553
-10.3935 -6.2925 -2.0016 0.9519
-9.9156 -7.0214 -2.0016 0.9519
-9.6574 -7.3725 -2.0016 0.9519
-9.1041 -8.0458 -2.0016 0.9519
-8.8097 -8.3672 -2.0016 0.9519
-8.5039 -8.6777 -2.0016 0.9519
-6.8193 -10.0557 -2.0016 0.9519
-6.4542 -10.2938 -2.0016 0.9519
-4.5142 -11.2801 -2.0016 0.9519
-4.1067 -11.4348 -2.0016 0.9519
-3.6940 -11.5747 -2.0016 0.9519
-2.8547 -11.8097 -2.0016 0.9519
-1.5697 -12.0480 -2.0016 0.9519
-0.7020 -12.1296 -2.0016 0.9519
-0.2665 -12.1469 -2.0016 0.9519
0.1693 -12.1487 -2.0016 0.9519
1.0398 -12.1053 -2.0016 0.9519
1.4733 -12.0602 -2.0016 0.9519
2.3340 -11.9236 -2.0016 0.9519
2.7602 -11.8322 -2.0016 0.9519
3.6013 -11.6039 -2.0016 0.9519
4.8268 -11.1499 -2.0016 0.9519
2.2024 -4.2273 -0.7852 0.9809
5.9965 -10.5670 -2.0016 0.9519
6.7386 -10.1099 -2.0016 0.9519
7.0969 -9.8617 -2.0016 0.9519
7.7856 -9.3276 -2.0016 0.9519
8.1151 -9.0424 -2.0016 0.9519
9.0394 -8.1184 -2.0016 0.9519
9.3248 -7.7890 -2.0016 0.9519
9.5981 -7.4495 -2.0016 0.9519
9.8591 -7.1005 -2.0016 0.9519
10.1075 -6.7423 -2.0016 0.9519
10.5648 -6.0004 -2.0016 0.9519
10.9677 -5.2276 -2.0016 0.9519
11.3143 -4.4279 -2.0016 0.9519
11.6026 -3.6055 -2.0016 0.9519
11.8312 -2.7645 -2.0016 0.9519
12.1049 -1.0442 -2.0016 0.9519
12.1346 -0.6094 -2.0016 0.9519
12.1471 0.2621 -2.0016 0.9519
12.0970 1.1322 -2.0016 0.9519
12.0486 1.5653 -2.0016 0.9519
11.7009 3.2722 -2.0016 0.9519
11.5761 3.6898 -2.0016 0.9519
11.4363 4.1026 -2.0016 0.9519
11.2818 4.5101 -2.0016 0.9519
11.1128 4.9118 -2.0016 0.9519
10.9294 5.3072 -2.0016 0.9519
10.5209 6.0771 -2.0016 0.9519
9.2679 7.8566 -2.0016 0.9519
8.9801 8.1839 -2.0016 0.9519
8.6808 8.5007 -2.0016 0.9519
8.3704 8.8066 -2.0016 0.9519
7.0250 9.9131 -2.0016 0.9519
6.2950 10.3891 -2.0012 0.9519
5.8976 10.5710 -1.9941 0.9521
4.7526 10.1703 -1.8494 0.9555
4.3848 10.3342 -1.8494 0.9555
3.6327 10.6220 -1.8494 0.9555
2.8619 10.8551 -1.8494 0.9555
2.4707 10.9507 -1.8494 0.9555
1.2802 11.1528 -1.8494 0.9555
0.8793 11.1915 -1.8494 0.9555
0.4774 11.2158 -1.8494 0.9555
-0.3279 11.2212 -1.8494 0.9555
-1.1314 11.1688 -1.8494 0.9555
-1.2015 8.7262 -1.4511 0.9649
-1.9292 11.0590 -1.8494 0.9555
-2.3246 10.9827 -1.8494 0.9555
-3.8712 10.5374 -1.8494 0.9555
-4.2467 10.3918 -1.8494 0.9555
-9.4424 -2.9065 -1.8570 0.9606
-9.3321 -3.2433 -1.8570 0.9606
-8.9297 -4.2269 -1.8570 0.9606
-8.7724 -4.5445 -1.8570 0.9606
-8.6037 -4.8562 -1.8570 0.9606
-8.2335 -5.4605 -1.8570 0.9606
-8.6577 -6.2001 -2.0016 0.9576
-8.4298 -6.5066 -2.0016 0.9576
-7.1337 -7.9062 -2.0016 0.9576
-6.8456 -8.1569 -2.0016 0.9576
-6.2432 -8.6267 -2.0016 0.9576
-5.9298 -8.8450 -2.0016 0.9576
-5.2805 -9.2474 -2.0016 0.9576
-4.9454 -9.4308 -2.0016 0.9576
-4.2566 -9.7611 -2.0016 0.9576
-3.9038 -9.9075 -2.0016 0.9576
-2.8170 -10.2694 -2.0016 0.9576
-2.4469 -10.3639 -2.0016 0.9576
-2.0736 -10.4450 -2.0016 0.9576
-0.9397 -10.6073 -2.0016 0.9576
-0.5586 -10.6342 -2.0016 0.9576
0.9678 -10.6047 -2.0016 0.9576
1.3475 -10.5632 -2.0016 0.9576
2.1013 -10.4394 -2.0016 0.9576
3.2104 -10.1533 -2.0016 0.9576
3.5725 -10.0317 -2.0016 0.9576
3.9300 -9.8971 -2.0016 0.9576
5.9532 -8.8293 -2.0016 0.9576
6.2660 -8.6101 -2.0016 0.9576
6.5708 -8.3798 -2.0016 0.9576
6.8671 -8.1388 -2.0016 0.9576
7.9604 -7.0731 -2.0016 0.9576
8.2090 -6.7831 -2.0016 0.9576
8.4470 -6.4843 -2.0016 0.9576
8.8901 -5.8621 -2.0016 0.9576
9.0946 -5.5394 -2.0016 0.9576
9.4683 -4.8732 -2.0016 0.9576
9.6370 -4.5305 -2.0016 0.9576
10.0679 -3.4692 -2.0016 0.9576
10.2907 -2.7385 -2.0016 0.9576
10.3823 -2.3677 -2.0016 0.9576
10.4605 -1.9938 -2.0016 0.9576
10.5253 -1.6173 -2.0016 0.9576
10.5765 -1.2388 -2.0016 0.9576
10.6381 -0.4774 -2.0016 0.9576
10.6484 -0.0956 -2.0016 0.9576
10.6450 0.2864 -2.0016 0.9576
10.6278 0.6680 -2.0016 0.9576
10.5971 1.0488 -2.0016 0.9576
10.4946 1.8057 -2.0016 0.9576
10.4231 2.1809 -2.0016 0.9576
10.3382 2.5534 -2.0016 0.9576
10.2399 2.9225 -2.0016 0.9576
10.0041 3.6491 -2.0016 0.9576
9.1926 5.3753 -2.0016 0.9576
8.9939 5.7016 -2.0016 0.9576
8.7836 6.0205 -2.0016 0.9576
7.8324 7.2147 -2.0016 0.9576
7.2950 7.7576 -2.0016 0.9576
7.0121 8.0142 -2.0016 0.9576
6.7202 8.2605 -2.0016 0.9576
5.7940 8.9346 -2.0016 0.9576
4.7874 9.4788 -1.9960 0.9577
4.2971 9.3247 -1.9298 0.9591
3.7948 9.0779 -1.8494 0.9607
3.1342 9.3265 -1.8494 0.9607
2.7977 9.4329 -1.8494 0.9607
1.7683 9.6789 -1.8494 0.9607
1.4200 9.7361 -1.8494 0.9607
1.0699 9.7807 -1.8494 0.9607
0.7184 9.8128 -1.8494 0.9607
0.3660 9.8323 -1.8494 0.9607
-0.3397 9.8332 -1.8494 0.9607
-0.6922 9.8147 -1.8494 0.9607
-1.2460 8.7060 -1.6531 0.9648
-2.7725 9.4404 -1.8494 0.9607
-3.1093 9.3349 -1.8494 0.9607
-4.4122 8.7943 -1.8494 0.9607
-5.7493 8.2522 -1.8904 0.9599
-6.6617 8.2336 -1.9907 0.9578
-6.9768 8.0170 -1.9976 0.9577
-7.5485 7.5111 -2.0016 0.9576
-7.8130 7.2356 -2.0016 0.9576
-8.3116 6.6569 -2.0016 0.9576
-8.7674 6.0439 -2.0016 0.9576
-8.9786 5.7256 -2.0016 0.9576
-9.1782 5.3999 -2.0016 0.9576
-9.3659 5.0672 -2.0016 0.9576
-9.7051 4.3828 -2.0016 0.9576
-9.9943 3.6758 -2.0016 0.9576
-10.1197 3.3150 -2.0016 0.9576
-10.6260 0.6964 -2.0016 0.9576
-10.6393 -0.4490 -2.0016 0.9576
-10.6164 -0.8303 -2.0016 0.9576
-10.5798 -1.2105 -2.0016 0.9576
-10.5296 -1.5892 -2.0016 0.9576
-10.4658 -1.9658 -2.0016 0.9576
-9.9162 -2.2335 -1.9105 0.9595
-9.5541 -2.5152 -1.8570 0.9606
-9.4577 -2.8562 -1.8570 0.9606
-9.2287 -3.5268 -1.8570 0.9606
-8.7964 -4.4977 -1.8570 0.9606
-8.6295 -4.8103 -1.8570 0.9606
-8.4514 -5.1167 -1.8570 0.9606
-8.2624 -5.4165 -1.8570 0.9606
-8.4643 -6.4616 -2.0016 0.9576
-8.2271 -6.7611 -2.0016 0.9576
-7.7213 -7.3334 -2.0016 0.9576
-7.1757 -7.8681 -2.0016 0.9576
-6.8889 -8.1204 -2.0016 0.9576
-6.5932 -8.3622 -2.0016 0.9576
-6.2891 -8.5933 -2.0016 0.9576
-5.6569 -9.0220 -2.0016 0.9576
-5.3296 -9.2191 -2.0016 0.9576
-4.9956 -9.4044 -2.0016 0.9576
-4.3085 -9.7383 -2.0016 0.9576
-3.5994 -10.0221 -2.0016 0.9576
-3.2376 -10.1447 -2.0016 0.9576
-2.5021 -10.3507 -2.0016 0.9576
-2.1292 -10.4338 -2.0016 0.9576
-1.7536 -10.5034 -2.0016 0.9576
-1.3758 -10.5596 -2.0016 0.9576
-0.9962 -10.6021 -2.0016 0.9576
-0.6153 -10.6310 -2.0016 0.9576
0.5302 -10.6356 -2.0016 0.9576
1.2912 -10.5702 -2.0016 0.9576
1.6695 -10.5171 -2.0016 0.9576
2.0457 -10.4505 -2.0016 0.9576
2.7895 -10.2769 -2.0016 0.9576
3.1564 -10.1703 -2.0016 0.9576
3.8773 -9.9179 -2.0016 0.9576
4.5783 -9.6144 -2.0016 0.9576
5.2557 -9.2615 -2.0016 0.9576
5.5845 -9.0670 -2.0016 0.9576
6.8237 -8.1752 -2.0016 0.9576
7.1125 -7.9252 -2.0016 0.9576
7.3922 -7.6650 -2.0016 0.9576
7.6623 -7.3950 -2.0016 0.9576
8.4123 -6.5292 -2.0016 0.9576
8.6411 -6.2232 -2.0016 0.9576
8.8587 -5.9093 -2.0016 0.9576
9.6127 -4.5818 -2.0016 0.9576
9.7709 -4.2340 -2.0016 0.9576
10.1691 -3.1600 -2.0016 0.9576
10.4497 -2.0495 -2.0016 0.9576
10.5698 -1.2951 -2.0016 0.9576
10.6094 -0.9152 -2.0016 0.9576
10.6477 -0.1523 -2.0016 0.9576
10.6463 0.2297 -2.0016 0.9576
10.6313 0.6114 -2.0016 0.9576
10.3516 2.4983 -2.0016 0.9576
10.2554 2.8680 -2.0016 0.9576
10.1459 3.2339 -2.0016 0.9576
9.8880 3.9529 -2.0016 0.9576
9.4062 4.9921 -2.0016 0.9576
9.2211 5.3263 -2.0016 0.9576
9.0241 5.6536 -2.0016 0.9576
8.5956 6.2859 -2.0016 0.9576
8.3646 6.5902 -2.0016 0.9576
7.8707 7.1728 -2.0016 0.9576
7.3362 7.7186 -2.0016 0.9576
6.4647 8.4620 -2.0016 0.9576
5.5184 9.1074 -2.0016 0.9576
4.8399 9.4571 -1.9968 0.9577
3.8574 9.0914 -1.8563 0.9606
3.5157 9.1895 -1.8494 0.9607
2.8479 9.4179 -1.8494 0.9607
2.5083 9.5140 -1.8494 0.9607
1.4719 9.7284 -1.8494 0.9607
1.1220 9.7749 -1.8494 0.9607
0.7707 9.8089 -1.8494 0.9607
0.0656 9.8389 -1.8494 0.9607
-0.2874 9.8349 -1.8494 0.9607
-0.6399 9.8182 -1.8494 0.9607
-0.9916 9.7890 -1.8494 0.9607
-1.1987 8.7059 -1.6518 0.9649
-2.3813 9.5466 -1.8494 0.9607
-2.7222 9.4550 -1.8494 0.9607
-3.0595 9.3513 -1.8494 0.9607
-3.3929 9.2355 -1.8494 0.9607
-9.2264 -2.1298 -2.0016 0.9620
-8.4836 -2.2817 -1.8570 0.9647
-8.2982 -2.8840 -1.8570 0.9647
-8.1894 -3.1797 -1.8570 0.9647
-8.0701 -3.4714 -1.8570 0.9647
-7.9404 -3.7586 -1.8570 0.9647
-7.6505 -4.3182 -1.8570 0.9647
-7.4907 -4.5898 -1.8570 0.9647
-6.9544 -5.3678 -1.8570 0.9647
-6.7574 -5.6138 -1.8570 0.9647
-7.0618 -6.3082 -2.0016 0.9620
-6.8310 -6.5574 -2.0016 0.9620
-6.5914 -6.7982 -2.0016 0.9620
-6.3434 -7.0302 -2.0016 0.9620
-6.0871 -7.2532 -2.0016 0.9620
-5.5515 -7.6709 -2.0016 0.9620
-4.6954 -8.2228 -2.0016 0.9620
-4.3975 -8.3860 -2.0016 0.9620
-4.0939 -8.5383 -2.0016 0.9620
-3.7850 -8.6796 -2.0016 0.9620
-3.4713 -8.8098 -2.0016 0.9620
-2.5049 -9.1317 -2.0016 0.9620
-2.1758 -9.2156 -2.0016 0.9620
-1.8439 -9.2878 -2.0016 0.9620
-1.5096 -9.3479 -2.0016 0.9620
-0.8356 -9.4321 -2.0016 0.9620
0.1824 -9.4673 -2.0016 0.9620
0.5218 -9.4546 -2.0016 0.9620
0.8606 -9.4298 -2.0016 0.9620
1.1982 -9.3929 -2.0016 0.9620
1.8685 -9.2828 -2.0016 0.9620
2.2002 -9.2099 -2.0016 0.9620
2.5291 -9.1250 -2.0016 0.9620
2.8548 -9.0284 -2.0016 0.9620
3.1767 -8.9202 -2.0016 0.9620
3.4946 -8.8006 -2.0016 0.9620
3.8080 -8.6696 -2.0016 0.9620
4.1165 -8.5274 -2.0016 0.9620
4.7172 -8.2104 -2.0016 0.9620
5.2936 -7.8511 -2.0016 0.9620
5.5718 -7.6562 -2.0016 0.9620
5.8428 -7.4514 -2.0016 0.9620
6.1063 -7.2371 -2.0016 0.9620
6.3619 -7.0134 -2.0016 0.9620
7.7131 -5.4928 -2.0016 0.9620
7.9051 -5.2126 -2.0016 0.9620
8.0870 -4.9257 -2.0016 0.9620
8.2585 -4.6325 -2.0016 0.9620
8.5693 -4.0286 -2.0016 0.9620
8.8360 -3.4039 -2.0016 0.9620
8.9524 -3.0848 -2.0016 0.9620
9.1506 -2.4351 -2.0016 0.9620
9.3016 -1.7729 -2.0016 0.9620
9.3592 -1.4381 -2.0016 0.9620
9.4047 -1.1015 -2.0016 0.9620
9.4686 -0.0850 -2.0016 0.9620
9.4504 0.5940 -2.0016 0.9620
9.4230 0.9326 -2.0016 0.9620
9.3319 1.6057 -2.0016 0.9620
9.2683 1.9393 -2.0016 0.9620
9.1928 2.2705 -2.0016 0.9620
8.8957 3.2448 -2.0016 0.9620
8.6402 3.8741 -2.0016 0.9620
8.4957 4.1815 -2.0016 0.9620
8.3403 4.4835 -2.0016 0.9620
8.1741 4.7798 -2.0016 0.9620
7.8104 5.3534 -2.0016 0.9620
7.6134 5.6301 -2.0016 0.9620
6.7300 6.6610 -2.0016 0.9620
5.1521 7.9447 -2.0016 0.9620
4.2689 8.4522 -2.0016 0.9620
3.9630 8.5998 -2.0016 0.9620
3.6449 8.7194 -1.9977 0.9621
3.3162 8.8083 -1.9895 0.9623
2.5379 8.5570 -1.8866 0.9642
1.5724 8.6065 -1.8494 0.9649
0.9514 8.6971 -1.8494 0.9649
0.3255 8.7429 -1.8494 0.9649
0.0117 8.7490 -1.8494 0.9649
-0.3021 8.7438 -1.8494 0.9649
-1.5494 8.6107 -1.8494 0.9649
-1.8572 8.5496 -1.8494 0.9649
-2.1626 8.4775 -1.8494 0.9649
-2.4653 8.3945 -1.8494 0.9649
-2.7648 8.3006 -1.8494 0.9649
-3.0835 8.2572 -1.8631 0.9646
-4.1348 8.2413 -1.9490 0.9630
-4.5082 8.2348 -1.9844 0.9623
-4.8285 8.1146 -1.9959 0.9621
-5.4129 7.7693 -2.0016 0.9620
-5.6881 7.5702 -2.0016 0.9620
-5.9560 7.3613 -2.0016 0.9620
-6.2161 7.1430 -2.0016 0.9620
-6.4683 6.9154 -2.0016 0.9620
-7.1737 6.1806 -2.0016 0.9620
-7.5983 5.6505 -2.0016 0.9620
-7.9838 5.0913 -2.0016 0.9620
-8.3283 4.5058 -2.0016 0.9620
-8.6298 3.8972 -2.0016 0.9620
-8.7641 3.5852 -2.0016 0.9620
-9.0985 2.6231 -2.0016 0.9620
-9.1867 2.2951 -2.0016 0.9620
-9.2631 1.9641 -2.0016 0.9620
-9.4205 0.9578 -2.0016 0.9620
-9.4649 0.2800 -2.0016 0.9620
-9.4688 -0.0596 -2.0016 0.9620
-9.4606 -0.3992 -2.0016 0.9620
-9.4076 -1.0764 -2.0016 0.9620
-9.3630 -1.4131 -2.0016 0.9620
-9.2376 -2.0807 -2.0016 0.9620
-8.5228 -2.2437 -1.8629 0.9646
-8.3134 -2.8398 -1.8570 0.9647
-7.9603 -3.7163 -1.8570 0.9647
-7.5151 -4.5498 -1.8570 0.9647
-6.9829 -5.3307 -1.8570 0.9647
-7.0953 -6.2705 -2.0016 0.9620
-6.8658 -6.5210 -2.0016 0.9620
-6.6275 -6.7630 -2.0016 0.9620
-6.3807 -6.9964 -2.0016 0.9620
-6.1257 -7.2207 -2.0016 0.9620
-5.3146 -7.8369 -2.0016 0.9620
-4.7392 -8.1977 -2.0016 0.9620
-4.4421 -8.3624 -2.0016 0.9620
-3.2006 -8.9117 -2.0016 0.9620
-2.5535 -9.1182 -2.0016 0.9620
-2.2248 -9.2039 -2.0016 0.9620
-1.5593 -9.3397 -2.0016 0.9620
-1.2234 -9.3897 -2.0016 0.9620
-0.8858 -9.4275 -2.0016 0.9620
-0.5471 -9.4532 -2.0016 0.9620
0.1320 -9.4681 -2.0016 0.9620
0.4715 -9.4573 -2.0016 0.9620
1.4846 -9.3519 -2.0016 0.9620
2.4805 -9.1384 -2.0016 0.9620
2.8066 -9.0435 -2.0016 0.9620
3.1292 -8.9370 -2.0016 0.9620
3.4477 -8.8190 -2.0016 0.9620
3.7618 -8.6897 -2.0016 0.9620
2.2023 -4.2273 -1.0076 0.9807
4.9658 -8.0625 -2.0016 0.9620
5.5310 -7.6857 -2.0016 0.9620
6.0677 -7.2695 -2.0016 0.9620
6.3245 -7.0472 -2.0016 0.9620
6.5732 -6.8158 -2.0016 0.9620
6.8134 -6.5757 -2.0016 0.9620
7.2673 -6.0703 -2.0016 0.9620
7.6837 -5.5338 -2.0016 0.9620
7.8773 -5.2546 -2.0016 0.9620
8.0607 -4.9687 -2.0016 0.9620
8.3961 -4.3781 -2.0016 0.9620
8.5477 -4.0742 -2.0016 0.9620
8.6883 -3.7650 -2.0016 0.9620
8.8178 -3.4509 -2.0016 0.9620
8.9359 -3.1324 -2.0016 0.9620
9.0425 -2.8099 -2.0016 0.9620
9.2207 -2.1545 -2.0016 0.9620
9.2920 -1.8224 -2.0016 0.9620
9.4668 0.2043 -2.0016 0.9620
9.4534 0.5437 -2.0016 0.9620
9.4278 0.8824 -2.0016 0.9620
9.3403 1.5559 -2.0016 0.9620
9.2785 1.8899 -2.0016 0.9620
9.2047 2.2215 -2.0016 0.9620
9.0218 2.8756 -2.0016 0.9620
8.7925 3.5150 -2.0016 0.9620
8.6607 3.8280 -2.0016 0.9620
8.0243 5.0272 -2.0016 0.9620
7.4379 5.8600 -2.0016 0.9620
6.9987 6.3781 -2.0016 0.9620
6.5235 6.8634 -2.0016 0.9620
6.0147 7.3134 -2.0016 0.9620
5.7485 7.5244 -2.0016 0.9620
5.1943 7.9172 -2.0016 0.9620
4.9070 8.0984 -2.0016 0.9620
4.6134 8.2692 -2.0016 0.9620
4.3138 8.4293 -2.0016 0.9620
4.0088 8.5786 -2.0016 0.9620
3.6924 8.7025 -1.9983 0.9621
3.3712 8.8117 -1.9943 0.9622
2.5913 8.5692 -1.8924 0.9641
1.3088 8.6505 -1.8494 0.9649
0.3720 8.7411 -1.8494 0.9649
-0.2555 8.7453 -1.8494 0.9649
-0.5690 8.7305 -1.8494 0.9649
-2.1175 8.4889 -1.8494 0.9649
-2.7206 8.3153 -1.8494 0.9649
-8.2242 -2.2119 -2.0016 0.9656
-7.5516 -2.3245 -1.8570 0.9681
-7.4634 -2.5939 -1.8570 0.9681
-7.2582 -3.1222 -1.8570 0.9681
-6.5848 -4.3670 -1.8570 0.9681
-6.2548 -4.8278 -1.8570 0.9681
-6.0776 -5.0491 -1.8570 0.9681
-5.7052 -6.3230 -2.0016 0.9656
-5.4748 -6.5236 -2.0016 0.9656
-5.2373 -6.7157 -2.0016 0.9656
-4.9930 -6.8992 -2.0016 0.9656
-4.7424 -7.0739 -2.0016 0.9656
-4.4856 -7.2394 -2.0016 0.9656
-4.2231 -7.3956 -2.0016 0.9656
-3.9551 -7.5423 -2.0016 0.9656
-3.4043 -7.8065 -2.0016 0.9656
-1.0553 -8.4508 -2.0016 0.9656
-0.4468 -8.5047 -2.0016 0.9656
0.4693 -8.5035 -2.0016 0.9656
0.7740 -8.4812 -2.0016 0.9656
1.0777 -8.4480 -2.0016 0.9656
1.3800 -8.4039 -2.0016 0.9656
1.9789 -8.2834 -2.0016 0.9656
2.2747 -8.2070 -2.0016 0.9656
2.5676 -8.1202 -2.0016 0.9656
2.8572 -8.0229 -2.0016 0.9656
3.1431 -7.9152 -2.0016 0.9656
3.4249 -7.7974 -2.0016 0.9656
2.2044 -4.1769 -1.1100 0.9808
2.3868 -4.1543 -1.1260 0.9805
5.0113 -6.8860 -2.0016 0.9656
5.4920 -6.5090 -2.0016 0.9656
5.9445 -6.0986 -2.0016 0.9656
6.5652 -5.4248 -2.0016 0.9656
6.7555 -5.1858 -2.0016 0.9656
7.7072 -3.6233 -2.0016 0.9656
7.8322 -3.3445 -2.0016 0.9656
8.0518 -2.7745 -2.0016 0.9656
8.1462 -2.4839 -2.0016 0.9656
8.3033 -1.8936 -2.0016 0.9656
8.3658 -1.5945 -2.0016 0.9656
8.4176 -1.2935 -2.0016 0.9656
8.4586 -0.9907 -2.0016 0.9656
8.4887 -0.6867 -2.0016 0.9656
8.5161 -0.0764 -2.0016 0.9656
8.5134 0.2291 -2.0016 0.9656
8.4997 0.5342 -2.0016 0.9656
8.4750 0.8388 -2.0016 0.9656
8.3931 1.4441 -2.0016 0.9656
8.3359 1.7442 -2.0016 0.9656
8.2680 2.0421 -2.0016 0.9656
8.1894 2.3373 -2.0016 0.9656
7.8910 3.2034 -2.0016 0.9656
7.3518 4.2989 -2.0016 0.9656
7.1929 4.5599 -2.0016 0.9656
7.0247 4.8149 -2.0016 0.9656
6.6615 5.3061 -2.0016 0.9656
6.2640 5.7700 -2.0016 0.9656
5.8343 6.2041 -2.0016 0.9656
5.6080 6.4094 -2.0016 0.9656
5.3745 6.6064 -2.0016 0.9656
5.1341 6.7949 -2.0016 0.9656
4.6338 7.1455 -2.0016 0.9656
4.3745 7.3071 -2.0016 0.9656
3.8394 7.6019 -2.0016 0.9656
3.2846 7.8575 -2.0016 0.9656
3.0007 7.9703 -2.0016 0.9656
2.7129 8.0728 -2.0016 0.9656
2.4194 8.1573 -1.9997 0.9656
1.2076 8.2797 -1.9665 0.9662
-0.2848 8.2433 -1.9385 0.9667
-0.5813 8.2426 -1.9420 0.9666
-1.7890 8.2355 -1.9807 0.9660
-2.0973 8.2215 -1.9941 0.9657
-2.3924 8.1462 -1.9954 0.9657
-2.6850 8.0610 -1.9969 0.9657
-3.5436 7.7442 -2.0016 0.9656
-3.8191 7.6121 -2.0016 0.9656
-4.8684 6.9877 -2.0016 0.9656
-5.3568 6.6208 -2.0016 0.9656
-5.5908 6.4244 -2.0016 0.9656
-6.0370 6.0071 -2.0016 0.9656
-6.2485 5.7867 -2.0016 0.9656
-6.4520 5.5589 -2.0016 0.9656
-7.7617 3.5052 -2.0016 0.9656
-7.8824 3.2245 -2.0016 0.9656
-8.0933 2.6512 -2.0016 0.9656
-8.4982 0.5570 -2.0016 0.9656
-8.5163 -0.0536 -2.0016 0.9656
-8.4612 -0.9681 -2.0016 0.9656
-8.4211 -1.2709 -2.0016 0.9656
-8.3701 -1.5722 -2.0016 0.9656
-8.3083 -1.8713 -2.0016 0.9656
-7.5639 -2.2843 -1.8570 0.9681
-7.2748 -3.0835 -1.8570 0.9681
-7.1595 -3.3424 -1.8570 0.9681
-6.6079 -4.3319 -1.8570 0.9681
-6.1044 -5.0166 -1.8570 0.9681
-5.9205 -5.2323 -1.8570 0.9681
-5.5302 -5.6433 -1.8570 0.9681
-5.0297 -6.8725 -2.0016 0.9656
-3.9952 -7.5212 -2.0016 0.9656
-2.8786 -8.0152 -2.0016 0.9656
-2.0010 -8.2780 -2.0016 0.9656
-1.7029 -8.3445 -2.0016 0.9656
-1.4025 -8.4002 -2.0016 0.9656
-1.1003 -8.4451 -2.0016 0.9656
-0.7967 -8.4791 -2.0016 0.9656
-0.4921 -8.5022 -2.0016 0.9656
0.4240 -8.5059 -2.0016 0.9656
0.7288 -8.4852 -2.0016 0.9656
1.3352 -8.4111 -2.0016 0.9656
1.9347 -8.2938 -2.0016 0.9656
2.5243 -8.1337 -2.0016 0.9656
3.3834 -7.8155 -2.0016 0.9656
2.1844 -4.1928 -1.1111 0.9808
2.3677 -4.1723 -1.1275 0.9805
4.7234 -7.0865 -2.0016 0.9656
5.2193 -6.7297 -2.0016 0.9656
5.6883 -6.3382 -2.0016 0.9656
5.9119 -6.1302 -2.0016 0.9656
6.5362 -5.4597 -2.0016 0.9656
6.7278 -5.2217 -2.0016 0.9656
7.0848 -4.7260 -2.0016 0.9656
7.4054 -4.2060 -2.0016 0.9656
7.5515 -3.9377 -2.0016 0.9656
7.6878 -3.6643 -2.0016 0.9656
7.9307 -3.1038 -2.0016 0.9656
8.0370 -2.8173 -2.0016 0.9656
8.1328 -2.5273 -2.0016 0.9656
8.2931 -1.9378 -2.0016 0.9656
8.3572 -1.6391 -2.0016 0.9656
8.4106 -1.3383 -2.0016 0.9656
8.4849 -0.7319 -2.0016 0.9656
8.5057 -0.4271 -2.0016 0.9656
8.5024 0.4890 -2.0016 0.9656
8.4794 0.7936 -2.0016 0.9656
8.4455 1.0972 -2.0016 0.9656
8.4007 1.3994 -2.0016 0.9656
8.0162 2.8757 -2.0016 0.9656
7.9079 3.1614 -2.0016 0.9656
7.7895 3.4430 -2.0016 0.9656
7.5226 3.9925 -2.0016 0.9656
7.3746 4.2597 -2.0016 0.9656
7.0503 4.7774 -2.0016 0.9656
6.8744 5.0272 -2.0016 0.9656
6.6897 5.2705 -2.0016 0.9656
6.2946 5.7365 -2.0016 0.9656
5.8672 6.1730 -2.0016 0.9656
5.6420 6.3794 -2.0016 0.9656
5.4096 6.5777 -2.0016 0.9656
5.1702 6.7675 -2.0016 0.9656
3.8799 7.5813 -2.0016 0.9656
3.6055 7.7156 -2.0016 0.9656
2.1669 8.2189 -1.9976 0.9657
1.8686 8.2823 -1.9955 0.9657
1.5674 8.3282 -1.9917 0.9658
1.2536 8.2859 -1.9695 0.9662
0.9487 8.2653 -1.9553 0.9664
0.3508 8.2432 -1.9391 0.9667
-1.1346 8.2402 -1.9549 0.9664
-2.0534 8.2319 -1.9940 0.9657
-2.6417 8.0743 -1.9966 0.9657
-2.9319 7.9807 -1.9982 0.9657
-3.2191 7.8773 -2.0000 0.9656
-7.4652 -2.0078 -2.0016 0.9686
-7.2274 -2.2247 -1.9580 0.9692
-6.4825 -3.0685 -1.8570 0.9708
-6.3683 -3.2991 -1.8570 0.9708
-5.8310 -4.1758 -1.8570 0.9708
-5.6775 -4.3823 -1.8570 0.9708
-5.5167 -4.5831 -1.8570 0.9708
-5.1740 -4.9668 -1.8570 0.9708
-4.9925 -5.1491 -1.8570 0.9708
-4.8046 -5.3249 -1.8570 0.9708
-4.6105 -5.4938 -1.8570 0.9708
-4.4105 -5.6556 -1.8570 0.9708
-4.5322 -6.2625 -2.0016 0.9686
-4.3047 -6.4210 -2.0016 0.9686
-3.8333 -6.7131 -2.0016 0.9686
-3.5901 -6.8463 -2.0016 0.9686
-3.3422 -6.9706 -2.0016 0.9686
-2.0450 -7.4551 -2.0016 0.9686
-1.7763 -7.5236 -2.0016 0.9686
-1.5053 -7.5825 -2.0016 0.9686
-1.2324 -7.6316 -2.0016 0.9686
-0.6822 -7.7003 -2.0016 0.9686
0.1489 -7.7291 -2.0016 0.9686
0.4260 -7.7187 -2.0016 0.9686
0.9782 -7.6683 -2.0016 0.9686
1.5254 -7.5785 -2.0016 0.9686
2.0648 -7.4496 -2.0016 0.9686
2.8530 -7.1848 -2.0016 0.9686
2.1703 -4.1122 -1.2039 0.9810
2.3612 -4.1096 -1.2272 0.9806
4.0890 -6.5605 -2.0016 0.9686
4.3217 -6.4096 -2.0016 0.9686
4.7701 -6.0833 -2.0016 0.9686
5.1939 -5.7257 -2.0016 0.9686
5.5910 -5.3387 -2.0016 0.9686
5.7789 -5.1347 -2.0016 0.9686
6.1321 -4.7072 -2.0016 0.9686
6.2969 -4.4843 -2.0016 0.9686
6.6022 -4.0213 -2.0016 0.9686
6.9960 -3.2889 -2.0016 0.9686
7.2137 -2.7789 -2.0016 0.9686
7.3087 -2.5184 -2.0016 0.9686
7.3944 -2.2547 -2.0016 0.9686
7.4705 -1.9880 -2.0016 0.9686
7.5370 -1.7188 -2.0016 0.9686
7.7053 -0.6233 -2.0016 0.9686
7.6929 0.7613 -2.0016 0.9686
7.6606 1.0368 -2.0016 0.9686
7.6185 1.3108 -2.0016 0.9686
7.5666 1.5833 -2.0016 0.9686
7.5050 1.8536 -2.0016 0.9686
7.4337 2.1216 -2.0016 0.9686
6.8090 3.6603 -2.0016 0.9686
6.6733 3.9022 -2.0016 0.9686
6.5291 4.1390 -2.0016 0.9686
6.3764 4.3705 -2.0016 0.9686
6.0467 4.8164 -2.0016 0.9686
5.6859 5.2375 -2.0016 0.9686
5.4944 5.4380 -2.0016 0.9686
5.0904 5.8179 -2.0016 0.9686
4.6603 6.1678 -2.0016 0.9686
4.2061 6.4860 -2.0016 0.9686
3.4851 6.9003 -2.0016 0.9686
2.9815 7.1324 -2.0016 0.9686
2.4625 7.3278 -2.0016 0.9686
1.6612 7.5499 -2.0016 0.9686
0.5645 7.7099 -2.0016 0.9686
0.2876 7.7251 -2.0016 0.9686
0.0103 7.7305 -2.0016 0.9686
-0.2669 7.7259 -2.0016 0.9686
-1.0952 7.6525 -2.0016 0.9686
-2.4429 7.3343 -2.0016 0.9686
-3.4666 6.9096 -2.0016 0.9686
-3.9531 6.6433 -2.0016 0.9686
-4.1888 6.4973 -2.0016 0.9686
-4.6437 6.1803 -2.0016 0.9686
-5.0748 5.8315 -2.0016 0.9686
-5.4798 5.4527 -2.0016 0.9686
-6.0338 4.8326 -2.0016 0.9686
-6.2032 4.6130 -2.0016 0.9686
-6.3647 4.3876 -2.0016 0.9686
-6.5180 4.1565 -2.0016 0.9686
-6.7992 3.6785 -2.0016 0.9686
-7.2553 2.6684 -2.0016 0.9686
-7.3464 2.4065 -2.0016 0.9686
-7.4279 2.1415 -2.0016 0.9686
-7.5000 1.8737 -2.0016 0.9686
-7.5624 1.6035 -2.0016 0.9686
-7.6150 1.3312 -2.0016 0.9686
-7.6578 1.0573 -2.0016 0.9686
-7.7139 0.5056 -2.0016 0.9686
-7.7271 0.2286 -2.0016 0.9686
-7.7303 -0.0487 -2.0016 0.9686
-7.7236 -0.3259 -2.0016 0.9686
-7.7069 -0.6027 -2.0016 0.9686
-7.6804 -0.8787 -2.0016 0.9686
-7.6439 -1.1537 -2.0016 0.9686
-7.5976 -1.4271 -2.0016 0.9686
-7.5416 -1.6986 -2.0016 0.9686
-7.4758 -1.9680 -2.0016 0.9686
-7.3486 -2.2192 -1.9875 0.9688
-6.6995 -2.5603 -1.8570 0.9708
-6.6034 -2.7989 -1.8570 0.9708
-6.2646 -3.4920 -1.8570 0.9708
-5.9981 -3.9321 -1.8570 0.9708
-5.8532 -4.1447 -1.8570 0.9708
-5.7008 -4.3520 -1.8570 0.9708
-5.3742 -4.7495 -1.8570 0.9708
-5.2004 -4.9391 -1.8570 0.9708
-5.0199 -5.1225 -1.8570 0.9708
-4.4406 -5.6320 -1.8570 0.9708
-4.5655 -6.2383 -2.0016 0.9686
-4.3389 -6.3980 -2.0016 0.9686
-3.8690 -6.6926 -2.0016 0.9686
-3.3793 -6.9527 -2.0016 0.9686
-2.8722 -7.1771 -2.0016 0.9686
-2.6130 -7.2755 -2.0016 0.9686
-2.0847 -7.4441 -2.0016 0.9686
-1.8164 -7.5141 -2.0016 0.9686
-1.5457 -7.5744 -2.0016 0.9686
-0.9987 -7.6657 -2.0016 0.9686
-0.7232 -7.6966 -2.0016 0.9686
0.1077 -7.7297 -2.0016 0.9686
0.3849 -7.7209 -2.0016 0.9686
0.9374 -7.6734 -2.0016 0.9686
2.0251 -7.4605 -2.0016 0.9686
2.5547 -7.2962 -2.0016 0.9686
3.0711 -7.0943 -2.0016 0.9686
2.1451 -4.1174 -1.2021 0.9810
2.3324 -4.1100 -1.2236 0.9807
4.2875 -6.4325 -2.0016 0.9686
4.7376 -6.1086 -2.0016 0.9686
4.9536 -5.9348 -2.0016 0.9686
5.1633 -5.7533 -2.0016 0.9686
5.5625 -5.3684 -2.0016 0.9686
6.9783 -3.3261 -2.0016 0.9686
7.2952 -2.5573 -2.0016 0.9686
7.5860 -1.4878 -2.0016 0.9686
7.6344 -1.2148 -2.0016 0.9686
7.6731 -0.9402 -2.0016 0.9686
7.7297 -0.1105 -2.0016 0.9686
7.7287 0.1668 -2.0016 0.9686
7.7177 0.4438 -2.0016 0.9686
7.5749 1.5429 -2.0016 0.9686
7.2764 2.6103 -2.0016 0.9686
7.0706 3.1252 -2.0016 0.9686
6.3996 4.3365 -2.0016 0.9686
6.2400 4.5633 -2.0016 0.9686
6.0723 4.7841 -2.0016 0.9686
5.8968 4.9988 -2.0016 0.9686
5.5233 5.4087 -2.0016 0.9686
4.4697 6.3073 -2.0016 0.9686
4.0061 6.6115 -2.0016 0.9686
3.7664 6.7509 -2.0016 0.9686
3.5218 6.8817 -2.0016 0.9686
3.0194 7.1164 -2.0016 0.9686
2.5015 7.3146 -2.0016 0.9686
2.2376 7.3996 -2.0016 0.9686
1.7014 7.5409 -2.0016 0.9686
1.1564 7.6435 -2.0016 0.9686
0.8815 7.6801 -2.0016 0.9686
0.6055 7.7067 -2.0016 0.9686
0.3287 7.7235 -2.0016 0.9686
0.0515 7.7303 -2.0016 0.9686
-0.2258 7.7272 -2.0016 0.9686
-0.5028 7.7141 -2.0016 0.9686
-1.0545 7.6582 -2.0016 0.9686
-1.6008 7.5629 -2.0016 0.9686
-1.8710 7.5007 -2.0016 0.9686
-2.1388 7.4287 -2.0016 0.9686
-2.9244 7.1560 -2.0016 0.9686
-6.8277 -1.8364 -2.0016 0.9710
-6.7574 -2.0800 -2.0016 0.9710
-6.4194 -2.2310 -1.9239 0.9721
-5.9289 -2.8065 -1.8570 0.9731
-5.4667 -3.6255 -1.8570 0.9731
-5.1927 -4.0080 -1.8570 0.9731
-5.0456 -4.1917 -1.8570 0.9731
-4.7321 -4.5426 -1.8570 0.9731
-4.5662 -4.7094 -1.8570 0.9731
-4.3943 -4.8702 -1.8570 0.9731
-4.0339 -5.1726 -1.8570 0.9731
-3.4550 -5.5760 -1.8570 0.9731
-3.5060 -6.1398 -2.0016 0.9710
-3.2835 -6.2616 -2.0016 0.9710
-3.0568 -6.3754 -2.0016 0.9710
-2.3544 -6.6668 -2.0016 0.9710
-1.8704 -6.8185 -2.0016 0.9710
-1.3768 -6.9350 -2.0016 0.9710
-0.8761 -7.0158 -2.0016 0.9710
-0.1175 -7.0694 -2.0016 0.9710
0.3896 -7.0596 -2.0016 0.9710
0.6426 -7.0411 -2.0016 0.9710
0.8947 -7.0135 -2.0016 0.9710
1.1457 -6.9769 -2.0016 0.9710
1.6429 -6.8768 -2.0016 0.9710
2.1316 -6.7414 -2.0016 0.9710
2.3720 -6.6606 -2.0016 0.9710
2.6094 -6.5712 -2.0016 0.9710
2.1628 -4.0980 -1.3118 0.9809
2.3529 -4.0952 -1.3370 0.9806
4.1604 -5.7167 -2.0016 0.9710
4.3627 -5.5638 -2.0016 0.9710
4.7503 -5.2368 -2.0016 0.9710
4.9351 -5.0630 -2.0016 0.9710
5.1135 -4.8828 -2.0016 0.9710
5.2854 -4.6962 -2.0016 0.9710
5.4504 -4.5036 -2.0016 0.9710
5.6084 -4.3053 -2.0016 0.9710
6.0384 -3.6779 -2.0016 0.9710
6.1664 -3.4590 -2.0016 0.9710
6.2865 -3.2356 -2.0016 0.9710
6.3985 -3.0081 -2.0016 0.9710
6.5977 -2.5416 -2.0016 0.9710
6.6846 -2.3034 -2.0016 0.9710
6.7629 -2.0621 -2.0016 0.9710
6.9453 -1.3238 -2.0016 0.9710
6.9883 -1.0738 -2.0016 0.9710
7.0473 -0.5701 -2.0016 0.9710
7.0632 -0.3170 -2.0016 0.9710
7.0700 -0.0635 -2.0016 0.9710
7.0564 0.4435 -2.0016 0.9710
7.0360 0.6963 -2.0016 0.9710
7.0065 0.9482 -2.0016 0.9710
6.9679 1.1989 -2.0016 0.9710
6.8641 1.6953 -2.0016 0.9710
6.7249 2.1830 -2.0016 0.9710
6.6423 2.4228 -2.0016 0.9710
6.5511 2.6595 -2.0016 0.9710
6.3436 3.1222 -2.0016 0.9710
5.9715 3.7856 -2.0016 0.9710
5.6848 4.2039 -2.0016 0.9710
5.5304 4.4051 -2.0016 0.9710
5.3688 4.6006 -2.0016 0.9710
4.8436 5.1507 -2.0016 0.9710
4.6557 5.3211 -2.0016 0.9710
4.2623 5.6411 -2.0016 0.9710
4.0572 5.7904 -2.0016 0.9710
3.8470 5.9322 -2.0016 0.9710
3.4118 6.1927 -2.0016 0.9710
3.1875 6.3111 -2.0016 0.9710
2.9591 6.4213 -2.0016 0.9710
2.7269 6.5233 -2.0016 0.9710
2.4912 6.6169 -2.0016 0.9710
2.2523 6.7020 -2.0016 0.9710
2.0104 6.7785 -2.0016 0.9710
1.7660 6.8462 -2.0016 0.9710
1.2707 6.9552 -2.0016 0.9710
1.0204 6.9963 -2.0016 0.9710
0.2630 7.0654 -2.0016 0.9710
0.0095 7.0703 -2.0016 0.9710
-0.2441 7.0661 -2.0016 0.9710
-1.2521 6.9586 -2.0016 0.9710
-1.5009 6.9092 -2.0016 0.9710
-1.9923 6.7838 -2.0016 0.9710
-2.2343 6.7080 -2.0016 0.9710
-2.7094 6.5306 -2.0016 0.9710
-3.1706 6.3196 -2.0016 0.9710
-4.4472 5.4966 -2.0016 0.9710
-4.6415 5.3335 -2.0016 0.9710
-4.8298 5.1636 -2.0016 0.9710
-5.1875 4.8041 -2.0016 0.9710
-5.3565 4.6150 -2.0016 0.9710
-5.5185 4.4199 -2.0016 0.9710
-5.6735 4.2191 -2.0016 0.9710
-5.8212 4.0129 -2.0016 0.9710
-6.0939 3.5853 -2.0016 0.9710
-6.2185 3.3644 -2.0016 0.9710
-6.5440 2.6770 -2.0016 0.9710
-6.7936 1.9586 -2.0016 0.9710
-6.8595 1.7137 -2.0016 0.9710
-6.9647 1.2176 -2.0016 0.9710
-7.0039 0.9670 -2.0016 0.9710
-7.0341 0.7152 -2.0016 0.9710
-7.0552 0.4624 -2.0016 0.9710
-7.0672 0.2091 -2.0016 0.9710
-7.0702 -0.0445 -2.0016 0.9710
-7.0245 -0.8037 -2.0016 0.9710
-6.8975 -1.5536 -2.0016 0.9710
-6.8374 -1.8000 -2.0016 0.9710
-6.7684 -2.0440 -2.0016 0.9710
-5.9438 -2.7749 -1.8570 0.9731
-5.7296 -3.1938 -1.8570 0.9731
-5.6113 -3.3973 -1.8570 0.9731
-5.0679 -4.1648 -1.8570 0.9731
-4.9152 -4.3439 -1.8570 0.9731
-4.7563 -4.5174 -1.8570 0.9731
-4.5912 -4.6850 -1.8570 0.9731
-4.2435 -5.0021 -1.8570 0.9731
-4.0614 -5.1511 -1.8570 0.9731
-3.6817 -5.4290 -1.8570 0.9731
-3.2830 -5.6789 -1.8570 0.9731
-3.3168 -6.2441 -2.0016 0.9710
-2.6269 -6.5642 -2.0016 0.9710
-2.3898 -6.6542 -2.0016 0.9710
-1.1643 -6.9738 -2.0016 0.9710
-0.6614 -7.0393 -2.0016 0.9710
-0.1551 -7.0686 -2.0016 0.9710
0.0985 -7.0696 -2.0016 0.9710
0.3520 -7.0616 -2.0016 0.9710
0.6051 -7.0444 -2.0016 0.9710
0.8573 -7.0182 -2.0016 0.9710
1.3582 -6.9386 -2.0016 0.9710
1.6062 -6.8855 -2.0016 0.9710
2.0957 -6.7526 -2.0016 0.9710
2.5743 -6.5850 -2.0016 0.9710
3.7078 -6.0201 -2.0016 0.9710
3.9214 -5.8832 -2.0016 0.9710
4.1299 -5.7388 -2.0016 0.9710
4.3330 -5.5870 -2.0016 0.9710
4.9081 -5.0892 -2.0016 0.9710
5.0875 -4.9099 -2.0016 0.9710
5.5854 -4.3351 -2.0016 0.9710
5.7373 -4.1320 -2.0016 0.9710
6.1479 -3.4918 -2.0016 0.9710
6.3824 -3.0421 -2.0016 0.9710
6.5841 -2.5767 -2.0016 0.9710
6.7519 -2.0981 -2.0016 0.9710
7.0179 -0.8599 -2.0016 0.9710
7.0442 -0.6076 -2.0016 0.9710
7.0614 -0.3546 -2.0016 0.9710
6.9742 1.1618 -2.0016 0.9710
6.9281 1.4112 -2.0016 0.9710
6.5652 2.6246 -2.0016 0.9710
6.3601 3.0884 -2.0016 0.9710
6.1224 3.5364 -2.0016 0.9710
5.8531 3.9662 -2.0016 0.9710
5.5537 4.3756 -2.0016 0.9710
5.2258 4.7624 -2.0016 0.9710
5.0516 4.9468 -2.0016 0.9710
4.8709 5.1248 -2.0016 0.9710
4.4910 5.4608 -2.0016 0.9710
4.0880 5.7687 -2.0016 0.9710
3.8785 5.9116 -2.0016 0.9710
3.6640 6.0469 -2.0016 0.9710
3.2211 6.2940 -2.0016 0.9710
2.9933 6.4055 -2.0016 0.9710
2.7616 6.5087 -2.0016 0.9710
2.2879 6.6899 -2.0016 0.9710
2.0465 6.7677 -2.0016 0.9710
1.8025 6.8367 -2.0016 0.9710
1.5561 6.8970 -2.0016 0.9710
1.3077 6.9483 -2.0016 0.9710
1.0577 6.9908 -2.0016 0.9710
0.3006 7.0639 -2.0016 0.9710
0.0471 7.0702 -2.0016 0.9710
-0.4598 7.0554 -2.0016 0.9710
-0.7126 7.0343 -2.0016 0.9710
-0.9644 7.0042 -2.0016 0.9710
-1.2150 6.9652 -2.0016 0.9710
-1.4640 6.9171 -2.0016 0.9710
-1.7112 6.8601 -2.0016 0.9710
-1.9561 6.7943 -2.0016 0.9710
-6.2842 -1.6902 -2.0016 0.9731
-6.2195 -1.9145 -2.0016 0.9731
-5.5461 -2.3857 -1.8570 0.9751
-5.4569 -2.5831 -1.8570 0.9751
-5.1479 -3.1543 -1.8570 0.9751
-4.7793 -3.6890 -1.8570 0.9751
-4.5026 -4.0221 -1.8570 0.9751
-4.2027 -4.3345 -1.8570 0.9751
-4.0445 -4.4825 -1.8570 0.9751
-3.7128 -4.7609 -1.8570 0.9751
-3.3619 -5.0148 -1.8570 0.9751
-2.8038 -5.3469 -1.8570 0.9751
-2.6103 -5.4440 -1.8570 0.9751
-2.4133 -5.5341 -1.8570 0.9751
-2.2133 -5.6171 -1.8570 0.9751
-1.7215 -6.2756 -2.0016 0.9731
-1.0374 -6.4242 -2.0016 0.9731
-0.8064 -6.4573 -2.0016 0.9731
-0.5742 -6.4821 -2.0016 0.9731
-0.3414 -6.4985 -2.0016 0.9731
-0.1081 -6.5066 -2.0016 0.9731
0.3586 -6.4976 -2.0016 0.9731
1.0545 -6.4215 -2.0016 0.9731
1.2841 -6.3795 -2.0016 0.9731
1.5121 -6.3294 -2.0016 0.9731
1.9619 -6.2047 -2.0016 0.9731
2.1832 -6.1303 -2.0016 0.9731
2.2282 -5.6112 -1.8570 0.9751
2.0779 -4.3044 -1.4701 0.9802
2.3445 -4.0807 -1.4475 0.9805
3.8292 -5.2616 -2.0016 0.9731
4.0154 -5.1209 -2.0016 0.9731
4.1965 -4.9736 -2.0016 0.9731
4.5422 -4.6600 -2.0016 0.9731
4.7064 -4.4941 -2.0016 0.9731
5.0165 -4.1451 -2.0016 0.9731
5.3007 -3.7748 -2.0016 0.9731
5.5577 -3.3851 -2.0016 0.9731
5.6755 -3.1836 -2.0016 0.9731
5.7861 -2.9780 -2.0016 0.9731
5.8891 -2.7686 -2.0016 0.9731
5.9847 -2.5556 -2.0016 0.9731
6.0725 -2.3393 -2.0016 0.9731
6.1525 -2.1200 -2.0016 0.9731
6.2245 -1.8980 -2.0016 0.9731
6.2886 -1.6735 -2.0016 0.9731
6.3446 -1.4469 -2.0016 0.9731
6.3924 -1.2184 -2.0016 0.9731
6.4320 -0.9884 -2.0016 0.9731
6.4633 -0.7570 -2.0016 0.9731
6.5009 -0.2918 -2.0016 0.9731
6.5051 0.1750 -2.0016 0.9731
6.4947 0.4082 -2.0016 0.9731
6.4758 0.6409 -2.0016 0.9731
6.4487 0.8727 -2.0016 0.9731
6.3176 1.5604 -2.0016 0.9731
6.2576 1.7859 -2.0016 0.9731
5.8386 2.8737 -2.0016 0.9731
5.6176 3.2848 -2.0016 0.9731
5.0901 4.0544 -2.0016 0.9731
4.7864 4.4089 -2.0016 0.9731
4.6252 4.5777 -2.0016 0.9731
4.1067 5.0480 -2.0016 0.9731
3.7343 5.3294 -2.0016 0.9731
3.5407 5.4599 -2.0016 0.9731
3.1402 5.6997 -2.0016 0.9731
2.9338 5.8086 -2.0016 0.9731
2.7235 5.9101 -2.0016 0.9731
2.5098 6.0040 -2.0016 0.9731
2.2929 6.0902 -2.0016 0.9731
2.0730 6.1685 -2.0016 0.9731
1.8504 6.2389 -2.0016 0.9731
1.6254 6.3012 -2.0016 0.9731
1.3984 6.3555 -2.0016 0.9731
0.9392 6.4393 -2.0016 0.9731
0.7076 6.4689 -2.0016 0.9731
0.2421 6.5030 -2.0016 0.9731
0.0087 6.5075 -2.0016 0.9731
-0.4578 6.4914 -2.0016 0.9731
-0.9220 6.4418 -2.0016 0.9731
-1.1524 6.4046 -2.0016 0.9731
-1.3814 6.3592 -2.0016 0.9731
-1.8337 6.2438 -2.0016 0.9731
-2.0564 6.1740 -2.0016 0.9731
-2.4937 6.0107 -2.0016 0.9731
-3.7200 5.3394 -2.0016 0.9731
-3.9091 5.2025 -2.0016 0.9731
-4.0932 5.0590 -2.0016 0.9731
-4.4453 4.7525 -2.0016 0.9731
-4.6129 4.5901 -2.0016 0.9731
-4.9300 4.2476 -2.0016 0.9731
-5.4868 3.4989 -2.0016 0.9731
-5.6088 3.2999 -2.0016 0.9731
-6.0230 2.4639 -2.0016 0.9731
-6.1841 2.0258 -2.0016 0.9731
-6.2528 1.8027 -2.0016 0.9731
-6.4463 0.8900 -2.0016 0.9731
-6.5017 -0.2744 -2.0016 0.9731
-6.4653 -0.7397 -2.0016 0.9731
-6.4346 -0.9711 -2.0016 0.9731
-6.2931 -1.6567 -2.0016 0.9731
-6.2296 -1.8813 -2.0016 0.9731
-5.2735 -2.9396 -1.8570 0.9751
-5.1646 -3.1268 -1.8570 0.9751
-4.7989 -3.6635 -1.8570 0.9751
-4.3776 -4.1577 -1.8570 0.9751
-3.9057 -4.6039 -1.8570 0.9751
-3.7381 -4.7410 -1.8570 0.9751
-3.5656 -4.8720 -1.8570 0.9751
-3.2072 -5.1151 -1.8570 0.9751
-3.0217 -5.2268 -1.8570 0.9751
-2.8323 -5.3319 -1.8570 0.9751
-2.4428 -5.5212 -1.8570 0.9751
-2.0407 -5.6821 -1.8570 0.9751
-1.9785 -6.1994 -2.0016 0.9731
-1.3012 -6.3761 -2.0016 0.9731
-1.0716 -6.4186 -2.0016 0.9731
-0.3760 -6.4966 -2.0016 0.9731
-0.1427 -6.5059 -2.0016 0.9731
1.0202 -6.4270 -2.0016 0.9731
1.4783 -6.3373 -2.0016 0.9731
1.7047 -6.2802 -2.0016 0.9731
2.1983 -5.6230 -1.8570 0.9751
2.0758 -4.3591 -1.4850 0.9800
2.1297 -4.0879 -1.4177 0.9809
3.4127 -5.5408 -2.0016 0.9731
3.6092 -5.4149 -2.0016 0.9731
3.9881 -5.1422 -2.0016 0.9731
4.1700 -4.9959 -2.0016 0.9731
4.5174 -4.6841 -2.0016 0.9731
4.8415 -4.3482 -2.0016 0.9731
5.1408 -3.9900 -2.0016 0.9731
5.6585 -3.2138 -2.0016 0.9731
5.7701 -3.0088 -2.0016 0.9731
5.9710 -2.5874 -2.0016 0.9731
6.1411 -2.1527 -2.0016 0.9731
6.2144 -1.9311 -2.0016 0.9731
6.2796 -1.7070 -2.0016 0.9731
6.3858 -1.2524 -2.0016 0.9731
6.4266 -1.0226 -2.0016 0.9731
6.4592 -0.7914 -2.0016 0.9731
6.4834 -0.5593 -2.0016 0.9731
6.4993 -0.3264 -2.0016 0.9731
6.5060 0.1404 -2.0016 0.9731
6.4792 0.6064 -2.0016 0.9731
6.4532 0.8384 -2.0016 0.9731
6.3765 1.2988 -2.0016 0.9731
6.3259 1.5267 -2.0016 0.9731
6.0425 2.4156 -2.0016 0.9731
5.9520 2.6308 -2.0016 0.9731
5.8538 2.8426 -2.0016 0.9731
5.6350 3.2549 -2.0016 0.9731
5.5146 3.4549 -2.0016 0.9731
5.3872 3.6505 -2.0016 0.9731
5.2528 3.8413 -2.0016 0.9731
4.9639 4.2080 -2.0016 0.9731
4.8098 4.3833 -2.0016 0.9731
4.6495 4.5530 -2.0016 0.9731
4.4832 4.7168 -2.0016 0.9731
4.3111 4.8746 -2.0016 0.9731
4.1335 5.0261 -2.0016 0.9731
3.9506 5.1711 -2.0016 0.9731
3.7626 5.3095 -2.0016 0.9731
3.5697 5.4410 -2.0016 0.9731
3.3723 5.5655 -2.0016 0.9731
2.9646 5.7929 -2.0016 0.9731
2.7550 5.8955 -2.0016 0.9731
2.3253 6.0779 -2.0016 0.9731
1.4322 6.3479 -2.0016 0.9731
0.9735 6.4343 -2.0016 0.9731
0.5097 6.4875 -2.0016 0.9731
0.0434 6.5073 -2.0016 0.9731
-0.4232 6.4937 -2.0016 0.9731
-0.8877 6.4467 -2.0016 0.9731
-2.0235 6.1849 -2.0016 0.9731
-2.2441 6.1083 -2.0016 0.9731
-2.4617 6.0239 -2.0016 0.9731
-5.8148 -1.5639 -2.0016 0.9749
-5.6132 -2.1795 -2.0016 0.9749
-4.9604 -2.5697 -1.8570 0.9767
-4.6557 -3.0877 -1.8570 0.9767
-4.5419 -3.2526 -1.8570 0.9767
-4.4224 -3.4134 -1.8570 0.9767
-4.0301 -3.8687 -1.8570 0.9767
-3.8888 -4.0108 -1.8570 0.9767
-3.7424 -4.1477 -1.8570 0.9767
-2.9424 -4.7488 -1.8570 0.9767
-2.7702 -4.8513 -1.8570 0.9767
-2.5944 -4.9475 -1.8570 0.9767
-1.8602 -5.2677 -1.8570 0.9767
-1.6701 -5.3310 -1.8570 0.9767
-0.4930 -5.5647 -1.8570 0.9767
0.1076 -5.5855 -1.8570 0.9767
0.3079 -5.5780 -1.8570 0.9767
0.5077 -5.5634 -1.8570 0.9767
0.9052 -5.5127 -1.8570 0.9767
1.4921 -5.3835 -1.8570 0.9767
1.6842 -5.3266 -1.8570 0.9767
1.8742 -5.2627 -1.8570 0.9767
2.0617 -5.1921 -1.8570 0.9767
2.2466 -5.1148 -1.8570 0.9767
3.2872 -4.5170 -1.8570 0.9767
3.4471 -4.3962 -1.8570 0.9767
4.0456 -4.4599 -2.0016 0.9749
4.6418 -3.8355 -2.0016 0.9749
4.7764 -3.6666 -2.0016 0.9749
4.9048 -3.4929 -2.0016 0.9749
5.0269 -3.3147 -2.0016 0.9749
5.2516 -2.9459 -2.0016 0.9749
5.3539 -2.7556 -2.0016 0.9749
5.5377 -2.3647 -2.0016 0.9749
5.6189 -2.1646 -2.0016 0.9749
5.6929 -1.9617 -2.0016 0.9749
5.8189 -1.5485 -2.0016 0.9749
5.8707 -1.3388 -2.0016 0.9749
5.9150 -1.1274 -2.0016 0.9749
5.9516 -0.9145 -2.0016 0.9749
5.9806 -0.7005 -2.0016 0.9749
6.0193 0.1619 -2.0016 0.9749
6.0096 0.3777 -2.0016 0.9749
5.9922 0.5930 -2.0016 0.9749
5.9670 0.8076 -2.0016 0.9749
5.8458 1.4438 -2.0016 0.9749
5.7902 1.6526 -2.0016 0.9749
5.7272 1.8592 -2.0016 0.9749
5.6569 2.0634 -2.0016 0.9749
5.4944 2.4636 -2.0016 0.9749
5.3037 2.8511 -2.0016 0.9749
5.1980 3.0395 -2.0016 0.9749
4.9667 3.4043 -2.0016 0.9749
4.7099 3.7516 -2.0016 0.9749
4.4289 4.0796 -2.0016 0.9749
4.1250 4.3866 -2.0016 0.9749
3.9650 4.5317 -2.0016 0.9749
3.8000 4.6710 -2.0016 0.9749
3.6300 4.8043 -2.0016 0.9749
3.4554 4.9314 -2.0016 0.9749
3.2763 5.0521 -2.0016 0.9749
3.0930 5.1664 -2.0016 0.9749
2.9057 5.2740 -2.0016 0.9749
2.7146 5.3748 -2.0016 0.9749
2.5201 5.4687 -2.0016 0.9749
1.0822 5.9234 -2.0016 0.9749
0.6548 5.9857 -2.0016 0.9749
0.2240 6.0173 -2.0016 0.9749
0.0081 6.0214 -2.0016 0.9749
-0.2079 6.0178 -2.0016 0.9749
-0.4236 6.0065 -2.0016 0.9749
-0.6388 5.9875 -2.0016 0.9749
-0.8531 5.9607 -2.0016 0.9749
-1.0663 5.9263 -2.0016 0.9749
-1.6967 5.7774 -2.0016 0.9749
-1.9028 5.7129 -2.0016 0.9749
-2.1065 5.6409 -2.0016 0.9749
-2.8915 5.2817 -2.0016 0.9749
-3.4421 4.9406 -2.0016 0.9749
-3.6171 4.8140 -2.0016 0.9749
-3.7874 4.6811 -2.0016 0.9749
-3.9529 4.5423 -2.0016 0.9749
-4.1133 4.3976 -2.0016 0.9749
-4.2684 4.2472 -2.0016 0.9749
-4.4179 4.0914 -2.0016 0.9749
-4.5618 3.9303 -2.0016 0.9749
-4.6999 3.7642 -2.0016 0.9749
-4.8318 3.5932 -2.0016 0.9749
-4.9576 3.4176 -2.0016 0.9749
-5.0770 3.2376 -2.0016 0.9749
-5.3954 2.6735 -2.0016 0.9749
-5.4878 2.4783 -2.0016 0.9749
-5.5731 2.2799 -2.0016 0.9749
-5.6513 2.0785 -2.0016 0.9749
-5.7222 1.8745 -2.0016 0.9749
-5.8419 1.4595 -2.0016 0.9749
-5.9649 0.8235 -2.0016 0.9749
-5.9906 0.6091 -2.0016 0.9749
-6.0085 0.3938 -2.0016 0.9749
-6.0161 -0.2539 -2.0016 0.9749
-6.0031 -0.4695 -2.0016 0.9749
-5.8743 -1.3231 -2.0016 0.9749
-5.8230 -1.5329 -2.0016 0.9749
-5.2725 -2.2348 -1.9035 0.9762
-4.6720 -3.0628 -1.8570 0.9767
-4.5592 -3.2284 -1.8570 0.9767
-4.4405 -3.3899 -1.8570 0.9767
-3.7645 -4.1277 -1.8570 0.9767
-2.9677 -4.7331 -1.8570 0.9767
-2.4421 -5.0244 -1.8570 0.9767
-2.2603 -5.1088 -1.8570 0.9767
-2.0756 -5.1866 -1.8570 0.9767
-1.6985 -5.3220 -1.8570 0.9767
-1.5065 -5.3795 -1.8570 0.9767
-1.1170 -5.4737 -1.8570 0.9767
-0.5226 -5.5620 -1.8570 0.9767
-0.3228 -5.5772 -1.8570 0.9767
-0.1225 -5.5851 -1.8570 0.9767
0.6775 -5.5461 -1.8573 0.9767
1.0732 -5.4824 -1.8570 0.9767
1.2691 -5.4404 -1.8570 0.9767
1.4634 -5.3914 -1.8570 0.9767
1.6559 -5.3354 -1.8570 0.9767
1.8462 -5.2726 -1.8570 0.9767
2.2194 -5.1267 -1.8570 0.9767
2.0616 -4.3293 -1.5939 0.9800
2.3077 -4.0665 -1.5542 0.9805
2.9297 -4.7567 -1.8570 0.9767
3.8585 -4.6227 -2.0016 0.9749
4.0218 -4.4814 -2.0016 0.9749
4.1800 -4.3342 -2.0016 0.9749
4.4799 -4.0235 -2.0016 0.9749
4.7568 -3.6920 -2.0016 0.9749
5.1259 -3.1596 -2.0016 0.9749
5.2359 -2.9738 -2.0016 0.9749
5.5250 -2.3942 -2.0016 0.9749
5.6824 -1.9920 -2.0016 0.9749
5.7502 -1.7869 -2.0016 0.9749
5.8106 -1.5795 -2.0016 0.9749
5.9992 -0.5175 -2.0016 0.9749
6.0208 -0.0861 -2.0016 0.9749
6.0200 0.1299 -2.0016 0.9749
6.0115 0.3457 -2.0016 0.9749
5.9952 0.5611 -2.0016 0.9749
5.9713 0.7758 -2.0016 0.9749
5.9396 0.9894 -2.0016 0.9749
5.9003 1.2018 -2.0016 0.9749
5.2141 3.0118 -2.0016 0.9749
5.1027 3.1969 -2.0016 0.9749
4.9848 3.3778 -2.0016 0.9749
4.7298 3.7265 -2.0016 0.9749
4.5931 3.8937 -2.0016 0.9749
4.4505 4.0559 -2.0016 0.9749
4.3022 4.2129 -2.0016 0.9749
3.9891 4.5105 -2.0016 0.9749
3.3031 5.0346 -2.0016 0.9749
3.1204 5.1498 -2.0016 0.9749
2.7432 5.3603 -2.0016 0.9749
1.9485 5.6975 -2.0016 0.9749
1.7429 5.7637 -2.0016 0.9749
1.1137 5.9175 -2.0016 0.9749
0.9008 5.9537 -2.0016 0.9749
0.6867 5.9822 -2.0016 0.9749
0.4717 6.0029 -2.0016 0.9749
0.2561 6.0160 -2.0016 0.9749
0.0401 6.0213 -2.0016 0.9749
-0.1759 6.0189 -2.0016 0.9749
-0.3916 6.0087 -2.0016 0.9749
-0.6069 5.9908 -2.0016 0.9749
-1.2469 5.8909 -2.0016 0.9749
-1.6659 5.7864 -2.0016 0.9749
-2.0765 5.6521 -2.0016 0.9749
-2.2778 5.5740 -2.0016 0.9749
-5.4537 -1.2589 -2.0016 0.9765
-5.2869 -1.8374 -2.0016 0.9765
-5.1416 -2.2117 -2.0016 0.9765
-4.7332 -2.2405 -1.8727 0.9780
-4.5222 -2.5524 -1.8570 0.9782
-4.1107 -3.1729 -1.8570 0.9782
-3.9943 -3.3183 -1.8570 0.9782
-3.3382 -3.9777 -1.8570 0.9782
-3.1934 -4.0948 -1.8570 0.9782
-3.0444 -4.2067 -1.8570 0.9782
-2.5750 -4.5094 -1.8570 0.9782
-2.4116 -4.5988 -1.8570 0.9782
-2.2451 -4.6824 -1.8570 0.9782
-1.9036 -4.8313 -1.8570 0.9782
-1.5524 -4.9553 -1.8570 0.9782
-1.3737 -5.0078 -1.8570 0.9782
-1.0112 -5.0934 -1.8570 0.9782
-0.6435 -5.1528 -1.8570 0.9782
-0.2724 -5.1856 -1.8570 0.9782
0.1000 -5.1918 -1.8570 0.9782
0.2862 -5.1849 -1.8570 0.9782
0.4719 -5.1713 -1.8570 0.9782
1.2066 -5.0507 -1.8570 0.9782
1.3870 -5.0041 -1.8570 0.9782
1.7421 -4.8918 -1.8570 0.9782
2.3246 -4.0459 -1.6686 0.9804
2.4997 -4.0105 -1.6899 0.9801
2.9030 -4.3055 -1.8570 0.9782
3.4889 -3.8461 -1.8570 0.9782
3.9068 -4.0080 -2.0016 0.9765
4.0480 -3.8653 -2.0016 0.9765
4.1840 -3.7177 -2.0016 0.9765
4.3147 -3.5652 -2.0016 0.9765
4.4398 -3.4082 -2.0016 0.9765
4.5592 -3.2468 -2.0016 0.9765
4.8815 -2.7382 -2.0016 0.9765
4.9766 -2.5614 -2.0016 0.9765
5.0653 -2.3813 -2.0016 0.9765
5.1474 -2.1981 -2.0016 0.9765
5.2229 -2.0120 -2.0016 0.9765
5.2917 -1.8234 -2.0016 0.9765
5.3537 -1.6325 -2.0016 0.9765
5.4088 -1.4394 -2.0016 0.9765
5.5322 -0.8501 -2.0016 0.9765
5.5591 -0.6511 -2.0016 0.9765
5.5969 -0.0502 -2.0016 0.9765
5.5951 0.1505 -2.0016 0.9765
5.5861 0.3511 -2.0016 0.9765
5.5699 0.5512 -2.0016 0.9765
5.5465 0.7506 -2.0016 0.9765
5.4784 1.1463 -2.0016 0.9765
5.4338 1.3421 -2.0016 0.9765
5.3236 1.7281 -2.0016 0.9765
4.9299 2.6502 -2.0016 0.9765
4.8317 2.8253 -2.0016 0.9765
4.7272 2.9968 -2.0016 0.9765
4.6167 3.1644 -2.0016 0.9765
4.3780 3.4872 -2.0016 0.9765
3.9781 3.9373 -2.0016 0.9765
3.2118 4.5838 -2.0016 0.9765
3.0454 4.6961 -2.0016 0.9765
2.8750 4.8023 -2.0016 0.9765
2.7009 4.9023 -2.0016 0.9765
2.3425 5.0833 -2.0016 0.9765
1.3980 5.4197 -2.0016 0.9765
1.2028 5.4663 -2.0016 0.9765
0.6087 5.5639 -2.0016 0.9765
0.2082 5.5932 -2.0016 0.9765
-0.1933 5.5938 -2.0016 0.9765
-0.5938 5.5655 -2.0016 0.9765
-0.9912 5.5086 -2.0016 0.9765
-1.1881 5.4695 -2.0016 0.9765
-1.5772 5.3703 -2.0016 0.9765
-1.9581 5.2434 -2.0016 0.9765
-2.6878 4.9095 -2.0016 0.9765
-2.8621 4.8100 -2.0016 0.9765
-3.0328 4.7042 -2.0016 0.9765
-3.3622 4.4747 -2.0016 0.9765
-3.5205 4.3512 -2.0016 0.9765
-3.6743 4.2222 -2.0016 0.9765
-3.8234 4.0877 -2.0016 0.9765
-3.9675 3.9479 -2.0016 0.9765
-4.1066 3.8031 -2.0016 0.9765
-4.2404 3.6533 -2.0016 0.9765
-4.3686 3.4989 -2.0016 0.9765
-4.7192 3.0094 -2.0016 0.9765
-4.8241 2.8382 -2.0016 0.9765
-4.9228 2.6634 -2.0016 0.9765
-5.0152 2.4851 -2.0016 0.9765
-5.1010 2.3036 -2.0016 0.9765
-5.3190 1.7424 -2.0016 0.9765
-5.3781 1.5505 -2.0016 0.9765
-5.4302 1.3566 -2.0016 0.9765
-5.4754 1.1610 -2.0016 0.9765
-5.5135 0.9639 -2.0016 0.9765
-5.5445 0.7655 -2.0016 0.9765
-5.5946 0.1655 -2.0016 0.9765
-5.5608 -0.6362 -2.0016 0.9765
-5.5344 -0.8353 -2.0016 0.9765
-5.4603 -1.2299 -2.0016 0.9765
-5.2966 -1.8093 -2.0016 0.9765
-4.5357 -2.5283 -1.8570 0.9782
-4.4421 -2.6894 -1.8570 0.9782
-4.3428 -2.8470 -1.8570 0.9782
-4.1275 -3.1510 -1.8570 0.9782
-4.0119 -3.2970 -1.8570 0.9782
-3.7652 -3.5761 -1.8570 0.9782
