ply
format ascii 1.0
element vertex 1581
property float32 x
property float32 y
property float32 z
property float32 I
end_header
-7.4496 10.7175 -1.8494 0.9486
-7.8293 10.4433 -1.8494 0.9486
-8.5579 9.8551 -1.8494 0.9486
-8.9059 9.5417 -1.8494 0.9486
-9.2425 9.2161 -1.8494 0.9486
-9.5672 8.8786 -1.8494 0.9486
-10.2868 8.2562 -1.8689 0.9481
-11.0575 8.2404 -1.9539 0.9458
-11.5998 8.0138 -1.9977 0.9446
-11.9031 7.6074 -2.0016 0.9445
-12.8688 5.8266 -2.0016 0.9445
-13.0695 5.3612 -2.0016 0.9445
-13.4203 4.4103 -2.0016 0.9445
-13.9131 2.4455 -2.0016 0.9445
-14.0527 1.4416 -2.0016 0.9445
-14.1198 0.4303 -2.0016 0.9445
-14.1262 -0.0765 -2.0016 0.9445
-14.1144 -0.5832 -2.0016 0.9445
-14.0843 -1.0892 -2.0016 0.9445
-14.0362 -1.5937 -2.0016 0.9445
-13.9700 -2.0962 -2.0016 0.9445
-12.6769 -3.3260 -1.8570 0.9484
-12.5495 -3.7786 -1.8570 0.9484
-12.4058 -4.2264 -1.8570 0.9484
-12.2462 -4.6687 -1.8570 0.9484
-11.8800 -5.5348 -1.8570 0.9484
-12.3442 -6.8685 -2.0016 0.9445
-12.0899 -7.3069 -2.0016 0.9445
-11.5348 -8.1549 -2.0016 0.9445
-11.2349 -8.5635 -2.0016 0.9445
-10.9204 -8.9610 -2.0016 0.9445
-10.5919 -9.3470 -2.0016 0.9445
-9.8945 -10.0824 -2.0016 0.9445
-9.5264 -10.4308 -2.0016 0.9445
-8.3507 -11.3939 -2.0016 0.9445
-7.5122 -11.9634 -2.0016 0.9445
-7.0782 -12.2251 -2.0016 0.9445
-5.2568 -13.1119 -2.0016 0.9445
-4.7831 -13.2920 -2.0016 0.9445
-3.3274 -13.7289 -2.0016 0.9445
-2.8327 -13.8395 -2.0016 0.9445
-0.8241 -14.1023 -2.0016 0.9445
0.1892 -14.1251 -2.0016 0.9445
0.6957 -14.1093 -2.0016 0.9445
2.2076 -13.9528 -2.0016 0.9445
2.7067 -13.8647 -2.0016 0.9445
3.2023 -13.7586 -2.0016 0.9445
3.6938 -13.6349 -2.0016 0.9445
4.1806 -13.4936 -2.0016 0.9445
4.6619 -13.3350 -2.0016 0.9445
6.0676 -12.7569 -2.0016 0.9445
2.2010 -4.2294 -0.6755 0.9809
6.9667 -12.2890 -2.0016 0.9445
7.4030 -12.0312 -2.0016 0.9445
7.8299 -11.7579 -2.0016 0.9445
8.6528 -11.1662 -2.0016 0.9445
9.4311 -10.5171 -2.0016 0.9445
9.8023 -10.1720 -2.0016 0.9445
10.5065 -9.4430 -2.0016 0.9445
11.1565 -8.6653 -2.0016 0.9445
12.2812 -6.9805 -2.0016 0.9445
12.7501 -6.0820 -2.0016 0.9445
12.9601 -5.6207 -2.0016 0.9445
13.1534 -5.1521 -2.0016 0.9445
13.3297 -4.6770 -2.0016 0.9445
13.8616 -2.7223 -2.0016 0.9445
14.0739 -1.2173 -2.0016 0.9445
14.1085 -0.7116 -2.0016 0.9445
14.0652 1.3136 -2.0016 0.9445
14.0090 1.8174 -2.0016 0.9445
13.9348 2.3188 -2.0016 0.9445
13.7327 3.3119 -2.0016 0.9445
13.4599 4.2880 -2.0016 0.9445
13.1178 5.2421 -2.0016 0.9445
11.9718 7.4987 -2.0016 0.9445
11.6951 7.9234 -2.0016 0.9445
10.7761 9.1340 -2.0016 0.9445
5.9460 11.6192 -1.8494 0.9486
5.5254 11.8250 -1.8494 0.9486
5.0976 12.0156 -1.8494 0.9486
4.6633 12.1907 -1.8494 0.9486
3.7772 12.4937 -1.8494 0.9486
1.9037 12.5906 -1.8042 0.9499
1.4188 12.3719 -1.7645 0.9509
0.0770 11.7666 -1.6672 0.9536
-0.7455 11.4140 -1.6207 0.9548
-1.1582 11.4167 -1.6259 0.9547
-1.2057 8.7465 -1.2510 0.9650
-1.9944 11.4222 -1.6429 0.9542
-2.4202 11.4250 -1.6547 0.9539
-2.8527 11.4278 -1.6689 0.9535
-3.7432 11.4336 -1.7046 0.9526
-4.2041 11.4367 -1.7265 0.9520
-5.1655 11.4429 -1.7789 0.9505
-5.6698 11.4463 -1.8099 0.9497
-6.6172 11.2505 -1.8494 0.9486
-7.4068 10.7471 -1.8494 0.9486
-8.1583 10.1883 -1.8494 0.9486
-8.5186 9.8891 -1.8494 0.9486
-8.8678 9.5772 -1.8494 0.9486
-9.2057 9.2529 -1.8494 0.9486
-9.5317 8.9167 -1.8494 0.9486
-10.2052 8.2578 -1.8601 0.9483
-10.9684 8.2423 -1.9440 0.9461
-11.5636 8.0570 -1.9969 0.9447
-12.6263 6.3349 -2.0016 0.9445
-13.0481 5.4133 -2.0016 0.9445
-13.2338 4.9417 -2.0016 0.9445
-13.4026 4.4638 -2.0016 0.9445
-13.5541 3.9801 -2.0016 0.9445
-13.9840 2.0005 -2.0016 0.9445
-14.0468 1.4976 -2.0016 0.9445
-14.1264 -0.0202 -2.0016 0.9445
-14.1166 -0.5270 -2.0016 0.9445
-14.0886 -1.0330 -2.0016 0.9445
-14.0425 -1.5378 -2.0016 0.9445
-12.6901 -3.2755 -1.8570 0.9484
-12.5644 -3.7285 -1.8570 0.9484
-12.4226 -4.1769 -1.8570 0.9484
-12.2648 -4.6199 -1.8570 0.9484
-12.0911 -5.0569 -1.8570 0.9484
-11.9019 -5.4874 -1.8570 0.9484
-12.3715 -6.8192 -2.0016 0.9445
-12.1189 -7.2586 -2.0016 0.9445
-11.5673 -8.1089 -2.0016 0.9445
-11.2689 -8.5186 -2.0016 0.9445
-9.9346 -10.0428 -2.0016 0.9445
-9.5680 -10.3928 -2.0016 0.9445
-9.1890 -10.7293 -2.0016 0.9445
-8.7982 -11.0520 -2.0016 0.9445
-8.3960 -11.3606 -2.0016 0.9445
-7.9831 -11.6544 -2.0016 0.9445
-7.5599 -11.9333 -2.0016 0.9445
-5.7753 -12.8919 -2.0016 0.9445
-5.3091 -13.0908 -2.0016 0.9445
-4.8361 -13.2728 -2.0016 0.9445
-3.8719 -13.5854 -2.0016 0.9445
-3.3821 -13.7156 -2.0016 0.9445
-2.3900 -13.9228 -2.0016 0.9445
-1.3855 -14.0583 -2.0016 0.9445
-0.8803 -14.0989 -2.0016 0.9445
-0.3740 -14.1215 -2.0016 0.9445
1.1453 -14.0799 -2.0016 0.9445
1.6497 -14.0297 -2.0016 0.9445
2.1519 -13.9615 -2.0016 0.9445
5.5543 -12.9886 -2.0016 0.9445
6.0167 -12.7810 -2.0016 0.9445
6.9176 -12.3167 -2.0016 0.9445
7.3550 -12.0606 -2.0016 0.9445
8.2008 -11.5022 -2.0016 0.9445
8.6082 -11.2006 -2.0016 0.9445
9.3891 -10.5546 -2.0016 0.9445
10.4687 -9.4848 -2.0016 0.9445
12.2533 -7.0294 -2.0016 0.9445
12.7257 -6.1327 -2.0016 0.9445
13.1327 -5.2045 -2.0016 0.9445
13.3110 -4.7301 -2.0016 0.9445
9.7791 7.2103 -2.0016 0.9519
9.2370 7.8929 -2.0016 0.9519
8.9479 8.2192 -2.0016 0.9519
8.6473 8.5349 -2.0016 0.9519
7.6803 9.4145 -2.0016 0.9519
7.3376 9.6839 -2.0016 0.9519
6.9855 9.9409 -2.0016 0.9519
6.6244 10.1851 -2.0016 0.9519
6.2510 10.4100 -2.0004 0.9520
5.0742 10.0138 -1.8494 0.9555
4.3431 10.3518 -1.8494 0.9555
3.5897 10.6366 -1.8494 0.9555
2.8178 10.8666 -1.8494 0.9555
2.4262 10.9607 -1.8494 0.9555
2.0315 11.0406 -1.8494 0.9555
1.6341 11.1064 -1.8494 0.9555
1.2346 11.1579 -1.8494 0.9555
0.4314 11.2177 -1.8494 0.9555
-0.3740 11.2198 -1.8494 0.9555
-0.7763 11.1991 -1.8494 0.9555
-1.2383 8.7262 -1.4520 0.9649
-1.9750 11.0509 -1.8494 0.9555
-3.1508 10.7747 -1.8494 0.9555
-4.2902 10.3739 -1.8494 0.9555
-4.6595 10.2133 -1.8494 0.9555
-5.3799 9.8529 -1.8494 0.9555
-5.7299 9.6536 -1.8494 0.9555
-6.4073 9.2179 -1.8494 0.9555
-6.7338 8.9821 -1.8494 0.9555
-7.0517 8.7348 -1.8494 0.9555
-7.7074 8.2577 -1.8608 0.9552
-8.2696 8.2460 -1.9239 0.9538
-10.2376 6.5430 -2.0016 0.9519
-10.4658 6.1715 -2.0016 0.9519
-10.8813 5.4052 -2.0016 0.9519
-11.0682 5.0114 -2.0016 0.9519
-11.3991 4.2049 -2.0016 0.9519
-11.5426 3.7932 -2.0016 0.9519
-11.7848 2.9559 -2.0016 0.9519
-12.1497 -0.0658 -2.0016 0.9519
-12.1395 -0.5016 -2.0016 0.9519
-12.1137 -0.9368 -2.0016 0.9519
-12.0723 -1.3707 -2.0016 0.9519
-12.0154 -1.8029 -2.0016 0.9519
-11.9429 -2.2328 -2.0016 0.9519
-10.5328 -4.0155 -1.8570 0.9553
-10.2177 -4.7604 -1.8570 0.9553
-9.8501 -5.4807 -1.8570 0.9553
-10.1661 -6.6535 -2.0016 0.9519
-9.9209 -7.0139 -2.0016 0.9519
-9.1100 -8.0392 -2.0016 0.9519
-8.1935 -8.9714 -2.0016 0.9519
-7.5292 -9.5358 -2.0016 0.9519
-7.1823 -9.7997 -2.0016 0.9519
-6.4611 -10.2895 -2.0016 0.9519
-6.0878 -10.5146 -2.0016 0.9519
-4.5213 -11.2773 -2.0016 0.9519
-3.2836 -11.6978 -2.0016 0.9519
-0.2732 -12.1468 -2.0016 0.9519
1.4670 -12.0610 -2.0016 0.9519
1.8987 -12.0006 -2.0016 0.9519
2.3280 -11.9248 -2.0016 0.9519
2.7543 -11.8336 -2.0016 0.9519
3.5956 -11.6056 -2.0016 0.9519
4.4185 -11.3180 -2.0016 0.9519
6.3672 -10.3478 -2.0016 0.9519
7.7818 -9.3307 -2.0016 0.9519
8.1116 -9.0456 -2.0016 0.9519
8.4308 -8.7488 -2.0016 0.9519
8.7393 -8.4407 -2.0016 0.9519
10.1052 -6.7457 -2.0016 0.9519
10.3407 -6.3789 -2.0016 0.9519
10.7714 -5.6210 -2.0016 0.9519
10.9661 -5.2310 -2.0016 0.9519
11.3130 -4.4313 -2.0016 0.9519
11.6016 -3.6087 -2.0016 0.9519
11.7236 -3.1902 -2.0016 0.9519
11.9985 -1.9122 -2.0016 0.9519
12.1047 -1.0470 -2.0016 0.9519
12.1345 -0.6121 -2.0016 0.9519
12.0489 1.5631 -2.0016 0.9519
11.9851 1.9943 -2.0016 0.9519
11.9058 2.4230 -2.0016 0.9519
11.8112 2.8485 -2.0016 0.9519
11.7015 3.2704 -2.0016 0.9519
11.5766 3.6881 -2.0016 0.9519
10.5215 6.0760 -2.0016 0.9519
10.2967 6.4495 -2.0016 0.9519
10.0587 6.8148 -2.0016 0.9519
9.5442 7.5184 -2.0016 0.9519
8.9806 8.1834 -2.0016 0.9519
8.6812 8.5003 -2.0016 0.9519
7.7178 9.3838 -2.0016 0.9519
7.0251 9.9130 -2.0016 0.9519
4.3844 10.3344 -1.8494 0.9555
4.0108 10.4850 -1.8494 0.9555
2.8611 10.8553 -1.8494 0.9555
2.4699 10.9509 -1.8494 0.9555
2.0754 11.0325 -1.8494 0.9555
1.6783 11.0998 -1.8494 0.9555
0.8782 11.1916 -1.8494 0.9555
0.0734 11.2258 -1.8494 0.9555
-0.3293 11.2212 -1.8494 0.9555
-0.7316 11.2021 -1.8494 0.9555
-1.2029 8.7262 -1.4511 0.9649
-1.9309 11.0587 -1.8494 0.9555
-2.3264 10.9823 -1.8494 0.9555
-4.2488 10.3909 -1.8494 0.9555
-5.3405 9.8743 -1.8494 0.9555
-5.6913 9.6764 -1.8494 0.9555
-6.6980 9.0089 -1.8494 0.9555
-7.3267 8.5055 -1.8494 0.9555
-7.6489 8.2607 -1.8547 0.9554
-8.2053 8.2473 -1.9165 0.9539
-9.1507 7.9644 -1.9985 0.9520
-9.4450 7.6427 -2.0016 0.9519
-9.7131 7.2989 -2.0016 0.9519
-9.9687 6.9458 -2.0016 0.9519
-10.2115 6.5837 -2.0016 0.9519
-10.4411 6.2132 -2.0016 0.9519
-10.6572 5.8346 -2.0016 0.9519
-10.8597 5.4485 -2.0016 0.9519
-11.8731 2.5786 -2.0016 0.9519
-11.9580 2.1510 -2.0016 0.9519
-12.0814 1.2880 -2.0016 0.9519
-12.1499 -0.0174 -2.0016 0.9519
-12.1173 -0.8885 -2.0016 0.9519
-12.0225 -1.7550 -2.0016 0.9519
-11.0086 -2.4238 -1.8570 0.9553
-10.6844 -3.5925 -1.8570 0.9553
-10.5487 -3.9735 -1.8570 0.9553
-10.2367 -4.7196 -1.8570 0.9553
-10.0608 -5.0838 -1.8570 0.9553
-9.9488 -6.9743 -2.0016 0.9519
-9.6922 -7.3267 -2.0016 0.9519
-9.4231 -7.6697 -2.0016 0.9519
-8.8490 -8.3256 -2.0016 0.9519
-8.5446 -8.6377 -2.0016 0.9519
-7.9033 -9.2281 -2.0016 0.9519
-7.5671 -9.5057 -2.0016 0.9519
-7.2213 -9.7710 -2.0016 0.9519
-6.8661 -10.0238 -2.0016 0.9519
-6.5021 -10.2636 -2.0016 0.9519
-6.1297 -10.4903 -2.0016 0.9519
-5.7495 -10.7034 -2.0016 0.9519
-4.9672 -11.0881 -2.0016 0.9519
-4.5662 -11.2592 -2.0016 0.9519
-4.1594 -11.4157 -2.0016 0.9519
-3.7472 -11.5576 -2.0016 0.9519
-2.4838 -11.8933 -2.0016 0.9519
-1.1917 -12.0913 -2.0016 0.9519
-0.7572 -12.1263 -2.0016 0.9519
-0.3217 -12.1456 -2.0016 0.9519
0.1143 -12.1493 -2.0016 0.9519
0.9851 -12.1099 -2.0016 0.9519
1.4189 -12.0667 -2.0016 0.9519
1.8508 -12.0081 -2.0016 0.9519
3.1302 -11.7397 -2.0016 0.9519
3.5493 -11.6199 -2.0016 0.9519
4.3734 -11.3355 -2.0016 0.9519
5.1749 -10.9927 -2.0016 0.9519
2.1903 -4.2500 -0.7877 0.9808
6.3259 -10.3731 -2.0016 0.9519
6.6940 -10.1395 -2.0016 0.9519
7.0534 -9.8929 -2.0016 0.9519
7.7446 -9.3617 -2.0016 0.9519
8.7055 -8.4754 -2.0016 0.9519
9.0040 -8.1577 -2.0016 0.9519
9.2908 -7.8294 -2.0016 0.9519
9.8283 -7.1431 -2.0016 0.9519
10.3151 -6.4201 -2.0016 0.9519
10.5388 -6.0459 -2.0016 0.9519
10.9452 -5.2747 -2.0016 0.9519
11.2952 -4.4763 -2.0016 0.9519
8.5710 6.3195 -2.0016 0.9576
8.3388 6.6229 -2.0016 0.9576
8.0958 6.9177 -2.0016 0.9576
7.5790 7.4804 -2.0016 0.9576
7.0231 8.0046 -2.0016 0.9576
6.7314 8.2514 -2.0016 0.9576
6.4311 8.4875 -2.0016 0.9576
6.1225 8.7128 -2.0016 0.9576
4.8004 9.4735 -1.9962 0.9577
4.3171 9.3359 -1.9333 0.9590
3.4786 9.2036 -1.8494 0.9607
3.1462 9.3225 -1.8494 0.9607
2.4697 9.5241 -1.8494 0.9607
1.0821 9.7794 -1.8494 0.9607
-0.3278 9.8336 -1.8494 0.9607
-0.6804 9.8155 -1.8494 0.9607
-1.0321 9.7848 -1.8494 0.9607
-1.7310 9.6856 -1.8494 0.9607
-2.0773 9.6173 -1.8494 0.9607
-2.4210 9.5366 -1.8494 0.9607
-2.7615 9.4436 -1.8494 0.9607
-3.4315 9.2213 -1.8494 0.9607
-3.7601 9.0922 -1.8494 0.9607
-4.0839 8.9515 -1.8494 0.9607
-4.4024 8.7992 -1.8494 0.9607
-5.0220 8.4609 -1.8494 0.9607
-6.1802 8.2436 -1.9366 0.9589
-8.5386 6.3632 -2.0016 0.9576
-8.7613 6.0528 -2.0016 0.9576
-8.9728 5.7346 -2.0016 0.9576
-9.1728 5.4090 -2.0016 0.9576
-9.7008 4.3923 -2.0016 0.9576
-9.8521 4.0414 -2.0016 0.9576
-9.9908 3.6854 -2.0016 0.9576
-10.1165 3.3246 -2.0016 0.9576
-10.4880 1.8434 -2.0016 0.9576
-10.6439 0.3244 -2.0016 0.9576
-10.6487 -0.0577 -2.0016 0.9576
-10.6397 -0.4396 -2.0016 0.9576
-10.6171 -0.8211 -2.0016 0.9576
-10.5808 -1.2014 -2.0016 0.9576
-10.5309 -1.5802 -2.0016 0.9576
-10.4675 -1.9570 -2.0016 0.9576
-9.9499 -2.2324 -1.9167 0.9593
-9.3518 -3.1860 -1.8570 0.9606
-9.2315 -3.5194 -1.8570 0.9606
-8.9554 -4.1722 -1.8570 0.9606
-8.8000 -4.4908 -1.8570 0.9606
-8.6332 -4.8036 -1.8570 0.9606
-8.2666 -5.4103 -1.8570 0.9606
-8.4691 -6.4553 -2.0016 0.9576
-7.9845 -7.0460 -2.0016 0.9576
-7.4587 -7.6003 -2.0016 0.9576
-7.1813 -7.8630 -2.0016 0.9576
-6.8946 -8.1156 -2.0016 0.9576
-6.5990 -8.3577 -2.0016 0.9576
-6.2949 -8.5890 -2.0016 0.9576
-5.9828 -8.8093 -2.0016 0.9576
-5.6629 -9.0183 -2.0016 0.9576
-5.3357 -9.2156 -2.0016 0.9576
-5.0017 -9.4011 -2.0016 0.9576
-4.6612 -9.5745 -2.0016 0.9576
-4.3148 -9.7355 -2.0016 0.9576
-3.6056 -10.0198 -2.0016 0.9576
-3.2438 -10.1427 -2.0016 0.9576
-2.8779 -10.2526 -2.0016 0.9576
-2.5083 -10.3492 -2.0016 0.9576
-2.1354 -10.4325 -2.0016 0.9576
-0.2395 -10.6461 -2.0016 0.9576
1.6641 -10.5180 -2.0016 0.9576
2.0404 -10.4515 -2.0016 0.9576
2.4140 -10.3716 -2.0016 0.9576
2.7845 -10.2783 -2.0016 0.9576
3.5143 -10.0522 -2.0016 0.9576
2.2010 -4.2293 -0.8961 0.9808
5.2516 -9.2638 -2.0016 0.9576
5.5806 -9.0694 -2.0016 0.9576
6.2165 -8.6459 -2.0016 0.9576
6.5227 -8.4174 -2.0016 0.9576
6.8204 -8.1780 -2.0016 0.9576
7.1094 -7.9280 -2.0016 0.9576
7.3892 -7.6679 -2.0016 0.9576
7.6596 -7.3979 -2.0016 0.9576
9.0631 -5.5908 -2.0016 0.9576
9.2579 -5.2621 -2.0016 0.9576
9.6113 -4.5847 -2.0016 0.9576
9.9153 -3.8838 -2.0016 0.9576
10.0483 -3.5256 -2.0016 0.9576
10.1683 -3.1629 -2.0016 0.9576
10.2752 -2.7961 -2.0016 0.9576
10.5161 -1.6760 -2.0016 0.9576
10.5695 -1.2976 -2.0016 0.9576
10.6092 -0.9176 -2.0016 0.9576
10.6353 -0.5364 -2.0016 0.9576
10.6464 0.2275 -2.0016 0.9576
10.6314 0.6093 -2.0016 0.9576
10.6027 0.9903 -2.0016 0.9576
10.5603 1.3700 -2.0016 0.9576
10.2558 2.8664 -2.0016 0.9576
10.0239 3.5943 -2.0016 0.9576
9.8885 3.9516 -2.0016 0.9576
9.0246 5.6527 -2.0016 0.9576
8.5961 6.2853 -2.0016 0.9576
8.3651 6.5896 -2.0016 0.9576
8.1233 6.8854 -2.0016 0.9576
7.8711 7.1724 -2.0016 0.9576
7.3366 7.7183 -2.0016 0.9576
7.0550 7.9765 -2.0016 0.9576
6.7643 8.2245 -2.0016 0.9576
6.4649 8.4618 -2.0016 0.9576
5.8415 8.9036 -2.0016 0.9576
5.5184 9.1074 -2.0016 0.9576
5.1881 9.2995 -2.0016 0.9576
4.8397 9.4572 -1.9968 0.9577
3.8570 9.0912 -1.8562 0.9606
3.5153 9.1897 -1.8494 0.9607
3.1834 9.3099 -1.8494 0.9607
2.8474 9.4181 -1.8494 0.9607
2.5077 9.5141 -1.8494 0.9607
2.1647 9.5980 -1.8494 0.9607
1.1210 9.7750 -1.8494 0.9607
0.0644 9.8389 -1.8494 0.9607
-0.2886 9.8348 -1.8494 0.9607
-1.2001 8.7059 -1.6518 0.9649
-1.6924 9.6924 -1.8494 0.9607
-2.0390 9.6255 -1.8494 0.9607
-2.7239 9.4545 -1.8494 0.9607
-3.3947 9.2349 -1.8494 0.9607
-3.7239 9.1072 -1.8494 0.9607
-4.3673 8.8167 -1.8494 0.9607
-4.6807 8.6544 -1.8494 0.9607
-4.9882 8.4809 -1.8494 0.9607
-6.5942 8.2350 -1.9830 0.9580
-6.9343 8.0499 -1.9970 0.9577
-7.5106 7.5491 -2.0016 0.9576
-7.7766 7.2748 -2.0016 0.9576
-8.0325 6.9911 -2.0016 0.9576
-9.3406 5.1138 -2.0016 0.9576
-9.5180 4.7754 -2.0016 0.9576
-9.6832 4.4309 -2.0016 0.9576
-9.8359 4.0807 -2.0016 0.9576
-9.9760 3.7252 -2.0016 0.9576
-10.2174 3.0003 -2.0016 0.9576
-10.3185 2.6319 -2.0016 0.9576
-10.4062 2.2600 -2.0016 0.9576
-10.5888 1.1289 -2.0016 0.9576
-10.6488 -0.0152 -2.0016 0.9576
-10.6414 -0.3972 -2.0016 0.9576
-10.5855 -1.1592 -2.0016 0.9576
-9.3644 -3.1487 -1.8570 0.9606
-9.2455 -3.4826 -1.8570 0.9606
-9.1146 -3.8120 -1.8570 0.9606
-8.8178 -4.4557 -1.8570 0.9606
-8.6523 -4.7692 -1.8570 0.9606
-8.4756 -5.0765 -1.8570 0.9606
-8.2881 -5.3773 -1.8570 0.9606
-8.0898 -5.6711 -1.8570 0.9606
-8.0125 -7.0141 -2.0016 0.9576
-7.4890 -7.5705 -2.0016 0.9576
-6.9269 -8.0880 -2.0016 0.9576
-6.3291 -8.5639 -2.0016 0.9576
-5.3724 -9.1943 -2.0016 0.9576
-4.6994 -9.5558 -2.0016 0.9576
-4.3536 -9.7182 -2.0016 0.9576
-4.0021 -9.8682 -2.0016 0.9576
-2.9188 -10.2410 -2.0016 0.9576
-1.8016 -10.4953 -2.0016 0.9576
-1.0445 -10.5975 -2.0016 0.9576
-0.6636 -10.6281 -2.0016 0.9576
0.4821 -10.6379 -2.0016 0.9576
1.2436 -10.5760 -2.0016 0.9576
1.6222 -10.5245 -2.0016 0.9576
1.9987 -10.4596 -2.0016 0.9576
2.3726 -10.3811 -2.0016 0.9576
4.1870 -9.7911 -2.0016 0.9576
4.5355 -9.6346 -2.0016 0.9576
6.7878 -8.2051 -2.0016 0.9576
7.3586 -7.6973 -2.0016 0.9576
8.1430 -6.8621 -2.0016 0.9576
8.3839 -6.5656 -2.0016 0.9576
9.0408 -5.6269 -2.0016 0.9576
9.4209 -4.9642 -2.0016 0.9576
9.5930 -4.6230 -2.0016 0.9576
10.0341 -3.5656 -2.0016 0.9576
7.4149 5.8891 -2.0016 0.9620
5.9856 7.3372 -2.0016 0.9620
5.7186 7.5472 -2.0016 0.9620
5.4442 7.7475 -2.0016 0.9620
5.1627 7.9378 -2.0016 0.9620
4.8746 8.1179 -2.0016 0.9620
3.6565 8.7153 -1.9978 0.9621
1.5832 8.6046 -1.8494 0.9649
0.9622 8.6959 -1.8494 0.9649
-0.6050 8.7280 -1.8494 0.9649
-1.2293 8.6622 -1.8494 0.9649
-1.8472 8.5518 -1.8494 0.9649
-2.1528 8.4800 -1.8494 0.9649
-2.4556 8.3973 -1.8494 0.9649
-2.7552 8.3038 -1.8494 0.9649
-3.7627 8.2474 -1.9162 0.9636
-4.1233 8.2415 -1.9480 0.9630
-4.4964 8.2350 -1.9833 0.9624
-4.8193 8.1195 -1.9959 0.9621
-5.1147 7.9527 -1.9987 0.9621
-5.4045 7.7752 -2.0016 0.9620
-5.9481 7.3677 -2.0016 0.9620
-7.1673 6.1881 -2.0016 0.9620
-7.7906 5.3822 -2.0016 0.9620
-8.1565 4.8098 -2.0016 0.9620
-8.3238 4.5141 -2.0016 0.9620
-8.6260 3.9056 -2.0016 0.9620
-8.7606 3.5937 -2.0016 0.9620
-8.8839 3.2771 -2.0016 0.9620
-8.9957 2.9563 -2.0016 0.9620
-9.2612 1.9727 -2.0016 0.9620
-9.3789 1.3036 -2.0016 0.9620
-9.4196 0.9663 -2.0016 0.9620
-9.4609 -0.3909 -2.0016 0.9620
-9.4086 -1.0683 -2.0016 0.9620
-9.3077 -1.7401 -2.0016 0.9620
-9.2393 -2.0729 -2.0016 0.9620
-8.5435 -2.2416 -1.8670 0.9645
-8.3157 -2.8330 -1.8570 0.9647
-8.0912 -3.4219 -1.8570 0.9647
-7.1734 -5.0715 -1.8570 0.9647
-6.9868 -5.3255 -1.8570 0.9647
-6.7913 -5.5727 -1.8570 0.9647
-6.8705 -6.5160 -2.0016 0.9620
-6.6323 -6.7583 -2.0016 0.9620
-6.3856 -6.9919 -2.0016 0.9620
-5.8679 -7.4317 -2.0016 0.9620
-5.3199 -7.8333 -2.0016 0.9620
-5.0355 -8.0191 -2.0016 0.9620
-4.7446 -8.1946 -2.0016 0.9620
-4.4475 -8.3595 -2.0016 0.9620
-4.1448 -8.5137 -2.0016 0.9620
-3.8367 -8.6569 -2.0016 0.9620
-3.5237 -8.7890 -2.0016 0.9620
-3.2061 -8.9097 -2.0016 0.9620
-2.8845 -9.0190 -2.0016 0.9620
-2.5591 -9.1167 -2.0016 0.9620
-1.8988 -9.2767 -2.0016 0.9620
-1.5648 -9.3388 -2.0016 0.9620
-0.8912 -9.4270 -2.0016 0.9620
-0.2129 -9.4666 -2.0016 0.9620
0.1268 -9.4682 -2.0016 0.9620
1.4797 -9.3527 -2.0016 0.9620
2.4760 -9.1396 -2.0016 0.9620
2.8023 -9.0449 -2.0016 0.9620
3.4436 -8.8207 -2.0016 0.9620
2.2010 -4.2293 -1.0078 0.9807
4.6698 -8.2374 -2.0016 0.9620
5.2484 -7.8814 -2.0016 0.9620
5.5278 -7.6880 -2.0016 0.9620
6.3217 -7.0497 -2.0016 0.9620
6.8109 -6.5782 -2.0016 0.9620
8.0590 -4.9714 -2.0016 0.9620
8.5465 -4.0768 -2.0016 0.9620
8.6872 -3.7676 -2.0016 0.9620
9.1368 -2.4863 -2.0016 0.9620
9.2201 -2.1569 -2.0016 0.9620
9.2915 -1.8248 -2.0016 0.9620
9.4338 -0.8160 -2.0016 0.9620
9.4680 -0.1375 -2.0016 0.9620
9.4669 0.2023 -2.0016 0.9620
9.4535 0.5418 -2.0016 0.9620
9.3406 1.5543 -2.0016 0.9620
9.2788 1.8884 -2.0016 0.9620
9.2051 2.2200 -2.0016 0.9620
8.5184 4.1352 -2.0016 0.9620
8.0248 5.0265 -2.0016 0.9620
7.6437 5.5889 -2.0016 0.9620
7.4383 5.8595 -2.0016 0.9620
6.9990 6.3778 -2.0016 0.9620
6.7657 6.6247 -2.0016 0.9620
6.0148 7.3133 -2.0016 0.9620
5.4750 7.7257 -2.0016 0.9620
5.1943 7.9172 -2.0016 0.9620
4.9070 8.0984 -2.0016 0.9620
4.6133 8.2692 -2.0016 0.9620
4.0085 8.5787 -2.0016 0.9620
2.9727 8.6938 -1.9422 0.9631
1.9249 8.5346 -1.8494 0.9649
1.6175 8.5982 -1.8494 0.9649
1.3080 8.6507 -1.8494 0.9649
-2.4221 8.4070 -1.8494 0.9649
-4.0827 8.2422 -1.9443 0.9631
-5.0822 7.9717 -1.9984 0.9621
-5.6497 7.5989 -2.0016 0.9620
-6.4334 6.9480 -2.0016 0.9620
-6.6785 6.7127 -2.0016 0.9620
-7.1426 6.2166 -2.0016 0.9620
-7.3610 5.9563 -2.0016 0.9620
-7.9583 5.1310 -2.0016 0.9620
-8.1373 4.8422 -2.0016 0.9620
-8.3057 4.5472 -2.0016 0.9620
-8.4635 4.2463 -2.0016 0.9620
-8.9839 2.9921 -2.0016 0.9620
-9.2533 2.0096 -2.0016 0.9620
-9.3194 1.6764 -2.0016 0.9620
-9.3736 1.3410 -2.0016 0.9620
-9.4157 1.0038 -2.0016 0.9620
-9.4456 0.6654 -2.0016 0.9620
-9.4624 -0.3532 -2.0016 0.9620
-9.3697 -1.3678 -2.0016 0.9620
-9.3146 -1.7030 -2.0016 0.9620
-8.6665 -2.2369 -1.8920 0.9641
-8.4220 -2.4993 -1.8570 0.9647
-8.2211 -3.0967 -1.8570 0.9647
-8.1048 -3.3897 -1.8570 0.9647
-7.9779 -3.6782 -1.8570 0.9647
-7.5366 -4.5140 -1.8570 0.9647
-7.3698 -4.7815 -1.8570 0.9647
-7.1935 -5.0428 -1.8570 0.9647
-7.0080 -5.2976 -1.8570 0.9647
-7.1248 -6.2370 -2.0016 0.9620
-6.4135 -6.9663 -2.0016 0.9620
-6.1594 -7.1919 -2.0016 0.9620
-5.6279 -7.6151 -2.0016 0.9620
-5.3511 -7.8120 -2.0016 0.9620
-4.4808 -8.3417 -2.0016 0.9620
-3.8712 -8.6415 -2.0016 0.9620
-2.2670 -9.1936 -2.0016 0.9620
-1.9358 -9.2690 -2.0016 0.9620
-1.2662 -9.3840 -2.0016 0.9620
-0.5901 -9.4506 -2.0016 0.9620
0.0890 -9.4686 -2.0016 0.9620
0.4287 -9.4593 -2.0016 0.9620
0.7677 -9.4378 -2.0016 0.9620
1.4424 -9.3585 -2.0016 0.9620
1.7772 -9.3007 -2.0016 0.9620
3.0893 -8.9509 -2.0016 0.9620
3.7231 -8.7064 -2.0016 0.9620
4.0330 -8.5672 -2.0016 0.9620
2.1903 -4.2500 -1.0106 0.9806
4.9301 -8.0843 -2.0016 0.9620
6.2936 -7.0748 -2.0016 0.9620
6.5433 -6.8445 -2.0016 0.9620
6.7847 -6.6053 -2.0016 0.9620
7.0173 -6.3577 -2.0016 0.9620
7.2408 -6.1019 -2.0016 0.9620
7.4551 -5.8382 -2.0016 0.9620
7.8545 -5.2886 -2.0016 0.9620
8.0391 -5.0035 -2.0016 0.9620
8.2134 -4.7119 -2.0016 0.9620
8.6721 -3.8022 -2.0016 0.9620
8.8029 -3.4886 -2.0016 0.9620
8.9224 -3.1706 -2.0016 0.9620
6.8547 5.0540 -2.0016 0.9656
5.8428 6.1961 -2.0016 0.9656
5.6168 6.4017 -2.0016 0.9656
4.8965 6.9681 -2.0016 0.9656
4.6434 7.1393 -2.0016 0.9656
4.1195 7.4538 -2.0016 0.9656
3.5745 7.7300 -2.0016 0.9656
3.2949 7.8533 -2.0016 0.9656
2.7233 8.0693 -2.0016 0.9656
2.4299 8.1546 -1.9998 0.9656
2.1333 8.2266 -1.9974 0.9657
1.5315 8.3234 -1.9890 0.9658
1.2184 8.2812 -1.9672 0.9662
0.9144 8.2638 -1.9540 0.9664
0.3170 8.2432 -1.9388 0.9667
0.0211 8.2435 -1.9374 0.9667
-0.2748 8.2433 -1.9384 0.9667
-1.1693 8.2400 -1.9560 0.9664
-1.4723 8.2380 -1.9668 0.9662
-1.7789 8.2356 -1.9802 0.9660
-2.0877 8.2238 -1.9941 0.9657
-2.9656 7.9691 -1.9984 0.9657
-3.2524 7.8646 -2.0002 0.9656
-3.5349 7.7482 -2.0016 0.9656
-3.8106 7.6164 -2.0016 0.9656
-4.0814 7.4748 -2.0016 0.9656
-4.6068 7.1629 -2.0016 0.9656
-5.1085 6.8142 -2.0016 0.9656
-5.3497 6.6265 -2.0016 0.9656
-5.5840 6.4303 -2.0016 0.9656
-5.8110 6.2259 -2.0016 0.9656
-6.4463 5.5655 -2.0016 0.9656
-6.6418 5.3307 -2.0016 0.9656
-7.0069 4.8408 -2.0016 0.9656
-7.1761 4.5863 -2.0016 0.9656
-7.6273 3.7888 -2.0016 0.9656
-7.7583 3.5127 -2.0016 0.9656
-7.9902 2.9474 -2.0016 0.9656
-8.2606 2.0719 -2.0016 0.9656
-8.3879 1.4743 -2.0016 0.9656
-8.4354 1.1725 -2.0016 0.9656
-8.4977 0.5646 -2.0016 0.9656
-8.5163 -0.0461 -2.0016 0.9656
-8.5092 -0.3516 -2.0016 0.9656
-8.4911 -0.6566 -2.0016 0.9656
-8.3714 -1.5651 -2.0016 0.9656
-8.2376 -2.1613 -2.0016 0.9656
-7.3829 -2.8147 -1.8570 0.9681
-7.2772 -3.0777 -1.8570 0.9681
-7.1621 -3.3368 -1.8570 0.9681
-6.6112 -4.3269 -1.8570 0.9681
-6.2840 -4.7898 -1.8570 0.9681
-6.1081 -5.0121 -1.8570 0.9681
-5.9244 -5.2280 -1.8570 0.9681
-5.7330 -5.4372 -1.8570 0.9681
-5.7432 -6.2885 -2.0016 0.9656
-5.2776 -6.6841 -2.0016 0.9656
-4.5289 -7.2124 -2.0016 0.9656
-4.0001 -7.5186 -2.0016 0.9656
-3.4507 -7.7860 -2.0016 0.9656
-3.1692 -7.9048 -2.0016 0.9656
-2.8836 -8.0134 -2.0016 0.9656
-1.4074 -8.3994 -2.0016 0.9656
0.4194 -8.5061 -2.0016 0.9656
1.0283 -8.4541 -2.0016 0.9656
1.6318 -8.3587 -2.0016 0.9656
1.9306 -8.2947 -2.0016 0.9656
2.5204 -8.1350 -2.0016 0.9656
2.8106 -8.0393 -2.0016 0.9656
3.0972 -7.9333 -2.0016 0.9656
3.6580 -7.6908 -2.0016 0.9656
4.4631 -7.2533 -2.0016 0.9656
4.7204 -7.0885 -2.0016 0.9656
5.2165 -6.7318 -2.0016 0.9656
5.4547 -6.5404 -2.0016 0.9656
5.9096 -6.1324 -2.0016 0.9656
6.3341 -5.6929 -2.0016 0.9656
6.5342 -5.4620 -2.0016 0.9656
6.7260 -5.2241 -2.0016 0.9656
6.9090 -4.9795 -2.0016 0.9656
7.2483 -4.4713 -2.0016 0.9656
7.4040 -4.2084 -2.0016 0.9656
7.5502 -3.9400 -2.0016 0.9656
8.3568 -1.6412 -2.0016 0.9656
8.4530 -1.0378 -2.0016 0.9656
8.5145 0.1819 -2.0016 0.9656
8.4795 0.7920 -2.0016 0.9656
8.4457 1.0956 -2.0016 0.9656
8.3454 1.6984 -2.0016 0.9656
8.2021 2.2924 -2.0016 0.9656
8.1146 2.5851 -2.0016 0.9656
7.9084 3.1603 -2.0016 0.9656
7.7899 3.4420 -2.0016 0.9656
7.6614 3.7192 -2.0016 0.9656
7.3750 4.2590 -2.0016 0.9656
7.2175 4.5208 -2.0016 0.9656
7.0507 4.7768 -2.0016 0.9656
6.4967 5.5067 -2.0016 0.9656
6.2949 5.7362 -2.0016 0.9656
5.8675 6.1728 -2.0016 0.9656
5.6422 6.3793 -2.0016 0.9656
5.4098 6.5776 -2.0016 0.9656
5.1703 6.7674 -2.0016 0.9656
4.9242 6.9485 -2.0016 0.9656
4.6718 7.1207 -2.0016 0.9656
4.4133 7.2837 -2.0016 0.9656
3.6052 7.7157 -2.0016 0.9656
3.3261 7.8401 -2.0016 0.9656
3.0428 7.9543 -2.0016 0.9656
2.7555 8.0584 -2.0016 0.9656
2.4627 8.1459 -2.0001 0.9656
1.5667 8.3281 -1.9916 0.9658
1.2529 8.2858 -1.9695 0.9662
0.9479 8.2652 -1.9553 0.9664
0.6475 8.2523 -1.9454 0.9666
0.3499 8.2432 -1.9391 0.9667
-1.4384 8.2383 -1.9655 0.9662
-1.7446 8.2359 -1.9786 0.9660
-3.2207 7.8767 -2.0000 0.9656
-4.0515 7.4910 -2.0016 0.9656
-4.5782 7.1812 -2.0016 0.9656
-4.8329 7.0124 -2.0016 0.9656
-5.3232 6.6478 -2.0016 0.9656
-5.5583 6.4525 -2.0016 0.9656
-5.7862 6.2490 -2.0016 0.9656
-6.0066 6.0374 -2.0016 0.9656
-6.4240 5.5912 -2.0016 0.9656
-6.6205 5.3571 -2.0016 0.9656
-6.8084 5.1162 -2.0016 0.9656
-7.1577 4.6149 -2.0016 0.9656
-7.3187 4.3551 -2.0016 0.9656
-7.4702 4.0898 -2.0016 0.9656
-7.8663 3.2635 -2.0016 0.9656
-7.9783 2.9792 -2.0016 0.9656
-8.1714 2.3995 -2.0016 0.9656
-8.3224 1.8074 -2.0016 0.9656
-8.3819 1.5077 -2.0016 0.9656
-8.4306 1.2061 -2.0016 0.9656
-8.5114 0.2933 -2.0016 0.9656
-8.5164 -0.0122 -2.0016 0.9656
-8.5105 -0.3177 -2.0016 0.9656
-8.4936 -0.6228 -2.0016 0.9656
-8.4658 -0.9271 -2.0016 0.9656
-7.5780 -2.2488 -1.8578 0.9680
-7.1754 -3.3082 -1.8570 0.9681
-7.0521 -3.5635 -1.8570 0.9681
-6.7784 -4.0599 -1.8570 0.9681
-6.6284 -4.3005 -1.8570 0.9681
-6.4699 -4.5355 -1.8570 0.9681
-5.9452 -5.2044 -1.8570 0.9681
-5.7546 -5.4143 -1.8570 0.9681
-5.7682 -6.2655 -2.0016 0.9656
-5.0617 -6.8490 -2.0016 0.9656
-4.8128 -7.0262 -2.0016 0.9656
-4.5576 -7.1943 -2.0016 0.9656
-4.2966 -7.3532 -2.0016 0.9656
-3.7583 -7.6423 -2.0016 0.9656
-3.4818 -7.7722 -2.0016 0.9656
-2.9155 -8.0018 -2.0016 0.9656
-2.6266 -8.1013 -2.0016 0.9656
-2.3343 -8.1903 -2.0016 0.9656
-1.4408 -8.3937 -2.0016 0.9656
-1.1388 -8.4400 -2.0016 0.9656
-0.8353 -8.4754 -2.0016 0.9656
0.3855 -8.5077 -2.0016 0.9656
0.6905 -8.4884 -2.0016 0.9656
0.9945 -8.4582 -2.0016 0.9656
2.1941 -8.2290 -2.0016 0.9656
2.7785 -8.0505 -2.0016 0.9656
3.0655 -7.9456 -2.0016 0.9656
3.6273 -7.7054 -2.0016 0.9656
2.1705 -4.2117 -1.1136 0.9807
4.6921 -7.1073 -2.0016 0.9656
5.1897 -6.7526 -2.0016 0.9656
5.4286 -6.5621 -2.0016 0.9656
5.8851 -6.1559 -2.0016 0.9656
6.1021 -5.9409 -2.0016 0.9656
6.3113 -5.7181 -2.0016 0.9656
6.8891 -5.0070 -2.0016 0.9656
7.3872 -4.2379 -2.0016 0.9656
7.5345 -3.9701 -2.0016 0.9656
7.6720 -3.6973 -2.0016 0.9656
7.9174 -3.1377 -2.0016 0.9656
6.2221 4.5876 -2.0016 0.9686
6.0535 4.8079 -2.0016 0.9686
5.6932 5.2295 -2.0016 0.9686
5.3036 5.6243 -2.0016 0.9686
5.0984 5.8109 -2.0016 0.9686
4.4446 6.3250 -2.0016 0.9686
3.7393 6.7659 -2.0016 0.9686
3.4942 6.8957 -2.0016 0.9686
3.2446 7.0166 -2.0016 0.9686
2.9908 7.1285 -2.0016 0.9686
2.7331 7.2312 -2.0016 0.9686
2.2076 7.4086 -2.0016 0.9686
1.3989 7.6029 -2.0016 0.9686
1.1253 7.6482 -2.0016 0.9686
0.8502 7.6836 -2.0016 0.9686
0.5740 7.7091 -2.0016 0.9686
0.2971 7.7248 -2.0016 0.9686
-1.0861 7.6538 -2.0016 0.9686
-2.1697 7.4198 -2.0016 0.9686
-3.9457 6.6477 -2.0016 0.9686
-4.1817 6.5019 -2.0016 0.9686
-4.8560 6.0150 -2.0016 0.9686
-5.2748 5.6513 -2.0016 0.9686
-5.4741 5.4585 -2.0016 0.9686
-5.6664 5.2586 -2.0016 0.9686
-6.1985 4.6194 -2.0016 0.9686
-7.0423 3.1885 -2.0016 0.9686
-7.2528 2.6754 -2.0016 0.9686
-7.3441 2.4135 -2.0016 0.9686
-7.4259 2.1485 -2.0016 0.9686
-7.4982 1.8807 -2.0016 0.9686
-7.6569 1.0643 -2.0016 0.9686
-7.7135 0.5125 -2.0016 0.9686
-7.7269 0.2355 -2.0016 0.9686
-7.7304 -0.0419 -2.0016 0.9686
-7.7075 -0.5960 -2.0016 0.9686
-7.6449 -1.1471 -2.0016 0.9686
-7.5988 -1.4207 -2.0016 0.9686
-7.5430 -1.6923 -2.0016 0.9686
-7.4774 -1.9618 -2.0016 0.9686
-7.3675 -2.2184 -1.9922 0.9687
-6.7889 -2.3128 -1.8570 0.9708
-6.7016 -2.5549 -1.8570 0.9708
-6.0011 -3.9276 -1.8570 0.9708
-5.8563 -4.1403 -1.8570 0.9708
-5.3776 -4.7455 -1.8570 0.9708
-5.2039 -4.9354 -1.8570 0.9708
-4.8366 -5.2958 -1.8570 0.9708
-4.6436 -5.4659 -1.8570 0.9708
-4.4445 -5.6290 -1.8570 0.9708
-4.3432 -6.3951 -2.0016 0.9686
-3.6310 -6.8247 -2.0016 0.9686
-3.3838 -6.9506 -2.0016 0.9686
-2.3549 -7.3631 -2.0016 0.9686
-2.0892 -7.4428 -2.0016 0.9686
-1.5502 -7.5735 -2.0016 0.9686
-1.2775 -7.6242 -2.0016 0.9686
-0.4510 -7.7173 -2.0016 0.9686
-0.1739 -7.7285 -2.0016 0.9686
0.1035 -7.7298 -2.0016 0.9686
0.3807 -7.7211 -2.0016 0.9686
0.9334 -7.6739 -2.0016 0.9686
2.0214 -7.4615 -2.0016 0.9686
2.8113 -7.2012 -2.0016 0.9686
3.0679 -7.0957 -2.0016 0.9686
2.3300 -4.1101 -1.2233 0.9807
4.0512 -6.5839 -2.0016 0.9686
4.2848 -6.4344 -2.0016 0.9686
4.7351 -6.1106 -2.0016 0.9686
5.1611 -5.7553 -2.0016 0.9686
5.3642 -5.5665 -2.0016 0.9686
6.4295 -4.2920 -2.0016 0.9686
6.5794 -4.0586 -2.0016 0.9686
6.7207 -3.8200 -2.0016 0.9686
6.8534 -3.5764 -2.0016 0.9686
7.0922 -3.0758 -2.0016 0.9686
7.2945 -2.5594 -2.0016 0.9686
7.4593 -2.0298 -2.0016 0.9686
7.6341 -1.2167 -2.0016 0.9686
7.7017 -0.6662 -2.0016 0.9686
7.7207 -0.3894 -2.0016 0.9686
7.7297 -0.1122 -2.0016 0.9686
7.7178 0.4423 -2.0016 0.9686
7.6970 0.7189 -2.0016 0.9686
7.5752 1.5416 -2.0016 0.9686
7.5150 1.8124 -2.0016 0.9686
7.0710 3.1243 -2.0016 0.9686
6.6944 3.8659 -2.0016 0.9686
6.5514 4.1036 -2.0016 0.9686
6.2403 4.5628 -2.0016 0.9686
6.0726 4.7837 -2.0016 0.9686
5.8971 4.9985 -2.0016 0.9686
5.5235 5.4084 -2.0016 0.9686
5.3260 5.6031 -2.0016 0.9686
4.9105 5.9705 -2.0016 0.9686
4.4698 6.3073 -2.0016 0.9686
4.2406 6.4635 -2.0016 0.9686
3.2725 7.0036 -2.0016 0.9686
2.7619 7.2203 -2.0016 0.9686
2.2371 7.3997 -2.0016 0.9686
1.1557 7.6436 -2.0016 0.9686
-0.5038 7.7141 -2.0016 0.9686
-0.7802 7.6910 -2.0016 0.9686
-1.0556 7.6581 -2.0016 0.9686
-1.6020 7.5627 -2.0016 0.9686
-1.8723 7.5003 -2.0016 0.9686
-2.1401 7.4283 -2.0016 0.9686
-2.9258 7.1554 -2.0016 0.9686
-3.1806 7.0459 -2.0016 0.9686
-3.4313 6.9272 -2.0016 0.9686
-4.3869 6.3652 -2.0016 0.9686
-4.8320 6.0343 -2.0016 0.9686
-5.0453 5.8571 -2.0016 0.9686
-5.2522 5.6723 -2.0016 0.9686
-5.4523 5.4802 -2.0016 0.9686
-5.6454 5.2811 -2.0016 0.9686
-5.8312 5.0752 -2.0016 0.9686
-6.0095 4.8627 -2.0016 0.9686
-6.1801 4.6440 -2.0016 0.9686
-6.3427 4.4193 -2.0016 0.9686
-6.4972 4.1890 -2.0016 0.9686
-6.9096 3.4667 -2.0016 0.9686
-7.0295 3.2166 -2.0016 0.9686
-7.2420 2.7043 -2.0016 0.9686
-7.4907 1.9106 -2.0016 0.9686
-7.5544 1.6406 -2.0016 0.9686
-7.6084 1.3686 -2.0016 0.9686
-7.6526 1.0948 -2.0016 0.9686
-7.6869 0.8195 -2.0016 0.9686
-7.7114 0.5433 -2.0016 0.9686
-7.7305 -0.0111 -2.0016 0.9686
-7.7098 -0.5653 -2.0016 0.9686
-7.6845 -0.8415 -2.0016 0.9686
-7.6044 -1.3903 -2.0016 0.9686
-7.5497 -1.6623 -2.0016 0.9686
-7.4852 -1.9320 -2.0016 0.9686
-6.7981 -2.2858 -1.8570 0.9708
-6.6167 -2.7673 -1.8570 0.9708
-6.5132 -3.0029 -1.8570 0.9708
-6.2811 -3.4622 -1.8570 0.9708
-6.1529 -3.6853 -1.8570 0.9708
-6.0167 -3.9036 -1.8570 0.9708
-5.5625 -4.5274 -1.8570 0.9708
-5.2236 -4.9146 -1.8570 0.9708
-5.0439 -5.0988 -1.8570 0.9708
-4.6653 -5.4474 -1.8570 0.9708
-4.4669 -5.6112 -1.8570 0.9708
-4.5946 -6.2169 -2.0016 0.9686
-4.3686 -6.3777 -2.0016 0.9686
-4.1370 -6.5303 -2.0016 0.9686
-2.3842 -7.3536 -2.0016 0.9686
-2.1189 -7.4344 -2.0016 0.9686
-1.8508 -7.5057 -2.0016 0.9686
-1.5804 -7.5672 -2.0016 0.9686
-1.3079 -7.6190 -2.0016 0.9686
-1.0337 -7.6611 -2.0016 0.9686
-0.7582 -7.6932 -2.0016 0.9686
0.0727 -7.7301 -2.0016 0.9686
0.3500 -7.7226 -2.0016 0.9686
0.9028 -7.6776 -2.0016 0.9686
1.1776 -7.6403 -2.0016 0.9686
1.7224 -7.5362 -2.0016 0.9686
1.9916 -7.4695 -2.0016 0.9686
2.2583 -7.3933 -2.0016 0.9686
2.5221 -7.3075 -2.0016 0.9686
2.7826 -7.2123 -2.0016 0.9686
2.1281 -4.1294 -1.2028 0.9810
2.3086 -4.1104 -1.2206 0.9807
4.4878 -6.2944 -2.0016 0.9686
4.7107 -6.1294 -2.0016 0.9686
5.1381 -5.7759 -2.0016 0.9686
5.3420 -5.5878 -2.0016 0.9686
5.5390 -5.3926 -2.0016 0.9686
5.7289 -5.1904 -2.0016 0.9686
6.0863 -4.7663 -2.0016 0.9686
6.4124 -4.3176 -2.0016 0.9686
6.5631 -4.0848 -2.0016 0.9686
6.8391 -3.6037 -2.0016 0.9686
6.9640 -3.3561 -2.0016 0.9686
7.0799 -3.1041 -2.0016 0.9686
7.2842 -2.5885 -2.0016 0.9686
5.6907 4.1958 -2.0016 0.9710
5.5366 4.3973 -2.0016 0.9710
5.2070 4.7829 -2.0016 0.9710
5.0321 4.9667 -2.0016 0.9710
4.6630 5.3147 -2.0016 0.9710
4.4694 5.4785 -2.0016 0.9710
3.8549 5.9270 -2.0016 0.9710
3.4200 6.1881 -2.0016 0.9710
2.7354 6.5198 -2.0016 0.9710
2.4997 6.6137 -2.0016 0.9710
2.0191 6.7759 -2.0016 0.9710
1.7747 6.8440 -2.0016 0.9710
1.5281 6.9032 -2.0016 0.9710
1.2794 6.9536 -2.0016 0.9710
1.0292 6.9950 -2.0016 0.9710
-0.2356 7.0664 -2.0016 0.9710
-0.4889 7.0534 -2.0016 0.9710
-0.7416 7.0313 -2.0016 0.9710
-1.4928 6.9110 -2.0016 0.9710
-1.7397 6.8530 -2.0016 0.9710
-2.7020 6.5337 -2.0016 0.9710
-3.1635 6.3231 -2.0016 0.9710
-3.3883 6.2055 -2.0016 0.9710
-4.0354 5.8056 -2.0016 0.9710
-4.2411 5.6571 -2.0016 0.9710
-4.6358 5.3384 -2.0016 0.9710
-4.8243 5.1687 -2.0016 0.9710
-5.1825 4.8095 -2.0016 0.9710
-5.8171 4.0188 -2.0016 0.9710
-5.9575 3.8075 -2.0016 0.9710
-6.0903 3.5914 -2.0016 0.9710
-6.2152 3.3706 -2.0016 0.9710
-6.3321 3.1454 -2.0016 0.9710
-6.4409 2.9163 -2.0016 0.9710
-6.5414 2.6833 -2.0016 0.9710
-6.6334 2.4469 -2.0016 0.9710
-6.7918 1.9650 -2.0016 0.9710
-6.8579 1.7201 -2.0016 0.9710
-7.0671 0.2154 -2.0016 0.9710
-7.0493 -0.5451 -2.0016 0.9710
-7.0252 -0.7977 -2.0016 0.9710
-6.9921 -1.0492 -2.0016 0.9710
-6.8988 -1.5478 -2.0016 0.9710
-6.8389 -1.7943 -2.0016 0.9710
-6.5325 -2.2255 -1.9537 0.9717
-6.1293 -2.3367 -1.8570 0.9731
-6.0415 -2.5551 -1.8570 0.9731
-5.9460 -2.7702 -1.8570 0.9731
-5.8428 -2.9817 -1.8570 0.9731
-5.7321 -3.1894 -1.8570 0.9731
-5.0709 -4.1610 -1.8570 0.9731
-4.9184 -4.3403 -1.8570 0.9731
-4.7595 -4.5139 -1.8570 0.9731
-4.0649 -5.1483 -1.8570 0.9731
-3.3209 -6.2419 -2.0016 0.9710
-2.6311 -6.5625 -2.0016 0.9710
-1.4178 -6.9267 -2.0016 0.9710
-0.9175 -7.0106 -2.0016 0.9710
-0.4125 -7.0583 -2.0016 0.9710
0.8537 -7.0186 -2.0016 0.9710
1.1049 -6.9835 -2.0016 0.9710
1.6028 -6.8863 -2.0016 0.9710
2.0924 -6.7536 -2.0016 0.9710
2.0898 -4.3938 -1.3774 0.9800
4.5285 -5.4298 -2.0016 0.9710
5.2585 -4.7262 -2.0016 0.9710
5.4247 -4.5346 -2.0016 0.9710
5.5839 -4.3370 -2.0016 0.9710
5.8805 -3.9255 -2.0016 0.9710
6.2682 -3.2710 -2.0016 0.9710
6.6716 -2.3408 -2.0016 0.9710
6.8223 -1.8565 -2.0016 0.9710
6.9822 -1.1128 -2.0016 0.9710
7.0440 -0.6093 -2.0016 0.9710
7.0696 -0.1026 -2.0016 0.9710
7.0687 0.1510 -2.0016 0.9710
7.0397 0.6575 -2.0016 0.9710
6.9744 1.1605 -2.0016 0.9710
6.9283 1.4100 -2.0016 0.9710
6.8733 1.6576 -2.0016 0.9710
6.8094 1.9031 -2.0016 0.9710
6.7367 2.1462 -2.0016 0.9710
5.8534 3.9657 -2.0016 0.9710
5.7074 4.1731 -2.0016 0.9710
5.3935 4.5716 -2.0016 0.9710
4.8711 5.1246 -2.0016 0.9710
4.6842 5.2960 -2.0016 0.9710
4.2924 5.6183 -2.0016 0.9710
3.6640 6.0469 -2.0016 0.9710
3.4447 6.1745 -2.0016 0.9710
3.2209 6.2941 -2.0016 0.9710
2.9931 6.4055 -2.0016 0.9710
2.7614 6.5088 -2.0016 0.9710
2.5261 6.6037 -2.0016 0.9710
2.2876 6.6900 -2.0016 0.9710
2.0461 6.7678 -2.0016 0.9710
1.8020 6.8368 -2.0016 0.9710
1.5556 6.8971 -2.0016 0.9710
1.3072 6.9485 -2.0016 0.9710
0.5531 7.0487 -2.0016 0.9710
0.2999 7.0640 -2.0016 0.9710
0.0463 7.0702 -2.0016 0.9710
-0.4608 7.0553 -2.0016 0.9710
-1.2161 6.9650 -2.0016 0.9710
-1.9574 6.7940 -2.0016 0.9710
-2.1998 6.7194 -2.0016 0.9710
-2.6760 6.5444 -2.0016 0.9710
-2.9090 6.4442 -2.0016 0.9710
-3.1383 6.3357 -2.0016 0.9710
-3.3636 6.2190 -2.0016 0.9710
-3.8008 5.9618 -2.0016 0.9710
-4.2185 5.6740 -2.0016 0.9710
-4.4193 5.5190 -2.0016 0.9710
-4.6145 5.3569 -2.0016 0.9710
-4.9867 5.0122 -2.0016 0.9710
-5.3332 4.6418 -2.0016 0.9710
-5.4963 4.4475 -2.0016 0.9710
-5.8010 4.0419 -2.0016 0.9710
-6.2017 3.3953 -2.0016 0.9710
-6.3195 3.1706 -2.0016 0.9710
-6.7081 2.2342 -2.0016 0.9710
-6.8510 1.7474 -2.0016 0.9710
-7.0305 0.7496 -2.0016 0.9710
-7.0528 0.4969 -2.0016 0.9710
-7.0661 0.2435 -2.0016 0.9710
-7.0703 -0.0101 -2.0016 0.9710
-7.0654 -0.2637 -2.0016 0.9710
-7.0514 -0.5170 -2.0016 0.9710
-6.9550 -1.2716 -2.0016 0.9710
-6.8460 -1.7670 -2.0016 0.9710
-6.7782 -2.0115 -2.0016 0.9710
-6.1386 -2.3123 -1.8570 0.9731
-5.9570 -2.7465 -1.8570 0.9731
-5.8546 -2.9584 -1.8570 0.9731
-5.7447 -3.1665 -1.8570 0.9731
-5.5029 -3.5703 -1.8570 0.9731
-5.2327 -3.9556 -1.8570 0.9731
-4.9356 -4.3206 -1.8570 0.9731
-4.7775 -4.4949 -1.8570 0.9731
-4.6132 -4.6634 -1.8570 0.9731
-4.0854 -5.1320 -1.8570 0.9731
-3.7069 -5.4117 -1.8570 0.9731
-3.5129 -5.5451 -1.8583 0.9731
-3.3458 -6.2286 -2.0016 0.9710
-2.8905 -6.4525 -2.0016 0.9710
-2.6572 -6.5520 -2.0016 0.9710
-2.1806 -6.7257 -2.0016 0.9710
-1.6928 -6.8647 -2.0016 0.9710
-0.4406 -7.0566 -2.0016 0.9710
0.0665 -7.0700 -2.0016 0.9710
0.3201 -7.0631 -2.0016 0.9710
0.8257 -7.0220 -2.0016 0.9710
1.3270 -6.9447 -2.0016 0.9710
1.8216 -6.8317 -2.0016 0.9710
2.0655 -6.7619 -2.0016 0.9710
2.7800 -6.5009 -2.0016 0.9710
3.0114 -6.3970 -2.0016 0.9710
2.1195 -4.1127 -1.3098 0.9809
3.6812 -6.0364 -2.0016 0.9710
3.8954 -5.9005 -2.0016 0.9710
4.1046 -5.7569 -2.0016 0.9710
5.0660 -4.9321 -2.0016 0.9710
5.2396 -4.7472 -2.0016 0.9710
5.4066 -4.5562 -2.0016 0.9710
5.7193 -4.1568 -2.0016 0.9710
6.1328 -3.5183 -2.0016 0.9710
6.2551 -3.2960 -2.0016 0.9710
6.3693 -3.0695 -2.0016 0.9710
6.4753 -2.8390 -2.0016 0.9710
6.5730 -2.6049 -2.0016 0.9710
6.6622 -2.3674 -2.0016 0.9710
5.2377 3.8618 -2.0016 0.9731
5.0958 4.0472 -2.0016 0.9731
4.9473 4.2274 -2.0016 0.9731
4.7925 4.4022 -2.0016 0.9731
4.6315 4.5713 -2.0016 0.9731
4.4645 4.7345 -2.0016 0.9731
4.1136 5.0424 -2.0016 0.9731
3.7414 5.3244 -2.0016 0.9731
3.5480 5.4552 -2.0016 0.9731
1.8584 6.2365 -2.0016 0.9731
1.4064 6.3537 -2.0016 0.9731
0.9472 6.4382 -2.0016 0.9731
0.7157 6.4680 -2.0016 0.9731
0.4832 6.4895 -2.0016 0.9731
0.2501 6.5027 -2.0016 0.9731
0.0166 6.5075 -2.0016 0.9731
-0.2168 6.5039 -2.0016 0.9731
-0.6826 6.4716 -2.0016 0.9731
-0.9143 6.4429 -2.0016 0.9731
-1.1449 6.4060 -2.0016 0.9731
-1.6012 6.3074 -2.0016 0.9731
-1.8265 6.2459 -2.0016 0.9731
-2.0493 6.1764 -2.0016 0.9731
-2.2696 6.0989 -2.0016 0.9731
-2.7010 5.9204 -2.0016 0.9731
-3.1186 5.7115 -2.0016 0.9731
-3.3215 5.5960 -2.0016 0.9731
-3.9035 5.2067 -2.0016 0.9731
-4.2667 4.9135 -2.0016 0.9731
-4.4403 4.7572 -2.0016 0.9731
-4.6081 4.5949 -2.0016 0.9731
-5.0750 4.0732 -2.0016 0.9731
-5.2179 3.8886 -2.0016 0.9731
-5.3540 3.6989 -2.0016 0.9731
-5.4833 3.5044 -2.0016 0.9731
-5.6055 3.3055 -2.0016 0.9731
-5.8280 2.8950 -2.0016 0.9731
-6.1822 2.0317 -2.0016 0.9731
-6.2511 1.8086 -2.0016 0.9731
-6.3120 1.5832 -2.0016 0.9731
-6.4092 1.1265 -2.0016 0.9731
-6.4455 0.8959 -2.0016 0.9731
-6.4735 0.6641 -2.0016 0.9731
-6.4932 0.4314 -2.0016 0.9731
-6.5045 0.1982 -2.0016 0.9731
-6.4659 -0.7342 -2.0016 0.9731
-6.4354 -0.9657 -2.0016 0.9731
-6.2944 -1.6515 -2.0016 0.9731
-6.2311 -1.8762 -2.0016 0.9731
-6.1598 -2.0985 -2.0016 0.9731
-5.8510 -2.2306 -1.9260 0.9741
-5.5606 -2.3517 -1.8570 0.9751
-5.4726 -2.5497 -1.8570 0.9751
-5.3776 -2.7443 -1.8570 0.9751
-5.1670 -3.1229 -1.8570 0.9751
-4.8016 -3.6599 -1.8570 0.9751
-4.6672 -3.8298 -1.8570 0.9751
-4.5268 -3.9948 -1.8570 0.9751
-4.2288 -4.3091 -1.8570 0.9751
-4.0715 -4.4580 -1.8570 0.9751
-3.9089 -4.6012 -1.8570 0.9751
-3.7413 -4.7384 -1.8570 0.9751
-3.5690 -4.8696 -1.8570 0.9751
-3.3920 -4.9945 -1.8570 0.9751
-3.0251 -5.2249 -1.8570 0.9751
-2.8357 -5.3300 -1.8570 0.9751
-2.6427 -5.4283 -1.8570 0.9751
-2.2467 -5.6038 -1.8570 0.9751
-1.7587 -6.2653 -2.0016 0.9731
-1.5328 -6.3244 -2.0016 0.9731
-0.1463 -6.5058 -2.0016 0.9731
0.5535 -6.4839 -2.0016 0.9731
0.7857 -6.4599 -2.0016 0.9731
1.2469 -6.3869 -2.0016 0.9731
1.7016 -6.2811 -2.0016 0.9731
2.1476 -6.1429 -2.0016 0.9731
2.1956 -5.6240 -1.8570 0.9751
2.3960 -5.5416 -1.8570 0.9751
2.1277 -4.0884 -1.4176 0.9809
2.3136 -4.0812 -1.4430 0.9806
3.4103 -5.5423 -2.0016 0.9731
3.6069 -5.4164 -2.0016 0.9731
3.9860 -5.1438 -2.0016 0.9731
4.3446 -4.8448 -2.0016 0.9731
4.5156 -4.6858 -2.0016 0.9731
4.6807 -4.5208 -2.0016 0.9731
5.1394 -3.9918 -2.0016 0.9731
5.2792 -3.8049 -2.0016 0.9731
5.4123 -3.6130 -2.0016 0.9731
5.5385 -3.4165 -2.0016 0.9731
5.6575 -3.2156 -2.0016 0.9731
5.7692 -3.0106 -2.0016 0.9731
6.0592 -2.3734 -2.0016 0.9731
6.1405 -2.1545 -2.0016 0.9731
6.3855 -1.2541 -2.0016 0.9731
6.4264 -1.0242 -2.0016 0.9731
6.4833 -0.5608 -2.0016 0.9731
6.5060 0.1390 -2.0016 0.9731
6.4968 0.3723 -2.0016 0.9731
6.4793 0.6051 -2.0016 0.9731
6.4534 0.8372 -2.0016 0.9731
6.4192 1.0682 -2.0016 0.9731
6.3768 1.2978 -2.0016 0.9731
6.3261 1.5257 -2.0016 0.9731
6.1256 2.1965 -2.0016 0.9731
5.9523 2.6300 -2.0016 0.9731
5.8541 2.8419 -2.0016 0.9731
5.7484 3.0501 -2.0016 0.9731
5.2531 3.8409 -2.0016 0.9731
4.8100 4.3830 -2.0016 0.9731
4.6497 4.5528 -2.0016 0.9731
3.9507 5.1710 -2.0016 0.9731
3.5697 5.4410 -2.0016 0.9731
3.3723 5.5655 -2.0016 0.9731
2.9645 5.7930 -2.0016 0.9731
2.7548 5.8956 -2.0016 0.9731
2.3250 6.0780 -2.0016 0.9731
1.6585 6.2926 -2.0016 0.9731
1.4317 6.3480 -2.0016 0.9731
0.9729 6.4343 -2.0016 0.9731
0.7415 6.4651 -2.0016 0.9731
0.5090 6.4875 -2.0016 0.9731
0.0426 6.5073 -2.0016 0.9731
-0.6568 6.4743 -2.0016 0.9731
-1.1193 6.4105 -2.0016 0.9731
-1.8016 6.2531 -2.0016 0.9731
-2.4629 6.0234 -2.0016 0.9731
-2.6774 5.9312 -2.0016 0.9731
-2.8885 5.8313 -2.0016 0.9731
-3.0958 5.7239 -2.0016 0.9731
-3.2991 5.6092 -2.0016 0.9731
-3.4982 5.4872 -2.0016 0.9731
-3.6928 5.3582 -2.0016 0.9731
-4.2471 4.9304 -2.0016 0.9731
-4.4213 4.7749 -2.0016 0.9731
-4.7522 4.4456 -2.0016 0.9731
-5.2024 3.9093 -2.0016 0.9731
-5.3392 3.7202 -2.0016 0.9731
-5.7080 3.1250 -2.0016 0.9731
-5.9174 2.7077 -2.0016 0.9731
-6.0107 2.4937 -2.0016 0.9731
-6.2439 1.8335 -2.0016 0.9731
-6.3056 1.6083 -2.0016 0.9731
-6.4047 1.1521 -2.0016 0.9731
-6.4419 0.9216 -2.0016 0.9731
-6.4914 0.4573 -2.0016 0.9731
-6.5036 0.2241 -2.0016 0.9731
-6.5075 -0.0093 -2.0016 0.9731
-6.5029 -0.2428 -2.0016 0.9731
-6.4901 -0.4759 -2.0016 0.9731
-6.4392 -0.9400 -2.0016 0.9731
-6.3010 -1.6264 -2.0016 0.9731
-5.5699 -2.3295 -1.8570 0.9751
-5.4828 -2.5278 -1.8570 0.9751
-5.2874 -2.9144 -1.8570 0.9751
-5.0648 -3.2860 -1.8570 0.9751
-4.9437 -3.4656 -1.8570 0.9751
-4.8162 -3.6407 -1.8570 0.9751
-4.6825 -3.8112 -1.8570 0.9751
-4.2459 -4.2922 -1.8570 0.9751
-4.0892 -4.4417 -1.8570 0.9751
-3.9272 -4.5856 -1.8570 0.9751
-3.4119 -4.9809 -1.8570 0.9751
-3.2310 -5.1001 -1.8570 0.9751
-2.6643 -5.4177 -1.8570 0.9751
-2.0070 -6.1902 -2.0016 0.9731
-1.7836 -6.2583 -2.0016 0.9731
-1.1010 -6.4137 -2.0016 0.9731
-0.8702 -6.4490 -2.0016 0.9731
-0.4055 -6.4948 -2.0016 0.9731
0.0612 -6.5072 -2.0016 0.9731
0.5276 -6.4861 -2.0016 0.9731
0.7599 -6.4630 -2.0016 0.9731
0.9913 -6.4315 -2.0016 0.9731
1.2214 -6.3918 -2.0016 0.9731
2.3424 -6.0713 -2.0016 0.9731
2.3738 -5.5512 -1.8570 0.9751
2.0740 -4.4057 -1.4977 0.9798
2.1108 -4.0958 -1.4173 0.9809
2.2924 -4.0815 -1.4398 0.9806
3.3882 -5.5559 -2.0016 0.9731
4.4968 -4.7038 -2.0016 0.9731
4.6627 -4.5395 -2.0016 0.9731
4.8225 -4.3693 -2.0016 0.9731
5.1234 -4.0122 -2.0016 0.9731
5.3979 -3.6346 -2.0016 0.9731
5.6446 -3.2382 -2.0016 0.9731
5.7571 -3.0336 -2.0016 0.9731
5.9598 -2.6130 -2.0016 0.9731
6.1318 -2.1790 -2.0016 0.9731
4.5778 3.9117 -2.0016 0.9749
4.4346 4.0734 -2.0016 0.9749
4.2856 4.2298 -2.0016 0.9749
4.1311 4.3809 -2.0016 0.9749
3.9713 4.5262 -2.0016 0.9749
3.4620 4.9267 -2.0016 0.9749
3.2830 5.0477 -2.0016 0.9749
3.0998 5.1622 -2.0016 0.9749
2.9127 5.2701 -2.0016 0.9749
2.3296 5.5525 -2.0016 0.9749
1.5115 5.8287 -2.0016 0.9749
0.6622 5.9849 -2.0016 0.9749
0.4471 6.0048 -2.0016 0.9749
0.2314 6.0170 -2.0016 0.9749
0.0154 6.0214 -2.0016 0.9749
-0.2006 6.0181 -2.0016 0.9749
-0.6316 5.9882 -2.0016 0.9749
-1.0593 5.9275 -2.0016 0.9749
-1.4816 5.8363 -2.0016 0.9749
-1.6900 5.7794 -2.0016 0.9749
-1.8963 5.7151 -2.0016 0.9749
-2.3012 5.5644 -2.0016 0.9749
-2.6942 5.3851 -2.0016 0.9749
-3.0734 5.1780 -2.0016 0.9749
-4.2639 4.2517 -2.0016 0.9749
-4.4137 4.0960 -2.0016 0.9749
-4.5578 3.9350 -2.0016 0.9749
-4.6960 3.7690 -2.0016 0.9749
-4.9541 3.4226 -2.0016 0.9749
-5.1868 3.0586 -2.0016 0.9749
-5.3927 2.6788 -2.0016 0.9749
-5.4854 2.4836 -2.0016 0.9749
-5.6493 2.0839 -2.0016 0.9749
-5.8405 1.4649 -2.0016 0.9749
-5.9305 1.0424 -2.0016 0.9749
-5.9641 0.8290 -2.0016 0.9749
-5.9900 0.6145 -2.0016 0.9749
-6.0082 0.3992 -2.0016 0.9749
-6.0035 -0.4643 -2.0016 0.9749
-5.8754 -1.3182 -2.0016 0.9749
-5.8243 -1.5281 -2.0016 0.9749
-5.7657 -1.7361 -2.0016 0.9749
-5.2828 -2.2342 -1.9066 0.9761
-5.0639 -2.3592 -1.8570 0.9767
-4.4430 -3.3865 -1.8570 0.9767
-4.1887 -3.6964 -1.8570 0.9767
-3.4619 -4.3845 -1.8570 0.9767
-3.1386 -4.6215 -1.8570 0.9767
-2.9708 -4.7311 -1.8570 0.9767
-2.7992 -4.8346 -1.8570 0.9767
-2.6239 -4.9319 -1.8570 0.9767
-2.0789 -5.1853 -1.8570 0.9767
-1.8915 -5.2565 -1.8570 0.9767
-1.5098 -5.3786 -1.8570 0.9767
-1.3159 -5.4293 -1.8570 0.9767
-0.7256 -5.5446 -1.8588 0.9767
-0.3259 -5.5770 -1.8570 0.9767
0.2751 -5.5797 -1.8570 0.9767
0.6746 -5.5462 -1.8572 0.9767
0.8730 -5.5179 -1.8570 0.9767
1.0704 -5.4830 -1.8570 0.9767
1.2664 -5.4411 -1.8570 0.9767
1.4608 -5.3921 -1.8570 0.9767
2.3054 -4.0666 -1.5539 0.9805
3.0964 -4.6498 -1.8570 0.9767
3.8567 -4.6243 -2.0016 0.9749
4.0201 -4.4829 -2.0016 0.9749
4.3311 -4.1832 -2.0016 0.9749
4.7555 -3.6936 -2.0016 0.9749
4.8849 -3.5207 -2.0016 0.9749
5.0081 -3.3432 -2.0016 0.9749
5.1248 -3.1613 -2.0016 0.9749
5.2349 -2.9755 -2.0016 0.9749
5.6819 -1.9936 -2.0016 0.9749
5.8102 -1.5810 -2.0016 0.9749
5.8631 -1.3716 -2.0016 0.9749
5.9086 -1.1604 -2.0016 0.9749
5.9990 -0.5189 -2.0016 0.9749
6.0138 -0.3033 -2.0016 0.9749
5.9005 1.2008 -2.0016 0.9749
5.7992 1.6208 -2.0016 0.9749
5.7373 1.8278 -2.0016 0.9749
5.6681 2.0324 -2.0016 0.9749
5.5077 2.4336 -2.0016 0.9749
5.4169 2.6296 -2.0016 0.9749
5.2144 3.0113 -2.0016 0.9749
4.9851 3.3774 -2.0016 0.9749
4.7301 3.7261 -2.0016 0.9749
4.5934 3.8934 -2.0016 0.9749
4.4508 4.0557 -2.0016 0.9749
3.4816 4.9129 -2.0016 0.9749
3.3031 5.0346 -2.0016 0.9749
2.5490 5.4553 -2.0016 0.9749
2.3517 5.5432 -2.0016 0.9749
2.1513 5.6240 -2.0016 0.9749
1.9482 5.6976 -2.0016 0.9749
1.7426 5.7638 -2.0016 0.9749
1.3248 5.8739 -2.0016 0.9749
0.9002 5.9538 -2.0016 0.9749
0.6861 5.9822 -2.0016 0.9749
0.4710 6.0030 -2.0016 0.9749
0.0394 6.0213 -2.0016 0.9749
-0.1766 6.0188 -2.0016 0.9749
-0.6077 5.9907 -2.0016 0.9749
-1.0357 5.9317 -2.0016 0.9749
-1.4583 5.8422 -2.0016 0.9749
-1.6670 5.7861 -2.0016 0.9749
-2.0776 5.6517 -2.0016 0.9749
-2.2790 5.5735 -2.0016 0.9749
-2.4774 5.4882 -2.0016 0.9749
-2.6727 5.3958 -2.0016 0.9749
-3.0527 5.1902 -2.0016 0.9749
-3.4170 4.9580 -2.0016 0.9749
-3.5927 4.8322 -2.0016 0.9749
-4.0910 4.4183 -2.0016 0.9749
-4.3973 4.1136 -2.0016 0.9749
-4.6809 3.7877 -2.0016 0.9749
-4.8138 3.6173 -2.0016 0.9749
-4.9405 3.4423 -2.0016 0.9749
-5.2817 2.8916 -2.0016 0.9749
-5.3820 2.7003 -2.0016 0.9749
-5.4754 2.5055 -2.0016 0.9749
-5.5618 2.3074 -2.0016 0.9749
-5.6410 2.1064 -2.0016 0.9749
-5.8843 1.2779 -2.0016 0.9749
-5.9263 1.0660 -2.0016 0.9749
-5.9608 0.8527 -2.0016 0.9749
-5.9875 0.6384 -2.0016 0.9749
-6.0066 0.4232 -2.0016 0.9749
-6.0179 0.2074 -2.0016 0.9749
-6.0214 -0.0086 -2.0016 0.9749
-6.0053 -0.4403 -2.0016 0.9749
-5.9857 -0.6555 -2.0016 0.9749
-5.9583 -0.8698 -2.0016 0.9749
-5.3352 -2.2313 -1.9223 0.9759
-4.9861 -2.5195 -1.8570 0.9767
-4.8925 -2.6968 -1.8570 0.9767
-4.7926 -2.8705 -1.8570 0.9767
-4.6865 -3.0406 -1.8570 0.9767
-4.4565 -3.3688 -1.8570 0.9767
-4.3327 -3.5265 -1.8570 0.9767
-4.2034 -3.6797 -1.8570 0.9767
-3.6339 -4.2431 -1.8570 0.9767
-3.3203 -4.4927 -1.8570 0.9767
-3.1570 -4.6089 -1.8570 0.9767
-2.9897 -4.7192 -1.8570 0.9767
-2.4653 -5.0131 -1.8570 0.9767
-2.2839 -5.0983 -1.8570 0.9767
-1.9125 -5.2489 -1.8570 0.9767
-1.7230 -5.3142 -1.8570 0.9767
-1.5312 -5.3725 -1.8570 0.9767
-1.3375 -5.4240 -1.8570 0.9767
-0.9451 -5.5060 -1.8570 0.9767
-0.1479 -5.5845 -1.8570 0.9767
0.4529 -5.5681 -1.8570 0.9767
1.0485 -5.4872 -1.8570 0.9767
1.4393 -5.3979 -1.8570 0.9767
1.6320 -5.3428 -1.8570 0.9767
1.8226 -5.2808 -1.8570 0.9767
2.0109 -5.2120 -1.8570 0.9767
2.1021 -4.0789 -1.5253 0.9808
2.2842 -4.0670 -1.5505 0.9805
2.9087 -4.7696 -1.8570 0.9767
3.0779 -4.6621 -1.8570 0.9767
3.2431 -4.5487 -1.8570 0.9767
4.1610 -4.3525 -2.0016 0.9749
4.3144 -4.2004 -2.0016 0.9749
4.4623 -4.0429 -2.0016 0.9749
4.6045 -3.8802 -2.0016 0.9749
4.7407 -3.7126 -2.0016 0.9749
4.9947 -3.3631 -2.0016 0.9749
5.4244 -2.6141 -2.0016 0.9749
5.6739 -2.0162 -2.0016 0.9749
4.5050 3.3216 -2.0016 0.9765
4.3829 3.4810 -2.0016 0.9765
4.1220 3.7863 -2.0016 0.9765
3.0517 4.6920 -2.0016 0.9765
