ply
format ascii 1.0
element vertex 1597
property float32 x
property float32 y
property float32 z
property float32 I
end_header
-0.8592 7.6826 -2.0016 0.9686
-1.1347 7.6468 -2.0016 0.9686
-1.4088 7.6010 -2.0016 0.9686
-1.6810 7.5455 -2.0016 0.9686
-3.0026 7.1236 -2.0016 0.9686
-3.7517 6.7591 -2.0016 0.9686
-4.2275 6.4722 -2.0016 0.9686
-4.6813 6.1519 -2.0016 0.9686
-4.8994 5.9797 -2.0016 0.9686
-5.5144 5.4177 -2.0016 0.9686
-6.3939 4.3449 -2.0016 0.9686
-6.6895 3.8744 -2.0016 0.9686
-6.8244 3.6316 -2.0016 0.9686
-6.9505 3.3840 -2.0016 0.9686
-7.0676 3.1321 -2.0016 0.9686
-7.1756 2.8761 -2.0016 0.9686
-7.6248 1.2741 -2.0016 0.9686
-7.6656 0.9993 -2.0016 0.9686
-7.6966 0.7232 -2.0016 0.9686
-7.7176 0.4462 -2.0016 0.9686
-7.7208 -0.3869 -2.0016 0.9686
-7.4592 -2.0300 -2.0016 0.9686
-7.1598 -2.2278 -1.9415 0.9695
-6.6775 -2.6172 -1.8570 0.9708
-6.5792 -2.8554 -1.8570 0.9708
-6.4723 -3.0900 -1.8570 0.9708
-6.2337 -3.5468 -1.8570 0.9708
-5.8158 -4.1970 -1.8570 0.9708
-5.4994 -4.6039 -1.8570 0.9708
-5.1545 -4.9870 -1.8570 0.9708
-4.9720 -5.1690 -1.8570 0.9708
-4.5879 -5.5127 -1.8570 0.9708
-3.5592 -6.8624 -2.0016 0.9686
-3.3103 -6.9859 -2.0016 0.9686
-2.8001 -7.2056 -2.0016 0.9686
-2.5393 -7.3015 -2.0016 0.9686
-2.2753 -7.3881 -2.0016 0.9686
-2.0084 -7.4650 -2.0016 0.9686
-1.1934 -7.6378 -2.0016 0.9686
-0.9182 -7.6758 -2.0016 0.9686
-0.6418 -7.7038 -2.0016 0.9686
-0.3646 -7.7219 -2.0016 0.9686
0.1910 -7.7281 -2.0016 0.9686
0.7455 -7.6945 -2.0016 0.9686
1.0215 -7.6627 -2.0016 0.9686
1.2962 -7.6210 -2.0016 0.9686
2.1088 -7.4373 -2.0016 0.9686
2.6375 -7.2666 -2.0016 0.9686
2.2034 -4.1117 -1.2078 0.9809
5.0247 -5.8747 -2.0016 0.9686
5.2326 -5.6904 -2.0016 0.9686
5.8145 -5.0943 -2.0016 0.9686
6.6314 -3.9730 -2.0016 0.9686
7.0205 -3.2363 -2.0016 0.9686
7.3280 -2.4620 -2.0016 0.9686
7.4117 -2.1971 -2.0016 0.9686
7.4859 -1.9293 -2.0016 0.9686
7.5503 -1.6591 -2.0016 0.9686
7.6500 -1.1126 -2.0016 0.9686
7.7102 -0.5603 -2.0016 0.9686
7.7305 -0.0051 -2.0016 0.9686
7.6069 1.3767 -2.0016 0.9686
7.4146 2.1873 -2.0016 0.9686
7.3312 2.4523 -2.0016 0.9686
7.2384 2.7142 -2.0016 0.9686
6.9043 3.4773 -2.0016 0.9686
6.7748 3.7232 -2.0016 0.9686
6.4900 4.2001 -2.0016 0.9686
6.3348 4.4306 -2.0016 0.9686
6.1716 4.6554 -2.0016 0.9686
5.8213 5.0866 -2.0016 0.9686
5.6347 5.2925 -2.0016 0.9686
5.4409 5.4915 -2.0016 0.9686
4.8184 6.0451 -2.0016 0.9686
4.5981 6.2144 -2.0016 0.9686
4.3718 6.3756 -2.0016 0.9686
4.1399 6.5285 -2.0016 0.9686
3.9026 6.6731 -2.0016 0.9686
3.6603 6.8090 -2.0016 0.9686
3.1618 7.0543 -2.0016 0.9686
2.9063 7.1634 -2.0016 0.9686
1.8501 7.5058 -2.0016 0.9686
0.4787 7.7157 -2.0016 0.9686
0.2012 7.7279 -2.0016 0.9686
-0.0766 7.7301 -2.0016 0.9686
-0.3544 7.7224 -2.0016 0.9686
-1.1833 7.6394 -2.0016 0.9686
-1.4571 7.5919 -2.0016 0.9686
-1.7289 7.5347 -2.0016 0.9686
-1.9985 7.4677 -2.0016 0.9686
-2.2656 7.3910 -2.0016 0.9686
-3.0478 7.1043 -2.0016 0.9686
-3.3011 6.9902 -2.0016 0.9686
-3.5501 6.8671 -2.0016 0.9686
-3.7946 6.7351 -2.0016 0.9686
-4.2685 6.4452 -2.0016 0.9686
-4.7204 6.1220 -2.0016 0.9686
-5.1478 5.7672 -2.0016 0.9686
-5.5487 5.3826 -2.0016 0.9686
-5.7386 5.1797 -2.0016 0.9686
-5.9210 4.9701 -2.0016 0.9686
-6.2626 4.5321 -2.0016 0.9686
-6.5719 4.0706 -2.0016 0.9686
-6.7140 3.8318 -2.0016 0.9686
-6.9718 3.3397 -2.0016 0.9686
-7.1937 2.8304 -2.0016 0.9686
-7.2907 2.5701 -2.0016 0.9686
-7.3784 2.3065 -2.0016 0.9686
-7.5250 1.7706 -2.0016 0.9686
-7.5837 1.4991 -2.0016 0.9686
-7.6327 1.2256 -2.0016 0.9686
-7.7010 0.6743 -2.0016 0.9686
-7.6264 -1.2640 -2.0016 0.9686
-7.5160 -1.8085 -2.0016 0.9686
-7.0221 -2.2340 -1.9079 0.9700
-6.6608 -2.6595 -1.8570 0.9708
-6.5609 -2.8972 -1.8570 0.9708
-6.4525 -3.1310 -1.8570 0.9708
-6.2110 -3.5864 -1.8570 0.9708
-6.0781 -3.8072 -1.8570 0.9708
-5.9374 -4.0232 -1.8570 0.9708
-5.6331 -4.4392 -1.8570 0.9708
-5.4700 -4.6388 -1.8570 0.9708
-5.1227 -5.0196 -1.8570 0.9708
-4.5557 -5.5452 -1.8582 0.9708
-4.6895 -6.1457 -2.0016 0.9686
-4.0009 -6.6146 -2.0016 0.9686
-3.7606 -6.7541 -2.0016 0.9686
5.7626 -4.0966 -2.0016 0.9710
6.0419 -3.6722 -2.0016 0.9710
6.4020 -3.0006 -2.0016 0.9710
6.5057 -2.7687 -2.0016 0.9710
6.6010 -2.5331 -2.0016 0.9710
6.7659 -2.0525 -2.0016 0.9710
6.8352 -1.8081 -2.0016 0.9710
6.9474 -1.3125 -2.0016 0.9710
6.9901 -1.0620 -2.0016 0.9710
7.0238 -0.8102 -2.0016 0.9710
7.0638 -0.3036 -2.0016 0.9710
7.0702 -0.0496 -2.0016 0.9710
7.0674 0.2045 -2.0016 0.9710
7.0555 0.4583 -2.0016 0.9710
7.0344 0.7115 -2.0016 0.9710
7.0043 0.9638 -2.0016 0.9710
6.8599 1.7120 -2.0016 0.9710
6.7940 1.9574 -2.0016 0.9710
6.7193 2.2002 -2.0016 0.9710
6.5439 2.6771 -2.0016 0.9710
6.3347 3.1402 -2.0016 0.9710
6.2178 3.3658 -2.0016 0.9710
5.5161 4.4229 -2.0016 0.9710
5.1842 4.8076 -2.0016 0.9710
5.0081 4.9908 -2.0016 0.9710
4.8256 5.1676 -2.0016 0.9710
4.2414 5.6568 -2.0016 0.9710
4.0354 5.8056 -2.0016 0.9710
3.8242 5.9468 -2.0016 0.9710
3.1621 6.3238 -2.0016 0.9710
2.9328 6.4334 -2.0016 0.9710
2.6997 6.5346 -2.0016 0.9710
1.9808 6.7872 -2.0016 0.9710
1.7357 6.8540 -2.0016 0.9710
1.4883 6.9119 -2.0016 0.9710
0.2289 7.0666 -2.0016 0.9710
-0.2792 7.0648 -2.0016 0.9710
-1.0378 6.9937 -2.0016 0.9710
-1.5374 6.9011 -2.0016 0.9710
-2.5103 6.6097 -2.0016 0.9710
-2.9785 6.4124 -2.0016 0.9710
-3.4313 6.1819 -2.0016 0.9710
-3.6512 6.0546 -2.0016 0.9710
-3.8664 5.9195 -2.0016 0.9710
-4.2816 5.6265 -2.0016 0.9710
-4.4810 5.4690 -2.0016 0.9710
-4.8622 5.1331 -2.0016 0.9710
-5.7014 4.1814 -2.0016 0.9710
-5.8479 3.9738 -2.0016 0.9710
-5.9869 3.7611 -2.0016 0.9710
-6.1182 3.5436 -2.0016 0.9710
-6.2416 3.3214 -2.0016 0.9710
-6.3569 3.0950 -2.0016 0.9710
-6.4640 2.8646 -2.0016 0.9710
-6.7348 2.1524 -2.0016 0.9710
-6.8077 1.9090 -2.0016 0.9710
-6.8719 1.6631 -2.0016 0.9710
-6.9736 1.1653 -2.0016 0.9710
-7.0110 0.9140 -2.0016 0.9710
-7.0393 0.6614 -2.0016 0.9710
-7.0687 0.1542 -2.0016 0.9710
-7.0696 -0.0999 -2.0016 0.9710
-7.0615 -0.3539 -2.0016 0.9710
-7.0442 -0.6074 -2.0016 0.9710
-6.8845 -1.6103 -2.0016 0.9710
-6.8222 -1.8567 -2.0016 0.9710
-6.3634 -2.2337 -1.9092 0.9724
-6.1193 -2.3984 -1.8606 0.9730
-6.0173 -2.6116 -1.8570 0.9731
-5.9196 -2.8261 -1.8570 0.9731
-5.4537 -3.6450 -1.8570 0.9731
-5.3192 -3.8386 -1.8570 0.9731
-5.1778 -4.0273 -1.8570 0.9731
-4.7143 -4.5611 -1.8570 0.9731
-4.5474 -4.7275 -1.8570 0.9731
-4.3746 -4.8879 -1.8570 0.9731
-4.1961 -5.0419 -1.8570 0.9731
-4.0123 -5.1894 -1.8570 0.9731
-3.6292 -5.4642 -1.8570 0.9731
-2.7961 -6.4940 -2.0016 0.9710
-2.5609 -6.5902 -2.0016 0.9710
-2.0810 -6.7571 -2.0016 0.9710
-1.8369 -6.8275 -2.0016 0.9710
-1.5904 -6.8891 -2.0016 0.9710
-1.3418 -6.9418 -2.0016 0.9710
-1.0915 -6.9856 -2.0016 0.9710
-0.8398 -7.0203 -2.0016 0.9710
-0.0794 -7.0699 -2.0016 0.9710
0.1747 -7.0682 -2.0016 0.9710
0.4285 -7.0573 -2.0016 0.9710
0.6818 -7.0374 -2.0016 0.9710
0.9343 -7.0083 -2.0016 0.9710
1.1855 -6.9702 -2.0016 0.9710
1.6830 -6.8671 -2.0016 0.9710
2.4122 -6.6461 -2.0016 0.9710
2.3874 -4.0947 -1.3418 0.9805
3.7785 -5.9760 -2.0016 0.9710
4.3996 -5.5347 -2.0016 0.9710
4.7857 -5.2044 -2.0016 0.9710
4.9697 -5.0291 -2.0016 0.9710
5.3180 -4.6592 -2.0016 0.9710
5.9307 -3.8493 -2.0016 0.9710
6.0651 -3.6337 -2.0016 0.9710
6.3104 -3.1887 -2.0016 0.9710
6.4209 -2.9599 -2.0016 0.9710
6.5231 -2.7273 -2.0016 0.9710
6.6169 -2.4911 -2.0016 0.9710
6.8466 -1.7646 -2.0016 0.9710
6.9056 -1.5174 -2.0016 0.9710
7.0517 -0.5124 -2.0016 0.9710
7.0656 -0.2587 -2.0016 0.9710
7.0659 0.2494 -2.0016 0.9710
6.9981 1.0083 -2.0016 0.9710
6.9076 1.5083 -2.0016 0.9710
6.7814 2.0005 -2.0016 0.9710
6.7052 2.2429 -2.0016 0.9710
6.5268 2.7186 -2.0016 0.9710
6.3147 3.1804 -2.0016 0.9710
5.9357 3.8414 -2.0016 0.9710
5.6445 4.2578 -2.0016 0.9710
5.4879 4.4579 -2.0016 0.9710
5.3242 4.6522 -2.0016 0.9710
5.1536 4.8405 -2.0016 0.9710
4.7926 5.1981 -2.0016 0.9710
4.6027 5.3670 -2.0016 0.9710
4.4069 5.5289 -2.0016 0.9710
4.2054 5.6837 -2.0016 0.9710
3.9985 5.8311 -2.0016 0.9710
3.7863 5.9710 -2.0016 0.9710
3.5693 6.1032 -2.0016 0.9710
3.3477 6.2275 -2.0016 0.9710
3.1218 6.3438 -2.0016 0.9710
2.8918 6.4519 -2.0016 0.9710
2.6581 6.5516 -2.0016 0.9710
1.9377 6.7996 -2.0016 0.9710
1.1947 6.9687 -2.0016 0.9710
0.6911 7.0365 -2.0016 0.9710
-0.3241 7.0629 -2.0016 0.9710
-1.0823 6.9870 -2.0016 0.9710
-1.3326 6.9436 -2.0016 0.9710
-1.5813 6.8912 -2.0016 0.9710
-2.3137 6.6811 -2.0016 0.9710
-2.5522 6.5936 -2.0016 0.9710
-2.7875 6.4976 -2.0016 0.9710
-3.0192 6.3933 -2.0016 0.9710
-3.2470 6.2807 -2.0016 0.9710
-3.6896 6.0313 -2.0016 0.9710
-3.9040 5.8948 -2.0016 0.9710
-4.5157 5.4404 -2.0016 0.9710
-4.7082 5.2747 -2.0016 0.9710
-5.0749 4.9229 -2.0016 0.9710
-5.2485 4.7374 -2.0016 0.9710
-5.4154 4.5457 -2.0016 0.9710
-5.5752 4.3482 -2.0016 0.9710
-5.7278 4.1451 -2.0016 0.9710
-5.8731 3.9366 -2.0016 0.9710
-6.1406 3.5046 -2.0016 0.9710
-6.2626 3.2817 -2.0016 0.9710
-6.4821 2.8234 -2.0016 0.9710
-6.6681 2.3506 -2.0016 0.9710
-6.7483 2.1095 -2.0016 0.9710
-6.8197 1.8657 -2.0016 0.9710
-7.0167 0.8694 -2.0016 0.9710
-7.0434 0.6167 -2.0016 0.9710
-7.0402 -0.6522 -2.0016 0.9710
-7.0122 -0.9047 -2.0016 0.9710
-6.9752 -1.1561 -2.0016 0.9710
-6.9291 -1.4060 -2.0016 0.9710
-6.8103 -1.9000 -2.0016 0.9710
-6.7376 -2.1435 -2.0016 0.9710
-6.0006 -2.6498 -1.8570 0.9731
-5.9015 -2.8637 -1.8570 0.9731
-5.7948 -3.0739 -1.8570 0.9731
-5.6806 -3.2801 -1.8570 0.9731
-4.5173 -4.7564 -1.8570 0.9731
-3.2153 -6.2969 -2.0016 0.9710
-2.9870 -6.4084 -2.0016 0.9710
5.5609 -3.3798 -2.0016 0.9731
5.8924 -2.7618 -2.0016 0.9731
6.0755 -2.3315 -2.0016 0.9731
6.1553 -2.1117 -2.0016 0.9731
6.2911 -1.6641 -2.0016 0.9731
6.3468 -1.4370 -2.0016 0.9731
6.4336 -0.9775 -2.0016 0.9731
6.4872 -0.5129 -2.0016 0.9731
6.5073 -0.0457 -2.0016 0.9731
6.5048 0.1882 -2.0016 0.9731
6.4744 0.6549 -2.0016 0.9731
6.3664 1.3478 -2.0016 0.9731
6.3138 1.5757 -2.0016 0.9731
6.2531 1.8015 -2.0016 0.9731
6.1076 2.2460 -2.0016 0.9731
6.0230 2.4640 -2.0016 0.9731
5.9305 2.6788 -2.0016 0.9731
5.8304 2.8902 -2.0016 0.9731
5.6078 3.3015 -2.0016 0.9731
4.9274 4.2506 -2.0016 0.9731
4.7715 4.4249 -2.0016 0.9731
4.4414 4.7562 -2.0016 0.9731
4.2676 4.9127 -2.0016 0.9731
4.0883 5.0629 -2.0016 0.9731
3.7142 5.3434 -2.0016 0.9731
3.3208 5.5964 -2.0016 0.9731
2.4848 6.0144 -2.0016 0.9731
2.2671 6.0998 -2.0016 0.9731
1.1403 6.4068 -2.0016 0.9731
0.4443 6.4923 -2.0016 0.9731
0.2107 6.5041 -2.0016 0.9731
-0.0232 6.5074 -2.0016 0.9731
-0.4904 6.4890 -2.0016 0.9731
-0.7233 6.4672 -2.0016 0.9731
-0.9552 6.4370 -2.0016 0.9731
-1.1859 6.3985 -2.0016 0.9731
-1.4150 6.3518 -2.0016 0.9731
-1.6424 6.2968 -2.0016 0.9731
-1.8676 6.2337 -2.0016 0.9731
-2.0903 6.1626 -2.0016 0.9731
-2.5275 5.9966 -2.0016 0.9731
-2.9517 5.7996 -2.0016 0.9731
-3.1581 5.6898 -2.0016 0.9731
-3.5586 5.4482 -2.0016 0.9731
-4.8029 4.3909 -2.0016 0.9731
-4.9575 4.2154 -2.0016 0.9731
-5.2475 3.8485 -2.0016 0.9731
-5.3824 3.6575 -2.0016 0.9731
-5.5103 3.4617 -2.0016 0.9731
-5.6312 3.2615 -2.0016 0.9731
-5.7447 3.0570 -2.0016 0.9731
-5.8509 2.8486 -2.0016 0.9731
-6.0403 2.4211 -2.0016 0.9731
-6.1234 2.2025 -2.0016 0.9731
-6.1986 1.9810 -2.0016 0.9731
-6.3249 1.5307 -2.0016 0.9731
-6.3758 1.3025 -2.0016 0.9731
-6.4966 0.3756 -2.0016 0.9731
-6.5068 -0.0920 -2.0016 0.9731
-6.4993 -0.3257 -2.0016 0.9731
-6.3856 -1.2535 -2.0016 0.9731
-6.3365 -1.4821 -2.0016 0.9731
-6.2136 -1.9334 -2.0016 0.9731
-6.1402 -2.1554 -2.0016 0.9731
-5.5383 -2.4037 -1.8570 0.9751
-5.3514 -2.7952 -1.8570 0.9751
-5.2475 -2.9857 -1.8570 0.9751
-5.0195 -3.3548 -1.8570 0.9751
-4.8957 -3.5330 -1.8570 0.9751
-4.7656 -3.7067 -1.8570 0.9751
-4.6293 -3.8755 -1.8570 0.9751
-4.3390 -4.1980 -1.8570 0.9751
-4.0263 -4.4988 -1.8570 0.9751
-3.6929 -4.7763 -1.8570 0.9751
-3.5188 -4.9059 -1.8570 0.9751
-2.9705 -5.2561 -1.8570 0.9751
-2.3880 -5.5461 -1.8573 0.9750
-1.9154 -6.2192 -2.0016 0.9731
-1.4638 -6.3407 -2.0016 0.9731
-1.2350 -6.3892 -2.0016 0.9731
-1.0046 -6.4295 -2.0016 0.9731
-0.3069 -6.5002 -2.0016 0.9731
-0.0731 -6.5071 -2.0016 0.9731
0.1608 -6.5055 -2.0016 0.9731
0.3944 -6.4955 -2.0016 0.9731
0.8599 -6.4504 -2.0016 0.9731
1.3209 -6.3720 -2.0016 0.9731
1.5490 -6.3204 -2.0016 0.9731
1.7752 -6.2607 -2.0016 0.9731
2.2202 -6.1170 -2.0016 0.9731
2.0803 -4.2415 -1.4531 0.9804
3.4777 -5.5003 -2.0016 0.9731
3.6731 -5.3718 -2.0016 0.9731
4.0494 -5.0941 -2.0016 0.9731
4.2298 -4.9453 -2.0016 0.9731
4.4048 -4.7901 -2.0016 0.9731
4.5740 -4.6288 -2.0016 0.9731
4.7374 -4.4614 -2.0016 0.9731
5.1900 -3.9257 -2.0016 0.9731
5.4585 -3.5428 -2.0016 0.9731
5.5823 -3.3444 -2.0016 0.9731
5.8081 -2.9349 -2.0016 0.9731
6.0902 -2.2928 -2.0016 0.9731
6.1686 -2.0725 -2.0016 0.9731
6.3558 -1.3966 -2.0016 0.9731
6.4397 -0.9366 -2.0016 0.9731
6.5031 -0.2381 -2.0016 0.9731
6.4035 1.1589 -2.0016 0.9731
6.0072 2.5022 -2.0016 0.9731
5.8120 2.9272 -2.0016 0.9731
5.5867 3.3370 -2.0016 0.9731
5.4632 3.5356 -2.0016 0.9731
5.3326 3.7297 -2.0016 0.9731
5.1952 3.9189 -2.0016 0.9731
4.9003 4.2819 -2.0016 0.9731
4.5801 4.6227 -2.0016 0.9731
4.2363 4.9397 -2.0016 0.9731
4.0561 5.0888 -2.0016 0.9731
3.4849 5.4957 -2.0016 0.9731
2.6616 5.9383 -2.0016 0.9731
2.4465 6.0301 -2.0016 0.9731
2.2283 6.1141 -2.0016 0.9731
2.0071 6.1902 -2.0016 0.9731
1.5574 6.3184 -2.0016 0.9731
1.3293 6.3703 -2.0016 0.9731
0.8684 6.4493 -2.0016 0.9731
0.1693 6.5053 -2.0016 0.9731
-0.2983 6.5006 -2.0016 0.9731
-0.5317 6.4857 -2.0016 0.9731
-1.4554 6.3426 -2.0016 0.9731
-2.1295 6.1492 -2.0016 0.9731
-2.3491 6.0687 -2.0016 0.9731
-2.5656 5.9804 -2.0016 0.9731
-2.7788 5.8843 -2.0016 0.9731
-2.9885 5.7807 -2.0016 0.9731
-3.1943 5.6696 -2.0016 0.9731
-3.5932 5.4255 -2.0016 0.9731
-4.3334 4.8548 -2.0016 0.9731
-4.5051 4.6959 -2.0016 0.9731
-4.6709 4.5310 -2.0016 0.9731
-4.9842 4.1838 -2.0016 0.9731
-5.2719 3.8151 -2.0016 0.9731
-5.4055 3.6232 -2.0016 0.9731
-5.5322 3.4266 -2.0016 0.9731
-5.7640 3.0204 -2.0016 0.9731
-6.0556 2.3826 -2.0016 0.9731
-6.1373 2.1635 -2.0016 0.9731
-6.2111 1.9416 -2.0016 0.9731
-6.2768 1.7171 -2.0016 0.9731
-6.3345 1.4905 -2.0016 0.9731
-6.3840 1.2619 -2.0016 0.9731
-6.4252 1.0317 -2.0016 0.9731
-6.4581 0.8002 -2.0016 0.9731
-6.4827 0.5676 -2.0016 0.9731
-6.5061 -0.1333 -2.0016 0.9731
-6.4797 -0.6002 -2.0016 0.9731
-6.4540 -0.8327 -2.0016 0.9731
-6.3775 -1.2941 -2.0016 0.9731
-6.2681 -1.7487 -2.0016 0.9731
-5.6218 -2.2447 -1.8619 0.9750
-5.4317 -2.6357 -1.8570 0.9751
-5.3335 -2.8292 -1.8570 0.9751
-5.2284 -3.0190 -1.8570 0.9751
-4.9981 -3.3867 -1.8570 0.9751
-4.8732 -3.5641 -1.8570 0.9751
-4.3123 -4.2255 -1.8570 0.9751
-3.8325 -4.6650 -1.8570 0.9751
-3.4876 -4.9282 -1.8570 0.9751
-3.1247 -5.1659 -1.8570 0.9751
-2.5506 -5.4722 -1.8570 0.9751
4.7792 -3.6630 -2.0016 0.9749
4.9077 -3.4889 -2.0016 0.9749
5.1456 -3.1274 -2.0016 0.9749
5.2546 -2.9405 -2.0016 0.9749
5.6956 -1.9539 -2.0016 0.9749
5.8212 -1.5398 -2.0016 0.9749
5.8728 -1.3297 -2.0016 0.9749
5.9168 -1.1178 -2.0016 0.9749
6.0027 -0.4746 -2.0016 0.9749
6.0189 0.1741 -2.0016 0.9749
5.9319 1.0346 -2.0016 0.9749
5.8423 1.4580 -2.0016 0.9749
5.6514 2.0782 -2.0016 0.9749
5.5731 2.2800 -2.0016 0.9749
5.4876 2.4787 -2.0016 0.9749
5.3950 2.6743 -2.0016 0.9749
5.0759 3.2394 -2.0016 0.9749
4.8301 3.5955 -2.0016 0.9749
4.4151 4.0944 -2.0016 0.9749
4.1097 4.4009 -2.0016 0.9749
3.6122 4.8176 -2.0016 0.9749
3.2569 5.0646 -2.0016 0.9749
2.6930 5.3857 -2.0016 0.9749
2.4977 5.4790 -2.0016 0.9749
2.2992 5.5652 -2.0016 0.9749
1.4782 5.8372 -2.0016 0.9749
1.0552 5.9283 -2.0016 0.9749
0.8415 5.9624 -2.0016 0.9749
0.4111 6.0074 -2.0016 0.9749
0.1950 6.0183 -2.0016 0.9749
-0.6693 5.9841 -2.0016 0.9749
-1.3094 5.8774 -2.0016 0.9749
-1.5197 5.8265 -2.0016 0.9749
-1.9342 5.7023 -2.0016 0.9749
-2.5366 5.4611 -2.0016 0.9749
-2.9223 5.2648 -2.0016 0.9749
-3.4719 4.9197 -2.0016 0.9749
-3.8162 4.6577 -2.0016 0.9749
-3.9811 4.5176 -2.0016 0.9749
-4.1409 4.3716 -2.0016 0.9749
-4.4442 4.0629 -2.0016 0.9749
-4.5873 3.9006 -2.0016 0.9749
-4.8556 3.5611 -2.0016 0.9749
-5.2106 3.0179 -2.0016 0.9749
-5.4139 2.6359 -2.0016 0.9749
-5.7356 1.8331 -2.0016 0.9749
-5.8525 1.4164 -2.0016 0.9749
-5.8996 1.2052 -2.0016 0.9749
-6.0208 -0.0851 -2.0016 0.9749
-5.9992 -0.5173 -2.0016 0.9749
-5.9767 -0.7325 -2.0016 0.9749
-5.9465 -0.9468 -2.0016 0.9749
-5.9087 -1.1599 -2.0016 0.9749
-5.7495 -1.7890 -2.0016 0.9749
-5.6816 -1.9944 -2.0016 0.9749
-4.9517 -2.5864 -1.8570 0.9767
-4.5301 -3.2692 -1.8570 0.9767
-4.4097 -3.4298 -1.8570 0.9767
-4.2836 -3.5861 -1.8570 0.9767
-4.1519 -3.7377 -1.8570 0.9767
-4.0150 -3.8844 -1.8570 0.9767
-3.5736 -4.2939 -1.8570 0.9767
-3.2560 -4.5395 -1.8570 0.9767
-3.0908 -4.6536 -1.8570 0.9767
-2.7486 -4.8635 -1.8570 0.9767
-2.2093 -5.1311 -1.8570 0.9767
-2.0235 -5.2072 -1.8570 0.9767
-1.8351 -5.2765 -1.8570 0.9767
-1.4514 -5.3947 -1.8570 0.9767
-1.2566 -5.4433 -1.8570 0.9767
-0.8624 -5.5195 -1.8570 0.9767
-0.4638 -5.5672 -1.8570 0.9767
-0.2634 -5.5803 -1.8570 0.9767
-0.0628 -5.5861 -1.8570 0.9767
0.1380 -5.5848 -1.8570 0.9767
0.3386 -5.5762 -1.8570 0.9767
0.5387 -5.5605 -1.8570 0.9767
0.7391 -5.5442 -1.8592 0.9767
0.9367 -5.5074 -1.8570 0.9767
1.3298 -5.4259 -1.8570 0.9767
2.0934 -5.1794 -1.8570 0.9767
2.2782 -5.1009 -1.8570 0.9767
2.0664 -4.2131 -1.5598 0.9804
2.3704 -4.0654 -1.5643 0.9804
2.9855 -4.7218 -1.8570 0.9767
3.4763 -4.3732 -1.8570 0.9767
4.0758 -4.4324 -2.0016 0.9749
4.2324 -4.2830 -2.0016 0.9749
4.3836 -4.1282 -2.0016 0.9749
4.5291 -3.9680 -2.0016 0.9749
4.6687 -3.8027 -2.0016 0.9749
4.8024 -3.6325 -2.0016 0.9749
4.9298 -3.4576 -2.0016 0.9749
5.0508 -3.2782 -2.0016 0.9749
5.1654 -3.0946 -2.0016 0.9749
5.4684 -2.5208 -2.0016 0.9749
5.6353 -2.1215 -2.0016 0.9749
5.7079 -1.9177 -2.0016 0.9749
5.7731 -1.7114 -2.0016 0.9749
5.9587 -0.8666 -2.0016 0.9749
5.9860 -0.6519 -2.0016 0.9749
6.0174 -0.2203 -2.0016 0.9749
6.0177 0.2124 -2.0016 0.9749
5.9869 0.6440 -2.0016 0.9749
5.9599 0.8587 -2.0016 0.9749
5.8828 1.2845 -2.0016 0.9749
5.7754 1.7037 -2.0016 0.9749
5.7104 1.9102 -2.0016 0.9749
5.6381 2.1141 -2.0016 0.9749
5.5585 2.3153 -2.0016 0.9749
5.0552 3.2716 -2.0016 0.9749
4.8072 3.6262 -2.0016 0.9749
4.6738 3.7965 -2.0016 0.9749
4.3890 4.1224 -2.0016 0.9749
4.2381 4.2775 -2.0016 0.9749
4.0816 4.4270 -2.0016 0.9749
3.9199 4.5708 -2.0016 0.9749
3.5815 4.8405 -2.0016 0.9749
2.6587 5.4027 -2.0016 0.9749
2.4628 5.4947 -2.0016 0.9749
2.2638 5.5797 -2.0016 0.9749
1.8572 5.7279 -2.0016 0.9749
1.4411 5.8465 -2.0016 0.9749
1.2301 5.8945 -2.0016 0.9749
1.0175 5.9349 -2.0016 0.9749
0.3729 6.0099 -2.0016 0.9749
0.1567 6.0194 -2.0016 0.9749
-0.0597 6.0211 -2.0016 0.9749
-0.2760 6.0151 -2.0016 0.9749
-0.7073 5.9798 -2.0016 0.9749
-1.1349 5.9135 -2.0016 0.9749
-1.5567 5.8167 -2.0016 0.9749
-1.7647 5.7570 -2.0016 0.9749
-1.9704 5.6899 -2.0016 0.9749
-2.1736 5.6154 -2.0016 0.9749
-2.9557 5.2461 -2.0016 0.9749
-3.1423 5.1365 -2.0016 0.9749
-3.5031 4.8976 -2.0016 0.9749
-3.6768 4.7685 -2.0016 0.9749
-4.3220 4.1926 -2.0016 0.9749
-4.7481 3.7031 -2.0016 0.9749
-4.8781 3.5301 -2.0016 0.9749
-5.1190 3.1707 -2.0016 0.9749
-5.2297 2.9847 -2.0016 0.9749
-5.3335 2.7948 -2.0016 0.9749
-5.4305 2.6014 -2.0016 0.9749
-5.6033 2.2047 -2.0016 0.9749
-5.6789 2.0019 -2.0016 0.9749
-5.8614 1.3792 -2.0016 0.9749
-5.9071 1.1677 -2.0016 0.9749
-5.9985 0.5252 -2.0016 0.9749
-5.9958 -0.5554 -2.0016 0.9749
-5.9012 -1.1974 -2.0016 0.9749
-5.8544 -1.4087 -2.0016 0.9749
-5.8000 -1.6181 -2.0016 0.9749
-5.7381 -1.8255 -2.0016 0.9749
-5.6688 -2.0305 -2.0016 0.9749
-5.1104 -2.2567 -1.8570 0.9767
-5.0260 -2.4388 -1.8570 0.9767
-4.9351 -2.6179 -1.8570 0.9767
-4.8379 -2.7935 -1.8570 0.9767
-4.5092 -3.2979 -1.8570 0.9767
-4.3878 -3.4578 -1.8570 0.9767
-4.2607 -3.6132 -1.8570 0.9767
-4.1281 -3.7640 -1.8570 0.9767
-3.8471 -4.0507 -1.8570 0.9767
-3.6991 -4.1864 -1.8570 0.9767
-3.5463 -4.3166 -1.8570 0.9767
-3.3889 -4.4412 -1.8570 0.9767
-3.2271 -4.5601 -1.8570 0.9767
-2.7176 -4.8809 -1.8570 0.9767
-2.5405 -4.9754 -1.8570 0.9767
-2.3601 -5.0635 -1.8570 0.9767
4.4424 -3.4048 -2.0016 0.9765
4.6754 -3.0770 -2.0016 0.9765
4.9794 -2.5560 -2.0016 0.9765
5.0680 -2.3754 -2.0016 0.9765
5.1501 -2.1918 -2.0016 0.9765
5.2255 -2.0053 -2.0016 0.9765
5.3561 -1.6248 -2.0016 0.9765
5.5970 -0.0393 -2.0016 0.9765
5.5948 0.1619 -2.0016 0.9765
5.5448 0.7630 -2.0016 0.9765
5.4305 1.3552 -2.0016 0.9765
5.3783 1.5495 -2.0016 0.9765
5.3192 1.7418 -2.0016 0.9765
5.1804 2.1193 -2.0016 0.9765
5.1009 2.3041 -2.0016 0.9765
5.0148 2.4858 -2.0016 0.9765
4.9222 2.6644 -2.0016 0.9765
4.8233 2.8396 -2.0016 0.9765
4.6069 3.1787 -2.0016 0.9765
4.4897 3.3421 -2.0016 0.9765
4.3667 3.5013 -2.0016 0.9765
3.6706 4.2254 -2.0016 0.9765
3.5164 4.3546 -2.0016 0.9765
3.3577 4.4781 -2.0016 0.9765
3.1946 4.5959 -2.0016 0.9765
3.0274 4.7077 -2.0016 0.9765
2.8563 4.8134 -2.0016 0.9765
2.6815 4.9130 -2.0016 0.9765
2.5032 5.0061 -2.0016 0.9765
2.3217 5.0929 -2.0016 0.9765
1.7602 5.3131 -2.0016 0.9765
1.5681 5.3729 -2.0016 0.9765
1.1782 5.4717 -2.0016 0.9765
0.7822 5.5422 -2.0016 0.9765
0.3821 5.5840 -2.0016 0.9765
0.1812 5.5942 -2.0016 0.9765
-0.2210 5.5927 -2.0016 0.9765
-1.0200 5.5034 -2.0016 0.9765
-1.7979 5.3005 -2.0016 0.9765
-1.9872 5.2324 -2.0016 0.9765
-2.1739 5.1576 -2.0016 0.9765
-3.0608 4.6860 -2.0016 0.9765
-3.3894 4.4541 -2.0016 0.9765
-3.7006 4.1992 -2.0016 0.9765
-3.8491 4.0635 -2.0016 0.9765
-3.9926 3.9226 -2.0016 0.9765
-4.3915 3.4702 -2.0016 0.9765
-4.5134 3.3101 -2.0016 0.9765
-4.7394 2.9774 -2.0016 0.9765
-4.8434 2.8052 -2.0016 0.9765
-5.0323 2.4501 -2.0016 0.9765
-5.1171 2.2677 -2.0016 0.9765
-5.3314 1.7039 -2.0016 0.9765
-5.3892 1.5112 -2.0016 0.9765
-5.4400 1.3166 -2.0016 0.9765
-5.4838 1.1203 -2.0016 0.9765
-5.5206 0.9225 -2.0016 0.9765
-5.5501 0.7235 -2.0016 0.9765
-5.5878 0.3231 -2.0016 0.9765
-5.5965 -0.0791 -2.0016 0.9765
-5.5901 -0.2801 -2.0016 0.9765
-5.5764 -0.4808 -2.0016 0.9765
-5.5555 -0.6809 -2.0016 0.9765
-5.5275 -0.8801 -2.0016 0.9765
-5.4923 -1.0781 -2.0016 0.9765
-5.4007 -1.4698 -2.0016 0.9765
-5.2812 -1.8539 -2.0016 0.9765
-5.2111 -2.0424 -2.0016 0.9765
-4.2108 -3.0388 -1.8570 0.9782
-4.0989 -3.1881 -1.8570 0.9782
-3.7320 -3.6107 -1.8570 0.9782
-3.5999 -3.7425 -1.8570 0.9782
-3.3218 -3.9913 -1.8570 0.9782
-3.1762 -4.1081 -1.8570 0.9782
-2.7157 -4.4261 -1.8570 0.9782
-2.5549 -4.5208 -1.8570 0.9782
-2.0536 -4.7695 -1.8570 0.9782
-1.7057 -4.9046 -1.8570 0.9782
-1.5284 -4.9628 -1.8570 0.9782
-0.9855 -5.0984 -1.8570 0.9782
-0.8016 -5.1305 -1.8570 0.9782
-0.6168 -5.1560 -1.8570 0.9782
-0.2449 -5.1870 -1.8570 0.9782
0.6862 -5.1473 -1.8570 0.9782
0.8707 -5.1193 -1.8570 0.9782
1.4165 -4.9959 -1.8570 0.9782
1.5951 -4.9417 -1.8570 0.9782
1.7717 -4.8812 -1.8570 0.9782
1.9459 -4.8144 -1.8570 0.9782
2.0003 -4.4787 -1.7541 0.9794
2.0508 -4.1813 -1.6654 0.9804
2.1726 -4.0543 -1.6449 0.9806
2.3591 -4.0460 -1.6749 0.9803
2.5507 -4.0343 -1.7069 0.9799
3.0831 -4.1784 -1.8570 0.9782
3.2313 -4.0650 -1.8570 0.9782
3.3836 -3.9560 -1.8616 0.9781
3.9341 -3.9812 -2.0016 0.9765
4.0746 -3.8373 -2.0016 0.9765
4.2099 -3.6884 -2.0016 0.9765
4.4639 -3.3765 -2.0016 0.9765
4.6949 -3.0472 -2.0016 0.9765
5.1639 -2.1590 -2.0016 0.9765
5.2382 -1.9720 -2.0016 0.9765
5.3057 -1.7825 -2.0016 0.9765
5.5063 -1.0040 -2.0016 0.9765
5.5388 -0.8055 -2.0016 0.9765
5.5642 -0.6060 -2.0016 0.9765
5.5829 0.3983 -2.0016 0.9765
5.5650 0.5986 -2.0016 0.9765
5.5076 0.9968 -2.0016 0.9765
5.4218 1.3897 -2.0016 0.9765
5.3684 1.5837 -2.0016 0.9765
5.2408 1.9651 -2.0016 0.9765
4.9989 2.5177 -2.0016 0.9765
4.9052 2.6957 -2.0016 0.9765
4.8051 2.8702 -2.0016 0.9765
4.4684 3.3706 -2.0016 0.9765
4.3444 3.5290 -2.0016 0.9765
3.4886 4.3768 -2.0016 0.9765
3.3291 4.4994 -2.0016 0.9765
2.9974 4.7269 -2.0016 0.9765
2.8256 4.8315 -2.0016 0.9765
2.6502 4.9299 -2.0016 0.9765
2.4713 5.0220 -2.0016 0.9765
2.1043 5.1865 -2.0016 0.9765
1.9165 5.2587 -2.0016 0.9765
1.7263 5.3242 -2.0016 0.9765
1.3395 5.4344 -2.0016 0.9765
1.1434 5.4791 -2.0016 0.9765
0.9458 5.5166 -2.0016 0.9765
0.7469 5.5470 -2.0016 0.9765
0.5471 5.5703 -2.0016 0.9765
0.1457 5.5952 -2.0016 0.9765
-0.0555 5.5968 -2.0016 0.9765
-0.4573 5.5784 -2.0016 0.9765
-0.6574 5.5583 -2.0016 0.9765
-1.8316 5.2889 -2.0016 0.9765
-2.3901 5.0611 -2.0016 0.9765
-2.5704 4.9720 -2.0016 0.9765
-3.2562 4.5524 -2.0016 0.9765
-3.4177 4.4325 -2.0016 0.9765
-3.8748 4.0390 -2.0016 0.9765
-4.0174 3.8971 -2.0016 0.9765
-4.6493 3.1163 -2.0016 0.9765
-4.9577 2.5979 -2.0016 0.9765
-5.1314 2.2351 -2.0016 0.9765
-5.2084 2.0493 -2.0016 0.9765
-5.3422 1.6699 -2.0016 0.9765
-5.4483 1.2820 -2.0016 0.9765
-5.5263 0.8874 -2.0016 0.9765
-5.5546 0.6882 -2.0016 0.9765
-5.5758 0.4882 -2.0016 0.9765
-5.5897 0.2875 -2.0016 0.9765
-5.5882 -0.3157 -2.0016 0.9765
-5.5732 -0.5163 -2.0016 0.9765
-5.5218 -0.9152 -2.0016 0.9765
-5.4853 -1.1130 -2.0016 0.9765
-5.4418 -1.3094 -2.0016 0.9765
-5.3337 -1.6968 -2.0016 0.9765
-5.2693 -1.8874 -2.0016 0.9765
-5.1980 -2.0755 -2.0016 0.9765
-5.0339 -2.2229 -1.9679 0.9769
-4.4970 -2.5966 -1.8570 0.9782
-4.2989 -2.9129 -1.8570 0.9782
-3.8372 -3.4987 -1.8570 0.9782
-3.7090 -3.6343 -1.8570 0.9782
-3.5760 -3.7653 -1.8570 0.9782
-3.4384 -3.8913 -1.8570 0.9782
-2.8454 -4.3438 -1.8570 0.9782
-2.6875 -4.4432 -1.8570 0.9782
-2.5261 -4.5369 -1.8570 0.9782
-2.0232 -4.7824 -1.8570 0.9782
4.5579 -2.5506 -2.0016 0.9779
4.6466 -2.3852 -2.0016 0.9779
4.7293 -2.2167 -2.0016 0.9779
4.8059 -2.0453 -2.0016 0.9779
4.8763 -1.8713 -2.0016 0.9779
5.0941 -1.1534 -2.0016 0.9779
5.1323 -0.9696 -2.0016 0.9779
5.1638 -0.7845 -2.0016 0.9779
5.2068 -0.4117 -2.0016 0.9779
5.2182 -0.2243 -2.0016 0.9779
5.2229 -0.0367 -2.0016 0.9779
5.2121 0.3385 -2.0016 0.9779
5.1965 0.5256 -2.0016 0.9779
5.1454 0.8975 -2.0016 0.9779
5.0676 1.2647 -2.0016 0.9779
5.0189 1.4460 -2.0016 0.9779
4.9637 1.6254 -2.0016 0.9779
4.9021 1.8027 -2.0016 0.9779
4.7600 2.1501 -2.0016 0.9779
4.5010 2.6498 -2.0016 0.9779
4.4028 2.8098 -2.0016 0.9779
4.0749 3.2673 -2.0016 0.9779
3.8297 3.5515 -2.0016 0.9779
3.6996 3.6868 -2.0016 0.9779
3.4253 3.9430 -2.0016 0.9779
3.1333 4.1789 -2.0016 0.9779
2.8250 4.3931 -2.0016 0.9779
2.6654 4.4918 -2.0016 0.9779
2.3359 4.6716 -2.0016 0.9779
2.1665 4.7525 -2.0016 0.9779
1.9944 4.8273 -2.0016 0.9779
1.6425 4.9580 -2.0016 0.9779
1.2822 5.0632 -2.0016 0.9779
0.9153 5.1422 -2.0016 0.9779
0.7299 5.1718 -2.0016 0.9779
-0.7667 5.1665 -2.0016 0.9779
-1.3182 5.0540 -2.0016 0.9779
-2.2003 4.7370 -2.0016 0.9779
-2.5348 4.5667 -2.0016 0.9779
-2.8562 4.3729 -2.0016 0.9779
-3.4533 3.9186 -2.0016 0.9779
-3.8549 3.5242 -2.0016 0.9779
-4.3200 2.9356 -2.0016 0.9779
-4.4227 2.7784 -2.0016 0.9779
-4.7751 2.1161 -2.0016 0.9779
-4.8481 1.9432 -2.0016 0.9779
-4.9751 1.5900 -2.0016 0.9779
-5.0765 1.2286 -2.0016 0.9779
-5.1792 0.6752 -2.0016 0.9779
-5.2225 -0.0738 -2.0016 0.9779
-5.2165 -0.2614 -2.0016 0.9779
-5.0858 -1.1896 -2.0016 0.9779
-5.0397 -1.3716 -2.0016 0.9779
-4.9872 -1.5518 -2.0016 0.9779
-4.8629 -1.9059 -2.0016 0.9779
-4.6530 -2.2214 -1.9759 0.9782
-4.3015 -2.2468 -1.8598 0.9794
-4.2117 -2.3964 -1.8570 0.9795
-4.1229 -2.5462 -1.8570 0.9795
-3.9294 -2.8357 -1.8570 0.9795
-3.6014 -3.2421 -1.8570 0.9795
-3.4826 -3.3694 -1.8570 0.9795
-3.2316 -3.6108 -1.8570 0.9795
-2.6810 -4.0365 -1.8570 0.9795
-1.9163 -4.4507 -1.8570 0.9795
-1.5917 -4.5769 -1.8570 0.9795
-1.2589 -4.6794 -1.8570 0.9795
-1.0900 -4.7216 -1.8570 0.9795
-0.9196 -4.7577 -1.8570 0.9795
-0.7481 -4.7877 -1.8570 0.9795
-0.5755 -4.8115 -1.8570 0.9795
-0.2285 -4.8404 -1.8570 0.9795
-0.0544 -4.8454 -1.8570 0.9795
0.1197 -4.8443 -1.8570 0.9795
0.2937 -4.8368 -1.8570 0.9795
0.4673 -4.8232 -1.8570 0.9795
0.8125 -4.7771 -1.8570 0.9795
1.1535 -4.7065 -1.8570 0.9795
1.3219 -4.6620 -1.8570 0.9795
1.4885 -4.6115 -1.8570 0.9795
1.6533 -4.5550 -1.8570 0.9795
1.9761 -4.4245 -1.8570 0.9795
2.0014 -4.0807 -1.7418 0.9807
2.7351 -4.0001 -1.8570 0.9795
3.2800 -3.5669 -1.8570 0.9795
3.9286 -3.4419 -2.0016 0.9779
4.1656 -3.1509 -2.0016 0.9779
4.2761 -2.9991 -2.0016 0.9779
4.4805 -2.6843 -2.0016 0.9779
4.8881 -1.8402 -2.0016 0.9779
5.0076 -1.4844 -2.0016 0.9779
5.0577 -1.3035 -2.0016 0.9779
5.1013 -1.1210 -2.0016 0.9779
5.1687 -0.7517 -2.0016 0.9779
5.1923 -0.5655 -2.0016 0.9779
5.2198 0.1842 -2.0016 0.9779
5.1395 0.9302 -2.0016 0.9779
5.1028 1.1142 -2.0016 0.9779
5.0595 1.2969 -2.0016 0.9779
5.0096 1.4778 -2.0016 0.9779
4.9533 1.6569 -2.0016 0.9779
4.8905 1.8338 -2.0016 0.9779
4.7462 2.1803 -2.0016 0.9779
4.4840 2.6784 -2.0016 0.9779
4.0540 3.2931 -2.0016 0.9779
3.9331 3.4367 -2.0016 0.9779
3.8071 3.5758 -2.0016 0.9779
3.6761 3.7103 -2.0016 0.9779
3.5404 3.8400 -2.0016 0.9779
3.4002 3.9647 -2.0016 0.9779
3.2555 4.0843 -2.0016 0.9779
3.1066 4.1987 -2.0016 0.9779
2.9538 4.3076 -2.0016 0.9779
2.7971 4.4110 -2.0016 0.9779
2.6368 4.5086 -2.0016 0.9779
2.4731 4.6004 -2.0016 0.9779
2.3062 4.6863 -2.0016 0.9779
2.1363 4.7662 -2.0016 0.9779
1.9636 4.8399 -2.0016 0.9779
1.7885 4.9073 -2.0016 0.9779
1.4314 5.0231 -2.0016 0.9779
0.3235 5.2130 -2.0016 0.9779
0.1359 5.2213 -2.0016 0.9779
-0.2394 5.2175 -2.0016 0.9779
-0.6135 5.1869 -2.0016 0.9779
-0.9844 5.1294 -2.0016 0.9779
-2.0592 4.8000 -2.0016 0.9779
-2.8840 4.3546 -2.0016 0.9779
-3.0386 4.2482 -2.0016 0.9779
-3.1893 4.1363 -2.0016 0.9779
-3.3358 4.0190 -2.0016 0.9779
-3.4781 3.8965 -2.0016 0.9779
-4.4403 2.7503 -2.0016 0.9779
-4.6263 2.4243 -2.0016 0.9779
-4.7105 2.2565 -2.0016 0.9779
-4.7885 2.0858 -2.0016 0.9779
-4.8603 1.9123 -2.0016 0.9779
-5.0379 1.3782 -2.0016 0.9779
-5.1570 0.8281 -2.0016 0.9779
-5.2031 0.4556 -2.0016 0.9779
-5.2219 -0.1070 -2.0016 0.9779
-5.2147 -0.2946 -2.0016 0.9779
-5.2008 -0.4818 -2.0016 0.9779
-5.1801 -0.6683 -2.0016 0.9779
-5.1527 -0.8540 -2.0016 0.9779
-5.1187 -1.0386 -2.0016 0.9779
-5.0781 -1.2219 -2.0016 0.9779
-5.0309 -1.4036 -2.0016 0.9779
-4.9171 -1.7613 -2.0016 0.9779
-4.8507 -1.9368 -2.0016 0.9779
-4.7779 -2.1098 -2.0016 0.9779
-4.1964 -2.4231 -1.8570 0.9795
-3.9113 -2.8606 -1.8570 0.9795
-3.6958 -3.1341 -1.8570 0.9795
-3.5807 -3.2649 -1.8570 0.9795
-3.3370 -3.5136 -1.8570 0.9795
-3.2086 -3.6313 -1.8570 0.9795
-2.9395 -3.8523 -1.8570 0.9795
-2.7992 -3.9555 -1.8570 0.9795
-2.5079 -4.1463 -1.8570 0.9795
-2.2036 -4.3157 -1.8570 0.9795
-2.0471 -4.3921 -1.8570 0.9795
3.8816 -2.9750 -2.0016 0.9791
4.1792 -2.5400 -2.0016 0.9791
4.4999 -1.9151 -2.0016 0.9791
4.6259 -1.5869 -2.0016 0.9791
4.6799 -1.4197 -2.0016 0.9791
4.7279 -1.2506 -2.0016 0.9791
4.7698 -1.0799 -2.0016 0.9791
4.8350 -0.7346 -2.0016 0.9791
4.8583 -0.5604 -2.0016 0.9791
4.8904 -0.0343 -2.0016 0.9791
4.8885 0.1414 -2.0016 0.9791
4.8448 0.6667 -2.0016 0.9791
4.7845 1.0129 -2.0016 0.9791
4.6994 1.3539 -2.0016 0.9791
4.6477 1.5219 -2.0016 0.9791
4.5900 1.6879 -2.0016 0.9791
4.5264 1.8517 -2.0016 0.9791
4.3817 2.1720 -2.0016 0.9791
4.1225 2.6309 -2.0016 0.9791
4.0253 2.7774 -2.0016 0.9791
3.7031 3.1944 -2.0016 0.9791
3.5859 3.3254 -2.0016 0.9791
3.4641 3.4521 -2.0016 0.9791
2.6452 4.1134 -2.0016 0.9791
2.4957 4.2058 -2.0016 0.9791
2.1872 4.3742 -2.0016 0.9791
1.8674 4.5199 -2.0016 0.9791
1.7038 4.5841 -2.0016 0.9791
1.5379 4.6424 -2.0016 0.9791
1.2006 4.7409 -2.0016 0.9791
1.0294 4.7809 -2.0016 0.9791
0.8570 4.8148 -2.0016 0.9791
0.5090 4.8639 -2.0016 0.9791
0.3339 4.8791 -2.0016 0.9791
0.1583 4.8879 -2.0016 0.9791
-0.0174 4.8905 -2.0016 0.9791
-0.5436 4.8602 -2.0016 0.9791
-0.7179 4.8375 -2.0016 0.9791
-1.0634 4.7735 -2.0016 0.9791
-1.2343 4.7322 -2.0016 0.9791
-1.5709 4.6313 -2.0016 0.9791
-1.7363 4.5719 -2.0016 0.9791
-2.0602 4.4354 -2.0016 0.9791
-2.3734 4.2760 -2.0016 0.9791
-2.6744 4.0945 -2.0016 0.9791
-2.8198 3.9957 -2.0016 0.9791
-2.9615 3.8918 -2.0016 0.9791
-3.0995 3.7829 -2.0016 0.9791
-3.3631 3.5505 -2.0016 0.9791
-3.4886 3.4274 -2.0016 0.9791
-3.7257 3.1680 -2.0016 0.9791
-3.8371 3.0321 -2.0016 0.9791
-3.9436 2.8922 -2.0016 0.9791
-4.0450 2.7487 -2.0016 0.9791
-4.1411 2.6015 -2.0016 0.9791
-4.2319 2.4511 -2.0016 0.9791
-4.3970 2.1408 -2.0016 0.9791
-4.6584 1.4888 -2.0016 0.9791
-4.7089 1.3204 -2.0016 0.9791
-4.7533 1.1504 -2.0016 0.9791
-4.7915 0.9788 -2.0016 0.9791
-1.9576 -0.1688 -0.8042 0.9915
-1.9536 -0.2394 -0.8055 0.9915
-4.7989 -0.9420 -2.0016 0.9791
-4.7620 -1.1138 -2.0016 0.9791
-4.7189 -1.2842 -2.0016 0.9791
-4.6697 -1.4530 -2.0016 0.9791
-4.5533 -1.7846 -2.0016 0.9791
-4.4133 -2.1070 -2.0016 0.9791
-3.9492 -2.2470 -1.8596 0.9806
-3.6792 -2.6552 -1.8570 0.9806
-3.5815 -2.7856 -1.8570 0.9806
-3.1454 -3.2700 -1.8570 0.9806
-2.7753 -3.5895 -1.8570 0.9806
-2.5103 -3.7796 -1.8570 0.9806
-2.3729 -3.8673 -1.8570 0.9806
-1.6434 -4.2292 -1.8570 0.9806
-1.4904 -4.2855 -1.8570 0.9806
-1.1788 -4.3814 -1.8570 0.9806
-0.8611 -4.4548 -1.8570 0.9806
-0.7004 -4.4829 -1.8570 0.9806
-0.5389 -4.5051 -1.8570 0.9806
-0.2140 -4.5322 -1.8570 0.9806
-0.0510 -4.5370 -1.8570 0.9806
0.2750 -4.5289 -1.8570 0.9806
0.4376 -4.5161 -1.8570 0.9806
1.0800 -4.4068 -1.8570 0.9806
1.7003 -4.2066 -1.8570 0.9806
2.1431 -3.9992 -1.8570 0.9806
2.2854 -3.9196 -1.8570 0.9806
2.4248 -3.8350 -1.8570 0.9806
2.6939 -3.6509 -1.8570 0.9806
2.9492 -3.4480 -1.8570 0.9806
4.1022 -2.6625 -2.0016 0.9791
4.5120 -1.8864 -2.0016 0.9791
4.6359 -1.5575 -2.0016 0.9791
4.7357 -1.2206 -2.0016 0.9791
4.7765 -1.0496 -2.0016 0.9791
4.8396 -0.7038 -2.0016 0.9791
4.8776 -0.3544 -2.0016 0.9791
4.8872 -0.1790 -2.0016 0.9791
4.8905 -0.0032 -2.0016 0.9791
4.8781 0.3480 -2.0016 0.9791
4.8624 0.5231 -2.0016 0.9791
4.8405 0.6975 -2.0016 0.9791
4.8123 0.8709 -2.0016 0.9791
4.7374 1.2143 -2.0016 0.9791
4.6379 1.5514 -2.0016 0.9791
4.5145 1.8805 -2.0016 0.9791
4.4440 2.0415 -2.0016 0.9791
4.0076 2.8029 -2.0016 0.9791
3.9043 2.9451 -2.0016 0.9791
3.7959 3.0835 -2.0016 0.9791
3.6827 3.2179 -2.0016 0.9791
3.3150 3.5955 -2.0016 0.9791
2.7657 4.0333 -2.0016 0.9791
2.6190 4.1301 -2.0016 0.9791
2.4689 4.2216 -2.0016 0.9791
2.3156 4.3076 -2.0016 0.9791
2.1593 4.3880 -2.0016 0.9791
2.0003 4.4627 -2.0016 0.9791
1.6746 4.5949 -2.0016 0.9791
1.5084 4.6521 -2.0016 0.9791
1.3403 4.7033 -2.0016 0.9791
1.1704 4.7484 -2.0016 0.9791
0.9990 4.7874 -2.0016 0.9791
0.6526 4.8468 -2.0016 0.9791
0.4781 4.8671 -2.0016 0.9791
0.3029 4.8811 -2.0016 0.9791
0.1273 4.8888 -2.0016 0.9791
-0.0485 4.8903 -2.0016 0.9791
-0.2242 4.8854 -2.0016 0.9791
-0.5744 4.8567 -2.0016 0.9791
-0.7486 4.8329 -2.0016 0.9791
-0.9218 4.8029 -2.0016 0.9791
-1.2643 4.7242 -2.0016 0.9791
-1.4333 4.6758 -2.0016 0.9791
-1.6003 4.6212 -2.0016 0.9791
-1.7654 4.5608 -2.0016 0.9791
-1.9281 4.4944 -2.0016 0.9791
-2.5521 4.1718 -2.0016 0.9791
-2.7004 4.0774 -2.0016 0.9791
-2.8451 3.9777 -2.0016 0.9791
-3.1235 3.7631 -2.0016 0.9791
-3.2567 3.6485 -2.0016 0.9791
-3.5103 3.4051 -2.0016 0.9791
-3.6304 3.2768 -2.0016 0.9791
-3.8563 3.0076 -2.0016 0.9791
-4.2474 2.4241 -2.0016 0.9791
-4.4106 2.1128 -2.0016 0.9791
-4.6123 1.6259 -2.0016 0.9791
-4.6678 1.4591 -2.0016 0.9791
-4.7172 1.2905 -2.0016 0.9791
-4.7605 1.1201 -2.0016 0.9791
-2.0420 0.3279 -0.8464 0.9911
-1.9532 0.2420 -0.8055 0.9915
-1.9577 0.1714 -0.8043 0.9915
-1.9418 0.0999 -0.7958 0.9916
-1.9514 -0.2518 -0.8053 0.9915
-2.0843 -0.3455 -0.8647 0.9909
-4.7548 -1.1441 -2.0016 0.9791
-4.7106 -1.3142 -2.0016 0.9791
-4.6603 -1.4826 -2.0016 0.9791
-4.5418 -1.8135 -2.0016 0.9791
-4.1985 -2.2271 -1.9451 0.9797
-3.9292 -2.2688 -1.8570 0.9806
-3.4605 -2.9346 -1.8570 0.9806
-3.3528 -3.0570 -1.8570 0.9806
-3.2408 -3.1755 -1.8570 0.9806
-3.0043 -3.4001 -1.8570 0.9806
-2.6210 -3.7036 -1.8570 0.9806
-2.2072 -3.9642 -1.8570 0.9806
-2.0633 -4.0409 -1.8570 0.9806
-1.9168 -4.1125 -1.8570 0.9806
3.6452 -2.7938 -2.0016 0.9802
4.0078 -2.2428 -2.0016 0.9802
4.1585 -1.9491 -2.0016 0.9802
4.2878 -1.6454 -2.0016 0.9802
4.4793 -1.0142 -2.0016 0.9802
4.5406 -0.6899 -2.0016 0.9802
4.5694 0.4622 -2.0016 0.9802
4.4931 0.9512 -2.0016 0.9802
4.3646 1.4292 -2.0016 0.9802
4.3105 1.5851 -2.0016 0.9802
4.2507 1.7390 -2.0016 0.9802
4.1855 1.8906 -2.0016 0.9802
4.0389 2.1863 -2.0016 0.9802
3.7802 2.6082 -2.0016 0.9802
3.2531 3.2419 -2.0016 0.9802
3.1345 3.3567 -2.0016 0.9802
3.0119 3.4671 -2.0016 0.9802
2.8854 3.5731 -2.0016 0.9802
2.4841 3.8629 -2.0016 0.9802
1.7537 4.2447 -2.0016 0.9802
0.6418 4.5476 -2.0016 0.9802
0.3135 4.5820 -2.0016 0.9802
-0.6741 4.5429 -2.0016 0.9802
-0.8369 4.5158 -2.0016 0.9802
-1.1591 4.4440 -2.0016 0.9802
-1.3180 4.3995 -2.0016 0.9802
-2.5115 3.8451 -2.0016 0.9802
-3.0365 3.4456 -2.0016 0.9802
-3.4988 2.9751 -2.0016 0.9802
-3.7986 2.5813 -2.0016 0.9802
-3.8889 2.4431 -2.0016 0.9802
-4.0544 2.1575 -2.0016 0.9802
-4.1292 2.0104 -2.0016 0.9802
-4.2630 1.7087 -2.0016 0.9802
-1.5955 0.5739 -0.7390 0.9926
-1.5825 0.5058 -0.7240 0.9928
-1.5062 0.2517 -0.6655 0.9934
-1.5193 0.1981 -0.6678 0.9933
-1.5266 0.0333 -0.6655 0.9934
-1.5253 -0.0216 -0.6648 0.9934
-1.5215 -0.1865 -0.6680 0.9933
-1.5094 -0.2403 -0.6661 0.9934
-1.5038 -0.2952 -0.6679 0.9933
-1.5338 -0.3588 -0.6865 0.9932
-1.5589 -0.4242 -0.7041 0.9930
-1.5790 -0.4913 -0.7207 0.9928
-4.2760 -1.6759 -2.0016 0.9802
-4.0708 -2.1263 -2.0016 0.9802
-3.9093 -2.2243 -1.9602 0.9806
-3.4552 -2.4935 -1.8570 0.9816
-3.3633 -2.6160 -1.8570 0.9816
-3.1668 -2.8508 -1.8570 0.9816
-3.0623 -2.9627 -1.8570 0.9816
-2.9539 -3.0709 -1.8570 0.9816
-2.8416 -3.1750 -1.8570 0.9816
-2.4834 -3.4624 -1.8570 0.9816
-2.2284 -3.6318 -1.8570 0.9816
-2.0964 -3.7095 -1.8570 0.9816
-1.2541 -4.0722 -1.8570 0.9816
-1.1070 -4.1146 -1.8570 0.9816
-0.8086 -4.1835 -1.8570 0.9816
-0.6578 -4.2098 -1.8570 0.9816
-0.2009 -4.2562 -1.8570 0.9816
-0.0479 -4.2607 -1.8570 0.9816
0.4109 -4.2411 -1.8570 0.9816
0.5630 -4.2236 -1.8570 0.9816
0.7144 -4.2006 -1.8570 0.9816
0.8649 -4.1722 -1.8570 0.9816
1.0143 -4.1384 -1.8570 0.9816
1.3089 -4.0549 -1.8570 0.9816
2.0125 -3.7557 -1.8570 0.9816
2.4050 -3.5173 -1.8570 0.9816
2.5299 -3.4286 -1.8570 0.9816
2.6514 -3.3355 -1.8570 0.9816
2.7696 -3.2381 -1.8570 0.9816
2.8841 -3.1364 -1.8570 0.9816
3.6628 -2.7706 -2.0016 0.9802
3.7600 -2.6372 -2.0016 0.9802
4.0991 -2.0713 -2.0016 0.9802
4.4473 -1.1462 -2.0016 0.9802
4.5182 -0.8239 -2.0016 0.9802
4.5449 -0.6610 -2.0016 0.9802
4.5657 -0.4972 -2.0016 0.9802
4.5896 -0.1681 -2.0016 0.9802
4.5927 -0.0030 -2.0016 0.9802
4.5810 0.3268 -2.0016 0.9802
4.5663 0.4912 -2.0016 0.9802
4.5193 0.8179 -2.0016 0.9802
4.4869 0.9798 -2.0016 0.9802
4.4488 1.1403 -2.0016 0.9802
4.4050 1.2995 -2.0016 0.9802
4.3555 1.4569 -2.0016 0.9802
4.2396 1.7659 -2.0016 0.9802
4.1734 1.9171 -2.0016 0.9802
4.1018 2.0659 -2.0016 0.9802
3.9428 2.3551 -2.0016 0.9802
3.8557 2.4953 -2.0016 0.9802
3.7635 2.6322 -2.0016 0.9802
3.4584 3.0219 -2.0016 0.9802
3.2324 3.2625 -2.0016 0.9802
2.5973 3.7877 -2.0016 0.9802
2.4595 3.8786 -2.0016 0.9802
2.0278 4.1207 -2.0016 0.9802
1.8784 4.1909 -2.0016 0.9802
1.7266 4.2557 -2.0016 0.9802
1.5726 4.3150 -2.0016 0.9802
1.2586 4.4168 -2.0016 0.9802
0.4489 4.5707 -2.0016 0.9802
0.2844 4.5838 -2.0016 0.9802
-0.2105 4.5878 -2.0016 0.9802
-0.5395 4.5609 -2.0016 0.9802
-0.7030 4.5385 -2.0016 0.9802
-0.8656 4.5103 -2.0016 0.9802
-1.5029 4.3398 -2.0016 0.9802
-1.9612 4.1529 -2.0016 0.9802
-2.1091 4.0797 -2.0016 0.9802
-2.3967 3.9177 -2.0016 0.9802
-2.8044 3.6371 -2.0016 0.9802
-3.1795 3.3142 -2.0016 0.9802
-3.2965 3.1978 -2.0016 0.9802
-3.4093 3.0773 -2.0016 0.9802
-3.5176 2.9528 -2.0016 0.9802
-3.7206 2.6925 -2.0016 0.9802
-3.8150 2.5571 -2.0016 0.9802
-3.9044 2.4183 -2.0016 0.9802
-3.9888 2.2765 -2.0016 0.9802
-4.0680 2.1317 -2.0016 0.9802
-4.1420 1.9841 -2.0016 0.9802
-4.2106 1.8340 -2.0016 0.9802
-4.2738 1.6815 -2.0016 0.9802
-1.5937 0.5618 -0.7364 0.9927
-1.5597 0.4267 -0.7047 0.9930
-1.5050 0.2975 -0.6686 0.9933
-1.5211 0.1885 -0.6680 0.9933
-1.5280 0.1338 -0.6685 0.9933
-1.5255 0.0236 -0.6649 0.9934
-1.5296 -0.0864 -0.6677 0.9933
-1.5197 -0.1961 -0.6678 0.9933
-1.5067 -0.2497 -0.6656 0.9934
-1.5095 -0.3063 -0.6712 0.9933
-1.5819 -0.5033 -0.7235 0.9928
-1.5952 -0.5714 -0.7384 0.9926
-4.0572 -2.1521 -2.0016 0.9802
-3.8581 -2.2277 -1.9416 0.9807
-3.6110 -2.2619 -1.8570 0.9816
-3.1486 -2.8709 -1.8570 0.9816
-3.0434 -2.9821 -1.8570 0.9816
-2.7048 -3.2923 -1.8570 0.9816
-2.4614 -3.4781 -1.8570 0.9816
-2.2052 -3.6459 -1.8570 0.9816
-1.9377 -3.7948 -1.8570 0.9816
-1.6601 -3.9242 -1.8570 0.9816
3.4320 -2.6304 -2.0016 0.9811
3.5243 -2.5054 -2.0016 0.9811
3.6121 -2.3772 -2.0016 0.9811
3.6951 -2.2458 -2.0016 0.9811
3.7735 -2.1116 -2.0016 0.9811
3.9154 -1.8351 -2.0016 0.9811
4.0901 -1.4032 -2.0016 0.9811
4.1379 -1.2553 -2.0016 0.9811
4.1803 -1.1058 -2.0016 0.9811
4.2174 -0.9549 -2.0016 0.9811
4.2489 -0.8027 -2.0016 0.9811
4.2956 -0.4955 -2.0016 0.9811
4.3201 -0.1857 -2.0016 0.9811
4.3240 -0.0303 -2.0016 0.9811
4.3223 0.1251 -2.0016 0.9811
4.3150 0.2803 -2.0016 0.9811
4.2837 0.5895 -2.0016 0.9811
4.2598 0.7430 -2.0016 0.9811
4.2303 0.8956 -2.0016 0.9811
4.1954 1.0470 -2.0016 0.9811
4.1551 1.1971 -2.0016 0.9811
4.1094 1.3456 -2.0016 0.9811
4.0584 1.4924 -2.0016 0.9811
4.0021 1.6373 -2.0016 0.9811
3.9407 1.7800 -2.0016 0.9811
3.7263 2.1938 -2.0016 0.9811
3.5591 2.4557 -2.0016 0.9811
3.4686 2.5820 -2.0016 0.9811
3.3736 2.7050 -2.0016 0.9811
3.2742 2.8245 -2.0016 0.9811
3.1706 2.9403 -2.0016 0.9811
3.0629 3.0523 -2.0016 0.9811
2.9512 3.1604 -2.0016 0.9811
2.8358 3.2644 -2.0016 0.9811
2.5940 3.4596 -2.0016 0.9811
2.4680 3.5506 -2.0016 0.9811
2.0716 3.7956 -2.0016 0.9811
1.7936 3.9346 -2.0016 0.9811
1.6511 3.9965 -2.0016 0.9811
1.0615 4.1918 -2.0016 0.9811
0.9102 4.2272 -2.0016 0.9811
0.7577 4.2572 -2.0016 0.9811
0.6043 4.2817 -2.0016 0.9811
0.1400 4.3218 -2.0016 0.9811
-0.0154 4.3241 -2.0016 0.9811
-0.3259 4.3118 -2.0016 0.9811
-0.4806 4.2973 -2.0016 0.9811
-0.6347 4.2773 -2.0016 0.9811
-0.9403 4.2206 -2.0016 0.9811
-1.0913 4.1841 -2.0016 0.9811
-1.3890 4.0949 -2.0016 0.9811
-1.5352 4.0424 -2.0016 0.9811
-1.6795 3.9846 -2.0016 0.9811
-2.9736 3.1393 -2.0016 0.9811
-3.0845 3.0304 -2.0016 0.9811
-3.4869 2.5573 -2.0016 0.9811
-3.7418 2.1672 -2.0016 0.9811
-3.8173 2.0313 -2.0016 0.9811
-1.3333 0.4796 -0.6559 0.9938
-1.3301 0.4251 -0.6464 0.9939
-1.3306 0.1735 -0.6211 0.9941
-1.3371 0.1256 -0.6216 0.9941
-1.3385 0.0774 -0.6206 0.9941
-1.3383 -0.0671 -0.6203 0.9941
-1.3229 -0.2106 -0.6201 0.9941
-1.3030 -0.3048 -0.6194 0.9941
-1.3283 -0.4133 -0.6439 0.9939
-1.3302 -0.5214 -0.6613 0.9937
-3.8327 -2.0020 -2.0016 0.9811
-3.7583 -2.1384 -2.0016 0.9811
-3.2531 -2.3476 -1.8570 0.9825
-3.1667 -2.4630 -1.8570 0.9825
-2.8832 -2.7895 -1.8570 0.9825
-2.4538 -3.1738 -1.8570 0.9825
-2.3382 -3.2599 -1.8570 0.9825
-2.2196 -3.3418 -1.8570 0.9825
-2.0980 -3.4194 -1.8570 0.9825
-1.9738 -3.4926 -1.8570 0.9825
-1.5865 -3.6847 -1.8570 0.9825
-1.4531 -3.7393 -1.8570 0.9825
-1.1808 -3.8340 -1.8570 0.9825
-0.7613 -3.9388 -1.8570 0.9825
-0.3331 -3.9979 -1.8570 0.9825
-0.1892 -4.0073 -1.8570 0.9825
0.3869 -3.9931 -1.8570 0.9825
0.8143 -3.9282 -1.8570 0.9825
0.9550 -3.8964 -1.8570 0.9825
1.0943 -3.8596 -1.8570 0.9825
1.2323 -3.8178 -1.8570 0.9825
1.3687 -3.7710 -1.8570 0.9825
1.6360 -3.6630 -1.8570 0.9825
2.0207 -3.4657 -1.8570 0.9825
2.1439 -3.3908 -1.8570 0.9825
2.2644 -3.3116 -1.8570 0.9825
2.4964 -3.1404 -1.8570 0.9825
2.7155 -2.9530 -1.8570 0.9825
2.8198 -2.8536 -1.8570 0.9825
3.3527 -2.7308 -2.0016 0.9811
3.5402 -2.4830 -2.0016 0.9811
3.7093 -2.2223 -2.0016 0.9811
3.7868 -2.0876 -2.0016 0.9811
3.8594 -1.9502 -2.0016 0.9811
4.1458 -1.2290 -2.0016 0.9811
4.1873 -1.0792 -2.0016 0.9811
4.2233 -0.9280 -2.0016 0.9811
4.2540 -0.7757 -2.0016 0.9811
4.2791 -0.6223 -2.0016 0.9811
4.2987 -0.4682 -2.0016 0.9811
4.3212 -0.1582 -2.0016 0.9811
4.3241 -0.0029 -2.0016 0.9811
4.2550 0.7701 -2.0016 0.9811
4.2246 0.9225 -2.0016 0.9811
4.1887 1.0737 -2.0016 0.9811
4.1474 1.2235 -2.0016 0.9811
4.0488 1.5182 -2.0016 0.9811
3.9293 1.8050 -2.0016 0.9811
3.7123 2.2174 -2.0016 0.9811
3.5434 2.4783 -2.0016 0.9811
3.4521 2.6040 -2.0016 0.9811
3.3563 2.7264 -2.0016 0.9811
3.1518 2.9604 -2.0016 0.9811
3.0434 3.0717 -2.0016 0.9811
2.9311 3.1791 -2.0016 0.9811
2.6952 3.3814 -2.0016 0.9811
2.5720 3.4760 -2.0016 0.9811
2.3157 3.6518 -2.0016 0.9811
2.1830 3.7326 -2.0016 0.9811
1.7686 3.9459 -2.0016 0.9811
1.6257 4.0069 -2.0016 0.9811
1.1850 4.1585 -2.0016 0.9811
1.0349 4.1984 -2.0016 0.9811
0.8833 4.2329 -2.0016 0.9811
0.7307 4.2619 -2.0016 0.9811
0.4227 4.3034 -2.0016 0.9811
0.2678 4.3158 -2.0016 0.9811
0.1125 4.3226 -2.0016 0.9811
-0.1982 4.3196 -2.0016 0.9811
-0.6619 4.2731 -2.0016 0.9811
-0.9671 4.2146 -2.0016 0.9811
-1.1179 4.1771 -2.0016 0.9811
-1.4150 4.0860 -2.0016 0.9811
-1.5609 4.0325 -2.0016 0.9811
-1.7048 3.9739 -2.0016 0.9811
-1.8465 3.9100 -2.0016 0.9811
-1.9858 3.8412 -2.0016 0.9811
-2.3876 3.6052 -2.0016 0.9811
-2.8795 3.2259 -2.0016 0.9811
-2.9935 3.1203 -2.0016 0.9811
-3.2099 2.8973 -2.0016 0.9811
-3.3119 2.7801 -2.0016 0.9811
-3.4097 2.6593 -2.0016 0.9811
-3.5030 2.5351 -2.0016 0.9811
-1.3212 0.5755 -0.6671 0.9937
-1.3287 0.4153 -0.6444 0.9939
-1.3181 0.3606 -0.6325 0.9940
-1.3036 0.3067 -0.6199 0.9941
-1.3095 0.2589 -0.6179 0.9941
-1.3320 0.1650 -0.6213 0.9941
-1.3384 0.0688 -0.6203 0.9941
-1.3362 -0.0274 -0.6186 0.9941
-1.3385 -0.0756 -0.6206 0.9941
-1.3309 -0.1717 -0.6211 0.9941
-1.3209 -0.2189 -0.6198 0.9941
-1.3198 -0.3682 -0.6342 0.9940
-1.3291 -0.5307 -0.6624 0.9937
-1.3196 -0.5827 -0.6677 0.9937
-3.8903 -1.8877 -2.0016 0.9811
-3.3211 -2.2504 -1.8570 0.9825
-3.1509 -2.4831 -1.8570 0.9825
-2.3174 -3.2747 -1.8570 0.9825
-2.1983 -3.3559 -1.8570 0.9825
-2.0763 -3.4327 -1.8570 0.9825
-1.9516 -3.5051 -1.8570 0.9825
-1.8244 -3.5729 -1.8570 0.9825
-1.6948 -3.6362 -1.8570 0.9825
-1.5631 -3.6947 -1.8570 0.9825
3.3257 -2.3642 -2.0016 0.9820
3.4085 -2.2432 -2.0016 0.9820
3.4869 -2.1193 -2.0016 0.9820
3.6301 -1.8634 -2.0016 0.9820
3.6947 -1.7317 -2.0016 0.9820
3.8096 -1.4619 -2.0016 0.9820
3.9047 -1.1846 -2.0016 0.9820
4.0342 -0.6129 -2.0016 0.9820
4.0678 -0.3216 -2.0016 0.9820
4.0767 -0.1752 -2.0016 0.9820
4.0719 0.2645 -2.0016 0.9820
4.0597 0.4106 -2.0016 0.9820
4.0424 0.5562 -2.0016 0.9820
4.0198 0.7011 -2.0016 0.9820
3.9761 0.8418 -1.9936 0.9821
3.9348 0.9820 -1.9893 0.9821
3.9090 1.1262 -1.9955 0.9820
3.7187 1.6797 -2.0016 0.9820
3.4397 2.1952 -2.0016 0.9820
3.2731 2.4365 -2.0016 0.9820
3.0897 2.6653 -2.0016 0.9820
2.9919 2.7746 -2.0016 0.9820
2.7849 2.9823 -2.0016 0.9820
2.5636 3.1746 -2.0016 0.9820
2.3290 3.3505 -2.0016 0.9820
2.2071 3.4321 -2.0016 0.9820
2.0823 3.5092 -2.0016 0.9820
1.8249 3.6496 -2.0016 0.9820
1.5581 3.7713 -2.0016 0.9820
1.1432 3.9170 -2.0016 0.9820
1.0017 3.9556 -2.0016 0.9820
0.5702 4.0404 -2.0016 0.9820
0.1321 4.0783 -2.0016 0.9820
-0.1611 4.0773 -2.0016 0.9820
-0.5990 4.0363 -2.0016 0.9820
-0.8873 3.9828 -2.0016 0.9820
-1.1710 3.9088 -2.0016 0.9820
-1.3107 3.8642 -2.0016 0.9820
-1.4487 3.8146 -2.0016 0.9820
-1.5849 3.7601 -2.0016 0.9820
-1.9803 3.5677 -2.0016 0.9820
-2.3527 3.3339 -2.0016 0.9820
-2.6978 3.0613 -2.0016 0.9820
-3.0116 2.7533 -2.0016 0.9820
-3.2904 2.4132 -2.0016 0.9820
-3.3750 2.2934 -2.0016 0.9820
-3.4552 2.1706 -2.0016 0.9820
-3.5310 2.0451 -2.0016 0.9820
-1.1175 0.5947 -0.6209 0.9944
-1.1328 0.5515 -0.6180 0.9944
-1.1506 0.4612 -0.6080 0.9945
-1.1558 0.4157 -0.6025 0.9945
-1.1588 0.3250 -0.5904 0.9947
-1.1619 0.2812 -0.5864 0.9947
-1.1731 0.2397 -0.5873 0.9947
-1.1821 0.1975 -0.5879 0.9947
-1.1889 0.1550 -0.5881 0.9947
-1.1935 0.1122 -0.5880 0.9947
-1.1963 -0.0599 -0.5875 0.9947
-1.1943 -0.1030 -0.5880 0.9947
-1.1901 -0.1459 -0.5881 0.9947
-1.1752 -0.2307 -0.5875 0.9947
-1.1646 -0.2724 -0.5867 0.9947
-1.1588 -0.3605 -0.5953 0.9946
-1.1565 -0.4060 -0.6013 0.9946
-1.1519 -0.4515 -0.6069 0.9945
-1.1448 -0.4968 -0.6122 0.9945
-1.1352 -0.5419 -0.6170 0.9944
-1.1217 -0.5859 -0.6208 0.9944
-3.4718 -2.1440 -2.0016 0.9820
-3.3272 -2.2238 -1.9630 0.9823
-3.1035 -2.2396 -1.8773 0.9831
-2.9882 -2.3242 -1.8570 0.9833
-2.9028 -2.4301 -1.8570 0.9833
-2.7208 -2.6323 -1.8570 0.9833
-2.5247 -2.8209 -1.8570 0.9833
-2.2065 -3.0762 -1.8570 0.9833
-2.0945 -3.1535 -1.8570 0.9833
-1.4971 -3.4771 -1.8570 0.9833
-1.3712 -3.5286 -1.8570 0.9833
-0.9835 -3.6557 -1.8570 0.9833
-0.8515 -3.6887 -1.8570 0.9833
-0.3143 -3.7726 -1.8570 0.9833
-0.1785 -3.7815 -1.8570 0.9833
0.3651 -3.7681 -1.8570 0.9833
0.7684 -3.7069 -1.8570 0.9833
1.2916 -3.5586 -1.8570 0.9833
1.7881 -3.3368 -1.8570 0.9833
1.9068 -3.2704 -1.8570 0.9833
2.1368 -3.1250 -1.8570 0.9833
2.7560 -2.5954 -1.8570 0.9833
3.1638 -2.5769 -2.0016 0.9820
3.2543 -2.4616 -2.0016 0.9820
3.5003 -2.0971 -2.0016 0.9820
3.6419 -1.8403 -2.0016 0.9820
3.8188 -1.4377 -2.0016 0.9820
3.8680 -1.2995 -2.0016 0.9820
3.9513 -1.0184 -2.0016 0.9820
3.9854 -0.8757 -2.0016 0.9820
4.0143 -0.7320 -2.0016 0.9820
4.0697 -0.2957 -2.0016 0.9820
4.0779 0.1439 -2.0016 0.9820
4.0701 0.2904 -2.0016 0.9820
4.0571 0.4364 -2.0016 0.9820
4.0388 0.5819 -2.0016 0.9820
4.0152 0.7267 -2.0016 0.9820
3.9665 0.8661 -1.9915 0.9821
3.9308 1.0076 -1.9905 0.9821
3.8972 1.1497 -1.9931 0.9821
3.8207 1.4326 -2.0016 0.9820
3.7667 1.5690 -2.0016 0.9820
3.7079 1.7033 -2.0016 0.9820
