ply
format ascii 1.0
element vertex 1546
property float32 x
property float32 y
property float32 z
property float32 I
end_header
31.9361 23.3783 3.3504 0.8531
30.3072 23.9003 3.2674 0.8565
28.3048 24.0156 3.1423 0.8616
27.7538 25.3139 3.1799 0.8600
2.6217 22.8269 1.9451 0.9119
1.7958 22.8292 1.9385 0.9122
0.6769 15.8625 1.3440 0.9383
0.0923 13.5689 1.1487 0.9470
-0.8820 13.5717 1.1513 0.9469
-1.3721 13.5730 1.1548 0.9467
-2.8955 13.6991 1.1853 0.9453
-3.9459 13.7225 1.2087 0.9443
-4.5006 13.7723 1.2265 0.9435
-5.0747 13.8293 1.2470 0.9426
-6.2850 13.9465 1.2950 0.9404
-6.8975 13.9482 1.3172 0.9394
-9.0362 15.3889 1.5107 0.9309
-10.1154 14.7020 1.5107 0.9309
-10.6358 14.3300 1.5107 0.9309
-11.1426 13.9396 1.5107 0.9309
-17.9457 15.6510 2.0157 0.9088
-19.4091 15.7389 2.1153 0.9046
-35.4899 17.8607 3.3633 0.8526
-27.5830 -22.3481 3.0052 0.8672
-25.6523 -22.3535 2.8803 0.8723
-22.3556 -22.4941 2.6846 0.8805
-19.3981 -22.5405 2.5175 0.8875
-15.0188 -21.8094 2.2416 0.8992
-12.1969 -22.5665 2.1715 0.9022
-11.0856 -22.3939 2.1153 0.9046
-10.1043 -22.3967 2.0800 0.9061
-9.1540 -22.3993 2.0484 0.9074
-8.2310 -22.4019 2.0203 0.9086
-6.4518 -22.4018 1.9735 0.9107
-3.0900 -22.4112 1.9151 0.9132
-1.4661 -22.4157 1.9016 0.9138
-0.6607 -22.4179 1.8986 0.9139
0.1432 -22.4202 1.8980 0.9139
0.9476 -22.4224 1.8998 0.9138
1.7546 -22.4246 1.9041 0.9137
2.1853 -4.2762 0.4066 0.9809
2.3453 -4.2099 0.4079 0.9808
32.6114 -31.9859 3.8669 0.8325
33.1476 -30.2586 3.7993 0.8351
37.9213 -25.7471 3.8802 0.8319
41.9691 -26.3486 4.1949 0.8196
32.6138 -4.2778 2.7845 0.8763
35.0328 13.6475 3.1827 0.8599
35.0188 15.1091 3.2286 0.8580
29.9462 14.2145 2.8061 0.8754
27.6216 16.9626 2.7440 0.8780
25.7683 18.4908 2.6849 0.8805
29.6546 24.6814 3.2661 0.8565
28.3254 27.2376 3.3266 0.8541
3.0021 24.1207 2.0576 0.9070
2.0136 22.8286 1.9400 0.9121
0.2209 13.5686 1.1488 0.9470
-1.2423 13.5727 1.1538 0.9468
-2.2416 13.6326 1.1695 0.9460
-2.7582 13.6895 1.1821 0.9455
-4.3522 13.7584 1.2216 0.9437
-4.9209 13.8135 1.2413 0.9428
-6.7336 13.9478 1.3111 0.9397
-9.4388 15.1452 1.5107 0.9309
-9.9756 14.7972 1.5107 0.9309
-11.0100 14.0446 1.5107 0.9309
-11.5063 13.6409 1.5107 0.9309
-12.7735 13.1096 1.5495 0.9292
-16.1400 15.4181 1.8895 0.9143
-17.5475 15.5990 1.9875 0.9101
-19.0362 15.7378 2.0909 0.9056
-20.4948 15.7419 2.1877 0.9015
-22.5404 14.8736 2.2861 0.8973
-23.0590 14.0562 2.2861 0.8973
32.6131 -31.3867 2.8068 0.8341
38.2716 -25.4585 2.8504 0.8318
40.6316 12.9820 2.6451 0.8429
34.6519 13.8788 2.3147 0.8611
34.6053 15.3213 2.3468 0.8593
27.8427 16.1030 1.9945 0.8791
35.0560 21.9883 2.5661 0.8472
34.8625 25.5205 2.6792 0.8410
31.8090 25.0846 2.5120 0.8501
3.6501 24.1190 1.5127 0.9069
2.6217 22.8269 1.4248 0.9120
0.6769 15.8625 0.9845 0.9384
0.0923 13.5689 0.8414 0.9471
-0.3943 13.5703 0.8419 0.9470
-0.8820 13.5717 0.8434 0.9470
-1.2116 8.8142 0.5517 0.9650
-2.8697 13.5772 0.8605 0.9459
-3.3827 13.5786 0.8677 0.9455
-3.9050 13.5800 0.8762 0.9449
-6.0475 14.8153 0.9923 0.9379
-6.8975 13.9482 0.9649 0.9395
-7.5323 13.9500 0.9831 0.9384
-11.2872 17.7344 1.3036 0.9192
-12.9170 17.4035 1.3440 0.9168
-13.2093 16.5250 1.3119 0.9187
-12.9410 14.0018 1.1823 0.9264
-16.9520 15.8893 1.4408 0.9111
-22.2253 -22.3630 1.9551 0.8813
-20.6898 -22.3673 1.8894 0.8851
-16.2820 -18.9196 1.5478 0.9048
-15.1388 -18.9228 1.5027 0.9074
-15.1103 -21.9423 1.6521 0.8987
-13.9346 -21.8740 1.6083 0.9013
-13.1236 -22.3288 1.6061 0.9014
-11.0856 -22.3940 1.5495 0.9047
-10.1043 -22.3967 1.5236 0.9062
-7.3301 -22.3994 1.4615 0.9099
-5.5912 -22.4042 1.4319 0.9116
-3.9062 -22.3716 1.4083 0.9130
2.1853 -4.2762 0.2978 0.9809
32.7445 -29.8907 2.7493 0.8372
32.6287 -25.7530 2.5776 0.8465
41.8523 -26.2753 3.0643 0.8203
32.6112 -4.2774 2.0396 0.8765
41.8842 12.9461 2.7185 0.8389
34.6182 14.9362 2.3380 0.8598
35.0411 16.6328 2.4053 0.8560
28.3529 16.0415 2.0201 0.8776
35.0547 21.5273 2.5509 0.8480
35.0596 23.3009 2.6104 0.8448
34.7692 24.9496 2.6537 0.8424
31.7484 24.5524 2.4888 0.8514
-0.2656 13.5699 0.8416 0.9471
-1.2423 13.5727 0.8452 0.9468
-2.7355 13.5768 0.8588 0.9460
-3.2462 13.5782 0.8657 0.9456
-3.7659 13.5797 0.8739 0.9451
-4.2961 13.5811 0.8833 0.9445
-4.8386 13.5826 0.8941 0.9439
-5.3953 13.5842 0.9064 0.9431
-11.0521 17.7338 1.2958 0.9197
-12.7867 17.5736 1.3477 0.9166
-13.2084 16.8488 1.3276 0.9178
-13.2117 15.6626 1.2706 0.9212
-12.9258 14.2540 1.1932 0.9258
-16.6323 15.8884 1.4263 0.9119
-17.4084 14.3921 1.4006 0.9135
-19.0481 14.6307 1.4894 0.9082
-20.8281 14.8421 1.5859 0.9026
-30.2018 -4.0627 1.8897 0.8850
32.8808 -36.5310 1.9380 0.8214
33.5242 -30.0249 1.7745 0.8351
30.2294 -18.5812 1.3992 0.8676
34.2842 -4.1668 1.3618 0.8709
46.7282 13.1039 1.9136 0.8234
41.2028 13.1645 1.7056 0.8410
36.6552 13.1772 1.5359 0.8556
35.0380 15.5129 1.5109 0.8578
35.0423 17.0422 1.5365 0.8556
35.1778 18.6959 1.5708 0.8526
29.8679 17.2743 1.3605 0.8710
35.0610 23.7839 1.6706 0.8440
35.0662 25.6696 1.7136 0.8403
35.0717 27.6576 1.7612 0.8363
2.6217 22.8269 0.9060 0.9121
-0.4610 15.8656 0.6259 0.9384
-2.7646 15.8720 0.6353 0.9375
-3.3551 15.8737 0.6397 0.9371
-5.1890 15.8788 0.6587 0.9353
-6.0475 14.8153 0.6310 0.9380
-6.8975 13.9482 0.6136 0.9396
-11.2872 17.7344 0.8289 0.9193
-12.2035 17.7370 0.8489 0.9174
-13.2093 16.5250 0.8342 0.9188
-12.9410 14.0018 0.7518 0.9265
-13.8649 13.9624 0.7759 0.9243
-16.9520 15.8893 0.9162 0.9112
-16.7176 13.5563 0.8487 0.9174
-19.4212 13.5638 0.9341 0.9095
-20.9920 13.5681 0.9856 0.9048
-22.2797 -22.4178 1.2463 0.8812
-20.6898 -22.3673 1.2014 0.8852
-16.2820 -18.9196 0.9842 0.9049
-13.9607 -20.2728 0.9706 0.9062
-13.9346 -21.8740 1.0227 0.9014
-12.1969 -22.5665 1.0115 0.9024
-10.1043 -22.3967 0.9688 0.9063
-8.2310 -22.4019 0.9411 0.9089
-6.4518 -22.4018 0.9192 0.9109
-5.5912 -22.4042 0.9105 0.9117
-3.9062 -22.3716 0.8955 0.9131
0.1440 -22.5516 0.8893 0.9137
1.7546 -22.4246 0.8869 0.9139
32.6845 -37.0124 1.9470 0.8206
32.8852 -30.0191 1.7557 0.8367
37.9108 -25.7400 1.8069 0.8324
32.6095 -4.2772 1.2968 0.8766
48.2029 13.0260 1.9689 0.8188
42.5786 13.1607 1.7573 0.8366
37.7671 13.1741 1.5772 0.8520
35.0369 15.1169 1.5046 0.8583
35.0411 16.6328 1.5295 0.8562
35.1812 19.9048 1.5939 0.8506
35.1859 21.6078 1.6281 0.8476
0.8276 15.8621 0.6263 0.9384
0.2582 15.8636 0.6256 0.9385
-0.8803 15.8668 0.6266 0.9384
-1.4524 15.8684 0.6283 0.9382
-2.0284 15.8700 0.6309 0.9380
-3.7953 15.8749 0.6436 0.9367
-4.4029 15.8766 0.6497 0.9362
-5.0228 15.8783 0.6567 0.9355
-5.6571 15.8801 0.6647 0.9347
-6.1265 13.9461 0.6006 0.9408
-7.3622 13.9495 0.6219 0.9388
-10.1707 17.7031 0.8051 0.9215
-11.0521 17.7338 0.8239 0.9198
-11.9570 17.7363 0.8434 0.9179
-16.6323 15.8884 0.9070 0.9120
33.5260 -30.0265 0.7602 0.8352
32.8944 -27.4009 0.7232 0.8426
38.2716 -25.4585 0.7764 0.8320
30.2260 -18.5791 0.5993 0.8677
37.3346 13.4214 0.6702 0.8532
35.3197 17.1771 0.6634 0.8546
2.5777 13.6949 0.2354 0.9458
0.9965 12.6678 0.2146 0.9504
0.0854 12.5571 0.2121 0.9510
-0.4610 15.8656 0.2681 0.9385
-1.2113 8.8123 0.1503 0.9650
-2.1507 12.3475 0.2117 0.9511
-4.0172 12.2931 0.2185 0.9496
-6.2850 13.9465 0.2584 0.9406
-8.3285 12.1049 0.2482 0.9429
-12.9170 17.4035 0.3661 0.9169
-13.2093 16.5250 0.3574 0.9188
-12.9410 14.0018 0.3221 0.9266
-12.4366 12.5241 0.2981 0.9318
-19.6037 15.8967 0.4263 0.9040
-33.2619 23.2302 0.6853 0.8502
-34.5627 22.3395 0.6952 0.8482
-27.5830 -22.3481 0.5997 0.8676
-25.6523 -22.3535 0.5747 0.8727
-23.8735 -22.3584 0.5525 0.8773
-20.6898 -22.3673 0.5147 0.8852
-19.3981 -22.5405 0.5023 0.8878
-17.4920 -21.8642 0.4730 0.8940
-16.5884 -22.3308 0.4699 0.8947
-15.5338 -22.5572 0.4626 0.8962
-13.9346 -21.8740 0.4381 0.9014
-12.1969 -22.5665 0.4333 0.9025
-11.0856 -22.3939 0.4221 0.9049
-10.1043 -22.3967 0.4150 0.9064
-7.3731 -22.5307 0.4004 0.9095
-6.4518 -22.4018 0.3938 0.9110
-5.5912 -22.4042 0.3901 0.9118
-3.9062 -22.3716 0.3836 0.9132
-3.0900 -22.4112 0.3821 0.9135
-2.2930 -22.5890 0.3835 0.9132
0.1440 -22.5516 0.3809 0.9137
1.7546 -22.4246 0.3799 0.9139
2.1852 -4.2761 0.0811 0.9810
2.3453 -4.2097 0.0814 0.9809
32.6287 -25.7530 0.7021 0.8468
37.9061 -25.7368 0.7740 0.8325
32.6094 -4.2772 0.5555 0.8767
35.2369 13.7270 0.6388 0.8596
35.1456 18.2537 0.6690 0.8535
35.2279 19.9312 0.6837 0.8505
35.3952 27.3727 0.7558 0.8361
2.6984 13.6246 0.2346 0.9460
2.1581 13.4003 0.2293 0.9471
2.0136 22.8286 0.3871 0.9124
0.6626 12.7004 0.2148 0.9504
-1.5762 12.3324 0.2100 0.9515
-3.1982 15.8732 0.2735 0.9373
-3.8871 12.2882 0.2177 0.9497
-6.0463 15.2233 0.2767 0.9366
-6.1265 13.9461 0.2573 0.9409
-10.1707 17.7031 0.3449 0.9216
-12.7867 17.5736 0.3671 0.9167
-13.2084 16.8488 0.3616 0.9179
-10.3026 12.2139 0.2699 0.9381
-13.6038 13.9617 0.3293 0.9250
-19.2271 15.8956 0.4214 0.9050
-33.2606 23.7015 0.6899 0.8493
-33.2655 21.9508 0.6732 0.8526
32.8740 -36.5234 -0.2767 0.8216
32.8916 -27.3985 -0.2410 0.8426
32.8724 -25.4434 -0.2340 0.8468
37.1918 -26.7113 -0.2578 0.8326
38.2716 -25.4585 -0.2588 0.8320
30.2225 -18.5770 -0.1997 0.8677
32.9142 9.2301 -0.1925 0.8722
41.9785 13.4124 -0.2481 0.8384
37.2014 13.3735 -0.2226 0.8537
35.2722 14.1272 -0.2139 0.8590
34.1359 18.1421 -0.2176 0.8567
29.8827 17.2829 -0.1944 0.8710
34.4724 21.6222 -0.2291 0.8498
35.1975 25.7657 -0.2456 0.8399
1.4611 12.7219 -0.0721 0.9501
0.9755 12.4015 -0.0700 0.9515
0.0818 12.0316 -0.0677 0.9530
-0.3504 12.0601 -0.0679 0.9529
-1.2256 12.1236 -0.0686 0.9524
-2.1041 12.0801 -0.0690 0.9521
-2.6700 12.6323 -0.0727 0.9497
-3.0694 12.3211 -0.0715 0.9505
-3.9749 12.1634 -0.0720 0.9501
-4.4360 12.0889 -0.0725 0.9498
-4.8874 11.9734 -0.0728 0.9496
-6.0396 12.2132 -0.0767 0.9470
-8.8889 11.9763 -0.0840 0.9421
-9.6304 12.0478 -0.0868 0.9402
-10.2432 11.9125 -0.0885 0.9391
-12.1860 12.2717 -0.0974 0.9332
-13.8774 12.1029 -0.1037 0.9290
-14.8428 12.0361 -0.1076 0.9264
-15.9985 12.0490 -0.1128 0.9230
-17.0620 11.9162 -0.1172 0.9201
-19.9422 11.8986 -0.1307 0.9113
-22.0845 12.1252 -0.1418 0.9041
-27.8597 12.7907 -0.1726 0.8846
-25.6523 -22.3535 -0.1916 0.8728
-22.3556 -22.4941 -0.1786 0.8809
-20.6898 -22.3673 -0.1715 0.8853
-19.3981 -22.5405 -0.1674 0.8878
-17.4920 -21.8642 -0.1577 0.8940
-16.5884 -22.3308 -0.1566 0.8947
-15.5338 -22.5572 -0.1542 0.8962
-12.1969 -22.5665 -0.1444 0.9025
-11.0856 -22.3939 -0.1407 0.9049
-3.9062 -22.3716 -0.1279 0.9132
-2.2930 -22.5890 -0.1278 0.9132
-1.4661 -22.4157 -0.1265 0.9141
0.1440 -22.5516 -0.1270 0.9137
0.9550 -22.5980 -0.1273 0.9135
1.7546 -22.4246 -0.1266 0.9140
2.3452 -4.2097 -0.0271 0.9809
32.8790 -30.0134 -0.2506 0.8369
32.6287 -25.7530 -0.2340 0.8468
32.6092 -4.2771 -0.1852 0.8767
32.9133 8.8942 -0.1920 0.8725
43.3802 13.4085 -0.2556 0.8339
38.3298 13.3704 -0.2286 0.8501
35.2369 13.7270 -0.2129 0.8596
36.0126 15.5378 -0.2208 0.8548
35.7427 16.9658 -0.2228 0.8536
34.1630 17.7434 -0.2168 0.8573
34.1288 19.3093 -0.2208 0.8548
34.4719 21.1693 -0.2278 0.8506
35.1909 23.3881 -0.2379 0.8445
30.0834 26.9208 -0.2273 0.8509
2.0848 12.9449 -0.0738 0.9489
1.1073 12.5543 -0.0710 0.9508
0.6356 12.1819 -0.0687 0.9524
0.1962 12.0540 -0.0679 0.9529
-1.1018 12.0381 -0.0681 0.9528
-1.5573 12.1844 -0.0692 0.9521
-2.9134 12.1860 -0.0705 0.9511
-3.8862 12.2854 -0.0725 0.9498
-4.8412 12.1891 -0.0738 0.9489
-6.4504 12.2219 -0.0778 0.9462
-7.5225 12.0704 -0.0801 0.9447
-10.1870 12.0768 -0.0890 0.9388
-10.8262 11.9387 -0.0907 0.9376
-11.7249 12.0333 -0.0946 0.9350
-12.4141 11.8589 -0.0967 0.9336
-13.6991 12.1779 -0.1032 0.9293
-14.3860 11.8934 -0.1051 0.9281
-15.8326 12.1609 -0.1124 0.9232
-16.6725 11.8808 -0.1153 0.9214
-18.1579 11.9818 -0.1225 0.9167
-25.5124 12.0070 -0.1588 0.8933
-30.1830 -4.0601 -0.1715 0.8853
32.8125 -36.4551 -1.3811 0.8218
33.4620 -29.9692 -1.2649 0.8355
32.8332 -27.3499 -1.2032 0.8428
37.1382 -26.6729 -1.2875 0.8328
30.2191 -18.5749 -0.9988 0.8677
44.9025 12.5919 -1.3131 0.8298
41.2028 13.1645 -1.2180 0.8411
35.2221 12.6620 -1.0539 0.8609
36.0490 15.9605 -1.1101 0.8541
35.3197 17.1771 -1.1059 0.8546
33.4586 17.7821 -1.0669 0.8593
29.9526 17.3233 -0.9743 0.8707
34.1954 23.1967 -1.1635 0.8476
4.9925 16.5131 -0.4858 0.9333
1.4579 12.6936 -0.3598 0.9502
0.0829 12.1944 -0.3434 0.9524
-1.2110 8.8104 -0.2504 0.9650
-3.0107 12.0856 -0.3507 0.9514
-3.8641 11.8244 -0.3503 0.9514
-4.3658 11.8974 -0.3568 0.9506
-5.3566 11.8864 -0.3671 0.9492
-7.0784 12.0547 -0.3936 0.9456
-7.5766 11.9044 -0.3973 0.9451
-8.1661 11.8689 -0.4057 0.9440
-8.8460 11.9185 -0.4179 0.9423
-12.6292 11.8376 -0.4874 0.9331
-13.6638 11.9166 -0.5105 0.9300
-14.6120 11.8489 -0.5297 0.9275
-17.0042 11.8758 -0.5840 0.9204
-23.3994 11.7760 -0.7376 0.9005
-27.7883 12.7579 -0.8610 0.8848
-33.3690 -23.2845 -1.1457 0.8497
-27.5514 -22.3225 -0.9985 0.8677
-25.5900 -22.2992 -0.9557 0.8730
-23.7884 -22.2787 -0.9177 0.8777
-20.5760 -22.2442 -0.8532 0.8858
-17.4920 -21.8642 -0.7885 0.8940
-9.1069 -22.2842 -0.6778 0.9082
-8.1954 -22.3050 -0.6691 0.9093
-7.3038 -22.3189 -0.6612 0.9103
-4.7677 -22.5108 -0.6479 0.9120
-2.2729 -22.3907 -0.6337 0.9139
0.1431 -22.4034 -0.6308 0.9143
2.1852 -4.2761 -0.1352 0.9810
2.3452 -4.2096 -0.1357 0.9809
34.1279 -35.9623 -1.3960 0.8200
32.8199 -29.9595 -1.2513 0.8371
32.6287 -25.7530 -1.1704 0.8468
42.5786 13.1607 -1.2549 0.8367
35.8863 12.5180 -1.0702 0.8589
35.6960 16.9437 -1.1126 0.8538
34.0554 17.6875 -1.0805 0.8576
33.6585 20.6699 -1.1122 0.8538
34.1923 24.5356 -1.1850 0.8450
34.9801 27.0516 -1.2451 0.8378
3.1256 13.2670 -0.3838 0.9469
2.6307 13.2828 -0.3813 0.9473
1.5982 12.8406 -0.3644 0.9495
1.1004 12.4751 -0.3526 0.9511
-0.2353 12.0230 -0.3386 0.9530
-0.6646 11.9793 -0.3378 0.9531
-1.5256 11.9364 -0.3388 0.9530
-1.9473 11.8429 -0.3379 0.9531
-3.7689 11.9145 -0.3519 0.9512
-4.2336 11.8842 -0.3552 0.9508
-5.7757 11.9637 -0.3741 0.9482
-8.0532 11.9456 -0.4057 0.9440
-8.6673 11.9120 -0.4148 0.9428
-9.2697 11.8246 -0.4231 0.9416
-10.8704 11.9875 -0.4557 0.9373
-15.5550 11.9477 -0.5523 0.9245
-17.9418 11.8392 -0.6053 0.9176
-23.3572 12.0336 -0.7398 0.9002
-30.2001 -4.0624 -0.8580 0.8852
25.3352 -30.2623 -2.0016 0.8538
26.4036 -29.3347 -2.0016 0.8538
26.9796 -25.9650 -1.8990 0.8607
27.1642 -24.3288 -1.8494 0.8641
28.0188 -23.3395 -1.8494 0.8641
30.3623 -20.1971 -1.8494 0.8641
31.7311 -17.9701 -1.8494 0.8641
32.3548 -16.8212 -1.8494 0.8641
36.7695 -14.3416 -2.0016 0.8538
38.4416 -8.9397 -2.0016 0.8538
38.7373 -7.5562 -2.0016 0.8538
38.9833 -6.1629 -2.0016 0.8538
32.9291 -4.0021 -1.6823 0.8756
36.4840 -3.1120 -1.8570 0.8636
39.4196 -1.9427 -2.0016 0.8538
39.4639 -0.5286 -2.0016 0.8538
39.4575 0.8862 -2.0016 0.8538
39.4003 2.2999 -2.0016 0.8538
39.1343 5.1166 -2.0016 0.8538
38.9258 6.5159 -2.0016 0.8538
35.4422 8.5815 -1.8494 0.8641
32.7541 9.1852 -1.7252 0.8726
34.7363 11.0985 -1.8494 0.8641
33.8520 13.5584 -1.8494 0.8641
30.8923 19.3767 -1.8494 0.8641
29.4248 21.5399 -1.8494 0.8641
28.6339 22.5807 -1.8494 0.8641
27.8061 23.5925 -1.8494 0.8641
27.2689 24.8716 -1.8718 0.8626
27.1166 28.5505 -1.9969 0.8541
26.1366 29.5728 -2.0016 0.8538
25.0599 30.4906 -2.0016 0.8538
23.9509 31.3692 -2.0016 0.8538
22.8112 32.2075 -2.0016 0.8538
21.6422 33.0044 -2.0016 0.8538
20.4453 33.7589 -2.0016 0.8538
19.2222 34.4700 -2.0016 0.8538
17.9743 35.1369 -2.0016 0.8538
15.4110 36.3342 -2.0016 0.8538
14.0988 36.8632 -2.0016 0.8538
12.7685 37.3449 -2.0016 0.8538
4.8578 16.0677 -0.8513 0.9350
3.5684 13.5364 -0.7099 0.9455
2.9685 13.1572 -0.6840 0.9474
2.4485 13.0085 -0.6713 0.9484
1.4496 12.6217 -0.6443 0.9504
0.9710 12.3446 -0.6280 0.9516
-0.3483 11.9877 -0.6082 0.9531
-0.7844 12.0695 -0.6134 0.9527
-1.2109 8.8095 -0.4510 0.9650
-2.0656 11.8589 -0.6105 0.9529
-2.4892 11.7769 -0.6105 0.9529
-3.0015 12.0487 -0.6297 0.9515
-3.4135 11.8708 -0.6264 0.9517
-3.9191 11.9929 -0.6399 0.9507
-4.4436 12.1094 -0.6542 0.9496
-5.3198 11.8047 -0.6566 0.9495
-5.8379 11.8055 -0.6679 0.9486
-6.3669 11.7915 -0.6796 0.9477
-8.1008 11.7740 -0.7248 0.9444
-9.3834 11.7388 -0.7621 0.9416
-12.6300 11.8383 -0.8779 0.9330
-13.5980 11.8592 -0.9150 0.9303
-18.4360 11.9161 -1.1133 0.9158
-20.1028 11.9943 -1.1872 0.9105
-23.1613 11.6562 -1.3150 0.9014
-21.1024 8.7868 -1.1593 0.9125
-36.9554 13.8555 -2.0016 0.8538
-37.8530 11.1725 -2.0016 0.8538
-38.8336 7.0447 -2.0016 0.8538
-39.0611 5.6483 -2.0016 0.8538
-39.3654 2.8355 -2.0016 0.8538
-39.4418 1.4228 -2.0016 0.8538
-39.4674 0.0082 -2.0016 0.8538
-39.3666 -2.8192 -2.0016 0.8538
-38.8365 -7.0286 -2.0016 0.8538
-37.8576 -11.1568 -2.0016 0.8538
-34.6039 -18.9802 -2.0016 0.8538
-33.9013 -20.2083 -2.0016 0.8538
-30.6341 -19.7823 -1.8494 0.8641
-25.6523 -22.3535 -1.7256 0.8726
-22.2252 -22.3630 -1.5990 0.8814
-20.6898 -22.3673 -1.5452 0.8851
-19.2524 -22.3713 -1.4968 0.8885
-17.4920 -21.8642 -1.4200 0.8939
-16.5884 -22.3308 -1.4108 0.8946
-15.5338 -22.5572 -1.3890 0.8961
-13.9346 -21.8740 -1.3153 0.9013
-13.1236 -22.3287 -1.3135 0.9015
-12.1021 -22.3911 -1.2908 0.9031
-11.0856 -22.3939 -1.2672 0.9048
-9.1540 -22.3993 -1.2272 0.9076
-7.3301 -22.3994 -1.1952 0.9099
-6.4517 -22.4018 -1.1823 0.9109
-4.7677 -22.5108 -1.1669 0.9120
-3.9127 -22.4089 -1.1536 0.9129
-2.2752 -22.4135 -1.1425 0.9137
-0.6607 -22.4179 -1.1374 0.9141
1.7546 -22.4246 -1.1407 0.9139
8.6701 -38.5033 -2.0016 0.8538
10.0446 -38.1678 -2.0016 0.8538
11.4062 -37.7833 -2.0016 0.8538
14.0836 -36.8691 -2.0016 0.8538
15.3960 -36.3406 -2.0016 0.8538
2.1852 -4.2760 -0.2435 0.9810
21.6285 -33.0134 -2.0016 0.8538
22.7979 -32.2170 -2.0016 0.8538
25.0472 -30.5010 -2.0016 0.8538
26.1244 -29.5837 -2.0016 0.8538
26.9499 -28.3986 -1.9855 0.8549
28.6245 -22.5926 -1.8494 0.8641
30.8843 -19.3895 -1.8494 0.8641
33.5634 -16.3401 -1.8931 0.8611
36.6319 -14.6894 -2.0016 0.8538
37.1349 -13.3670 -2.0016 0.8538
38.3552 -9.3037 -2.0016 0.8538
32.4743 -4.2595 -1.6610 0.8771
34.0782 -3.2324 -1.7360 0.8719
37.9393 -2.2304 -1.9274 0.8588
39.4641 0.5122 -2.0016 0.8538
38.9858 6.1467 -2.0016 0.8538
32.7532 8.8510 -1.7206 0.8729
33.9790 13.2370 -1.8494 0.8641
29.9679 16.9552 -1.7462 0.8712
29.5867 18.1694 -1.7608 0.8702
30.3706 20.1845 -1.8494 0.8641
28.8466 22.3083 -1.8494 0.8641
28.0285 23.3280 -1.8494 0.8641
27.2701 24.4033 -1.8559 0.8637
27.2740 28.1766 -1.9887 0.8547
24.2471 31.1408 -2.0016 0.8538
23.1154 31.9899 -2.0016 0.8538
21.9540 32.7979 -2.0016 0.8538
19.5480 34.2863 -2.0016 0.8538
14.4476 36.7280 -2.0016 0.8538
2.5791 13.0221 -0.6732 0.9482
2.0924 12.9923 -0.6674 0.9487
1.5718 12.6284 -0.6454 0.9503
0.1932 11.8697 -0.6020 0.9536
-0.2340 11.9547 -0.6064 0.9532
-1.0963 11.9785 -0.6100 0.9530
-3.2716 11.7972 -0.6209 0.9522
-4.2422 11.9084 -0.6411 0.9506
-4.7021 11.8389 -0.6460 0.9503
-5.7066 11.8205 -0.6657 0.9488
-6.3052 11.9468 -0.6851 0.9473
-7.3728 11.8301 -0.7069 0.9457
-8.0365 11.9208 -0.7291 0.9440
-8.5913 11.8076 -0.7406 0.9432
-10.8514 11.9665 -0.8192 0.9373
-12.3697 11.8165 -0.8676 0.9338
-13.4818 11.9847 -0.9148 0.9303
-14.3811 11.8894 -0.9463 0.9280
-16.4981 11.7565 -1.0274 0.9221
-18.0929 11.9390 -1.0993 0.9168
-19.5574 11.9218 -1.1616 0.9123
-21.1445 11.8713 -1.2298 0.9074
-23.0498 11.8752 -1.3150 0.9014
-24.5842 11.5702 -1.3779 0.8969
-33.5301 14.3359 -1.8494 0.8641
-36.8224 14.2051 -2.0016 0.8538
-37.3079 12.8762 -2.0016 0.8538
-37.7455 11.5307 -2.0016 0.8538
-38.1345 10.1705 -2.0016 0.8538
-38.4745 8.7971 -2.0016 0.8538
-38.7651 7.4124 -2.0016 0.8538
-39.1965 4.6163 -2.0016 0.8538
-39.3368 3.2085 -2.0016 0.8538
-38.9014 -6.6603 -2.0016 0.8538
-38.6376 -8.0503 -2.0016 0.8538
-37.5503 -12.1512 -2.0016 0.8538
-37.0906 -13.4893 -2.0016 0.8538
-36.5833 -14.8100 -2.0016 0.8538
-36.0290 -16.1117 -2.0016 0.8538
-34.0913 -19.8861 -2.0016 0.8538
-30.8202 -19.4911 -1.8494 0.8641
15.9789 -22.1329 -2.0016 0.8963
16.7619 -21.5459 -2.0016 0.8963
17.5234 -20.9312 -2.0016 0.8963
18.2624 -20.2898 -2.0016 0.8963
18.9779 -19.6222 -2.0016 0.8963
21.5873 -16.7087 -2.0016 0.8963
23.7535 -13.4522 -2.0016 0.8963
24.2204 -12.5922 -2.0016 0.8963
24.6562 -11.7160 -2.0016 0.8963
26.0774 -8.0722 -2.0016 0.8963
26.9633 -4.2626 -2.0016 0.8963
27.0988 -3.2935 -2.0016 0.8963
27.1994 -2.3201 -2.0016 0.8963
27.2913 0.6130 -2.0016 0.8963
27.1773 2.5665 -2.0016 0.8963
27.0678 3.5389 -2.0016 0.8963
26.9236 4.5068 -2.0016 0.8963
26.5315 6.4240 -2.0016 0.8963
25.6887 9.2348 -2.0016 0.8963
25.3412 10.1496 -2.0016 0.8963
24.9611 11.0514 -2.0016 0.8963
24.5490 11.9389 -2.0016 0.8963
23.6306 13.6669 -2.0016 0.8963
23.1256 14.5051 -2.0016 0.8963
21.4349 16.9036 -2.0016 0.8963
20.1689 18.3958 -2.0016 0.8963
19.4966 19.1068 -2.0016 0.8963
18.7993 19.7934 -2.0016 0.8963
17.3330 21.0893 -2.0016 0.8963
15.7777 22.2768 -2.0016 0.8963
14.1413 23.3498 -2.0016 0.8963
13.2953 23.8417 -2.0016 0.8963
12.4322 24.3029 -2.0016 0.8963
11.5531 24.7329 -2.0016 0.8963
10.6592 25.1311 -2.0016 0.8963
2.4272 12.8952 -0.9621 0.9487
1.4495 12.6208 -0.9315 0.9503
0.9615 12.2232 -0.8990 0.9520
0.0822 12.0893 -0.8864 0.9527
-0.3476 11.9629 -0.8775 0.9531
-1.2225 12.0930 -0.8912 0.9524
-2.0678 11.8715 -0.8835 0.9528
-2.5381 12.0081 -0.8999 0.9520
-2.9793 11.9595 -0.9037 0.9518
-3.4935 12.1490 -0.9269 0.9506
-3.9436 12.0677 -0.9309 0.9504
-5.8481 11.8260 -0.9673 0.9485
-7.0083 11.9353 -1.0148 0.9460
-8.1470 11.8411 -1.0539 0.9440
-8.8156 11.8776 -1.0846 0.9424
-9.3976 11.7566 -1.1036 0.9414
-12.7756 11.9747 -1.2839 0.9322
-14.1843 11.5021 -1.3390 0.9294
-15.2818 11.5093 -1.4027 0.9261
-16.4907 11.5172 -1.4748 0.9225
-17.8324 11.5260 -1.5569 0.9184
-21.0312 11.5469 -1.7592 0.9083
-22.9220 10.5237 -1.8494 0.9038
-21.0513 8.7655 -1.6720 0.9126
-24.6568 8.2492 -1.9064 0.9010
-26.1816 7.7276 -2.0016 0.8963
-26.6679 5.8322 -2.0016 0.8963
-26.8598 4.8726 -2.0016 0.8963
-27.0172 3.9067 -2.0016 0.8963
-27.1399 2.9359 -2.0016 0.8963
-27.2804 0.9841 -2.0016 0.8963
-25.1805 -2.7134 -1.8570 0.9034
-25.0671 -3.6141 -1.8570 0.9034
-24.9215 -4.5103 -1.8570 0.9034
-26.1848 -7.7168 -2.0016 0.8963
-25.5647 -9.5728 -2.0016 0.8963
-25.2051 -10.4829 -2.0016 0.8963
-24.8132 -11.3795 -2.0016 0.8963
-24.3894 -12.2616 -2.0016 0.8963
-23.9343 -13.1279 -2.0016 0.8963
-23.4483 -13.9773 -2.0016 0.8963
-22.9323 -14.8088 -2.0016 0.8963
-19.9779 -16.1863 -1.8853 0.9020
-19.0157 -16.5703 -1.8494 0.9038
-18.4095 -17.2412 -1.8494 0.9038
-17.7798 -17.8899 -1.8494 0.9038
-17.1271 -18.5157 -1.8494 0.9038
-16.4525 -19.1177 -1.8494 0.9038
-15.7567 -19.6951 -1.8494 0.9038
-13.5515 -21.2726 -1.8494 0.9038
-11.9928 -22.1888 -1.8494 0.9038
-9.1540 -22.3993 -1.7742 0.9075
-5.4189 -16.5592 -1.2775 0.9325
-6.4518 -22.4018 -1.7093 0.9107
-5.5912 -22.4042 -1.6931 0.9115
-4.6747 -22.0716 -1.6542 0.9135
-3.9127 -22.4089 -1.6679 0.9128
0.1432 -22.4202 -1.6439 0.9140
0.9121 -21.5836 -1.5840 0.9170
1.7546 -22.4246 -1.6492 0.9137
2.8675 -25.0589 -1.8494 0.9038
5.5410 -24.6062 -1.8494 0.9038
6.4192 -24.3919 -1.8494 0.9038
10.6488 -25.1355 -2.0016 0.8963
11.5429 -24.7377 -2.0016 0.8963
2.1852 -4.2760 -0.3521 0.9809
14.1316 -23.3557 -2.0016 0.8963
14.9597 -22.8342 -2.0016 0.8963
16.5570 -21.7038 -2.0016 0.8963
18.7911 -19.8012 -2.0016 0.8963
20.8080 -17.6697 -2.0016 0.8963
22.5845 -15.3340 -2.0016 0.8963
23.6249 -13.6767 -2.0016 0.8963
24.5440 -11.9491 -2.0016 0.8963
25.3370 -10.1601 -2.0016 0.8963
25.6849 -9.2455 -2.0016 0.8963
25.9997 -8.3189 -2.0016 0.8963
26.7425 -5.4800 -2.0016 0.8963
27.0663 -3.5501 -2.0016 0.8963
27.1762 -2.5777 -2.0016 0.8963
27.2511 -1.6020 -2.0016 0.8963
27.2959 0.3543 -2.0016 0.8963
27.2656 1.3324 -2.0016 0.8963
27.2004 2.3088 -2.0016 0.8963
27.1001 3.2822 -2.0016 0.8963
26.9651 4.2515 -2.0016 0.8963
26.7954 5.2152 -2.0016 0.8963
26.5912 6.1723 -2.0016 0.8963
26.0807 8.0614 -2.0016 0.8963
25.4362 9.9090 -2.0016 0.8963
25.0647 10.8143 -2.0016 0.8963
24.6610 11.7057 -2.0016 0.8963
22.7350 15.1099 -2.0016 0.8963
21.5942 16.6997 -2.0016 0.8963
18.9860 19.6143 -2.0016 0.8963
18.2708 20.2822 -2.0016 0.8963
16.7709 21.5390 -2.0016 0.8963
15.1848 22.6851 -2.0016 0.8963
14.3619 23.2148 -2.0016 0.8963
12.6620 24.1840 -2.0016 0.8963
11.7870 24.6223 -2.0016 0.8963
10.8969 25.0289 -2.0016 0.8963
9.9928 25.4034 -2.0016 0.8963
9.0759 25.7452 -2.0016 0.8963
7.5278 24.0728 -1.8494 0.9038
3.7392 13.6579 -1.0383 0.9448
3.1034 13.1724 -0.9923 0.9472
2.0822 12.9293 -0.9602 0.9488
1.0906 12.3646 -0.9101 0.9514
0.6357 12.1849 -0.8946 0.9522
0.2003 12.3016 -0.9021 0.9519
-0.2335 11.9306 -0.8749 0.9533
-1.0914 11.9248 -0.8780 0.9531
-1.5279 11.9540 -0.8836 0.9528
-3.2783 11.8216 -0.8995 0.9520
-3.7713 11.9219 -0.9168 0.9511
-4.2423 11.9087 -0.9269 0.9506
-5.7339 11.8770 -0.9670 0.9485
-8.0142 11.8878 -1.0512 0.9441
-9.9301 11.7723 -1.1292 0.9401
-11.5571 11.8611 -1.2143 0.9357
-12.5109 11.9513 -1.2686 0.9330
-13.2443 11.7736 -1.2993 0.9314
-16.1592 11.5150 -1.4549 0.9235
-18.9199 11.5331 -1.6247 0.9150
-20.5612 11.5438 -1.7290 0.9098
-22.8213 10.7405 -1.8494 0.9038
-23.1916 9.9156 -1.8494 0.9038
-23.5321 9.0780 -1.8494 0.9038
-23.9304 8.2592 -1.8562 0.9035
-26.0681 7.9635 -1.9986 0.8964
-26.3762 7.0345 -2.0016 0.8963
-26.6114 6.0846 -2.0016 0.8963
-26.8124 5.1269 -2.0016 0.8963
-26.9789 4.1626 -2.0016 0.8963
-27.0703 3.1882 -1.9986 0.8964
-27.2457 -1.6918 -2.0016 0.8963
-24.9631 -4.2739 -1.8570 0.9034
-26.5075 -6.5224 -2.0016 0.8963
-25.9722 -8.4046 -2.0016 0.8963
-25.3034 -10.2436 -2.0016 0.8963
-24.5045 -12.0299 -2.0016 0.8963
-24.0576 -12.9005 -2.0016 0.8963
-23.5798 -13.7545 -2.0016 0.8963
-23.0716 -14.5908 -2.0016 0.8963
13.3832 -15.9859 -2.0016 0.9196
13.9476 -15.4960 -2.0016 0.9196
15.5304 -13.9093 -2.0016 0.9196
16.0189 -13.3437 -2.0016 0.9196
16.4869 -12.7610 -2.0016 0.9196
17.7614 -10.9175 -2.0016 0.9196
18.1413 -10.2739 -2.0016 0.9196
19.1393 -8.2672 -2.0016 0.9196
19.4233 -7.5759 -2.0016 0.9196
19.6824 -6.8748 -2.0016 0.9196
20.4628 -3.9915 -2.0016 0.9196
20.6962 -2.5153 -2.0016 0.9196
20.7731 -1.7719 -2.0016 0.9196
20.8232 -1.0262 -2.0016 0.9196
20.8432 0.4681 -2.0016 0.9196
20.8131 1.2149 -2.0016 0.9196
20.6726 2.7028 -2.0016 0.9196
20.5624 3.4420 -2.0016 0.9196
20.4258 4.1768 -2.0016 0.9196
20.2630 4.9062 -2.0016 0.9196
20.0741 5.6293 -2.0016 0.9196
19.8595 6.3452 -2.0016 0.9196
19.6193 7.0529 -2.0016 0.9196
18.7488 9.1182 -2.0016 0.9196
18.4100 9.7843 -2.0016 0.9196
18.0475 10.4379 -2.0016 0.9196
17.6618 11.0780 -2.0016 0.9196
16.3706 12.9099 -2.0016 0.9196
15.4037 14.0494 -2.0016 0.9196
14.3576 15.1168 -2.0016 0.9196
13.2378 16.1066 -2.0016 0.9196
12.6520 16.5707 -2.0016 0.9196
12.0499 17.0135 -2.0016 0.9196
11.4324 17.4345 -2.0016 0.9196
10.8002 17.8330 -2.0016 0.9196
10.1540 18.2087 -2.0016 0.9196
9.4949 18.5609 -2.0016 0.9196
7.5218 17.7339 -1.8494 0.9255
6.8813 17.9921 -1.8494 0.9255
6.2320 18.2272 -1.8494 0.9255
4.9811 16.4753 -1.6524 0.9332
2.4902 13.2298 -1.2924 0.9473
1.9348 12.7846 -1.2414 0.9494
0.0824 12.1117 -1.1628 0.9525
-0.7700 11.8482 -1.1399 0.9534
-1.2103 11.9722 -1.1552 0.9528
-1.2106 8.8076 -0.8535 0.9649
-2.0738 11.9062 -1.1603 0.9526
-2.9995 12.0405 -1.1913 0.9514
-3.4292 11.9254 -1.1913 0.9514
-5.4038 11.9910 -1.2627 0.9485
-5.8494 11.8287 -1.2669 0.9484
-7.8853 11.4608 -1.3356 0.9456
-15.2818 11.5093 -1.8367 0.9260
-16.8856 9.2708 -1.8494 0.9255
-17.2070 8.6596 -1.8494 0.9255
-19.2115 7.9994 -1.9979 0.9198
-19.9957 5.9018 -2.0016 0.9196
-20.1944 5.1813 -2.0016 0.9196
-20.3671 4.4542 -2.0016 0.9196
-20.6339 2.9837 -2.0016 0.9196
-20.7276 2.2422 -2.0016 0.9196
-20.8350 0.7516 -2.0016 0.9196
-20.8485 0.0043 -2.0016 0.9196
-20.8353 -0.7429 -2.0016 0.9196
-20.7953 -1.4893 -2.0016 0.9196
-20.7285 -2.2336 -2.0016 0.9196
-20.1966 -5.1730 -2.0016 0.9196
-19.9981 -5.8935 -2.0016 0.9196
-18.2794 -10.0262 -2.0016 0.9196
-17.9083 -10.6749 -2.0016 0.9196
-16.6589 -12.5356 -2.0016 0.9196
-15.7181 -13.6968 -2.0016 0.9196
-15.2171 -14.2513 -2.0016 0.9196
-14.6965 -14.7876 -2.0016 0.9196
-14.1571 -15.3049 -2.0016 0.9196
-13.5907 -15.7923 -2.0003 0.9197
-12.9344 -16.1674 -1.9877 0.9202
-12.0172 -16.1772 -1.9347 0.9222
-11.1464 -16.1861 -1.8868 0.9241
-10.3497 -16.2466 -1.8494 0.9255
-9.7608 -16.6071 -1.8494 0.9255
-9.1593 -16.9463 -1.8494 0.9255
-8.5460 -17.2637 -1.8494 0.9255
-7.9217 -17.5589 -1.8494 0.9255
-6.6435 -18.0813 -1.8494 0.9255
-5.3311 -18.5108 -1.8494 0.9255
-3.9913 -18.8451 -1.8494 0.9255
-3.3133 -18.9761 -1.8494 0.9255
-2.6311 -19.0826 -1.8494 0.9255
-0.5675 -19.2548 -1.8494 0.9255
0.8134 -19.2460 -1.8494 0.9255
1.5026 -19.2045 -1.8494 0.9255
4.2317 -18.7926 -1.8494 0.9255
6.7367 -19.7301 -2.0016 0.9196
7.4396 -19.4759 -2.0016 0.9196
8.1329 -19.1968 -2.0016 0.9196
2.1851 -4.2760 -0.4610 0.9809
2.3451 -4.2095 -0.4626 0.9808
11.4252 -17.4392 -2.0016 0.9196
12.0429 -17.0185 -2.0016 0.9196
14.3514 -15.1228 -2.0016 0.9196
14.8842 -14.5987 -2.0016 0.9196
15.3978 -14.0558 -2.0016 0.9196
17.2485 -11.7111 -2.0016 0.9196
17.6572 -11.0853 -2.0016 0.9196
18.4059 -9.7919 -2.0016 0.9196
18.7451 -9.1259 -2.0016 0.9196
19.0601 -8.4482 -2.0016 0.9196
19.3507 -7.7596 -2.0016 0.9196
19.6164 -7.0611 -2.0016 0.9196
20.2610 -4.9146 -2.0016 0.9196
20.6714 -2.7113 -2.0016 0.9196
20.8126 -1.2235 -2.0016 0.9196
20.8236 1.0176 -2.0016 0.9196
20.7738 1.7633 -2.0016 0.9196
20.5941 3.2470 -2.0016 0.9196
19.6852 6.8667 -2.0016 0.9196
18.8344 8.9401 -2.0016 0.9196
18.5019 9.6094 -2.0016 0.9196
18.1456 10.2664 -2.0016 0.9196
17.3635 11.5399 -2.0016 0.9196
16.9387 12.1548 -2.0016 0.9196
16.4922 12.7541 -2.0016 0.9196
16.0245 13.3371 -2.0016 0.9196
15.5361 13.9028 -2.0016 0.9196
15.0278 14.4507 -2.0016 0.9196
13.9540 15.4902 -2.0016 0.9196
10.9687 17.7299 -2.0016 0.9196
10.3262 18.1116 -2.0016 0.9196
9.0021 18.8048 -2.0016 0.9196
7.6896 17.6619 -1.8494 0.9255
7.0515 17.9261 -1.8494 0.9255
6.4045 18.1673 -1.8494 0.9255
5.7492 18.3852 -1.8494 0.9255
3.6644 13.3848 -1.3323 0.9458
2.6717 13.4895 -1.3202 0.9462
2.0541 12.7546 -1.2403 0.9494
1.5849 12.7336 -1.2319 0.9497
1.0787 12.2295 -1.1787 0.9519
0.1960 12.0396 -1.1560 0.9528
-0.2368 12.0953 -1.1614 0.9525
-0.6750 12.1673 -1.1699 0.9522
-1.5073 11.7932 -1.1414 0.9533
-3.2913 11.8683 -1.1824 0.9517
-3.7235 11.7711 -1.1853 0.9516
-4.7095 11.8575 -1.2249 0.9500
-5.7770 11.9663 -1.2757 0.9480
-6.8647 11.9486 -1.3230 0.9461
-7.2445 11.6242 -1.3150 0.9464
-8.3412 11.4638 -1.3611 0.9446
-10.4078 11.4773 -1.4875 0.9396
-11.1881 11.4824 -1.5391 0.9376
-12.0257 11.4879 -1.5967 0.9354
-12.9296 11.4938 -1.6609 0.9328
-16.4481 10.0264 -1.8494 0.9255
-17.5454 8.2575 -1.8617 0.9250
-19.1072 8.1694 -1.9950 0.9199
-19.9389 6.0911 -2.0016 0.9196
-20.3240 4.6470 -2.0016 0.9196
-20.7054 2.4385 -2.0016 0.9196
-20.8475 0.2019 -2.0016 0.9196
-20.8084 -1.2921 -2.0016 0.9196
-20.7487 -2.0371 -2.0016 0.9196
-20.6624 -2.7794 -2.0016 0.9196
-20.4102 -4.2525 -2.0016 0.9196
-20.2447 -4.9814 -2.0016 0.9196
-20.0531 -5.7038 -2.0016 0.9196
-19.5930 -7.1257 -2.0016 0.9196
-19.0322 -8.5110 -2.0016 0.9196
-18.0086 -10.5047 -2.0016 0.9196
9.8632 -13.6618 -2.0016 0.9344
10.3465 -13.2995 -2.0016 0.9344
11.7144 -12.1120 -2.0016 0.9344
12.5519 -11.2417 -2.0016 0.9344
12.9468 -10.7846 -2.0016 0.9344
13.3250 -10.3136 -2.0016 0.9344
13.6861 -9.8294 -2.0016 0.9344
14.0296 -9.3326 -2.0016 0.9344
15.2193 -7.2318 -2.0016 0.9344
15.4688 -6.6817 -2.0016 0.9344
15.9077 -5.5564 -2.0016 0.9344
16.4122 -3.8167 -2.0016 0.9344
16.5384 -3.2260 -2.0016 0.9344
16.6435 -2.6312 -2.0016 0.9344
16.8486 -0.2257 -2.0016 0.9344
16.8459 0.3784 -2.0016 0.9344
16.8215 0.9819 -2.0016 0.9344
16.5085 3.3758 -2.0016 0.9344
16.3769 3.9653 -2.0016 0.9344
16.2243 4.5497 -2.0016 0.9344
16.0508 5.1283 -2.0016 0.9344
15.8567 5.7003 -2.0016 0.9344
15.6422 6.2650 -2.0016 0.9344
15.4076 6.8216 -2.0016 0.9344
15.1532 7.3695 -2.0016 0.9344
14.5863 8.4361 -2.0016 0.9344
14.2746 8.9535 -2.0016 0.9344
13.9445 9.4593 -2.0016 0.9344
12.0346 11.7940 -2.0016 0.9344
11.6041 12.2177 -2.0016 0.9344
11.1587 12.6258 -2.0016 0.9344
10.6990 13.0176 -2.0016 0.9344
9.2399 14.0909 -2.0016 0.9344
7.5826 13.5975 -1.8494 0.9392
6.0793 14.3329 -1.8494 0.9392
5.5616 14.5416 -1.8494 0.9392
4.5056 14.9026 -1.8494 0.9392
3.5100 13.3151 -1.6357 0.9460
2.9467 13.0611 -1.5905 0.9475
2.4131 12.8204 -1.5496 0.9488
1.9055 12.5914 -1.5127 0.9500
0.9568 12.1634 -1.4493 0.9520
0.5105 11.9621 -1.4222 0.9529
-1.2105 8.8066 -1.0559 0.9648
-2.4148 11.4249 -1.3871 0.9541
-2.8469 11.4278 -1.3989 0.9537
-3.2869 11.4306 -1.4128 0.9532
-3.7364 11.4336 -1.4288 0.9527
-4.1967 11.4366 -1.4471 0.9521
-5.6603 11.4462 -1.5168 0.9499
-6.1822 11.4496 -1.5457 0.9489
-6.7252 11.4532 -1.5777 0.9479
-7.8853 11.4608 -1.6525 0.9455
-8.5093 11.4649 -1.6960 0.9441
-9.8659 11.4738 -1.7975 0.9409
-10.5672 11.4335 -1.8494 0.9392
-11.7334 10.2331 -1.8494 0.9392
-13.0754 8.4512 -1.8494 0.9392
-13.8241 8.2481 -1.9122 0.9372
-14.7322 8.0885 -1.9964 0.9345
-15.3134 7.0305 -2.0016 0.9344
-15.9796 5.3461 -2.0016 0.9344
-16.4611 3.6000 -2.0016 0.9344
-16.6767 2.4115 -2.0016 0.9344
-16.7524 1.8122 -2.0016 0.9344
-16.8066 1.2106 -2.0016 0.9344
-16.8395 -0.6005 -2.0016 0.9344
-16.8071 -1.2036 -2.0016 0.9344
-16.6777 -2.4046 -2.0016 0.9344
-16.4626 -3.5932 -2.0016 0.9344
-16.1629 -4.7633 -2.0016 0.9344
-15.9818 -5.3395 -2.0016 0.9344
-15.7801 -5.9089 -2.0016 0.9344
-15.5582 -6.4707 -2.0016 0.9344
-15.3163 -7.0242 -2.0016 0.9344
-14.7737 -8.1034 -2.0016 0.9344
-14.4738 -8.6277 -2.0016 0.9344
-14.1553 -9.1409 -2.0016 0.9344
-13.8185 -9.6424 -2.0016 0.9344
-13.0923 -10.6075 -2.0016 0.9344
-12.2987 -11.5182 -2.0016 0.9344
-11.8780 -11.9516 -2.0016 0.9344
-10.9913 -12.7718 -2.0016 0.9344
-10.0481 -13.5264 -2.0016 0.9344
-9.5568 -13.8779 -2.0016 0.9344
-8.0119 -14.8235 -2.0016 0.9344
-7.4755 -15.1011 -2.0016 0.9344
-6.3744 -15.5979 -2.0016 0.9344
-5.8070 -15.8046 -2.0001 0.9344
-5.2290 -15.9789 -1.9971 0.9345
-4.6468 -16.1347 -1.9945 0.9346
-1.6422 -16.1778 -1.9316 0.9366
-1.0588 -16.1887 -1.9271 0.9367
0.6939 -16.4193 -1.9521 0.9359
1.2972 -16.5787 -1.9753 0.9352
2.5125 -16.6485 -2.0000 0.9344
3.1100 -16.5607 -2.0016 0.9344
3.7016 -16.4385 -2.0016 0.9344
4.2884 -16.2953 -2.0016 0.9344
5.4448 -15.9462 -2.0016 0.9344
6.0128 -15.7408 -2.0016 0.9344
7.1250 -15.2696 -2.0016 0.9344
8.7229 -14.4166 -2.0016 0.9344
9.7333 -13.7547 -2.0016 0.9344
11.5990 -12.2225 -2.0016 0.9344
12.4448 -11.3602 -2.0016 0.9344
12.8440 -10.9068 -2.0016 0.9344
13.2267 -10.4395 -2.0016 0.9344
13.5924 -9.9587 -2.0016 0.9344
14.5828 -8.4421 -2.0016 0.9344
15.4047 -6.8280 -2.0016 0.9344
15.6396 -6.2714 -2.0016 0.9344
16.2224 -4.5565 -2.0016 0.9344
16.3753 -3.9721 -2.0016 0.9344
16.5071 -3.3826 -2.0016 0.9344
16.7071 -2.1914 -2.0016 0.9344
16.8211 -0.9889 -2.0016 0.9344
16.8457 -0.3853 -2.0016 0.9344
16.8487 0.2187 -2.0016 0.9344
16.7898 1.4252 -2.0016 0.9344
16.6446 2.6243 -2.0016 0.9344
16.2667 4.3958 -2.0016 0.9344
16.0987 4.9760 -2.0016 0.9344
15.9100 5.5498 -2.0016 0.9344
15.2223 7.2255 -2.0016 0.9344
14.9536 7.7665 -2.0016 0.9344
14.6656 8.2975 -2.0016 0.9344
14.3588 8.8178 -2.0016 0.9344
14.0335 9.3268 -2.0016 0.9344
13.6902 9.8238 -2.0016 0.9344
13.3293 10.3081 -2.0016 0.9344
12.5566 11.2365 -2.0016 0.9344
11.2779 12.5195 -2.0016 0.9344
10.8219 12.9157 -2.0016 0.9344
9.8689 13.6577 -2.0016 0.9344
9.3730 14.0027 -2.0016 0.9344
8.8651 14.3296 -2.0016 0.9344
8.3327 14.6151 -1.9984 0.9345
6.7224 14.0427 -1.8494 0.9392
5.1762 14.6832 -1.8494 0.9392
4.6466 14.8593 -1.8494 0.9392
3.6644 13.3848 -1.6484 0.9456
2.0374 12.6509 -1.5221 0.9497
1.5470 12.4297 -1.4879 0.9508
1.0777 12.2180 -1.4570 0.9518
-0.2277 11.6292 -1.3816 0.9542
-1.0449 11.4159 -1.3617 0.9549
-1.4594 11.4187 -1.3674 0.9547
-2.7319 11.4270 -1.3956 0.9538
-3.1697 11.4299 -1.4089 0.9533
-4.0739 11.4358 -1.4420 0.9523
-4.5432 11.4389 -1.4620 0.9516
-5.0265 11.4420 -1.4845 0.9509
-5.5255 11.4453 -1.5097 0.9501
-6.0423 11.4487 -1.5377 0.9492
-7.7256 11.4597 -1.6417 0.9459
-8.3412 11.4638 -1.6841 0.9445
-10.8650 11.1508 -1.8494 0.9392
-11.2577 10.7542 -1.8494 0.9392
-12.3470 9.4837 -1.8494 0.9392
-13.5396 8.2535 -1.8836 0.9381
-14.9791 7.7172 -2.0016 0.9344
-15.2461 7.1753 -2.0016 0.9344
-15.7209 6.0647 -2.0016 0.9344
-16.1150 4.9229 -2.0016 0.9344
-16.5503 3.1647 -2.0016 0.9344
-16.6531 2.5694 -2.0016 0.9344
-16.7345 1.9709 -2.0016 0.9344
-16.7944 1.3698 -2.0016 0.9344
-16.8493 0.1632 -2.0016 0.9344
-16.8444 -0.4408 -2.0016 0.9344
-16.8178 -1.0443 -2.0016 0.9344
-16.6997 -2.2464 -2.0016 0.9344
-16.6085 -2.8435 -2.0016 0.9344
-16.0317 -5.1878 -2.0016 0.9344
-15.6188 -6.3230 -2.0016 0.9344
-14.8499 -7.9630 -2.0016 0.9344
-14.2413 -9.0064 -2.0016 0.9344
8.6741 -11.1497 -2.0016 0.9445
9.4505 -10.4997 -2.0016 0.9445
10.1784 -9.7957 -2.0016 0.9445
10.5230 -9.4246 -2.0016 0.9445
10.8540 -9.0413 -2.0016 0.9445
11.1711 -8.6465 -2.0016 0.9445
11.4738 -8.2405 -2.0016 0.9445
11.7618 -7.8240 -2.0016 0.9445
12.2921 -6.9613 -2.0016 0.9445
12.5337 -6.5163 -2.0016 0.9445
12.9683 -5.6016 -2.0016 0.9445
13.1608 -5.1332 -2.0016 0.9445
13.3363 -4.6582 -2.0016 0.9445
13.4947 -4.1772 -2.0016 0.9445
13.7592 -3.1998 -2.0016 0.9445
13.9531 -2.2058 -2.0016 0.9445
14.0232 -1.7043 -2.0016 0.9445
14.1024 0.8232 -2.0016 0.9445
14.0638 1.3281 -2.0016 0.9445
13.8400 2.8301 -2.0016 0.9445
13.6017 3.8143 -2.0016 0.9445
13.1137 5.2523 -2.0016 0.9445
12.9170 5.7189 -2.0016 0.9445
12.2285 7.0724 -2.0016 0.9445
11.6904 7.9303 -2.0016 0.9445
11.3987 8.3442 -2.0016 0.9445
11.0923 8.7474 -2.0016 0.9445
10.7716 9.1393 -2.0016 0.9445
10.4371 9.5195 -2.0016 0.9445
8.1647 11.5279 -2.0016 0.9445
7.7463 11.8131 -2.0016 0.9445
6.3812 11.4430 -1.8564 0.9484
5.5240 11.8257 -1.8494 0.9486
4.6626 12.1910 -1.8494 0.9486
4.2227 12.3503 -1.8494 0.9486
3.3271 12.6211 -1.8494 0.9486
2.8726 12.7322 -1.8494 0.9486
2.4131 12.8204 -1.8484 0.9487
1.9055 12.5914 -1.8044 0.9499
0.9568 12.1634 -1.7288 0.9519
0.0800 11.7680 -1.6674 0.9536
-0.3365 11.5801 -1.6415 0.9543
-2.8469 11.4278 -1.6687 0.9535
-4.1967 11.4366 -1.7261 0.9520
-4.6696 11.4397 -1.7507 0.9513
-7.0082 11.0112 -1.8494 0.9486
-7.7790 10.4808 -1.8494 0.9486
-8.5098 9.8967 -1.8494 0.9486
-9.1969 9.2616 -1.8494 0.9486
-9.5230 8.9260 -1.8494 0.9486
-11.8640 7.6682 -2.0016 0.9445
-12.1312 7.2381 -2.0016 0.9445
-12.6185 6.3504 -2.0016 0.9445
-12.8380 5.8941 -2.0016 0.9445
-13.2273 4.9592 -2.0016 0.9445
-13.3965 4.4820 -2.0016 0.9445
-13.6832 3.5107 -2.0016 0.9445
-13.8002 3.0181 -2.0016 0.9445
-13.8995 2.5215 -2.0016 0.9445
-13.9810 2.0217 -2.0016 0.9445
-14.0899 1.0149 -2.0016 0.9445
-14.1172 0.5092 -2.0016 0.9445
-14.1174 -0.5034 -2.0016 0.9445
-13.9006 -2.5157 -2.0016 0.9445
-12.8221 -2.7986 -1.8595 0.9484
-12.4306 -4.1531 -1.8570 0.9484
-12.2737 -4.5959 -1.8570 0.9484
-12.6212 -6.3452 -2.0016 0.9445
-12.1342 -7.2331 -2.0016 0.9445
-11.5848 -8.0837 -2.0016 0.9445
-10.9760 -8.8929 -2.0016 0.9445
-10.6502 -9.2806 -2.0016 0.9445
-10.3107 -9.6563 -2.0016 0.9445
-9.9580 -10.0197 -2.0016 0.9445
-8.8249 -11.0307 -2.0016 0.9445
-8.4239 -11.3399 -2.0016 0.9445
-6.7168 -12.4274 -2.0016 0.9445
-6.2671 -12.6601 -2.0016 0.9445
-4.3935 -13.4258 -2.0016 0.9445
-3.9095 -13.5746 -2.0016 0.9445
-3.4205 -13.7060 -2.0016 0.9445
-1.4266 -14.0542 -2.0016 0.9445
-0.9220 -14.0963 -2.0016 0.9445
0.0902 -14.1261 -2.0016 0.9445
0.5965 -14.1138 -2.0016 0.9445
1.1019 -14.0834 -2.0016 0.9445
1.6060 -14.0348 -2.0016 0.9445
2.1080 -13.9682 -2.0016 0.9445
3.1033 -13.7813 -2.0016 0.9445
4.0826 -13.5236 -2.0016 0.9445
4.5647 -13.3686 -2.0016 0.9445
5.0409 -13.1964 -2.0016 0.9445
5.5106 -13.0072 -2.0016 0.9445
2.3451 -4.2094 -0.6827 0.9807
7.3129 -12.0862 -2.0016 0.9445
7.7414 -11.8163 -2.0016 0.9445
8.1600 -11.5313 -2.0016 0.9445
9.3506 -10.5888 -2.0016 0.9445
9.7241 -10.2468 -2.0016 0.9445
10.7678 -9.1438 -2.0016 0.9445
11.0886 -8.7520 -2.0016 0.9445
11.3952 -8.3489 -2.0016 0.9445
11.6871 -7.9351 -2.0016 0.9445
12.2256 -7.0775 -2.0016 0.9445
13.2915 -4.7844 -2.0016 0.9445
13.6001 -3.8199 -2.0016 0.9445
13.7283 -3.3300 -2.0016 0.9445
13.9316 -2.3380 -2.0016 0.9445
14.0633 -1.3339 -2.0016 0.9445
14.1021 -0.8290 -2.0016 0.9445
14.1227 -0.3230 -2.0016 0.9445
14.1096 0.6895 -2.0016 0.9445
14.0758 1.1948 -2.0016 0.9445
13.9540 2.2001 -2.0016 0.9445
13.8662 2.6988 -2.0016 0.9445
13.7606 3.1941 -2.0016 0.9445
13.6372 3.6852 -2.0016 0.9445
13.4964 4.1716 -2.0016 0.9445
13.3382 4.6527 -2.0016 0.9445
13.1629 5.1278 -2.0016 0.9445
12.9706 5.5963 -2.0016 0.9445
12.7617 6.0576 -2.0016 0.9445
12.2950 6.9562 -2.0016 0.9445
12.0377 7.3924 -2.0016 0.9445
11.7650 7.8191 -2.0016 0.9445
11.1747 8.6419 -2.0016 0.9445
10.8577 9.0369 -2.0016 0.9445
10.5269 9.4202 -2.0016 0.9445
10.1825 9.7914 -2.0016 0.9445
9.8250 10.1501 -2.0016 0.9445
9.0726 10.8279 -2.0016 0.9445
8.6787 11.1461 -2.0016 0.9445
7.4279 12.0065 -2.0004 0.9446
6.4647 11.3388 -1.8494 0.9486
6.0541 11.5632 -1.8494 0.9486
5.2102 11.9672 -1.8494 0.9486
4.3395 12.3097 -1.8494 0.9486
3.4465 12.5890 -1.8494 0.9486
2.9931 12.7044 -1.8494 0.9486
2.0374 12.6509 -1.8156 0.9495
1.5470 12.4297 -1.7747 0.9507
0.1924 11.8187 -1.6748 0.9534
-0.2277 11.6292 -1.6480 0.9541
-1.1163 8.7339 -1.2476 0.9651
-1.8780 11.4214 -1.6400 0.9543
-3.1697 11.4299 -1.6806 0.9532
-3.6165 11.4328 -1.6990 0.9527
-5.0265 11.4420 -1.7708 0.9508
-5.5255 11.4453 -1.8008 0.9500
-6.5020 11.3174 -1.8494 0.9486
-6.9035 11.0771 -1.8494 0.9486
-7.2961 10.8226 -1.8494 0.9486
-8.0526 10.2721 -1.8494 0.9486
-8.7678 9.6688 -1.8494 0.9486
-9.1087 9.3484 -1.8494 0.9486
-9.4379 9.0159 -1.8494 0.9486
-11.4665 8.1710 -1.9950 0.9447
-11.7908 7.7803 -2.0016 0.9445
-12.3178 6.9157 -2.0016 0.9445
-12.9890 5.5535 -2.0016 0.9445
-13.1797 5.0844 -2.0016 0.9445
-13.3535 4.6087 -2.0016 0.9445
-14.0294 1.6523 -2.0016 0.9445
-14.0796 1.1484 -2.0016 0.9445
-14.1118 0.6430 -2.0016 0.9445
-14.1257 0.1368 -2.0016 0.9445
-14.0992 -0.8755 -2.0016 0.9445
-14.0588 -1.3803 -2.0016 0.9445
-14.0003 -1.8833 -2.0016 0.9445
-13.9238 -2.3839 -2.0016 0.9445
-12.7264 -3.1314 -1.8570 0.9484
-12.1483 -4.9180 -1.8570 0.9484
-11.9642 -5.3502 -1.8570 0.9484
-12.4495 -6.6758 -2.0016 0.9445
-11.9392 -7.5505 -2.0016 0.9445
7.4604 -9.5897 -2.0016 0.9519
8.4467 -8.7334 -2.0016 0.9519
9.0506 -8.1059 -2.0016 0.9519
10.3508 -6.3624 -2.0016 0.9519
10.7800 -5.6045 -2.0016 0.9519
11.1538 -4.8179 -2.0016 0.9519
11.3193 -4.4150 -2.0016 0.9519
11.4703 -4.0064 -2.0016 0.9519
11.6065 -3.5928 -2.0016 0.9519
11.7278 -3.1744 -2.0016 0.9519
11.8341 -2.7521 -2.0016 0.9519
11.9251 -2.3261 -2.0016 0.9519
12.1488 -0.1627 -2.0016 0.9519
12.0473 1.5751 -2.0016 0.9519
11.9036 2.4341 -2.0016 0.9519
11.5735 3.6978 -2.0016 0.9519
10.7288 5.7020 -2.0016 0.9519
10.5175 6.0829 -2.0016 0.9519
9.8038 7.1767 -2.0016 0.9519
9.5403 7.5235 -2.0016 0.9519
8.9768 8.1876 -2.0016 0.9519
8.6776 8.5041 -2.0016 0.9519
8.0461 9.1039 -2.0016 0.9519
7.3732 9.6569 -2.0016 0.9519
6.2926 10.3902 -2.0011 0.9519
5.8954 10.5720 -1.9941 0.9521
4.7511 10.1710 -1.8494 0.9555
4.0102 10.4853 -1.8494 0.9555
3.6318 10.6223 -1.8494 0.9555
1.6798 11.0996 -1.8494 0.9555
1.2809 11.1527 -1.8494 0.9555
0.8803 11.1914 -1.8494 0.9555
0.4786 11.2158 -1.8494 0.9555
0.0763 11.2257 -1.8494 0.9555
-0.3261 11.2213 -1.8494 0.9555
-1.1291 11.1691 -1.8494 0.9555
-1.1995 8.7262 -1.4511 0.9649
-2.3215 10.9833 -1.8494 0.9555
-2.7137 10.8931 -1.8494 0.9555
-3.1023 10.7888 -1.8494 0.9555
-3.4870 10.6707 -1.8494 0.9555
-3.8673 10.5388 -1.8494 0.9555
-4.2425 10.3935 -1.8494 0.9555
-4.9762 10.0628 -1.8494 0.9555
-5.3337 9.8780 -1.8494 0.9555
-5.6843 9.6805 -1.8494 0.9555
-7.0094 8.7688 -1.8494 0.9555
-8.7856 8.2349 -1.9837 0.9524
-9.1420 7.9730 -1.9983 0.9520
-9.4371 7.6525 -2.0016 0.9519
-9.7053 7.3094 -2.0016 0.9519
-11.0418 5.0694 -2.0016 0.9519
-11.2164 4.6704 -2.0016 0.9519
-11.3766 4.2654 -2.0016 0.9519
-11.5221 3.8549 -2.0016 0.9519
-11.6529 3.4394 -2.0016 0.9519
-11.7687 3.0195 -2.0016 0.9519
-12.0794 1.3067 -2.0016 0.9519
-12.1499 0.0025 -2.0016 0.9519
-12.1188 -0.8679 -2.0016 0.9519
-12.0255 -1.7338 -2.0016 0.9519
-11.9556 -2.1637 -2.0016 0.9519
-10.9197 -2.7969 -1.8570 0.9553
-10.6913 -3.5720 -1.8570 0.9553
-10.4080 -4.3287 -1.8570 0.9553
-10.2461 -4.6990 -1.8570 0.9553
-10.0711 -5.0632 -1.8570 0.9553
-9.8832 -5.4209 -1.8570 0.9553
-9.9639 -6.9527 -2.0016 0.9519
-9.7083 -7.3053 -2.0016 0.9519
-9.4402 -7.6486 -2.0016 0.9519
-8.8681 -8.3052 -2.0016 0.9519
-7.5901 -9.4873 -2.0016 0.9519
-7.2452 -9.7533 -2.0016 0.9519
-4.9965 -11.0750 -2.0016 0.9519
-4.1903 -11.4044 -2.0016 0.9519
-3.7788 -11.5473 -2.0016 0.9519
-3.3625 -11.6753 -2.0016 0.9519
-2.5175 -11.8862 -2.0016 0.9519
-1.6595 -12.0360 -2.0016 0.9519
-1.2270 -12.0878 -2.0016 0.9519
-0.7930 -12.1240 -2.0016 0.9519
0.9478 -12.1128 -2.0016 0.9519
1.3813 -12.0711 -2.0016 0.9519
2.2425 -11.9411 -2.0016 0.9519
2.6691 -11.8531 -2.0016 0.9519
3.0922 -11.7498 -2.0016 0.9519
2.3450 -4.2093 -0.7938 0.9807
6.6582 -10.1630 -2.0016 0.9519
8.3635 -8.8131 -2.0016 0.9519
8.9734 -8.1913 -2.0016 0.9519
9.2612 -7.8644 -2.0016 0.9519
9.8008 -7.1808 -2.0016 0.9519
10.2901 -6.4602 -2.0016 0.9519
10.5150 -6.0872 -2.0016 0.9519
10.7264 -5.7064 -2.0016 0.9519
10.9241 -5.3183 -2.0016 0.9519
11.8075 -2.8641 -2.0016 0.9519
11.9823 -2.0109 -2.0016 0.9519
12.0467 -1.5801 -2.0016 0.9519
12.0956 -1.1473 -2.0016 0.9519
12.1289 -0.7130 -2.0016 0.9519
12.1467 -0.2778 -2.0016 0.9519
12.1354 0.5930 -2.0016 0.9519
11.9261 2.3212 -2.0016 0.9519
11.8352 2.7472 -2.0016 0.9519
11.7292 3.1696 -2.0016 0.9519
11.6080 3.5879 -2.0016 0.9519
11.3212 4.4103 -2.0016 0.9519
11.1558 4.8132 -2.0016 0.9519
10.9761 5.2100 -2.0016 0.9519
10.7823 5.6001 -2.0016 0.9519
10.5747 5.9829 -2.0016 0.9519
10.3534 6.3581 -2.0016 0.9519
10.1189 6.7251 -2.0016 0.9519
9.3386 7.7724 -2.0016 0.9519
8.7578 8.4215 -2.0016 0.9519
8.1320 9.0272 -2.0016 0.9519
7.8032 9.3129 -2.0016 0.9519
7.1160 9.8480 -2.0016 0.9519
6.7584 10.0967 -2.0016 0.9519
6.3922 10.3324 -2.0016 0.9519
4.1094 10.4468 -1.8494 0.9555
3.7324 10.5874 -1.8494 0.9555
3.3505 10.7143 -1.8494 0.9555
2.9643 10.8275 -1.8494 0.9555
0.9863 11.1826 -1.8494 0.9555
0.5849 11.2107 -1.8494 0.9555
0.1827 11.2245 -1.8494 0.9555
-0.6219 11.2088 -1.8494 0.9555
-1.1131 8.7087 -1.4463 0.9650
-3.0000 10.8177 -1.8494 0.9555
-3.7672 10.5750 -1.8494 0.9555
-4.1438 10.4332 -1.8494 0.9555
-4.8806 10.1095 -1.8494 0.9555
-5.5923 9.7339 -1.8494 0.9555
-6.2752 9.3083 -1.8494 0.9555
-6.9259 8.8348 -1.8494 0.9555
-8.0393 8.2508 -1.8978 0.9544
-9.8947 7.0509 -2.0016 0.9519
-10.1410 6.6917 -2.0016 0.9519
-10.3743 6.3240 -2.0016 0.9519
-10.5943 5.9481 -2.0016 0.9519
-10.8007 5.5645 -2.0016 0.9519
-11.3356 4.3730 -2.0016 0.9519
-11.4851 3.9639 -2.0016 0.9519
-11.6198 3.5497 -2.0016 0.9519
-11.7395 3.1309 -2.0016 0.9519
-12.0078 1.8527 -2.0016 0.9519
-12.0665 1.4211 -2.0016 0.9519
-12.1097 0.9877 -2.0016 0.9519
-12.1373 0.5531 -2.0016 0.9519
-11.9756 -2.0503 -2.0016 0.9519
-10.8422 -3.0839 -1.8570 0.9553
-10.7247 -3.4705 -1.8570 0.9553
-10.5934 -3.8527 -1.8570 0.9553
-10.4485 -4.2299 -1.8570 0.9553
-10.2902 -4.6017 -1.8570 0.9553
-9.7368 -5.6796 -1.8570 0.9553
-10.2687 -6.4941 -2.0016 0.9519
6.8358 -8.1651 -2.0016 0.9576
7.1240 -7.9149 -2.0016 0.9576
7.4031 -7.6545 -2.0016 0.9576
7.9325 -7.1045 -2.0016 0.9576
8.1820 -6.8156 -2.0016 0.9576
8.4210 -6.5179 -2.0016 0.9576
8.6492 -6.2119 -2.0016 0.9576
8.8663 -5.8979 -2.0016 0.9576
9.0720 -5.5763 -2.0016 0.9576
9.2661 -5.2476 -2.0016 0.9576
9.4482 -4.9121 -2.0016 0.9576
9.6182 -4.5703 -2.0016 0.9576
10.0532 -3.5115 -2.0016 0.9576
10.2789 -2.7823 -2.0016 0.9576
10.3720 -2.4121 -2.0016 0.9576
10.5710 -1.2848 -2.0016 0.9576
10.6103 -0.9050 -2.0016 0.9576
10.6479 -0.1426 -2.0016 0.9576
10.6307 0.6205 -2.0016 0.9576
10.6017 1.0012 -2.0016 0.9576
10.5590 1.3805 -2.0016 0.9576
10.5027 1.7581 -2.0016 0.9576
10.3498 2.5060 -2.0016 0.9576
10.1436 3.2410 -2.0016 0.9576
10.0210 3.6024 -2.0016 0.9576
9.7371 4.3111 -2.0016 0.9576
9.4033 4.9975 -2.0016 0.9576
9.2181 5.3314 -2.0016 0.9576
9.0211 5.6583 -2.0016 0.9576
8.3616 6.5940 -2.0016 0.9576
7.8677 7.1761 -2.0016 0.9576
7.6055 7.4534 -2.0016 0.9576
7.3335 7.7212 -2.0016 0.9576
7.0520 7.9791 -2.0016 0.9576
6.7615 8.2268 -2.0016 0.9576
5.5164 9.1086 -2.0016 0.9576
4.8382 9.4578 -1.9968 0.9577
4.3765 9.3692 -1.9437 0.9588
3.8559 9.0909 -1.8561 0.9606
3.5148 9.1899 -1.8494 0.9607
2.8474 9.4180 -1.8494 0.9607
1.4723 9.7283 -1.8494 0.9607
1.1226 9.7748 -1.8494 0.9607
0.4195 9.8301 -1.8494 0.9607
-0.9896 9.7892 -1.8494 0.9607
-2.3784 9.5473 -1.8494 0.9607
-4.0425 8.9703 -1.8494 0.9607
-4.3614 8.8196 -1.8494 0.9607
-4.6747 8.6576 -1.8494 0.9607
-4.9820 8.4845 -1.8494 0.9607
-5.2829 8.3005 -1.8494 0.9607
-5.6787 8.2535 -1.8831 0.9600
-7.2257 7.8180 -2.0010 0.9576
-7.5034 7.5562 -2.0016 0.9576
-7.7694 7.2824 -2.0016 0.9576
-8.2712 6.7071 -2.0016 0.9576
-8.7304 6.0973 -2.0016 0.9576
-9.3345 5.1250 -2.0016 0.9576
-9.5121 4.7871 -2.0016 0.9576
-10.3147 2.6465 -2.0016 0.9576
-10.4778 1.9008 -2.0016 0.9576
-10.5392 1.5240 -2.0016 0.9576
