ply
format ascii 1.0
element vertex 1587
property float32 x
property float32 y
property float32 z
property float32 I
end_header
-1.8628 11.4213 -1.6397 0.9543
-2.2871 11.4241 -1.6508 0.9540
-2.7179 11.4269 -1.6642 0.9537
-3.1562 11.4298 -1.6801 0.9532
-5.0153 11.4420 -1.7701 0.9508
-7.2909 10.8260 -1.8494 0.9486
-7.6750 10.5572 -1.8494 0.9486
-8.0492 10.2748 -1.8494 0.9486
-8.4130 9.9791 -1.8494 0.9486
-9.1075 9.3495 -1.8494 0.9486
-10.0602 8.3158 -1.8494 0.9486
-12.3207 6.9105 -2.0016 0.9445
-12.5609 6.4636 -2.0016 0.9445
-12.9925 5.5454 -2.0016 0.9445
-13.1832 5.0752 -2.0016 0.9445
-13.5135 4.1159 -2.0016 0.9445
-13.6526 3.6280 -2.0016 0.9445
-13.8778 2.6387 -2.0016 0.9445
-14.0314 1.6358 -2.0016 0.9445
-14.1126 0.6245 -2.0016 0.9445
-14.1259 0.1173 -2.0016 0.9445
-13.9972 -1.9065 -2.0016 0.9445
-13.9197 -2.4079 -2.0016 0.9445
-12.4613 -4.0600 -1.8570 0.9484
-12.3075 -4.5049 -1.8570 0.9484
-12.1377 -4.9439 -1.8570 0.9484
-11.9524 -5.3766 -1.8570 0.9484
-12.1850 -7.1472 -2.0016 0.9445
-11.3456 -8.4162 -2.0016 0.9445
-10.0237 -9.9539 -2.0016 0.9445
-9.6598 -10.3074 -2.0016 0.9445
-8.8951 -10.9742 -2.0016 0.9445
-8.4952 -11.2865 -2.0016 0.9445
-8.0845 -11.5843 -2.0016 0.9445
-7.6632 -11.8672 -2.0016 0.9445
-5.4202 -13.0452 -2.0016 0.9445
-4.4699 -13.4006 -2.0016 0.9445
-3.4965 -13.6868 -2.0016 0.9445
-3.0028 -13.8036 -2.0016 0.9445
-2.5051 -13.9025 -2.0016 0.9445
-2.0043 -13.9835 -2.0016 0.9445
-1.5008 -14.0464 -2.0016 0.9445
0.0186 -14.1264 -2.0016 0.9445
1.0324 -14.0886 -2.0016 0.9445
2.0410 -13.9782 -2.0016 0.9445
2.5416 -13.8959 -2.0016 0.9445
3.0390 -13.7956 -2.0016 0.9445
4.5051 -13.3888 -2.0016 0.9445
5.4544 -13.0309 -2.0016 0.9445
6.3756 -12.6058 -2.0016 0.9445
2.3117 -4.1900 -0.6781 0.9809
7.2640 -12.1157 -2.0016 0.9445
7.6944 -11.8470 -2.0016 0.9445
8.5249 -11.2642 -2.0016 0.9445
8.9239 -10.9508 -2.0016 0.9445
9.3114 -10.6233 -2.0016 0.9445
10.3999 -9.5602 -2.0016 0.9445
11.3677 -8.3863 -2.0016 0.9445
11.9403 -7.5488 -2.0016 0.9445
12.2037 -7.1151 -2.0016 0.9445
12.4513 -6.6723 -2.0016 0.9445
12.6829 -6.2208 -2.0016 0.9445
12.8981 -5.7614 -2.0016 0.9445
13.2784 -4.8207 -2.0016 0.9445
13.4429 -4.3408 -2.0016 0.9445
13.5902 -3.8553 -2.0016 0.9445
14.0602 -1.3656 -2.0016 0.9445
14.1002 -0.8599 -2.0016 0.9445
14.1109 0.6616 -2.0016 0.9445
14.0270 1.6727 -2.0016 0.9445
13.9579 2.1753 -2.0016 0.9445
13.3448 4.6336 -2.0016 0.9445
13.1698 5.1098 -2.0016 0.9445
12.9778 5.5795 -2.0016 0.9445
12.7691 6.0419 -2.0016 0.9445
12.5439 6.4966 -2.0016 0.9445
12.3025 6.9429 -2.0016 0.9445
12.0453 7.3802 -2.0016 0.9445
10.8645 9.0288 -2.0016 0.9445
10.1884 9.7853 -2.0016 0.9445
9.8304 10.1449 -2.0016 0.9445
8.6824 11.1432 -2.0016 0.9445
7.4295 12.0058 -2.0005 0.9446
6.4653 11.3384 -1.8494 0.9486
5.6348 11.7732 -1.8494 0.9486
2.9868 12.7059 -1.8494 0.9486
2.5286 12.8049 -1.8494 0.9486
2.0285 12.6469 -1.8148 0.9496
1.0678 12.2135 -1.7371 0.9517
0.1816 11.8138 -1.6741 0.9534
-0.2389 11.6241 -1.6474 0.9541
-0.6452 11.4133 -1.6197 0.9549
-1.0577 11.4160 -1.6245 0.9547
-1.1265 8.7321 -1.2475 0.9651
-2.3175 11.4243 -1.6517 0.9540
-2.7487 11.4271 -1.6653 0.9536
-3.6358 11.4329 -1.6999 0.9527
-6.0698 11.4489 -1.8361 0.9490
-6.9257 11.0632 -1.8494 0.9486
-7.3185 10.8074 -1.8494 0.9486
-8.0753 10.2542 -1.8494 0.9486
-8.4384 9.9576 -1.8494 0.9486
-8.7905 9.6482 -1.8494 0.9486
-9.1313 9.3263 -1.8494 0.9486
-9.4603 8.9924 -1.8494 0.9486
-10.7955 8.2458 -1.9248 0.9466
-11.8127 7.7469 -2.0016 0.9445
-12.0833 7.3177 -2.0016 0.9445
-12.3383 6.8791 -2.0016 0.9445
-12.5774 6.4316 -2.0016 0.9445
-13.0066 5.5122 -2.0016 0.9445
-13.1961 5.0416 -2.0016 0.9445
-13.5239 4.0815 -2.0016 0.9445
-13.6618 3.5932 -2.0016 0.9445
-13.8844 2.6033 -2.0016 0.9445
-13.9690 2.1030 -2.0016 0.9445
-14.0355 1.6000 -2.0016 0.9445
-14.1262 0.0813 -2.0016 0.9445
-13.9923 -1.9421 -2.0016 0.9445
-12.8187 -2.7290 -1.8570 0.9484
-12.7125 -3.1875 -1.8570 0.9484
-9.2336 -7.8968 -2.0016 0.9519
-8.9441 -8.2233 -2.0016 0.9519
-8.6430 -8.5392 -2.0016 0.9519
-8.0078 -9.1375 -2.0016 0.9519
-6.9787 -9.9457 -2.0016 0.9519
-6.2468 -10.4210 -2.0016 0.9519
-5.8686 -10.6386 -2.0016 0.9519
-5.0898 -11.0324 -2.0016 0.9519
-4.6904 -11.2080 -2.0016 0.9519
-4.2849 -11.3692 -2.0016 0.9519
-3.8738 -11.5158 -2.0016 0.9519
-2.6129 -11.8656 -2.0016 0.9519
-2.1851 -11.9518 -2.0016 0.9519
-0.4513 -12.1415 -2.0016 0.9519
-0.0150 -12.1499 -2.0016 0.9519
0.8571 -12.1196 -2.0016 0.9519
1.7248 -12.0268 -2.0016 0.9519
3.4290 -11.6560 -2.0016 0.9519
3.8454 -11.5253 -2.0016 0.9519
4.6627 -11.2196 -2.0016 0.9519
5.0626 -11.0449 -2.0016 0.9519
5.4559 -10.8560 -2.0016 0.9519
2.2961 -4.1868 -0.7866 0.9808
6.2211 -10.4364 -2.0016 0.9519
6.5918 -10.2062 -2.0016 0.9519
6.9541 -9.9629 -2.0016 0.9519
7.3074 -9.7068 -2.0016 0.9519
7.6512 -9.4381 -2.0016 0.9519
7.9852 -9.1573 -2.0016 0.9519
8.6219 -8.5605 -2.0016 0.9519
8.9237 -8.2454 -2.0016 0.9519
9.2141 -7.9196 -2.0016 0.9519
9.4926 -7.5836 -2.0016 0.9519
11.2526 -4.5824 -2.0016 0.9519
11.4099 -4.1753 -2.0016 0.9519
11.8902 -2.4986 -2.0016 0.9519
12.1453 -0.3345 -2.0016 0.9519
12.1380 0.5381 -2.0016 0.9519
12.1108 0.9736 -2.0016 0.9519
12.0097 1.8403 -2.0016 0.9519
11.6224 3.5409 -2.0016 0.9519
11.4878 3.9560 -2.0016 0.9519
11.3383 4.3660 -2.0016 0.9519
11.1742 4.7704 -2.0016 0.9519
10.3761 6.3211 -2.0016 0.9519
9.6361 7.4004 -2.0016 0.9519
8.7843 8.3938 -2.0016 0.9519
8.1592 9.0026 -2.0016 0.9519
7.1436 9.8279 -2.0016 0.9519
6.0298 10.5123 -1.9965 0.9521
4.8722 10.1136 -1.8494 0.9555
4.1338 10.4372 -1.8494 0.9555
3.3740 10.7070 -1.8494 0.9555
2.9873 10.8212 -1.8494 0.9555
2.2029 11.0077 -1.8494 0.9555
1.4071 11.1375 -1.8494 0.9555
0.6041 11.2097 -1.8494 0.9555
0.2012 11.2242 -1.8494 0.9555
-0.2020 11.2242 -1.8494 0.9555
-0.6050 11.2097 -1.8494 0.9555
-1.0071 11.1807 -1.8494 0.9555
-1.8070 11.0796 -1.8494 0.9555
-2.2037 11.0076 -1.8494 0.9555
-2.9881 10.8210 -1.8494 0.9555
-3.3748 10.7067 -1.8494 0.9555
-4.1346 10.4369 -1.8494 0.9555
-4.5067 10.2817 -1.8494 0.9555
-5.5863 9.7373 -1.8494 0.9555
-6.2708 9.3113 -1.8494 0.9555
-7.5394 8.3175 -1.8494 0.9555
-8.6231 8.2384 -1.9647 0.9528
-9.0599 8.0537 -1.9970 0.9520
-10.1429 6.6889 -2.0016 0.9519
-10.5968 5.9436 -2.0016 0.9519
-10.8034 5.5592 -2.0016 0.9519
-11.1746 4.7695 -2.0016 0.9519
-11.3387 4.3651 -2.0016 0.9519
-11.4881 3.9551 -2.0016 0.9519
-11.6227 3.5400 -2.0016 0.9519
-11.7424 3.1204 -2.0016 0.9519
-11.8468 2.6967 -2.0016 0.9519
-12.1380 0.5371 -2.0016 0.9519
-12.1254 -0.7714 -2.0016 0.9519
-12.0387 -1.6397 -2.0016 0.9519
-11.0311 -2.3190 -1.8570 0.9553
-10.8362 -3.1048 -1.8570 0.9553
-10.4395 -4.2522 -1.8570 0.9553
-10.2800 -4.6243 -1.8570 0.9553
-9.9216 -5.3503 -1.8570 0.9553
-10.4801 -6.1471 -2.0016 0.9519
-10.2526 -6.5195 -2.0016 0.9519
-9.4920 -7.5843 -2.0016 0.9519
-8.3082 -8.8653 -2.0016 0.9519
-6.5910 -10.2068 -2.0016 0.9519
-5.0617 -11.0453 -2.0016 0.9519
-3.4281 -11.6562 -2.0016 0.9519
-3.0073 -11.7718 -2.0016 0.9519
-2.1546 -11.9573 -2.0016 0.9519
-1.7238 -12.0270 -2.0016 0.9519
-1.2908 -12.0811 -2.0016 0.9519
-0.8561 -12.1197 -2.0016 0.9519
-0.4204 -12.1426 -2.0016 0.9519
0.0160 -12.1499 -2.0016 0.9519
0.4523 -12.1415 -2.0016 0.9519
0.8880 -12.1174 -2.0016 0.9519
1.3225 -12.0777 -2.0016 0.9519
2.1860 -11.9516 -2.0016 0.9519
2.6138 -11.8654 -2.0016 0.9519
3.8747 -11.5155 -2.0016 0.9519
5.0907 -11.0320 -2.0016 0.9519
5.4836 -10.8420 -2.0016 0.9519
2.3117 -4.1899 -0.7883 0.9808
6.2476 -10.4205 -2.0016 0.9519
6.6178 -10.1894 -2.0016 0.9519
7.3321 -9.6881 -2.0016 0.9519
8.3315 -8.8434 -2.0016 0.9519
8.6437 -8.5385 -2.0016 0.9519
10.0299 -6.8572 -2.0016 0.9519
10.2697 -6.4926 -2.0016 0.9519
10.9084 -5.3504 -2.0016 0.9519
11.5620 -3.7334 -2.0016 0.9519
11.6887 -3.3158 -2.0016 0.9519
11.8965 -2.4683 -2.0016 0.9519
12.1273 -0.7395 -2.0016 0.9519
12.1491 0.1328 -2.0016 0.9519
12.1365 0.5690 -2.0016 0.9519
12.1083 1.0045 -2.0016 0.9519
12.0644 1.4386 -2.0016 0.9519
11.7341 3.1512 -2.0016 0.9519
11.4777 3.9853 -2.0016 0.9519
11.1620 4.7988 -2.0016 0.9519
10.3599 6.3476 -2.0016 0.9519
10.1253 6.7155 -2.0016 0.9519
9.3443 7.7655 -2.0016 0.9519
8.7629 8.4162 -2.0016 0.9519
8.4550 8.7254 -2.0016 0.9519
8.1362 9.0234 -2.0016 0.9519
7.4675 9.5841 -2.0016 0.9519
6.7604 10.0954 -2.0016 0.9519
6.0015 10.5250 -1.9960 0.9521
5.2366 10.0021 -1.8599 0.9553
4.1071 10.4477 -1.8494 0.9555
3.7293 10.5884 -1.8494 0.9555
3.3467 10.7155 -1.8494 0.9555
2.9597 10.8288 -1.8494 0.9555
2.5689 10.9281 -1.8494 0.9555
2.1748 11.0133 -1.8494 0.9555
0.9778 11.1833 -1.8494 0.9555
0.1725 11.2247 -1.8494 0.9555
-0.6336 11.2081 -1.8494 0.9555
-1.0356 11.1781 -1.8494 0.9555
-3.7841 10.5690 -1.8494 0.9555
-4.8988 10.1007 -1.8494 0.9555
-5.2583 9.9183 -1.8494 0.9555
-5.6111 9.7231 -1.8494 0.9555
-6.6243 9.0632 -1.8494 0.9555
-6.9455 8.8195 -1.8494 0.9555
-7.5606 8.2982 -1.8494 0.9555
-8.0776 8.2500 -1.9021 0.9543
-8.6662 8.2375 -1.9697 0.9527
-9.3844 7.7170 -2.0016 0.9519
-9.9141 7.0235 -2.0016 0.9519
-10.1599 6.6630 -2.0016 0.9519
-10.6120 5.9166 -2.0016 0.9519
-11.0092 5.1396 -2.0016 0.9519
-11.1867 4.7410 -2.0016 0.9519
-11.4981 3.9258 -2.0016 0.9519
-12.0145 1.8088 -2.0016 0.9519
-12.1133 0.9418 -2.0016 0.9519
-12.1393 0.5062 -2.0016 0.9519
-12.1497 0.0699 -2.0016 0.9519
-12.0867 -1.2372 -2.0016 0.9519
-12.0345 -1.6704 -2.0016 0.9519
-11.0252 -2.3471 -1.8570 0.9553
-10.9338 -2.7415 -1.8570 0.9553
-8.5688 -6.3225 -2.0016 0.9576
-8.3362 -6.6261 -2.0016 0.9576
-8.0929 -6.9212 -2.0016 0.9576
-7.3016 -7.7514 -2.0016 0.9576
-7.0185 -8.0086 -2.0016 0.9576
-6.7264 -8.2555 -2.0016 0.9576
-6.4256 -8.4917 -2.0016 0.9576
-6.1165 -8.7170 -2.0016 0.9576
-5.1435 -9.3242 -2.0016 0.9576
-4.4610 -9.6694 -2.0016 0.9576
-3.3952 -10.0930 -2.0016 0.9576
-3.0306 -10.2085 -2.0016 0.9576
-1.9151 -10.4752 -2.0016 0.9576
-1.5377 -10.5372 -2.0016 0.9576
-0.7774 -10.6204 -2.0016 0.9576
-0.3956 -10.6415 -2.0016 0.9576
0.3693 -10.6424 -2.0016 0.9576
0.7512 -10.6223 -2.0016 0.9576
1.1322 -10.5885 -2.0016 0.9576
1.5117 -10.5410 -2.0016 0.9576
2.6366 -10.3173 -2.0016 0.9576
3.0054 -10.2159 -2.0016 0.9576
3.3703 -10.1014 -2.0016 0.9576
3.7309 -9.9739 -2.0016 0.9576
4.0866 -9.8335 -2.0016 0.9576
2.2961 -4.1868 -0.8975 0.9808
5.7774 -8.9453 -2.0016 0.9576
6.0949 -8.7321 -2.0016 0.9576
6.4046 -8.5076 -2.0016 0.9576
6.7060 -8.2721 -2.0016 0.9576
6.9987 -8.0259 -2.0016 0.9576
7.5567 -7.5029 -2.0016 0.9576
8.3198 -6.6467 -2.0016 0.9576
8.7754 -6.0324 -2.0016 0.9576
8.9864 -5.7134 -2.0016 0.9576
9.1857 -5.3870 -2.0016 0.9576
9.3733 -5.0536 -2.0016 0.9576
9.5487 -4.7138 -2.0016 0.9576
9.7118 -4.3678 -2.0016 0.9576
9.8624 -4.0162 -2.0016 0.9576
10.0003 -3.6595 -2.0016 0.9576
10.1252 -3.2980 -2.0016 0.9576
10.3358 -2.5628 -2.0016 0.9576
10.4931 -1.8143 -2.0016 0.9576
10.6274 -0.6753 -2.0016 0.9576
10.6384 0.4716 -2.0016 0.9576
10.5771 1.2339 -2.0016 0.9576
10.4612 1.9899 -2.0016 0.9576
10.3830 2.3643 -2.0016 0.9576
10.2914 2.7357 -2.0016 0.9576
9.9375 3.8266 -2.0016 0.9576
9.7937 4.1810 -2.0016 0.9576
9.2872 5.2100 -2.0016 0.9576
9.0942 5.5402 -2.0016 0.9576
8.4456 6.4861 -2.0016 0.9576
8.2072 6.7852 -2.0016 0.9576
7.6990 7.3568 -2.0016 0.9576
7.4299 7.6285 -2.0016 0.9576
7.1511 7.8904 -2.0016 0.9576
6.8632 8.1421 -2.0016 0.9576
6.5664 8.3833 -2.0016 0.9576
5.9477 8.8330 -2.0016 0.9576
4.9561 9.4078 -1.9987 0.9576
4.0178 9.1683 -1.8815 0.9601
3.2922 9.2719 -1.8494 0.9607
2.9571 9.3842 -1.8494 0.9607
2.6182 9.4843 -1.8494 0.9607
1.9307 9.6478 -1.8494 0.9607
1.5830 9.7109 -1.8494 0.9607
1.2333 9.7615 -1.8494 0.9607
0.8819 9.7995 -1.8494 0.9607
0.5295 9.8248 -1.8494 0.9607
0.1763 9.8375 -1.8494 0.9607
-0.1771 9.8375 -1.8494 0.9607
-1.5838 9.7108 -1.8494 0.9607
-1.9315 9.6476 -1.8494 0.9607
-2.2767 9.5720 -1.8494 0.9607
-2.6190 9.4841 -1.8494 0.9607
-3.6238 9.1474 -1.8494 0.9607
-5.1995 8.3530 -1.8494 0.9607
-5.5600 8.2558 -1.8709 0.9603
-5.9957 8.2473 -1.9165 0.9593
-6.8443 8.1185 -1.9959 0.9577
-7.4305 7.6279 -2.0016 0.9576
-8.2077 6.7846 -2.0016 0.9576
-8.4461 6.4854 -2.0016 0.9576
-8.8898 5.8625 -2.0016 0.9576
-9.0946 5.5395 -2.0016 0.9576
-9.2876 5.2093 -2.0016 0.9576
-9.4687 4.8724 -2.0016 0.9576
-9.6376 4.5293 -2.0016 0.9576
-10.2916 2.7349 -2.0016 0.9576
-10.5261 1.6122 -2.0016 0.9576
-10.5772 1.2331 -2.0016 0.9576
-10.6146 0.8525 -2.0016 0.9576
-10.6273 -0.6761 -2.0016 0.9576
-10.5514 -1.4371 -2.0016 0.9576
-8.8586 -4.3740 -1.8570 0.9606
-8.6958 -4.6893 -1.8570 0.9606
-8.3368 -5.3013 -1.8570 0.9606
-8.5526 -6.3443 -2.0016 0.9576
-8.3193 -6.6473 -2.0016 0.9576
-8.0752 -6.9418 -2.0016 0.9576
-7.5561 -7.5035 -2.0016 0.9576
-5.7767 -8.9458 -2.0016 0.9576
-5.4518 -9.1474 -2.0016 0.9576
-4.4363 -9.6807 -2.0016 0.9576
-4.0858 -9.8338 -2.0016 0.9576
-3.7301 -9.9742 -2.0016 0.9576
-3.3695 -10.1017 -2.0016 0.9576
-2.2635 -10.4055 -2.0016 0.9576
-1.8884 -10.4800 -2.0016 0.9576
-0.7504 -10.6224 -2.0016 0.9576
-0.3684 -10.6424 -2.0016 0.9576
0.3964 -10.6414 -2.0016 0.9576
1.5385 -10.5371 -2.0016 0.9576
1.9160 -10.4750 -2.0016 0.9576
2.2909 -10.3995 -2.0016 0.9576
3.7563 -9.9643 -2.0016 0.9576
4.4618 -9.6690 -2.0016 0.9576
4.8061 -9.5026 -2.0016 0.9576
2.3117 -4.1899 -0.8994 0.9807
5.4758 -9.1331 -2.0016 0.9576
6.1172 -8.7165 -2.0016 0.9576
6.7270 -8.2550 -2.0016 0.9576
7.3022 -7.7508 -2.0016 0.9576
7.5758 -7.4836 -2.0016 0.9576
8.0934 -6.9205 -2.0016 0.9576
8.3367 -6.6254 -2.0016 0.9576
8.5692 -6.3218 -2.0016 0.9576
8.7907 -6.0100 -2.0016 0.9576
9.1994 -5.3635 -2.0016 0.9576
9.8726 -3.9911 -2.0016 0.9576
10.1336 -3.2722 -2.0016 0.9576
10.4977 -1.7875 -2.0016 0.9576
10.5551 -1.4094 -2.0016 0.9576
10.5989 -1.0294 -2.0016 0.9576
10.6455 -0.2661 -2.0016 0.9576
10.6371 0.4987 -2.0016 0.9576
10.3770 2.3908 -2.0016 0.9576
10.2844 2.7619 -2.0016 0.9576
9.7830 4.2059 -2.0016 0.9576
9.6257 4.5546 -2.0016 0.9576
9.2739 5.2337 -2.0016 0.9576
8.8744 5.8858 -2.0016 0.9576
8.6573 6.2007 -2.0016 0.9576
8.4290 6.5076 -2.0016 0.9576
8.1899 6.8061 -2.0016 0.9576
7.6803 7.3764 -2.0016 0.9576
7.4104 7.6474 -2.0016 0.9576
7.1310 7.9086 -2.0016 0.9576
6.5450 8.4000 -2.0016 0.9576
5.9252 8.8481 -2.0016 0.9576
5.6036 9.0552 -2.0016 0.9576
4.9311 9.4186 -1.9983 0.9577
4.5236 9.4515 -1.9695 0.9582
3.9810 9.1477 -1.8752 0.9602
3.5997 9.1569 -1.8494 0.9607
3.2686 9.2803 -1.8494 0.9607
2.9332 9.3917 -1.8494 0.9607
2.5940 9.4910 -1.8494 0.9607
0.1512 9.8379 -1.8494 0.9607
-0.5553 9.8234 -1.8494 0.9607
-0.9077 9.7971 -1.8494 0.9607
-1.9561 9.6427 -1.8494 0.9607
-2.6431 9.4774 -1.8494 0.9607
-2.9818 9.3764 -1.8494 0.9607
-4.6087 8.6929 -1.8494 0.9607
-4.9179 8.5218 -1.8494 0.9607
-6.0275 8.2467 -1.9200 0.9593
-6.4870 8.2373 -1.9708 0.9582
-6.8660 8.1021 -1.9962 0.9577
-7.7183 7.3365 -2.0016 0.9576
-7.9768 7.0546 -2.0016 0.9576
-8.2250 6.7636 -2.0016 0.9576
-8.6892 6.1558 -2.0016 0.9576
-9.1087 5.5163 -2.0016 0.9576
-9.3009 5.1856 -2.0016 0.9576
-9.4811 4.8483 -2.0016 0.9576
-9.6491 4.5047 -2.0016 0.9576
-9.8046 4.1552 -2.0016 0.9576
-10.1947 3.0767 -2.0016 0.9576
-10.3892 2.3370 -2.0016 0.9576
-10.5302 1.5853 -2.0016 0.9576
-10.5803 1.2061 -2.0016 0.9576
-10.6440 -0.3212 -2.0016 0.9576
-10.6256 -0.7032 -2.0016 0.9576
-10.5935 -1.0843 -2.0016 0.9576
-10.5477 -1.4640 -2.0016 0.9576
-10.4883 -1.8419 -2.0016 0.9576
-10.4127 -2.2167 -2.0010 0.9576
-9.5830 -2.4028 -1.8570 0.9606
-7.0690 -5.2159 -1.8570 0.9647
-6.8772 -5.4664 -1.8570 0.9647
-6.9706 -6.4088 -2.0016 0.9620
-6.4926 -6.8926 -2.0016 0.9620
-5.9811 -7.3409 -2.0016 0.9620
-5.7137 -7.5509 -2.0016 0.9620
-4.5737 -8.2912 -2.0016 0.9620
-3.6554 -8.7350 -2.0016 0.9620
-3.3394 -8.8606 -2.0016 0.9620
-3.0191 -8.9748 -2.0016 0.9620
-2.6948 -9.0775 -2.0016 0.9620
-2.0363 -9.2475 -2.0016 0.9620
-1.7029 -9.3146 -2.0016 0.9620
-1.3674 -9.3698 -2.0016 0.9620
-0.3517 -9.4625 -2.0016 0.9620
-0.0117 -9.4690 -2.0016 0.9620
1.0067 -9.4153 -2.0016 0.9620
1.3442 -9.3731 -2.0016 0.9620
2.9969 -8.9823 -2.0016 0.9620
3.6339 -8.7440 -2.0016 0.9620
3.9455 -8.6079 -2.0016 0.9620
2.2960 -4.1867 -1.0093 0.9807
5.9630 -7.3556 -2.0016 0.9620
6.2233 -7.1367 -2.0016 0.9620
6.4756 -6.9086 -2.0016 0.9620
6.7195 -6.6716 -2.0016 0.9620
7.1810 -6.1721 -2.0016 0.9620
7.3980 -5.9103 -2.0016 0.9620
7.6055 -5.6408 -2.0016 0.9620
7.9908 -5.0804 -2.0016 0.9620
8.4908 -4.1915 -2.0016 0.9620
8.7697 -3.5713 -2.0016 0.9620
9.1030 -2.6074 -2.0016 0.9620
9.4223 -0.9394 -2.0016 0.9620
9.4654 -0.2607 -2.0016 0.9620
9.4687 0.0794 -2.0016 0.9620
9.4597 0.4193 -2.0016 0.9620
9.4052 1.0972 -2.0016 0.9620
9.1512 2.4326 -2.0016 0.9620
9.0580 2.7596 -2.0016 0.9620
8.9530 3.0831 -2.0016 0.9620
8.7086 3.7178 -2.0016 0.9620
8.2583 4.6328 -2.0016 0.9620
8.0866 4.9264 -2.0016 0.9620
7.5099 5.7675 -2.0016 0.9620
6.8460 6.5417 -2.0016 0.9620
6.6067 6.7833 -2.0016 0.9620
6.3589 7.0162 -2.0016 0.9620
5.2888 7.8544 -2.0016 0.9620
5.0033 8.0392 -2.0016 0.9620
4.7114 8.2137 -2.0016 0.9620
4.1097 8.5307 -2.0016 0.9620
1.7168 8.5789 -1.8494 0.9649
0.7842 8.7138 -1.8494 0.9649
0.4708 8.7363 -1.8494 0.9649
-0.1575 8.7476 -1.8494 0.9649
-0.4715 8.7363 -1.8494 0.9649
-1.0955 8.6654 -1.8463 0.9649
-1.4083 8.6349 -1.8494 0.9649
-1.7175 8.5788 -1.8494 0.9649
-2.0245 8.5115 -1.8494 0.9649
-2.3288 8.4334 -1.8494 0.9649
-2.6302 8.3443 -1.8494 0.9649
-2.9344 8.2620 -1.8533 0.9648
-3.9724 8.2440 -1.9344 0.9633
-5.2864 7.8496 -2.0004 0.9620
-5.8394 7.4541 -2.0016 0.9620
-6.3594 7.0157 -2.0016 0.9620
-6.6072 6.7828 -2.0016 0.9620
-7.0770 6.2911 -2.0016 0.9620
-7.2984 6.0329 -2.0016 0.9620
-7.5103 5.7669 -2.0016 0.9620
-7.7126 5.4935 -2.0016 0.9620
-7.9049 5.2130 -2.0016 0.9620
-8.2587 4.6322 -2.0016 0.9620
-8.5698 4.0274 -2.0016 0.9620
-8.7089 3.7171 -2.0016 0.9620
-8.8368 3.4020 -2.0016 0.9620
-9.3024 1.7687 -2.0016 0.9620
-9.4386 0.7580 -2.0016 0.9620
-9.4598 0.4186 -2.0016 0.9620
-9.4687 0.0786 -2.0016 0.9620
-9.4654 -0.2615 -2.0016 0.9620
-9.4499 -0.6012 -2.0016 0.9620
-9.3304 -1.6140 -2.0016 0.9620
-9.2665 -1.9481 -2.0016 0.9620
-8.2498 -3.0196 -1.8570 0.9647
-8.1360 -3.3140 -1.8570 0.9647
-8.0118 -3.6040 -1.8570 0.9647
-7.8772 -3.8894 -1.8570 0.9647
-7.4132 -4.7140 -1.8570 0.9647
-7.1805 -6.1727 -2.0016 0.9620
-6.7190 -6.6722 -2.0016 0.9620
-6.4750 -6.9091 -2.0016 0.9620
-6.2227 -7.1372 -2.0016 0.9620
-5.6944 -7.5654 -2.0016 0.9620
-5.4191 -7.7651 -2.0016 0.9620
-5.1367 -7.9547 -2.0016 0.9620
-4.8477 -8.1340 -2.0016 0.9620
-4.2514 -8.4610 -2.0016 0.9620
-3.9448 -8.6082 -2.0016 0.9620
-2.9962 -8.9825 -2.0016 0.9620
-1.6792 -9.3189 -2.0016 0.9620
-0.6672 -9.4455 -2.0016 0.9620
0.3525 -9.4625 -2.0016 0.9620
1.0307 -9.4128 -2.0016 0.9620
2.3678 -9.1682 -2.0016 0.9620
2.6955 -9.0772 -2.0016 0.9620
3.6561 -8.7347 -2.0016 0.9620
3.9674 -8.5978 -2.0016 0.9620
4.2736 -8.4498 -2.0016 0.9620
2.3117 -4.1899 -1.0115 0.9806
5.1576 -7.9411 -2.0016 0.9620
5.7143 -7.5505 -2.0016 0.9620
5.9817 -7.3404 -2.0016 0.9620
6.4932 -6.8921 -2.0016 0.9620
6.9711 -6.4083 -2.0016 0.9620
7.1967 -6.1538 -2.0016 0.9620
7.4131 -5.8914 -2.0016 0.9620
7.6199 -5.6214 -2.0016 0.9620
8.3462 -4.4725 -2.0016 0.9620
8.5014 -4.1699 -2.0016 0.9620
8.6457 -3.8619 -2.0016 0.9620
8.9006 -3.2314 -2.0016 0.9620
9.1965 -2.2554 -2.0016 0.9620
9.3347 -1.5895 -2.0016 0.9620
9.4247 -0.9154 -2.0016 0.9620
9.4685 0.1035 -2.0016 0.9620
9.3561 1.4581 -2.0016 0.9620
9.2977 1.7932 -2.0016 0.9620
9.2273 2.1259 -2.0016 0.9620
9.1450 2.4559 -2.0016 0.9620
8.5592 4.0499 -2.0016 0.9620
8.4083 4.3547 -2.0016 0.9620
8.2465 4.6538 -2.0016 0.9620
7.4952 5.7866 -2.0016 0.9620
6.3409 7.0324 -2.0016 0.9620
5.8198 7.4694 -2.0016 0.9620
5.5479 7.6736 -2.0016 0.9620
5.2687 7.8678 -2.0016 0.9620
4.3920 8.3888 -2.0016 0.9620
4.0879 8.5412 -2.0016 0.9620
3.7743 8.6727 -1.9993 0.9621
3.0738 8.7272 -1.9558 0.9629
2.3254 8.5081 -1.8644 0.9646
2.0021 8.5168 -1.8494 0.9649
1.3856 8.6386 -1.8494 0.9649
1.0745 8.6828 -1.8494 0.9649
0.7620 8.7157 -1.8494 0.9649
0.4485 8.7375 -1.8494 0.9649
0.1345 8.7480 -1.8494 0.9649
-0.8071 8.7117 -1.8494 0.9649
-1.1188 8.6719 -1.8482 0.9649
-1.4303 8.6313 -1.8494 0.9649
-1.7394 8.5744 -1.8494 0.9649
-2.0461 8.5064 -1.8494 0.9649
-2.3503 8.4274 -1.8494 0.9649
-2.9576 8.2607 -1.8547 0.9648
-3.2943 8.2544 -1.8786 0.9643
-3.9981 8.2436 -1.9367 0.9632
-4.7173 8.1742 -1.9949 0.9621
-5.0147 8.0106 -1.9977 0.9621
-5.3070 7.8369 -2.0007 0.9620
-6.1218 7.2240 -2.0016 0.9620
-6.3773 6.9995 -2.0016 0.9620
-7.5250 5.7477 -2.0016 0.9620
-7.9181 5.1928 -2.0016 0.9620
-8.0995 4.9051 -2.0016 0.9620
-8.2704 4.6111 -2.0016 0.9620
-8.4307 4.3111 -2.0016 0.9620
-8.5801 4.0056 -2.0016 0.9620
-8.7184 3.6949 -2.0016 0.9620
-8.9611 3.0596 -2.0016 0.9620
-9.0652 2.7358 -2.0016 0.9620
-9.4081 1.0725 -2.0016 0.9620
-9.4405 0.7340 -2.0016 0.9620
-9.4608 0.3945 -2.0016 0.9620
-9.4689 0.0545 -2.0016 0.9620
-9.4647 -0.2856 -2.0016 0.9620
-9.4483 -0.6253 -2.0016 0.9620
-9.4198 -0.9642 -2.0016 0.9620
-8.8881 -2.2286 -1.9369 0.9632
-6.1853 -4.9165 -1.8570 0.9681
-5.8165 -5.3477 -1.8570 0.9681
-5.6207 -5.5532 -1.8570 0.9681
-5.3795 -6.6024 -2.0016 0.9656
-5.1389 -6.7913 -2.0016 0.9656
-4.3787 -7.3046 -2.0016 0.9656
-3.8431 -7.6000 -2.0016 0.9656
-3.5677 -7.7331 -2.0016 0.9656
-3.0035 -7.9693 -2.0016 0.9656
-2.7154 -8.0720 -2.0016 0.9656
-2.4237 -8.1643 -2.0016 0.9656
-2.1290 -8.2460 -2.0016 0.9656
-1.5316 -8.3776 -2.0016 0.9656
-1.2298 -8.4272 -2.0016 0.9656
-0.9264 -8.4659 -2.0016 0.9656
-0.6218 -8.4937 -2.0016 0.9656
-0.3163 -8.5106 -2.0016 0.9656
0.9055 -8.4682 -2.0016 0.9656
1.2090 -8.4302 -2.0016 0.9656
1.5109 -8.3813 -2.0016 0.9656
1.8109 -8.3217 -2.0016 0.9656
2.6954 -8.0787 -2.0016 0.9656
2.9838 -7.9766 -2.0016 0.9656
2.1465 -4.2710 -1.1234 0.9806
4.6205 -7.1541 -2.0016 0.9656
4.8745 -6.9835 -2.0016 0.9656
6.0435 -6.0005 -2.0016 0.9656
6.4586 -5.5512 -2.0016 0.9656
6.8404 -5.0733 -2.0016 0.9656
7.0182 -4.8244 -2.0016 0.9656
7.1869 -4.5693 -2.0016 0.9656
7.3463 -4.3083 -2.0016 0.9656
7.8875 -3.2120 -2.0016 0.9656
7.9978 -2.9267 -2.0016 0.9656
8.0977 -2.6376 -2.0016 0.9656
8.1872 -2.3451 -2.0016 0.9656
8.2661 -2.0496 -2.0016 0.9656
8.3344 -1.7514 -2.0016 0.9656
8.4386 -1.1487 -2.0016 0.9656
8.5161 0.0714 -2.0016 0.9656
8.4891 0.6824 -2.0016 0.9656
8.4182 1.2900 -2.0016 0.9656
8.2306 2.1879 -2.0016 0.9656
8.1467 2.4820 -2.0016 0.9656
8.0524 2.7730 -2.0016 0.9656
7.5724 3.8973 -2.0016 0.9656
7.4275 4.1668 -2.0016 0.9656
6.9363 4.9414 -2.0016 0.9656
6.5638 5.4265 -2.0016 0.9656
6.3647 5.6587 -2.0016 0.9656
6.1573 5.8836 -2.0016 0.9656
5.7192 6.3104 -2.0016 0.9656
5.2515 6.7046 -2.0016 0.9656
5.0073 6.8889 -2.0016 0.9656
4.5000 7.2305 -2.0016 0.9656
4.2374 7.3874 -2.0016 0.9656
3.6962 7.6725 -2.0016 0.9656
3.4183 7.8003 -2.0016 0.9656
2.8496 8.0255 -2.0016 0.9656
1.6651 8.3206 -1.9943 0.9657
1.3529 8.2994 -1.9763 0.9660
1.0448 8.2693 -1.9589 0.9663
0.7431 8.2564 -1.9483 0.9665
0.4442 8.2432 -1.9402 0.9666
0.1477 8.2434 -1.9377 0.9667
-0.1484 8.2434 -1.9377 0.9667
-0.4449 8.2430 -1.9401 0.9666
-1.3437 8.2389 -1.9619 0.9663
-1.6490 8.2367 -1.9742 0.9661
-1.9584 8.2339 -1.9891 0.9658
-3.1333 7.9093 -1.9994 0.9656
-3.4185 7.7990 -2.0013 0.9656
-3.9700 7.5345 -2.0016 0.9656
-4.5005 7.2301 -2.0016 0.9656
-4.7573 7.0639 -2.0016 0.9656
-5.0079 6.8885 -2.0016 0.9656
-5.4894 6.5113 -2.0016 0.9656
-6.5642 5.4260 -2.0016 0.9656
-6.7548 5.1868 -2.0016 0.9656
-7.1097 4.6886 -2.0016 0.9656
-7.2734 4.4302 -2.0016 0.9656
-7.4278 4.1662 -2.0016 0.9656
-7.5727 3.8967 -2.0016 0.9656
-7.7077 3.6223 -2.0016 0.9656
-7.8328 3.3432 -2.0016 0.9656
-8.3040 1.8902 -2.0016 0.9656
-8.4592 0.9862 -2.0016 0.9656
-8.4891 0.6818 -2.0016 0.9656
-8.5081 0.3765 -2.0016 0.9656
-8.5162 0.0707 -2.0016 0.9656
-8.5132 -0.2352 -2.0016 0.9656
-8.4385 -1.1494 -2.0016 0.9656
-8.3918 -1.4517 -2.0016 0.9656
-7.4199 -2.7159 -1.8570 0.9681
-7.2058 -3.2414 -1.8570 0.9681
-6.9545 -3.7503 -1.8570 0.9681
-6.8154 -3.9976 -1.8570 0.9681
-6.6674 -4.2398 -1.8570 0.9681
-6.1728 -4.9322 -1.8570 0.9681
-5.9917 -5.1507 -1.8570 0.9681
-5.8028 -5.3626 -1.8570 0.9681
-5.3626 -6.6161 -2.0016 0.9656
-5.1216 -6.8044 -2.0016 0.9656
-4.8739 -6.9839 -2.0016 0.9656
-4.6200 -7.1544 -2.0016 0.9656
-3.8237 -7.6098 -2.0016 0.9656
-3.5480 -7.7422 -2.0016 0.9656
-2.9831 -7.9769 -2.0016 0.9656
-2.6948 -8.0789 -2.0016 0.9656
-2.1080 -8.2514 -2.0016 0.9656
-1.8103 -8.3218 -2.0016 0.9656
-1.5103 -8.3815 -2.0016 0.9656
-0.9048 -8.4682 -2.0016 0.9656
-0.2947 -8.5113 -2.0016 0.9656
0.3170 -8.5105 -2.0016 0.9656
0.6224 -8.4937 -2.0016 0.9656
2.1296 -8.2459 -2.0016 0.9656
2.7160 -8.0718 -2.0016 0.9656
3.0041 -7.9690 -2.0016 0.9656
3.2883 -7.8560 -2.0016 0.9656
2.2894 -4.1495 -1.1138 0.9807
4.3793 -7.3042 -2.0016 0.9656
4.6388 -7.1423 -2.0016 0.9656
4.8922 -6.9711 -2.0016 0.9656
5.3800 -6.6019 -2.0016 0.9656
5.6136 -6.4045 -2.0016 0.9656
5.8400 -6.1988 -2.0016 0.9656
6.0588 -5.9851 -2.0016 0.9656
6.6673 -5.2987 -2.0016 0.9656
6.8533 -5.0559 -2.0016 0.9656
7.0304 -4.8065 -2.0016 0.9656
7.6462 -3.7504 -2.0016 0.9656
7.8957 -3.1919 -2.0016 0.9656
8.1044 -2.6170 -2.0016 0.9656
8.1932 -2.3242 -2.0016 0.9656
8.2713 -2.0285 -2.0016 0.9656
8.3389 -1.7302 -2.0016 0.9656
8.3956 -1.4296 -2.0016 0.9656
8.5138 -0.2128 -2.0016 0.9656
8.5159 0.0931 -2.0016 0.9656
8.5071 0.3988 -2.0016 0.9656
8.4873 0.7041 -2.0016 0.9656
8.4565 1.0084 -2.0016 0.9656
8.2990 1.9120 -2.0016 0.9656
8.1404 2.5028 -2.0016 0.9656
8.0453 2.7935 -2.0016 0.9656
7.9398 3.0806 -2.0016 0.9656
7.8240 3.3637 -2.0016 0.9656
7.6982 3.6425 -2.0016 0.9656
7.5624 3.9166 -2.0016 0.9656
7.2618 4.4493 -2.0016 0.9656
6.7412 5.2045 -2.0016 0.9656
6.5499 5.4432 -2.0016 0.9656
6.3502 5.6749 -2.0016 0.9656
5.9265 6.1161 -2.0016 0.9656
5.4722 6.5257 -2.0016 0.9656
5.2344 6.7180 -2.0016 0.9656
4.7387 7.0763 -2.0016 0.9656
3.1158 7.9260 -2.0016 0.9656
2.8292 8.0328 -2.0016 0.9656
2.5378 8.1257 -2.0007 0.9656
1.9434 8.2671 -1.9959 0.9657
1.6438 8.3243 -1.9942 0.9657
1.3307 8.2964 -1.9748 0.9661
1.0232 8.2684 -1.9581 0.9663
0.4232 8.2431 -1.9399 0.9667
0.1267 8.2434 -1.9376 0.9667
-0.7636 8.2420 -1.9454 0.9666
-1.0631 8.2406 -1.9528 0.9664
-1.3653 8.2388 -1.9627 0.9663
-1.9806 8.2337 -1.9903 0.9658
-2.2802 8.1761 -1.9949 0.9657
-3.7164 7.6628 -2.0016 0.9656
-4.5189 7.2187 -2.0016 0.9656
-5.0254 6.8757 -2.0016 0.9656
-5.2691 6.6908 -2.0016 0.9656
-5.5060 6.4973 -2.0016 0.9656
-5.9581 6.0853 -2.0016 0.9656
-6.5780 5.4092 -2.0016 0.9656
-6.9493 4.9232 -2.0016 0.9656
-7.4384 4.1472 -2.0016 0.9656
-7.5826 3.8774 -2.0016 0.9656
-7.8413 3.3232 -2.0016 0.9656
-7.9556 3.0395 -2.0016 0.9656
-8.1532 2.4606 -2.0016 0.9656
-8.3706 1.5695 -2.0016 0.9656
-8.4616 0.9646 -2.0016 0.9656
-8.4908 0.6601 -2.0016 0.9656
-8.4979 -0.5624 -2.0016 0.9656
-8.4722 -0.8672 -2.0016 0.9656
-8.3881 -1.4730 -2.0016 0.9656
-5.9203 -4.0483 -1.8570 0.9708
-5.7711 -4.2583 -1.8570 0.9708
-5.6145 -4.4627 -1.8570 0.9708
-5.2797 -4.8542 -1.8570 0.9708
-5.1020 -5.0407 -1.8570 0.9708
-4.5303 -5.5602 -1.8570 0.9708
-3.9746 -6.6305 -2.0016 0.9686
-3.7339 -6.7689 -2.0016 0.9686
-3.4884 -6.8986 -2.0016 0.9686
-2.7263 -7.2338 -2.0016 0.9686
-2.4648 -7.3270 -2.0016 0.9686
-2.2001 -7.4108 -2.0016 0.9686
-1.9325 -7.4850 -2.0016 0.9686
-1.3903 -7.6044 -2.0016 0.9686
-0.8409 -7.6846 -2.0016 0.9686
-0.5644 -7.7099 -2.0016 0.9686
-0.0096 -7.7305 -2.0016 0.9686
0.2681 -7.7258 -2.0016 0.9686
0.5453 -7.7112 -2.0016 0.9686
0.8219 -7.6867 -2.0016 0.9686
1.0974 -7.6522 -2.0016 0.9686
1.3715 -7.6078 -2.0016 0.9686
1.9140 -7.4898 -2.0016 0.9686
2.1817 -7.4162 -2.0016 0.9686
2.7084 -7.2405 -2.0016 0.9686
2.1114 -4.2011 -1.2174 0.9808
2.2546 -4.1111 -1.2140 0.9808
4.1941 -6.4938 -2.0016 0.9686
4.4246 -6.3390 -2.0016 0.9686
4.6494 -6.1760 -2.0016 0.9686
4.8682 -6.0051 -2.0016 0.9686
5.0807 -5.8264 -2.0016 0.9686
5.6778 -5.2462 -2.0016 0.9686
5.8626 -5.0389 -2.0016 0.9686
6.0397 -4.8251 -2.0016 0.9686
6.6684 -3.9107 -2.0016 0.9686
7.2597 -2.6566 -2.0016 0.9686
7.3504 -2.3942 -2.0016 0.9686
7.5033 -1.8604 -2.0016 0.9686
7.5652 -1.5898 -2.0016 0.9686
7.6175 -1.3171 -2.0016 0.9686
7.6598 -1.0427 -2.0016 0.9686
7.6923 -0.7669 -2.0016 0.9686
7.7149 -0.4902 -2.0016 0.9686
7.7276 -0.2128 -2.0016 0.9686
7.7229 0.3423 -2.0016 0.9686
7.6413 1.1709 -2.0016 0.9686
7.5943 1.4446 -2.0016 0.9686
7.4710 1.9859 -2.0016 0.9686
7.3092 2.5171 -2.0016 0.9686
7.1097 3.0352 -2.0016 0.9686
6.4532 4.2564 -2.0016 0.9686
6.2962 4.4854 -2.0016 0.9686
6.1310 4.7086 -2.0016 0.9686
5.9580 4.9257 -2.0016 0.9686
5.7773 5.1365 -2.0016 0.9686
5.5891 5.3406 -2.0016 0.9686
4.9823 5.9108 -2.0016 0.9686
4.5452 6.2531 -2.0016 0.9686
4.3177 6.4123 -2.0016 0.9686
4.0847 6.5632 -2.0016 0.9686
3.1029 7.0804 -2.0016 0.9686
2.5867 7.2849 -2.0016 0.9686
2.3234 7.3731 -2.0016 0.9686
1.7882 7.5208 -2.0016 0.9686
1.5170 7.5802 -2.0016 0.9686
1.2438 7.6298 -2.0016 0.9686
0.9690 7.6695 -2.0016 0.9686
-0.6935 7.6993 -2.0016 0.9686
-1.2444 7.6297 -2.0016 0.9686
-1.5176 7.5801 -2.0016 0.9686
-1.7888 7.5207 -2.0016 0.9686
-2.3240 7.3729 -2.0016 0.9686
-2.5872 7.2847 -2.0016 0.9686
-3.8469 6.7054 -2.0016 0.9686
-4.0852 6.5629 -2.0016 0.9686
-4.5457 6.2528 -2.0016 0.9686
-4.7673 6.0855 -2.0016 0.9686
-5.3941 5.5375 -2.0016 0.9686
-5.7777 5.1360 -2.0016 0.9686
-6.9964 3.2880 -2.0016 0.9686
-7.1099 3.0346 -2.0016 0.9686
-7.2143 2.7774 -2.0016 0.9686
-7.3094 2.5165 -2.0016 0.9686
-7.3951 2.2524 -2.0016 0.9686
-7.4712 1.9854 -2.0016 0.9686
-7.5377 1.7158 -2.0016 0.9686
-7.5944 1.4440 -2.0016 0.9686
-7.7302 0.0642 -2.0016 0.9686
-7.7149 -0.4908 -2.0016 0.9686
-7.6923 -0.7676 -2.0016 0.9686
-7.6598 -1.0433 -2.0016 0.9686
-7.5651 -1.5904 -2.0016 0.9686
-7.4315 -2.1293 -2.0016 0.9686
-6.8768 -2.2405 -1.8726 0.9706
-6.7351 -2.4652 -1.8570 0.9708
-6.4309 -3.1753 -1.8570 0.9708
-6.1864 -3.6287 -1.8570 0.9708
-5.2673 -4.8677 -1.8570 0.9708
-4.9044 -5.2332 -1.8570 0.9708
-4.7133 -5.4059 -1.8570 0.9708
-4.5161 -5.5717 -1.8570 0.9708
-3.2206 -7.0277 -2.0016 0.9686
-2.9661 -7.1388 -2.0016 0.9686
-2.7079 -7.2407 -2.0016 0.9686
-2.4461 -7.3333 -2.0016 0.9686
-1.9134 -7.4899 -2.0016 0.9686
-1.6432 -7.5538 -2.0016 0.9686
-0.8213 -7.6867 -2.0016 0.9686
-0.5447 -7.7113 -2.0016 0.9686
0.0102 -7.7305 -2.0016 0.9686
0.2878 -7.7251 -2.0016 0.9686
0.5650 -7.7098 -2.0016 0.9686
0.8415 -7.6845 -2.0016 0.9686
1.9331 -7.4849 -2.0016 0.9686
2.2006 -7.4106 -2.0016 0.9686
2.9849 -7.1310 -2.0016 0.9686
3.2390 -7.0192 -2.0016 0.9686
2.2681 -4.1109 -1.2156 0.9808
4.6651 -6.1642 -2.0016 0.9686
5.3010 -5.6267 -2.0016 0.9686
5.4996 -5.4327 -2.0016 0.9686
5.8754 -5.0240 -2.0016 0.9686
6.0520 -4.8097 -2.0016 0.9686
6.2208 -4.5893 -2.0016 0.9686
6.5342 -4.1310 -2.0016 0.9686
6.8138 -3.6513 -2.0016 0.9686
6.9406 -3.4043 -2.0016 0.9686
7.0583 -3.1528 -2.0016 0.9686
7.3565 -2.3754 -2.0016 0.9686
7.4370 -2.1097 -2.0016 0.9686
7.5080 -1.8413 -2.0016 0.9686
7.5693 -1.5705 -2.0016 0.9686
7.7162 -0.4705 -2.0016 0.9686
7.7281 -0.1931 -2.0016 0.9686
7.7300 0.0845 -2.0016 0.9686
7.7040 0.6391 -2.0016 0.9686
7.6761 0.9154 -2.0016 0.9686
7.6383 1.1904 -2.0016 0.9686
7.5906 1.4639 -2.0016 0.9686
7.4660 2.0050 -2.0016 0.9686
7.3891 2.2718 -2.0016 0.9686
7.3028 2.5357 -2.0016 0.9686
7.2070 2.7963 -2.0016 0.9686
7.1020 3.0533 -2.0016 0.9686
6.9877 3.3064 -2.0016 0.9686
6.8645 3.5552 -2.0016 0.9686
6.5916 4.0387 -2.0016 0.9686
6.2847 4.5014 -2.0016 0.9686
5.9454 4.9409 -2.0016 0.9686
5.7642 5.1512 -2.0016 0.9686
5.5755 5.3549 -2.0016 0.9686
5.1767 5.7412 -2.0016 0.9686
4.9672 5.9234 -2.0016 0.9686
4.5293 6.2647 -2.0016 0.9686
3.8292 6.7155 -2.0016 0.9686
3.5856 6.8486 -2.0016 0.9686
3.3374 6.9730 -2.0016 0.9686
2.5681 7.2915 -2.0016 0.9686
2.0381 7.4570 -2.0016 0.9686
1.7690 7.5254 -2.0016 0.9686
1.4976 7.5840 -2.0016 0.9686
1.2243 7.6329 -2.0016 0.9686
0.9494 7.6720 -2.0016 0.9686
0.3963 7.7203 -2.0016 0.9686
0.1188 7.7296 -2.0016 0.9686
-0.1588 7.7289 -2.0016 0.9686
-0.4363 7.7182 -2.0016 0.9686
-1.2638 7.6265 -2.0016 0.9686
-2.6058 7.2781 -2.0016 0.9686
-3.1215 7.0723 -2.0016 0.9686
-3.3734 6.9556 -2.0016 0.9686
-4.3346 6.4009 -2.0016 0.9686
-4.5616 6.2412 -2.0016 0.9686
-4.7828 6.0733 -2.0016 0.9686
-4.9978 5.8976 -2.0016 0.9686
-5.2064 5.7144 -2.0016 0.9686
-5.6031 5.3259 -2.0016 0.9686
-6.1434 4.6924 -2.0016 0.9686
-6.7520 3.7645 -2.0016 0.9686
-6.8828 3.5196 -2.0016 0.9686
-7.0047 3.2701 -2.0016 0.9686
-7.5420 1.6966 -2.0016 0.9686
-7.5981 1.4246 -2.0016 0.9686
-7.7072 0.5992 -2.0016 0.9686
-7.7304 0.0445 -2.0016 0.9686
-7.7270 -0.2331 -2.0016 0.9686
-7.7136 -0.5105 -2.0016 0.9686
-7.6903 -0.7871 -2.0016 0.9686
-7.6140 -1.3371 -2.0016 0.9686
-7.5610 -1.6097 -2.0016 0.9686
-5.2783 -3.8946 -1.8570 0.9731
-4.9852 -4.2634 -1.8570 0.9731
-4.8289 -4.4397 -1.8570 0.9731
-4.4977 -4.7748 -1.8570 0.9731
-3.9581 -5.2309 -1.8570 0.9731
-3.7677 -5.3696 -1.8570 0.9731
-3.5725 -5.5015 -1.8570 0.9731
-3.1905 -6.3095 -2.0016 0.9710
-2.9619 -6.4200 -2.0016 0.9710
-2.7295 -6.5222 -2.0016 0.9710
-2.4935 -6.6160 -2.0016 0.9710
-1.5205 -6.9049 -2.0016 0.9710
-1.2716 -6.9550 -2.0016 0.9710
-0.7691 -7.0284 -2.0016 0.9710
-0.5162 -7.0515 -2.0016 0.9710
-0.2626 -7.0655 -2.0016 0.9710
0.7517 -7.0303 -2.0016 0.9710
1.0037 -6.9987 -2.0016 0.9710
1.2544 -6.9582 -2.0016 0.9710
1.9954 -6.7829 -2.0016 0.9710
2.2377 -6.7069 -2.0016 0.9710
2.4771 -6.6222 -2.0016 0.9710
2.9460 -6.4273 -2.0016 0.9710
2.2467 -4.0968 -1.3227 0.9808
4.4525 -5.4923 -2.0016 0.9710
4.6468 -5.3288 -2.0016 0.9710
5.1930 -4.7982 -2.0016 0.9710
5.5240 -4.4131 -2.0016 0.9710
5.6789 -4.2119 -2.0016 0.9710
5.8265 -4.0052 -2.0016 0.9710
5.9665 -3.7934 -2.0016 0.9710
6.0989 -3.5767 -2.0016 0.9710
6.3399 -3.1297 -2.0016 0.9710
6.5482 -2.6666 -2.0016 0.9710
6.6397 -2.4297 -2.0016 0.9710
6.7227 -2.1897 -2.0016 0.9710
6.9192 -1.4540 -2.0016 0.9710
6.9670 -1.2046 -2.0016 0.9710
7.0057 -0.9536 -2.0016 0.9710
7.0354 -0.7015 -2.0016 0.9710
7.0701 0.0593 -2.0016 0.9710
7.0634 0.3131 -2.0016 0.9710
7.0476 0.5666 -2.0016 0.9710
6.9888 1.0709 -2.0016 0.9710
6.9458 1.3212 -2.0016 0.9710
6.8330 1.8164 -2.0016 0.9710
6.5981 2.5407 -2.0016 0.9710
6.5026 2.7760 -2.0016 0.9710
6.3987 3.0077 -2.0016 0.9710
6.1663 3.4592 -2.0016 0.9710
5.9021 3.8929 -2.0016 0.9710
4.5568 5.4060 -2.0016 0.9710
4.3598 5.5661 -2.0016 0.9710
4.1571 5.7191 -2.0016 0.9710
3.9490 5.8647 -2.0016 0.9710
3.5179 6.1330 -2.0016 0.9710
3.2954 6.2554 -2.0016 0.9710
3.0686 6.3697 -2.0016 0.9710
2.8379 6.4758 -2.0016 0.9710
2.3658 6.6628 -2.0016 0.9710
2.1250 6.7434 -2.0016 0.9710
1.8814 6.8154 -2.0016 0.9710
1.3874 6.9329 -2.0016 0.9710
0.6338 7.0419 -2.0016 0.9710
0.3805 7.0601 -2.0016 0.9710
-0.1273 7.0692 -2.0016 0.9710
-0.3810 7.0601 -2.0016 0.9710
-1.1381 6.9781 -2.0016 0.9710
-1.3880 6.9328 -2.0016 0.9710
-1.6360 6.8784 -2.0016 0.9710
-2.1255 6.7433 -2.0016 0.9710
-2.8384 6.4756 -2.0016 0.9710
-3.0691 6.3695 -2.0016 0.9710
-3.2959 6.2552 -2.0016 0.9710
-3.5184 6.1328 -2.0016 0.9710
-3.9495 5.8644 -2.0016 0.9710
-4.3602 5.5658 -2.0016 0.9710
-4.5573 5.4056 -2.0016 0.9710
-4.9335 5.0646 -2.0016 0.9710
-5.1122 4.8842 -2.0016 0.9710
-5.6078 4.3060 -2.0016 0.9710
-5.9024 3.8924 -2.0016 0.9710
-6.0384 3.6780 -2.0016 0.9710
-6.1666 3.4587 -2.0016 0.9710
-6.2868 3.2351 -2.0016 0.9710
-6.3989 3.0072 -2.0016 0.9710
-6.5028 2.7755 -2.0016 0.9710
-6.5983 2.5402 -2.0016 0.9710
-6.6852 2.3016 -2.0016 0.9710
-6.7636 2.0600 -2.0016 0.9710
-6.8332 1.8158 -2.0016 0.9710
-6.9459 1.3207 -2.0016 0.9710
-6.9888 1.0704 -2.0016 0.9710
-7.0228 0.8187 -2.0016 0.9710
-7.0634 0.3126 -2.0016 0.9710
-7.0561 -0.4489 -2.0016 0.9710
-6.7968 -1.9474 -2.0016 0.9710
-6.7225 -2.1903 -2.0016 0.9710
-5.9822 -2.6910 -1.8570 0.9731
-5.7736 -3.1135 -1.8570 0.9731
-5.6581 -3.3188 -1.8570 0.9731
-5.5353 -3.5198 -1.8570 0.9731
-5.2684 -3.9081 -1.8570 0.9731
-4.9743 -4.2761 -1.8570 0.9731
-4.6545 -4.6221 -1.8570 0.9731
-4.4855 -4.7863 -1.8570 0.9731
-4.3108 -4.9443 -1.8570 0.9731
-3.5584 -5.5105 -1.8570 0.9731
-3.3583 -5.6348 -1.8570 0.9731
-3.1745 -6.3176 -2.0016 0.9710
-2.9455 -6.4276 -2.0016 0.9710
-2.7128 -6.5292 -2.0016 0.9710
-1.9949 -6.7831 -2.0016 0.9710
-1.7500 -6.8503 -2.0016 0.9710
-1.5029 -6.9088 -2.0016 0.9710
-1.2538 -6.9583 -2.0016 0.9710
-1.0031 -6.9988 -2.0016 0.9710
-0.7512 -7.0303 -2.0016 0.9710
0.0093 -7.0703 -2.0016 0.9710
0.5167 -7.0514 -2.0016 0.9710
0.7696 -7.0283 -2.0016 0.9710
1.2721 -6.9549 -2.0016 0.9710
1.5210 -6.9048 -2.0016 0.9710
2.4940 -6.6159 -2.0016 0.9710
2.0990 -4.1501 -1.3166 0.9809
2.2602 -4.0966 -1.3245 0.9807
3.8511 -5.9295 -2.0016 0.9710
4.2667 -5.6378 -2.0016 0.9710
4.4664 -5.4809 -2.0016 0.9710
4.6604 -5.3170 -2.0016 0.9710
4.8483 -5.1462 -2.0016 0.9710
5.0300 -4.9688 -2.0016 0.9710
5.2052 -4.7849 -2.0016 0.9710
5.3736 -4.5949 -2.0016 0.9710
5.6896 -4.1974 -2.0016 0.9710
5.9762 -3.7782 -2.0016 0.9710
6.2320 -3.3395 -2.0016 0.9710
6.5550 -2.6499 -2.0016 0.9710
6.6459 -2.4128 -2.0016 0.9710
6.7283 -2.1726 -2.0016 0.9710
6.8019 -1.9296 -2.0016 0.9710
6.9229 -1.4364 -2.0016 0.9710
6.9700 -1.1869 -2.0016 0.9710
7.0081 -0.9358 -2.0016 0.9710
7.0372 -0.6835 -2.0016 0.9710
7.0572 -0.4304 -2.0016 0.9710
7.0681 -0.1767 -2.0016 0.9710
7.0699 0.0773 -2.0016 0.9710
7.0461 0.5845 -2.0016 0.9710
6.8898 1.5874 -2.0016 0.9710
6.8284 1.8338 -2.0016 0.9710
6.6792 2.3191 -2.0016 0.9710
6.1575 3.4749 -2.0016 0.9710
6.0287 3.6938 -2.0016 0.9710
5.8922 3.9079 -2.0016 0.9710
5.5965 4.3208 -2.0016 0.9710
5.0993 4.8976 -2.0016 0.9710
4.9202 5.0776 -2.0016 0.9710
4.7347 5.2509 -2.0016 0.9710
4.5430 5.4176 -2.0016 0.9710
3.9341 5.8748 -2.0016 0.9710
3.2794 6.2638 -2.0016 0.9710
2.8214 6.4830 -2.0016 0.9710
2.3488 6.6688 -2.0016 0.9710
2.1078 6.7488 -2.0016 0.9710
1.8641 6.8202 -2.0016 0.9710
1.3697 6.9364 -2.0016 0.9710
1.1198 6.9811 -2.0016 0.9710
0.6158 7.0435 -2.0016 0.9710
-1.1559 6.9752 -2.0016 0.9710
-1.4056 6.9292 -2.0016 0.9710
-3.7516 5.9929 -2.0016 0.9710
-3.9644 5.8543 -2.0016 0.9710
-4.5710 5.3940 -2.0016 0.9710
-4.7618 5.2264 -2.0016 0.9710
-5.6188 4.2917 -2.0016 0.9710
-5.7693 4.0872 -2.0016 0.9710
-6.0477 3.6626 -2.0016 0.9710
-6.1754 3.4430 -2.0016 0.9710
-6.2950 3.2190 -2.0016 0.9710
-6.6911 2.2845 -2.0016 0.9710
-6.9915 1.0526 -2.0016 0.9710
-7.0248 0.8008 -2.0016 0.9710
-7.0491 0.5480 -2.0016 0.9710
-7.0642 0.2946 -2.0016 0.9710
-7.0336 -0.7199 -2.0016 0.9710
-7.0032 -0.9721 -2.0016 0.9710
-6.9638 -1.2229 -2.0016 0.9710
-6.9154 -1.4722 -2.0016 0.9710
-6.8580 -1.7196 -2.0016 0.9710
-4.9837 -3.4078 -1.8570 0.9751
-4.8581 -3.5846 -1.8570 0.9751
-4.5883 -3.9240 -1.8570 0.9751
-4.4444 -4.0863 -1.8570 0.9751
-4.1397 -4.3947 -1.8570 0.9751
-3.8136 -4.6805 -1.8570 0.9751
-3.4678 -4.9422 -1.8570 0.9751
-3.1041 -5.1783 -1.8570 0.9751
-2.9162 -5.2864 -1.8570 0.9751
-2.1292 -5.6495 -1.8570 0.9751
-1.8520 -6.2384 -2.0016 0.9731
-1.3995 -6.3552 -2.0016 0.9731
-0.7078 -6.4689 -2.0016 0.9731
-0.2417 -6.5030 -2.0016 0.9731
0.2257 -6.5036 -2.0016 0.9731
0.6919 -6.4706 -2.0016 0.9731
0.9238 -6.4416 -2.0016 0.9731
1.1545 -6.4042 -2.0016 0.9731
1.8366 -6.2429 -2.0016 0.9731
2.0596 -6.1730 -2.0016 0.9731
2.2799 -6.0950 -2.0016 0.9731
2.4332 -4.0819 -1.4616 0.9803
3.5306 -5.4665 -2.0016 0.9731
3.7246 -5.3362 -2.0016 0.9731
3.9138 -5.1990 -2.0016 0.9731
4.0980 -5.0551 -2.0016 0.9731
4.2769 -4.9046 -2.0016 0.9731
4.4503 -4.7479 -2.0016 0.9731
4.6179 -4.5850 -2.0016 0.9731
5.0842 -4.0618 -2.0016 0.9731
5.2268 -3.8766 -2.0016 0.9731
5.6134 -3.2920 -2.0016 0.9731
5.7280 -3.0883 -2.0016 0.9731
5.8352 -2.8806 -2.0016 0.9731
6.0269 -2.4543 -2.0016 0.9731
6.1875 -2.0154 -2.0016 0.9731
6.2559 -1.7919 -2.0016 0.9731
6.3684 -1.3383 -2.0016 0.9731
6.4123 -1.1087 -2.0016 0.9731
6.4636 0.7541 -2.0016 0.9731
6.4324 0.9857 -2.0016 0.9731
6.3451 1.4448 -2.0016 0.9731
6.1529 2.1188 -2.0016 0.9731
5.9849 2.5550 -2.0016 0.9731
5.8893 2.7683 -2.0016 0.9731
5.6754 3.1838 -2.0016 0.9731
5.5574 3.3856 -2.0016 0.9731
5.4323 3.5830 -2.0016 0.9731
5.3001 3.7758 -2.0016 0.9731
5.1611 3.9636 -2.0016 0.9731
5.0154 4.1464 -2.0016 0.9731
4.8633 4.3239 -2.0016 0.9731
4.7049 4.4957 -2.0016 0.9731
4.5404 4.6618 -2.0016 0.9731
4.3701 4.8218 -2.0016 0.9731
3.4385 5.5249 -2.0016 0.9731
3.0330 5.7574 -2.0016 0.9731
2.8243 5.8626 -2.0016 0.9731
1.9558 6.2066 -2.0016 0.9731
1.7317 6.2728 -2.0016 0.9731
1.5053 6.3310 -2.0016 0.9731
1.2770 6.3810 -2.0016 0.9731
1.0470 6.4227 -2.0016 0.9731
0.1166 6.5064 -2.0016 0.9731
-0.1171 6.5064 -2.0016 0.9731
-0.3507 6.4980 -2.0016 0.9731
-0.5838 6.4812 -2.0016 0.9731
-0.8162 6.4561 -2.0016 0.9731
-1.0475 6.4226 -2.0016 0.9731
-1.2775 6.3809 -2.0016 0.9731
-1.7322 6.2727 -2.0016 0.9731
-3.0335 5.7572 -2.0016 0.9731
-3.2383 5.6445 -2.0016 0.9731
-3.4389 5.5246 -2.0016 0.9731
-3.6351 5.3976 -2.0016 0.9731
-4.1945 4.9753 -2.0016 0.9731
-4.7052 4.4954 -2.0016 0.9731
-4.8636 4.3235 -2.0016 0.9731
-5.1614 3.9632 -2.0016 0.9731
-5.3004 3.7753 -2.0016 0.9731
-5.4325 3.5826 -2.0016 0.9731
-5.5577 3.3852 -2.0016 0.9731
-5.8895 2.7678 -2.0016 0.9731
-5.9851 2.5545 -2.0016 0.9731
-6.0730 2.3380 -2.0016 0.9731
-6.3452 1.4443 -2.0016 0.9731
-6.3929 1.2155 -2.0016 0.9731
-6.4325 0.9852 -2.0016 0.9731
-6.4866 0.5210 -2.0016 0.9731
-6.5073 0.0540 -2.0016 0.9731
-6.4753 -0.6461 -2.0016 0.9731
-6.4479 -0.8782 -2.0016 0.9731
-6.3161 -1.5666 -2.0016 0.9731
-6.0638 -2.2195 -1.9861 0.9733
-5.5060 -2.4768 -1.8570 0.9751
-5.3140 -2.8656 -1.8570 0.9751
-5.0946 -3.2396 -1.8570 0.9751
-4.9750 -3.4205 -1.8570 0.9751
-4.8490 -3.5969 -1.8570 0.9751
-4.7167 -3.7687 -1.8570 0.9751
-4.5783 -3.9357 -1.8570 0.9751
-4.4340 -4.0976 -1.8570 0.9751
-4.1285 -4.4053 -1.8570 0.9751
-3.6307 -4.8237 -1.8570 0.9751
-3.2752 -5.0719 -1.8570 0.9751
-2.9027 -5.2939 -1.8570 0.9751
-2.7107 -5.3947 -1.8570 0.9751
-2.5152 -5.4885 -1.8570 0.9751
-2.1148 -5.6549 -1.8570 0.9751
-2.0591 -6.1731 -2.0016 0.9731
-1.8361 -6.2431 -2.0016 0.9731
-1.3832 -6.3588 -2.0016 0.9731
-1.1540 -6.4043 -2.0016 0.9731
-0.9233 -6.4416 -2.0016 0.9731
-0.6914 -6.4706 -2.0016 0.9731
-0.2251 -6.5036 -2.0016 0.9731
0.0085 -6.5075 -2.0016 0.9731
0.2422 -6.5030 -2.0016 0.9731
0.7084 -6.4688 -2.0016 0.9731
0.9402 -6.4392 -2.0016 0.9731
1.1708 -6.4013 -2.0016 0.9731
2.0882 -4.1287 -1.4231 0.9808
3.5445 -5.4574 -2.0016 0.9731
3.7382 -5.3266 -2.0016 0.9731
3.9271 -5.1890 -2.0016 0.9731
4.2894 -4.8937 -2.0016 0.9731
4.4624 -4.7365 -2.0016 0.9731
4.7908 -4.4040 -2.0016 0.9731
4.9459 -4.2291 -2.0016 0.9731
5.0946 -4.0488 -2.0016 0.9731
5.5004 -3.4774 -2.0016 0.9731
5.6218 -3.2777 -2.0016 0.9731
5.7358 -3.0736 -2.0016 0.9731
5.8425 -2.8657 -2.0016 0.9731
6.2604 -1.7760 -2.0016 0.9731
6.3718 -1.3220 -2.0016 0.9731
6.4770 -0.6291 -2.0016 0.9731
6.4954 -0.3961 -2.0016 0.9731
6.5054 -0.1626 -2.0016 0.9731
6.5071 0.0711 -2.0016 0.9731
6.4617 0.7705 -2.0016 0.9731
6.4299 1.0021 -2.0016 0.9731
6.2848 1.6878 -2.0016 0.9731
6.0668 2.3539 -2.0016 0.9731
5.7785 2.9927 -2.0016 0.9731
5.5488 3.3998 -2.0016 0.9731
5.4231 3.5968 -2.0016 0.9731
5.2905 3.7892 -2.0016 0.9731
4.6934 4.5077 -2.0016 0.9731
4.1814 4.9863 -2.0016 0.9731
3.9996 5.1333 -2.0016 0.9731
3.6209 5.4071 -2.0016 0.9731
3.4244 5.5336 -2.0016 0.9731
3.0184 5.7651 -2.0016 0.9731
2.5968 5.9669 -2.0016 0.9731
2.3808 6.0563 -2.0016 0.9731
1.9400 6.2116 -2.0016 0.9731
1.7157 6.2772 -2.0016 0.9731
0.7992 6.4582 -2.0016 0.9731
0.5668 6.4828 -2.0016 0.9731
0.1000 6.5067 -2.0016 0.9731
-0.1337 6.5061 -2.0016 0.9731
-0.6003 6.4797 -2.0016 0.9731
-1.0639 6.4199 -2.0016 0.9731
-1.2937 6.3776 -2.0016 0.9731
-1.5219 6.3270 -2.0016 0.9731
-1.7481 6.2683 -2.0016 0.9731
-1.9721 6.2015 -2.0016 0.9731
-2.1935 6.1266 -2.0016 0.9731
-2.4121 6.0439 -2.0016 0.9731
-2.6276 5.9534 -2.0016 0.9731
-2.8397 5.8552 -2.0016 0.9731
-3.2526 5.6363 -2.0016 0.9731
-3.6488 5.3883 -2.0016 0.9731
-3.8399 5.2538 -2.0016 0.9731
-4.2071 4.9646 -2.0016 0.9731
-4.5526 4.6498 -2.0016 0.9731
-4.8746 4.3111 -2.0016 0.9731
-5.0263 4.1332 -2.0016 0.9731
-5.3100 3.7618 -2.0016 0.9731
-5.4417 3.5687 -2.0016 0.9731
-5.5663 3.3710 -2.0016 0.9731
-5.6838 3.1689 -2.0016 0.9731
-5.7939 2.9628 -2.0016 0.9731
-5.8966 2.7528 -2.0016 0.9731
-6.1584 2.1027 -2.0016 0.9731
-6.2300 1.8802 -2.0016 0.9731
-6.2934 1.6552 -2.0016 0.9731
-6.4350 0.9688 -2.0016 0.9731
-6.5018 0.2711 -2.0016 0.9731
-6.4933 -0.4297 -2.0016 0.9731
-6.4737 -0.6626 -2.0016 0.9731
-6.3648 -1.3550 -2.0016 0.9731
-4.3733 -3.4761 -1.8570 0.9767
-4.1125 -3.7811 -1.8570 0.9767
-3.9740 -3.9263 -1.8570 0.9767
-3.8305 -4.0665 -1.8570 0.9767
-3.5287 -4.3309 -1.8570 0.9767
-3.3709 -4.4548 -1.8570 0.9767
-2.5210 -4.9853 -1.8570 0.9767
-2.1566 -5.1534 -1.8570 0.9767
-1.5899 -5.3555 -1.8570 0.9767
-1.2014 -5.4558 -1.8570 0.9767
-0.8067 -5.5279 -1.8570 0.9767
-0.6077 -5.5533 -1.8570 0.9767
-0.0069 -5.5865 -1.8570 0.9767
0.3941 -5.5726 -1.8570 0.9767
0.9911 -5.4979 -1.8570 0.9767
1.1879 -5.4587 -1.8570 0.9767
1.7681 -5.2993 -1.8570 0.9767
1.9573 -5.2324 -1.8570 0.9767
2.0522 -4.4771 -1.6371 0.9795
2.2309 -4.0679 -1.5422 0.9806
2.4228 -4.0644 -1.5729 0.9803
3.0309 -4.6928 -1.8570 0.9767
3.1975 -4.5809 -1.8570 0.9767
3.7919 -4.6775 -2.0016 0.9749
4.1179 -4.3933 -2.0016 0.9749
4.2730 -4.2426 -2.0016 0.9749
4.8364 -3.5870 -2.0016 0.9749
5.0814 -3.2307 -2.0016 0.9749
5.3994 -2.6654 -2.0016 0.9749
5.4916 -2.4698 -2.0016 0.9749
5.6547 -2.0693 -2.0016 0.9749
5.7887 -1.6581 -2.0016 0.9749
5.8445 -1.4491 -2.0016 0.9749
5.8927 -1.2383 -2.0016 0.9749
5.9334 -1.0259 -2.0016 0.9749
5.9917 -0.5974 -2.0016 0.9749
6.0093 -0.3818 -2.0016 0.9749
6.0192 -0.1658 -2.0016 0.9749
6.0212 0.0505 -2.0016 0.9749
6.0021 0.4825 -2.0016 0.9749
5.9809 0.6977 -2.0016 0.9749
5.9154 1.1252 -2.0016 0.9749
5.8194 1.5469 -2.0016 0.9749
5.6933 1.9606 -2.0016 0.9749
5.6192 2.1638 -2.0016 0.9749
5.5379 2.3642 -2.0016 0.9749
5.4494 2.5615 -2.0016 0.9749
5.3539 2.7556 -2.0016 0.9749
4.9042 3.4937 -2.0016 0.9749
4.7756 3.6676 -2.0016 0.9749
4.5000 4.0009 -2.0016 0.9749
4.2013 4.3136 -2.0016 0.9749
4.0437 4.4617 -2.0016 0.9749
3.7130 4.7404 -2.0016 0.9749
3.5404 4.8707 -2.0016 0.9749
0.7548 5.9740 -2.0016 0.9749
0.3240 6.0127 -2.0016 0.9749
0.1079 6.0205 -2.0016 0.9749
-0.3245 6.0127 -2.0016 0.9749
-0.5402 5.9972 -2.0016 0.9749
-0.9693 5.9429 -2.0016 0.9749
-1.3933 5.8580 -2.0016 0.9749
-2.6138 5.4246 -2.0016 0.9749
-2.8069 5.3272 -2.0016 0.9749
-2.9964 5.2230 -2.0016 0.9749
-3.1820 5.1120 -2.0016 0.9749
-3.7134 4.7401 -2.0016 0.9749
-3.8812 4.6037 -2.0016 0.9749
-4.2016 4.3133 -2.0016 0.9749
-4.7759 3.6672 -2.0016 0.9749
-5.3542 2.7551 -2.0016 0.9749
-5.5381 2.3637 -2.0016 0.9749
-5.7602 1.7544 -2.0016 0.9749
-5.8712 1.3365 -2.0016 0.9749
-5.9155 1.1248 -2.0016 0.9749
-5.9520 0.9116 -2.0016 0.9749
-6.0021 0.4820 -2.0016 0.9749
-6.0191 -0.1663 -2.0016 0.9749
-6.0093 -0.3823 -2.0016 0.9749
-5.9917 -0.5979 -2.0016 0.9749
-5.8926 -1.2388 -2.0016 0.9749
-5.8444 -1.4496 -2.0016 0.9749
-5.7885 -1.6585 -2.0016 0.9749
-5.7252 -1.8653 -2.0016 0.9749
-5.6546 -2.0697 -2.0016 0.9749
-5.4609 -2.2243 -1.9600 0.9755
-5.0092 -2.4733 -1.8570 0.9767
-4.8187 -2.8264 -1.8570 0.9767
-4.6034 -3.1650 -1.8570 0.9767
-4.4868 -3.3283 -1.8570 0.9767
-4.3644 -3.4873 -1.8570 0.9767
-4.2363 -3.6417 -1.8570 0.9767
-3.6713 -4.2108 -1.8570 0.9767
-3.3596 -4.4634 -1.8570 0.9767
-2.6859 -4.8985 -1.8570 0.9767
-2.5082 -4.9918 -1.8570 0.9767
-2.1435 -5.1589 -1.8570 0.9767
-1.5762 -5.3595 -1.8570 0.9767
-1.1875 -5.4588 -1.8570 0.9767
-0.9907 -5.4979 -1.8570 0.9767
-0.5935 -5.5549 -1.8570 0.9767
-0.3936 -5.5726 -1.8570 0.9767
-0.1933 -5.5831 -1.8570 0.9767
0.6081 -5.5533 -1.8570 0.9767
0.8071 -5.5279 -1.8570 0.9767
1.0051 -5.4953 -1.8570 0.9767
1.2018 -5.4557 -1.8570 0.9767
1.3970 -5.4090 -1.8570 0.9767
1.5903 -5.3554 -1.8570 0.9767
1.9706 -5.2274 -1.8570 0.9767
2.2443 -4.0677 -1.5443 0.9806
2.4370 -4.0647 -1.5754 0.9802
3.3713 -4.4546 -1.8570 0.9767
4.1291 -4.3828 -2.0016 0.9749
4.4330 -4.0751 -2.0016 0.9749
4.5765 -3.9133 -2.0016 0.9749
4.7140 -3.7464 -2.0016 0.9749
4.8455 -3.5747 -2.0016 0.9749
4.9708 -3.3984 -2.0016 0.9749
5.2019 -3.0328 -2.0016 0.9749
5.3074 -2.8441 -2.0016 0.9749
5.4062 -2.6517 -2.0016 0.9749
5.5825 -2.2568 -2.0016 0.9749
5.6600 -2.0549 -2.0016 0.9749
5.7301 -1.8503 -2.0016 0.9749
5.7929 -1.6433 -2.0016 0.9749
5.8481 -1.4342 -2.0016 0.9749
5.9360 -1.0108 -2.0016 0.9749
5.9932 -0.5821 -2.0016 0.9749
6.0103 -0.3665 -2.0016 0.9749
6.0211 0.0658 -2.0016 0.9749
6.0008 0.4978 -2.0016 0.9749
5.9791 0.7130 -2.0016 0.9749
5.9496 0.9272 -2.0016 0.9749
5.6137 2.1781 -2.0016 0.9749
5.3469 2.7692 -2.0016 0.9749
5.0181 3.3282 -2.0016 0.9749
4.8953 3.5062 -2.0016 0.9749
4.7662 3.6798 -2.0016 0.9749
4.6310 3.8486 -2.0016 0.9749
4.4898 4.0124 -2.0016 0.9749
3.8691 4.6139 -2.0016 0.9749
3.3504 5.0032 -2.0016 0.9749
3.1686 5.1203 -2.0016 0.9749
2.9827 5.2308 -2.0016 0.9749
2.5996 5.4314 -2.0016 0.9749
1.7951 5.7476 -2.0016 0.9749
1.3779 5.8617 -2.0016 0.9749
0.9536 5.9454 -2.0016 0.9749
0.5244 5.9986 -2.0016 0.9749
0.3087 6.0135 -2.0016 0.9749
0.0926 6.0207 -2.0016 0.9749
