ply
format ascii 1.0
element vertex 1551
property float32 x
property float32 y
property float32 z
property float32 I
end_header
32.6186 -4.2145 -0.9261 0.8767
45.2334 8.9329 -1.2983 0.8315
32.9412 9.0054 -0.9616 0.8723
35.0370 13.7785 -1.0601 0.8601
35.6078 17.0497 -1.1116 0.8539
30.1765 17.2156 -0.9783 0.8702
2.0323 13.1066 -0.3735 0.9483
1.4906 12.5853 -0.3568 0.9506
0.5657 12.2857 -0.3463 0.9520
0.1211 12.0308 -0.3388 0.9530
-0.7442 12.0234 -0.3392 0.9529
-1.1864 8.8206 -0.2506 0.9650
-2.4644 11.8182 -0.3399 0.9528
-3.4250 12.0258 -0.3521 0.9512
-4.3440 11.9248 -0.3574 0.9505
-4.9030 12.0899 -0.3674 0.9491
-5.8622 11.9170 -0.3740 0.9482
-7.4998 11.8309 -0.3944 0.9455
-8.1478 11.8860 -0.4058 0.9440
-8.8230 11.9280 -0.4178 0.9424
-9.4493 11.8586 -0.4270 0.9411
-10.1675 11.8592 -0.4399 0.9394
-11.8203 11.9336 -0.4730 0.9350
-13.5508 11.8439 -0.5068 0.9305
-14.6071 11.8689 -0.5300 0.9275
-15.8369 11.9496 -0.5586 0.9237
-21.5288 11.8351 -0.6918 0.9064
-27.4105 -22.3208 -0.9953 0.8681
-25.4563 -22.2977 -0.9529 0.8734
-23.6607 -22.2772 -0.9151 0.8781
-22.0008 -22.2591 -0.8813 0.8823
-19.0168 -22.2287 -0.8237 0.8895
-17.3942 -21.8769 -0.7871 0.8942
-14.1633 -19.1905 -0.6716 0.9090
-10.9099 -22.2380 -0.6975 0.9056
-9.9464 -22.2635 -0.6866 0.9070
-9.0106 -22.2864 -0.6769 0.9083
-8.0974 -22.3024 -0.6681 0.9094
-2.1717 -22.3915 -0.6335 0.9139
-0.5558 -22.4012 -0.6310 0.9142
0.2495 -22.4036 -0.6309 0.9142
1.0555 -22.4044 -0.6316 0.9142
32.8154 -36.6721 -1.3857 0.8213
32.6126 -31.5578 -1.2778 0.8339
33.2756 -29.9604 -1.2608 0.8360
37.1322 -26.8016 -1.2895 0.8326
38.1823 -25.5241 -1.2932 0.8321
30.2062 -18.6577 -0.9997 0.8676
34.5660 -4.2390 -0.9806 0.8699
43.7261 -3.7735 -1.2358 0.8389
44.9057 12.5888 -1.3132 0.8298
41.2015 13.1645 -1.2179 0.8411
35.0377 14.0411 -1.0629 0.8598
36.0490 15.9727 -1.1102 0.8540
35.2863 17.1772 -1.1051 0.8547
29.9392 17.3378 -0.9742 0.8707
33.6598 21.1429 -1.1193 0.8529
4.8362 16.1397 -0.4744 0.9348
3.5877 13.7526 -0.4002 0.9447
1.4212 12.7019 -0.3599 0.9501
0.0439 12.1781 -0.3429 0.9524
-0.8253 12.0684 -0.3406 0.9527
-1.2693 12.1353 -0.3436 0.9523
-1.2434 8.8130 -0.2506 0.9650
-2.6247 12.1920 -0.3512 0.9513
-4.4170 11.8856 -0.3570 0.9505
-4.9779 12.0501 -0.3671 0.9492
-5.5004 12.0669 -0.3734 0.9483
-6.4740 11.8626 -0.3805 0.9474
-37.9129 -10.9675 -2.0016 0.8538
-37.4943 -12.3228 -2.0016 0.8538
-37.0273 -13.6621 -2.0016 0.8538
-35.9505 -16.2861 -2.0016 0.8538
-34.6880 -18.8260 -2.0016 0.8538
-33.9891 -20.0603 -2.0016 0.8538
-30.7183 -19.6514 -1.8494 0.8641
-29.9923 -20.7425 -1.8494 0.8641
-29.2276 -21.8068 -1.8494 0.8641
-27.8086 -22.3475 -1.8092 0.8669
-22.3908 -22.3625 -1.6049 0.8810
-20.8406 -22.3668 -1.5504 0.8848
-17.6856 -21.9505 -1.4296 0.8932
-16.5889 -22.1756 -1.4045 0.8950
-15.6424 -22.5569 -1.3921 0.8959
-13.1734 -22.2561 -1.3116 0.9016
-12.1887 -22.3909 -1.2929 0.9029
-11.1665 -22.3937 -1.2690 0.9046
-8.2978 -22.4017 -1.2115 0.9088
-7.3930 -22.3992 -1.1962 0.9099
-5.6472 -22.4041 -1.1717 0.9116
-4.8210 -22.5107 -1.1675 0.9119
-3.9629 -22.4088 -1.1541 0.9129
-3.1308 -22.3633 -1.1452 0.9135
-1.5089 -22.4156 -1.1394 0.9139
-0.7013 -22.4178 -1.1375 0.9141
4.0935 -36.2358 -1.8494 0.8641
5.3929 -36.0653 -1.8494 0.8641
8.6251 -38.5134 -2.0016 0.8538
12.7196 -37.3616 -2.0016 0.8538
16.6663 -35.7758 -2.0016 0.8538
2.1844 -4.2801 -0.2437 0.9809
20.4195 -33.7745 -2.0016 0.8538
21.6199 -33.0190 -2.0016 0.8538
23.9355 -31.3810 -2.0016 0.8538
26.9501 -28.3876 -1.9851 0.8549
26.9738 -26.4412 -1.9156 0.8596
29.4300 -21.5330 -1.8494 0.8641
30.1847 -20.4615 -1.8494 0.8641
31.5763 -18.2409 -1.8494 0.8641
33.6297 -16.3264 -1.8959 0.8609
36.0383 -15.9219 -1.9981 0.8540
36.6508 -14.6421 -2.0016 0.8538
38.3705 -9.2402 -2.0016 0.8538
38.6777 -7.8555 -2.0016 0.8538
32.4745 -4.1959 -1.6606 0.8771
34.0794 -3.1631 -1.7357 0.8719
39.1551 -2.2190 -1.9889 0.8546
38.9694 6.2502 -2.0016 0.8538
38.7196 7.6465 -2.0016 0.8538
32.7535 8.9541 -1.7220 0.8728
34.8073 10.8740 -1.8494 0.8641
34.3941 12.1176 -1.8494 0.8641
33.9364 13.3457 -1.8494 0.8641
33.4350 14.5565 -1.8494 0.8641
32.8903 15.7485 -1.8494 0.8641
32.3032 16.9202 -1.8494 0.8641
29.7202 16.9553 -1.7353 0.8719
30.2947 20.2983 -1.8494 0.8641
27.2691 24.6051 -1.8627 0.8632
27.2676 26.4420 -1.9263 0.8589
26.2868 29.4394 -2.0016 0.8538
24.1046 31.2513 -2.0016 0.8538
22.9661 32.0973 -2.0016 0.8538
20.6016 33.6638 -2.0016 0.8538
19.3786 34.3823 -2.0016 0.8538
18.1306 35.0565 -2.0016 0.8538
16.8592 35.6853 -2.0016 0.8538
15.5660 36.2681 -2.0016 0.8538
12.9211 37.2924 -2.0016 0.8538
3.6151 13.4997 -0.7088 0.9456
2.0162 13.0031 -0.6673 0.9487
1.4942 12.6152 -0.6442 0.9504
0.1197 11.8874 -0.6029 0.9535
-0.3090 11.9426 -0.6059 0.9533
-1.1730 11.9609 -0.6095 0.9530
-1.1862 8.8196 -0.4513 0.9650
-2.0429 11.9274 -0.6137 0.9527
-2.4500 11.7492 -0.6087 0.9531
-2.9808 12.1008 -0.6320 0.9513
-3.3934 11.9147 -0.6283 0.9516
-3.7987 11.7216 -0.6249 0.9518
-4.8957 12.0717 -0.6606 0.9492
-5.3164 11.8660 -0.6594 0.9493
-5.8204 11.8319 -0.6687 0.9486
-6.3554 11.8266 -0.6809 0.9476
-6.9033 11.8080 -0.6937 0.9467
-8.8317 11.9398 -0.7532 0.9423
-9.3793 11.7707 -0.7633 0.9415
-10.0944 11.7739 -0.7865 0.9398
-10.9696 11.9011 -0.8208 0.9372
-13.5610 11.8528 -0.9134 0.9304
-14.5805 11.8473 -0.9528 0.9275
-15.8054 11.9258 -1.0041 0.9238
-20.0618 11.9869 -1.1852 0.9106
-21.5721 11.8589 -1.2484 0.9061
-21.1021 8.7932 -1.1594 0.9125
-36.9530 13.8618 -2.0016 0.8538
-37.4273 12.5250 -2.0016 0.8538
-37.8532 11.1720 -2.0016 0.8538
-38.5578 8.4246 -2.0016 0.8538
-39.2405 4.2263 -2.0016 0.8538
-39.3670 2.8136 -2.0016 0.8538
-39.4427 1.3972 -2.0016 0.8538
-39.3640 -2.8555 -2.0016 0.8538
-39.0572 -5.6753 -2.0016 0.8538
-38.8281 -7.0751 -2.0016 0.8538
-38.5488 -8.4657 -2.0016 0.8538
-38.2197 -9.8454 -2.0016 0.8538
-37.8412 -11.2124 -2.0016 0.8538
-37.4139 -12.5649 -2.0016 0.8538
-36.9382 -13.9012 -2.0016 0.8538
-36.4149 -15.2195 -2.0016 0.8538
-35.8445 -16.5182 -2.0016 0.8538
-35.2278 -17.7955 -2.0016 0.8538
-34.5656 -19.0499 -2.0016 0.8538
-30.5905 -19.8496 -1.8494 0.8641
-29.8575 -20.9360 -1.8494 0.8641
-29.0860 -21.9953 -1.8494 0.8641
-27.4445 -22.3485 -1.7949 0.8678
-20.5727 -22.3676 -1.5412 0.8854
-19.1390 -22.3716 -1.4931 0.8888
-17.3942 -21.8769 -1.4174 0.8941
-14.1633 -19.1905 -1.2096 0.9089
-13.0570 -22.3885 -1.3144 0.9014
-10.9865 -22.3942 -1.2650 0.9049
-10.0060 -22.3969 -1.2440 0.9064
-9.0563 -22.3996 -1.2253 0.9078
-8.1318 -22.3972 -1.2084 0.9090
-5.3678 -16.6237 -0.8859 0.9324
-4.6690 -22.5111 -1.1659 0.9120
-3.8137 -22.4092 -1.1528 0.9130
-2.9900 -22.4115 -1.1467 0.9134
-2.1739 -22.4137 -1.1420 0.9138
-0.5562 -22.4182 -1.1373 0.9141
0.2497 -22.4205 -1.1371 0.9141
1.0563 -22.4227 -1.1384 0.9140
4.3277 -36.2086 -1.8494 0.8641
5.6260 -36.0297 -1.8494 0.8641
6.9171 -35.8042 -1.8494 0.8641
8.8739 -38.4568 -2.0016 0.8538
10.2501 -38.1131 -2.0016 0.8538
11.6130 -37.7202 -2.0016 0.8538
12.9609 -37.2786 -2.0016 0.8538
16.8973 -35.6673 -2.0016 0.8538
2.1966 -4.2361 -0.2420 0.9811
19.4152 -34.3617 -2.0016 0.8538
21.8330 -32.8785 -2.0016 0.8538
24.1379 -31.2256 -2.0016 0.8538
25.2444 -30.3381 -2.0016 0.8538
26.9779 -26.1053 -1.9038 0.8604
28.7826 -22.3909 -1.8494 0.8641
29.5686 -21.3422 -1.8494 0.8641
30.3164 -20.2659 -1.8494 0.8641
30.0635 -18.5696 -1.7920 0.8680
31.6936 -18.0363 -1.8494 0.8641
36.2034 -15.7159 -2.0016 0.8538
36.7447 -14.4049 -2.0016 0.8538
37.6844 -11.7287 -2.0016 0.8538
38.0815 -10.3670 -2.0016 0.8538
38.4294 -8.9919 -2.0016 0.8538
38.7277 -7.6052 -2.0016 0.8538
39.4581 0.8578 -2.0016 0.8538
39.4018 2.2751 -2.0016 0.8538
39.2946 3.6895 -2.0016 0.8538
39.1366 5.0991 -2.0016 0.8538
34.7362 11.0988 -1.8494 0.8641
34.3150 12.3397 -1.8494 0.8641
33.8494 13.5648 -1.8494 0.8641
32.1931 17.1288 -1.8494 0.8641
29.6402 17.1646 -1.7370 0.8718
30.1628 20.4937 -1.8494 0.8641
28.6131 22.6071 -1.8494 0.8641
27.7823 23.6206 -1.8494 0.8641
27.2689 24.9266 -1.8736 0.8625
25.0151 30.5273 -2.0016 0.8538
23.9020 31.4065 -2.0016 0.8538
22.7581 32.2451 -2.0016 0.8538
21.5847 33.0420 -2.0016 0.8538
19.1559 34.5069 -2.0016 0.8538
17.9035 35.1730 -2.0016 0.8538
14.0145 36.8954 -2.0016 0.8538
12.6797 37.3751 -2.0016 0.8538
4.8021 16.0260 -0.8484 0.9352
3.5282 13.5245 -0.7088 0.9456
2.9362 13.1768 -0.6846 0.9474
0.9340 12.3495 -0.6281 0.9516
0.0428 11.8822 -0.6026 0.9535
-0.3869 11.9590 -0.6068 0.9532
-0.8212 12.0088 -0.6104 0.9529
-3.4443 11.8034 -0.6236 0.9519
-4.4462 11.9644 -0.6473 0.9502
-5.3662 11.7724 -0.6561 0.9495
-5.8747 11.7500 -0.6662 0.9487
-6.5058 11.9209 -0.6887 0.9471
-25.9335 -8.5232 -2.0016 0.8963
-25.6104 -9.4496 -2.0016 0.8963
-25.2544 -10.3637 -2.0016 0.8963
-23.9924 -13.0213 -2.0016 0.8963
-22.9953 -14.7108 -2.0016 0.8963
-22.4518 -15.5276 -2.0016 0.8963
-21.6704 -16.1684 -1.9824 0.8972
-20.1397 -16.1847 -1.8944 0.9016
-19.0802 -16.4959 -1.8494 0.9038
-17.8462 -17.8237 -1.8494 0.9038
-16.5200 -19.0593 -1.8494 0.9038
-15.8245 -19.6407 -1.8494 0.9038
-14.3730 -20.7264 -1.8494 0.9038
-12.8473 -21.7052 -1.8494 0.9038
-12.0591 -22.1528 -1.8494 0.9038
-11.1665 -22.3937 -1.8348 0.9045
-9.2251 -22.3991 -1.7762 0.9074
-8.2978 -22.4017 -1.7516 0.9086
-5.4610 -16.5457 -1.2775 0.9325
-6.5111 -22.4017 -1.7105 0.9107
-5.6472 -22.4041 -1.6941 0.9115
-4.7269 -22.0715 -1.6550 0.9134
-3.1308 -22.3633 -1.6557 0.9134
-0.7013 -22.4178 -1.6445 0.9140
0.1047 -22.4201 -1.6439 0.9140
0.8763 -21.5666 -1.5826 0.9171
3.7302 -24.9450 -1.8494 0.9038
6.3929 -24.3988 -1.8494 0.9038
8.7976 -25.8417 -2.0016 0.8963
9.7205 -25.5089 -2.0016 0.8963
2.1843 -4.2800 -0.3523 0.9809
2.3413 -4.2069 -0.3530 0.9809
14.1234 -23.3606 -2.0016 0.8963
20.8163 -17.6599 -2.0016 0.8963
21.4374 -16.9005 -2.0016 0.8963
23.1317 -14.4954 -2.0016 0.8963
23.6376 -13.6548 -2.0016 0.8963
24.1130 -12.7966 -2.0016 0.8963
25.3501 -10.1274 -2.0016 0.8963
25.6976 -9.2100 -2.0016 0.8963
26.0119 -8.2807 -2.0016 0.8963
26.2927 -7.3406 -2.0016 0.8963
26.9300 -4.4685 -2.0016 0.8963
27.0731 -3.4980 -2.0016 0.8963
27.2544 -1.5446 -2.0016 0.8963
27.2950 0.4168 -2.0016 0.8963
27.1946 2.3761 -2.0016 0.8963
27.0916 3.3517 -2.0016 0.8963
26.9537 4.3231 -2.0016 0.8963
26.7809 5.2888 -2.0016 0.8963
26.5736 6.2477 -2.0016 0.8963
26.0563 8.1401 -2.0016 0.8963
25.7470 9.0711 -2.0016 0.8963
25.4044 9.9904 -2.0016 0.8963
24.6213 11.7892 -2.0016 0.8963
24.1817 12.6663 -2.0016 0.8963
23.7110 13.5270 -2.0016 0.8963
22.6782 15.1950 -2.0016 0.8963
22.1176 16.0001 -2.0016 0.8963
21.5284 16.7845 -2.0016 0.8963
20.9113 17.5472 -2.0016 0.8963
19.5971 19.0038 -2.0016 0.8963
18.9016 19.6957 -2.0016 0.8963
18.1817 20.3622 -2.0016 0.8963
16.6723 21.6154 -2.0016 0.8963
13.4035 23.7810 -2.0016 0.8963
11.6609 24.6822 -2.0016 0.8963
10.7665 25.0854 -2.0016 0.8963
9.8581 25.4560 -2.0016 0.8963
8.2575 23.8324 -1.8494 0.9038
5.2209 17.0227 -1.3055 0.9311
3.6335 13.5682 -1.0299 0.9452
2.5005 13.0177 -0.9719 0.9482
1.9840 12.7954 -0.9494 0.9494
1.4890 12.5713 -0.9282 0.9505
1.0001 12.1765 -0.8958 0.9522
-0.3103 11.9908 -0.8795 0.9530
-1.1697 11.9279 -0.8788 0.9531
-1.1861 8.8185 -0.6524 0.9649
-2.4989 11.9839 -0.8976 0.9521
-2.9582 12.0093 -0.9069 0.9516
-4.8192 11.8831 -0.9402 0.9499
-5.8268 11.8450 -0.9679 0.9484
-6.3892 11.8896 -0.9897 0.9473
-6.9918 11.9593 -1.0157 0.9460
-7.4540 11.7587 -1.0208 0.9457
-8.7983 11.8946 -1.0848 0.9424
-9.4044 11.8022 -1.1065 0.9413
-10.9551 11.8854 -1.1852 0.9372
-13.5033 11.8023 -1.3150 0.9306
-15.2530 11.5091 -1.4010 0.9262
-19.3065 11.5356 -1.6490 0.9137
-21.0043 11.5468 -1.7574 0.9083
-21.0493 8.7711 -1.6720 0.9126
-23.6155 8.8587 -1.8494 0.9038
-26.4424 6.7815 -2.0016 0.8963
-26.6690 5.8270 -2.0016 0.8963
-26.8612 4.8649 -2.0016 0.8963
-27.0186 3.8966 -2.0016 0.8963
-27.1412 2.9232 -2.0016 0.8963
-27.2287 1.9460 -2.0016 0.8963
-27.2811 0.9664 -2.0016 0.8963
-27.2982 -0.0146 -2.0016 0.8963
-27.2800 -0.9955 -2.0016 0.8963
-27.2266 -1.9751 -2.0016 0.8963
-26.4352 -6.8097 -2.0016 0.8963
-26.1734 -7.7552 -2.0016 0.8963
-25.8778 -8.6907 -2.0016 0.8963
-24.7923 -11.4250 -2.0016 0.8963
-23.9077 -13.1761 -2.0016 0.8963
-22.3510 -15.6724 -2.0016 0.8963
-19.8785 -16.1874 -1.8797 0.9023
-18.9731 -16.6190 -1.8494 0.9038
-17.7306 -17.9387 -1.8494 0.9038
-16.3964 -19.1658 -1.8494 0.9038
-15.6972 -19.7426 -1.8494 0.9038
-14.1633 -19.1905 -1.7488 0.9088
-14.2387 -20.8189 -1.8494 0.9038
-13.4814 -21.3171 -1.8494 0.9038
-11.9156 -22.2303 -1.8494 0.9038
-10.9865 -22.3942 -1.8289 0.9048
-10.0060 -22.3969 -1.7986 0.9063
-6.3544 -22.4021 -1.7074 0.9108
-5.4935 -22.4045 -1.6914 0.9116
-3.8137 -22.4092 -1.6667 0.9129
-2.9900 -22.4115 -1.6578 0.9133
-1.3634 -22.4160 -1.6466 0.9139
-0.5562 -22.4182 -1.6443 0.9140
2.0915 -25.1355 -1.8494 0.9038
2.9933 -25.0441 -1.8494 0.9038
3.8915 -24.9204 -1.8494 0.9038
5.6712 -24.5766 -1.8494 0.9038
6.5505 -24.3569 -1.8494 0.9038
7.4215 -24.1058 -1.8494 0.9038
8.9646 -25.7842 -2.0016 0.8963
9.8853 -25.4455 -2.0016 0.8963
14.2742 -23.2688 -2.0016 0.8963
15.1011 -22.7409 -2.0016 0.8963
17.4606 -20.9837 -2.0016 0.8963
19.6174 -18.9829 -2.0016 0.8963
21.5463 -16.7615 -2.0016 0.8963
22.1346 -15.9765 -2.0016 0.8963
23.2249 -14.3455 -2.0016 0.8963
23.7254 -13.5017 -2.0016 0.8963
25.4150 -9.9633 -2.0016 0.8963
26.3396 -7.1705 -2.0016 0.8963
26.5802 -6.2194 -2.0016 0.8963
26.9583 -4.2943 -2.0016 0.8963
27.1971 -2.3471 -2.0016 0.8963
27.2639 -1.3683 -2.0016 0.8963
27.2528 1.5736 -2.0016 0.8963
26.2848 7.3687 -2.0016 0.8963
25.6878 9.2374 -2.0016 0.8963
25.3392 10.1545 -2.0016 0.8963
24.0993 12.8224 -2.0016 0.8963
23.6230 13.6801 -2.0016 0.8963
22.5795 15.3413 -2.0016 0.8963
20.1486 18.4180 -2.0016 0.8963
18.0496 20.4793 -2.0016 0.8963
17.3020 21.1147 -2.0016 0.8963
16.5322 21.7228 -2.0016 0.8963
15.7409 22.3028 -2.0016 0.8963
14.0985 23.3757 -2.0016 0.8963
13.2494 23.8672 -2.0016 0.8963
12.3832 24.3279 -2.0016 0.8963
4.8027 16.0279 -1.2268 0.9351
1.4146 12.6426 -0.9328 0.9503
0.9275 12.2643 -0.9018 0.9519
0.4813 12.1653 -0.8927 0.9523
-0.3917 12.1083 -0.8883 0.9526
-1.2708 12.1491 -0.8957 0.9522
-1.2431 8.8110 -0.6524 0.9649
-2.5811 11.9894 -0.8992 0.9520
-3.4548 11.8393 -0.9043 0.9517
-4.9067 11.8779 -0.9423 0.9498
-5.9764 11.9535 -0.9799 0.9478
-6.4831 11.8793 -0.9923 0.9472
-19.8062 -6.5094 -2.0016 0.9196
-19.2876 -7.9151 -2.0016 0.9196
-18.9907 -8.6030 -2.0016 0.9196
-17.9546 -10.5968 -2.0016 0.9196
-17.5622 -11.2351 -2.0016 0.9196
-17.1472 -11.8589 -2.0016 0.9196
-16.7100 -12.4674 -2.0016 0.9196
-15.7714 -13.6353 -2.0016 0.9196
-14.7514 -14.7328 -2.0016 0.9196
-10.4012 -16.2137 -1.8494 0.9255
-9.8119 -16.5769 -1.8494 0.9255
-7.9710 -17.5366 -1.8494 0.9255
-7.3358 -17.8117 -1.8494 0.9255
-5.4504 -16.5135 -1.6695 0.9325
-4.7082 -18.6789 -1.8494 0.9255
-0.6023 -19.2537 -1.8494 0.9255
0.0818 -17.5224 -1.6823 0.9320
2.1624 -19.1414 -1.8494 0.9255
3.5315 -18.9367 -1.8494 0.9255
5.9540 -19.7935 -1.9844 0.9203
8.8039 -18.8984 -2.0016 0.9196
2.1843 -4.2800 -0.4613 0.9809
10.7865 -17.8413 -2.0016 0.9196
12.6438 -16.5769 -2.0016 0.9196
14.3543 -15.1200 -2.0016 0.9196
14.8884 -14.5944 -2.0016 0.9196
15.4031 -14.0500 -2.0016 0.9196
17.2572 -11.6983 -2.0016 0.9196
18.7552 -9.1052 -2.0016 0.9196
20.2691 -4.8811 -2.0016 0.9196
20.6766 -2.6715 -2.0016 0.9196
20.7593 -1.9268 -2.0016 0.9196
20.8212 1.0672 -2.0016 0.9196
20.7694 1.8147 -2.0016 0.9196
20.6907 2.5598 -2.0016 0.9196
20.4535 4.0392 -2.0016 0.9196
20.2951 4.7716 -2.0016 0.9196
20.1106 5.4978 -2.0016 0.9196
19.9000 6.2169 -2.0016 0.9196
19.4021 7.6300 -2.0016 0.9196
18.8040 9.0038 -2.0016 0.9196
18.4684 9.6736 -2.0016 0.9196
18.1088 10.3310 -2.0016 0.9196
16.8919 12.2198 -2.0016 0.9196
16.4419 12.8189 -2.0016 0.9196
15.9707 13.4014 -2.0016 0.9196
15.4788 13.9666 -2.0016 0.9196
14.9669 14.5138 -2.0016 0.9196
14.4357 15.0422 -2.0016 0.9196
13.3181 16.0402 -2.0016 0.9196
11.5147 17.3802 -2.0016 0.9196
10.8827 17.7828 -2.0016 0.9196
10.2367 18.1623 -2.0016 0.9196
9.5774 18.5184 -2.0016 0.9196
6.9565 17.9632 -1.8494 0.9255
6.3065 18.2016 -1.8494 0.9255
5.3429 17.4202 -1.7493 0.9294
3.5733 13.3437 -1.3262 0.9460
3.0333 13.2098 -1.3012 0.9470
0.5580 12.1193 -1.1647 0.9524
-1.1812 12.0446 -1.1619 0.9525
-2.4856 11.9201 -1.1690 0.9522
-3.4128 11.9829 -1.1962 0.9512
-3.8021 11.7320 -1.1840 0.9517
-5.8400 11.8718 -1.2702 0.9482
-6.9643 11.9122 -1.3247 0.9461
-10.5800 11.4784 -1.4987 0.9392
-11.3747 11.4836 -1.5518 0.9371
-12.2288 11.4892 -1.6109 0.9348
-13.1520 11.4953 -1.6770 0.9322
-14.1554 11.5019 -1.7511 0.9293
-15.7839 11.0425 -1.8494 0.9255
-17.2031 8.6673 -1.8494 0.9255
-17.9549 8.2509 -1.8971 0.9237
-19.2086 8.0041 -1.9978 0.9198
-19.5203 7.3225 -2.0016 0.9196
-19.7708 6.6163 -2.0016 0.9196
-20.1949 5.1793 -2.0016 0.9196
-20.6350 2.9759 -2.0016 0.9196
-20.7955 1.4863 -2.0016 0.9196
-20.8346 -0.7603 -2.0016 0.9196
-20.7939 -1.5084 -2.0016 0.9196
-20.7262 -2.2547 -2.0016 0.9196
-20.6318 -2.9980 -2.0016 0.9196
-20.3632 -4.4720 -2.0016 0.9196
-16.1665 -13.1646 -2.0016 0.9196
-15.6829 -13.7370 -2.0016 0.9196
-14.6558 -14.8279 -2.0016 0.9196
-14.1136 -15.3449 -2.0016 0.9196
-11.9399 -16.1780 -1.9304 0.9224
-10.2962 -16.2806 -1.8494 0.9255
-7.8575 -17.5878 -1.8494 0.9255
-6.5740 -18.1067 -1.8494 0.9255
-5.3351 -16.5224 -1.6669 0.9326
-4.5873 -18.7090 -1.8494 0.9255
-3.9121 -18.8617 -1.8494 0.9255
-3.2318 -18.9901 -1.8494 0.9255
-1.1695 -19.2276 -1.8494 0.9255
0.9065 -19.2418 -1.8494 0.9255
2.9719 -19.0325 -1.8494 0.9255
3.6539 -18.9135 -1.8494 0.9255
4.3312 -18.7699 -1.8494 0.9255
6.1156 -19.8643 -1.9954 0.9199
6.8465 -19.6923 -2.0016 0.9196
7.5497 -19.4335 -2.0016 0.9196
8.9259 -18.8411 -2.0016 0.9196
10.9017 -17.7711 -2.0016 0.9196
12.1498 -16.9423 -2.0016 0.9196
14.9824 -14.4978 -2.0016 0.9196
15.9850 -13.3843 -2.0016 0.9196
16.4556 -12.8013 -2.0016 0.9196
17.7376 -10.9561 -2.0016 0.9196
18.1198 -10.3117 -2.0016 0.9196
18.8136 -8.9837 -2.0016 0.9196
19.4103 -7.6093 -2.0016 0.9196
19.6712 -6.9069 -2.0016 0.9196
20.3002 -4.7500 -2.0016 0.9196
20.4578 -4.0174 -2.0016 0.9196
20.7713 -1.7925 -2.0016 0.9196
20.8223 -1.0450 -2.0016 0.9196
20.8436 0.4531 -2.0016 0.9196
20.8138 1.2018 -2.0016 0.9196
20.0746 5.6277 -2.0016 0.9196
19.8594 6.3454 -2.0016 0.9196
19.6186 7.0549 -2.0016 0.9196
19.0612 8.4457 -2.0016 0.9196
18.7454 9.1252 -2.0016 0.9196
18.4054 9.7929 -2.0016 0.9196
18.0417 10.4479 -2.0016 0.9196
17.6546 11.0895 -2.0016 0.9196
17.2447 11.7167 -2.0016 0.9196
16.8125 12.3288 -2.0016 0.9196
16.3587 12.9249 -2.0016 0.9196
15.3882 14.0664 -2.0016 0.9196
14.8728 14.6103 -2.0016 0.9196
13.7851 15.6407 -2.0016 0.9196
13.2141 16.1260 -2.0016 0.9196
12.6261 16.5904 -2.0016 0.9196
12.0219 17.0333 -2.0016 0.9196
11.4020 17.4543 -2.0016 0.9196
10.7675 17.8528 -2.0016 0.9196
7.7093 16.5950 -1.7567 0.9291
4.7770 15.9424 -1.5978 0.9353
3.4687 13.2965 -1.3193 0.9463
2.9141 13.0776 -1.2863 0.9476
2.4548 13.2414 -1.2929 0.9473
1.3832 12.3623 -1.1943 0.9512
0.0437 12.1211 -1.1637 0.9525
-0.8136 11.8971 -1.1448 0.9532
-1.2409 11.8630 -1.1451 0.9532
-1.2430 8.8100 -0.8542 0.9649
-2.5505 11.8473 -1.1635 0.9525
-3.4543 11.8375 -1.1839 0.9517
-3.9806 12.0172 -1.2154 0.9504
-4.8877 11.8319 -1.2290 0.9499
-5.4193 11.8891 -1.2544 0.9489
-5.9177 11.8360 -1.2704 0.9482
-16.1865 -4.6824 -2.0016 0.9344
-15.8084 -5.8329 -2.0016 0.9344
-15.5886 -6.3971 -2.0016 0.9344
-14.8096 -8.0375 -2.0016 0.9344
-14.5113 -8.5645 -2.0016 0.9344
-14.1941 -9.0804 -2.0016 0.9344
-13.8587 -9.5846 -2.0016 0.9344
-13.1345 -10.5552 -2.0016 0.9344
-12.7468 -11.0203 -2.0016 0.9344
-12.3425 -11.4712 -2.0016 0.9344
-11.9224 -11.9073 -2.0016 0.9344
-11.0364 -12.7328 -2.0016 0.9344
-10.5718 -13.1212 -2.0016 0.9344
-9.6021 -13.8466 -2.0016 0.9344
-9.0983 -14.1827 -2.0016 0.9344
-8.0563 -14.7995 -2.0016 0.9344
-7.5192 -15.0794 -2.0016 0.9344
-5.2701 -15.9672 -1.9973 0.9345
-4.6866 -16.1246 -1.9946 0.9346
-4.0755 -16.1687 -1.9807 0.9350
-3.4634 -16.1717 -1.9645 0.9356
-2.8603 -16.1742 -1.9511 0.9360
-1.6747 -16.1777 -1.9320 0.9366
-1.0897 -16.1878 -1.9272 0.9367
-0.5076 -16.2259 -1.9284 0.9367
0.0761 -16.2994 -1.9362 0.9365
1.2710 -16.5707 -1.9741 0.9352
3.6824 -16.4429 -2.0016 0.9344
4.8538 -16.1359 -2.0016 0.9344
7.1155 -15.2741 -2.0016 0.9344
2.1843 -4.2799 -0.5708 0.9808
8.7179 -14.4197 -2.0016 0.9344
9.2304 -14.0971 -2.0016 0.9344
9.7310 -13.7563 -2.0016 0.9344
10.6938 -13.0219 -2.0016 0.9344
12.4491 -11.3555 -2.0016 0.9344
12.8491 -10.9008 -2.0016 0.9344
13.5988 -9.9498 -2.0016 0.9344
14.2783 -8.9475 -2.0016 0.9344
14.8841 -7.8989 -2.0016 0.9344
15.8622 -5.6850 -2.0016 0.9344
16.0562 -5.1113 -2.0016 0.9344
16.2295 -4.5311 -2.0016 0.9344
16.6229 -2.7583 -2.0016 0.9344
16.7112 -2.1592 -2.0016 0.9344
16.8281 0.8625 -2.0016 0.9344
16.7227 2.0689 -2.0016 0.9344
16.5309 3.2646 -2.0016 0.9344
16.0836 5.0246 -2.0016 0.9344
15.6812 6.1667 -2.0016 0.9344
15.4495 6.7262 -2.0016 0.9344
14.9265 7.8184 -2.0016 0.9344
14.6359 8.3497 -2.0016 0.9344
13.9984 9.3793 -2.0016 0.9344
12.9078 10.8313 -2.0016 0.9344
12.5103 11.2881 -2.0016 0.9344
11.6672 12.1574 -2.0016 0.9344
10.7640 12.9640 -2.0016 0.9344
9.8051 13.7036 -2.0016 0.9344
7.6444 13.5629 -1.8494 0.9392
7.1521 13.8289 -1.8494 0.9392
6.6505 14.0769 -1.8494 0.9392
6.1404 14.3068 -1.8494 0.9392
3.5733 13.3437 -1.6409 0.9459
3.0052 13.0874 -1.5951 0.9473
2.4673 12.8448 -1.5537 0.9487
1.9559 12.6141 -1.5163 0.9499
0.5516 11.9807 -1.4246 0.9528
-0.3001 11.5965 -1.3780 0.9543
-0.7064 11.4137 -1.3584 0.9550
-1.9564 11.4219 -1.3765 0.9544
-2.3823 11.4247 -1.3863 0.9541
-2.8149 11.4275 -1.3980 0.9537
-3.2554 11.4304 -1.4118 0.9533
-3.7053 11.4334 -1.4277 0.9527
-4.1661 11.4364 -1.4458 0.9522
-4.6393 11.4395 -1.4663 0.9515
-8.4802 11.4647 -1.6939 0.9442
-9.1389 11.4690 -1.7420 0.9426
-9.8369 11.4736 -1.7952 0.9409
-10.9562 11.0612 -1.8494 0.9392
-13.8050 8.2485 -1.9103 0.9373
-15.0482 7.5815 -2.0016 0.9344
-15.5538 6.4812 -2.0016 0.9344
-15.7767 5.9181 -2.0016 0.9344
-16.3219 4.1860 -2.0016 0.9344
-16.4618 3.5968 -2.0016 0.9344
-16.7533 1.8044 -2.0016 0.9344
-16.8073 1.2012 -2.0016 0.9344
-16.6750 -2.4230 -2.0016 0.9344
-16.5772 -3.0206 -2.0016 0.9344
-15.9734 -5.3645 -2.0016 0.9344
-15.7703 -5.9350 -2.0016 0.9344
-15.3034 -7.0523 -2.0016 0.9344
-14.7574 -8.1331 -2.0016 0.9344
-13.7964 -9.6740 -2.0016 0.9344
-12.6753 -11.1025 -2.0016 0.9344
-11.4069 -12.4021 -2.0016 0.9344
-10.4867 -13.1893 -2.0016 0.9344
-9.5124 -13.9084 -2.0016 0.9344
-9.0064 -14.2412 -2.0016 0.9344
-8.4889 -14.5556 -2.0016 0.9344
-6.8732 -15.3846 -2.0016 0.9344
-3.3543 -16.1722 -1.9619 0.9356
-2.7527 -16.1746 -1.9489 0.9360
-0.9847 -16.1908 -1.9268 0.9367
-0.4028 -16.2345 -1.9290 0.9367
1.9942 -16.6850 -1.9960 0.9346
2.5985 -16.6413 -2.0007 0.9344
3.7886 -16.4187 -2.0016 0.9344
4.3762 -16.2720 -2.0016 0.9344
4.9580 -16.1042 -2.0016 0.9344
5.5335 -15.9157 -2.0016 0.9344
7.2141 -15.2277 -2.0016 0.9344
2.1965 -4.2360 -0.5668 0.9810
8.2891 -14.6703 -2.0016 0.9344
9.8197 -13.6931 -2.0016 0.9344
10.3054 -13.3314 -2.0016 0.9344
12.1091 -11.7174 -2.0016 0.9344
12.9194 -10.8175 -2.0016 0.9344
14.3359 -8.8550 -2.0016 0.9344
14.9348 -7.8025 -2.0016 0.9344
15.2055 -7.2608 -2.0016 0.9344
15.4566 -6.7097 -2.0016 0.9344
15.6877 -6.1500 -2.0016 0.9344
15.8986 -5.5823 -2.0016 0.9344
16.0889 -5.0074 -2.0016 0.9344
16.5344 -3.2469 -2.0016 0.9344
16.7249 -2.0511 -2.0016 0.9344
16.7878 -1.4488 -2.0016 0.9344
16.8290 -0.8446 -2.0016 0.9344
16.8221 0.9713 -2.0016 0.9344
16.7089 2.1770 -2.0016 0.9344
16.6199 2.7760 -2.0016 0.9344
16.5094 3.3714 -2.0016 0.9344
16.3776 3.9625 -2.0016 0.9344
16.2247 4.5484 -2.0016 0.9344
16.0507 5.1285 -2.0016 0.9344
15.8561 5.7019 -2.0016 0.9344
14.8756 7.9148 -2.0016 0.9344
14.2688 8.9627 -2.0016 0.9344
13.9375 9.4696 -2.0016 0.9344
13.5882 9.9643 -2.0016 0.9344
12.8375 10.9145 -2.0016 0.9344
12.0205 11.8083 -2.0016 0.9344
11.5884 12.2326 -2.0016 0.9344
11.1414 12.6411 -2.0016 0.9344
10.2047 13.4087 -2.0016 0.9344
8.7025 14.4289 -2.0016 0.9344
7.5565 13.6121 -1.8494 0.9392
6.0478 14.3462 -1.8494 0.9392
5.0018 14.7435 -1.8494 0.9392
4.4688 14.9137 -1.8494 0.9392
2.9063 13.0428 -1.5873 0.9476
1.3824 12.3554 -1.4768 0.9512
0.9185 12.1462 -1.4469 0.9521
0.4726 11.9450 -1.4200 0.9530
0.0423 11.7510 -1.3959 0.9538
-0.7806 11.4142 -1.3590 0.9550
-1.1942 11.4169 -1.3636 0.9548
-1.2428 8.8090 -1.0568 0.9648
-2.4596 11.4252 -1.3882 0.9540
-4.2502 11.4370 -1.4493 0.9520
-4.7259 11.4401 -1.4703 0.9514
-5.2161 11.4433 -1.4939 0.9506
-12.5898 -3.6420 -1.8570 0.9484
-12.2957 -4.5368 -1.8570 0.9484
-12.1248 -4.9757 -1.8570 0.9484
-12.6498 -6.2878 -2.0016 0.9445
-12.4157 -6.7383 -2.0016 0.9445
-11.8997 -7.6126 -2.0016 0.9445
-11.0114 -8.8490 -2.0016 0.9445
-10.6863 -9.2389 -2.0016 0.9445
-9.9952 -9.9826 -2.0016 0.9445
-9.6300 -10.3353 -2.0016 0.9445
-8.8629 -11.0002 -2.0016 0.9445
-8.4619 -11.3116 -2.0016 0.9445
-8.0500 -11.6083 -2.0016 0.9445
-7.6276 -11.8901 -2.0016 0.9445
-7.1955 -12.1565 -2.0016 0.9445
-6.7540 -12.4072 -2.0016 0.9445
-5.3796 -13.0620 -2.0016 0.9445
-4.9068 -13.2469 -2.0016 0.9445
-4.4276 -13.4146 -2.0016 0.9445
-1.9586 -13.9900 -2.0016 0.9445
-1.4546 -14.0513 -2.0016 0.9445
0.0660 -14.1262 -2.0016 0.9445
0.5735 -14.1148 -2.0016 0.9445
1.0803 -14.0850 -2.0016 0.9445
1.5858 -14.0371 -2.0016 0.9445
2.0891 -13.9711 -2.0016 0.9445
3.0871 -13.7849 -2.0016 0.9445
3.5805 -13.6651 -2.0016 0.9445
4.0692 -13.5276 -2.0016 0.9445
5.0302 -13.2005 -2.0016 0.9445
5.5013 -13.0112 -2.0016 0.9445
7.7383 -11.8183 -2.0016 0.9445
8.5671 -11.2321 -2.0016 0.9445
8.9652 -10.9170 -2.0016 0.9445
9.3517 -10.5878 -2.0016 0.9445
9.7261 -10.2449 -2.0016 0.9445
10.0880 -9.8888 -2.0016 0.9445
10.7721 -9.1387 -2.0016 0.9445
11.0936 -8.7458 -2.0016 0.9445
11.4006 -8.3415 -2.0016 0.9445
11.6930 -7.9264 -2.0016 0.9445
11.9703 -7.5012 -2.0016 0.9445
12.9215 -5.7088 -2.0016 0.9445
13.1183 -5.2408 -2.0016 0.9445
13.2981 -4.7660 -2.0016 0.9445
13.4608 -4.2851 -2.0016 0.9445
13.6061 -3.7987 -2.0016 0.9445
13.8438 -2.8117 -2.0016 0.9445
13.9358 -2.3124 -2.0016 0.9445
14.0659 -1.3056 -2.0016 0.9445
14.1038 -0.7993 -2.0016 0.9445
14.1234 -0.2920 -2.0016 0.9445
14.1248 0.2157 -2.0016 0.9445
14.1079 0.7231 -2.0016 0.9445
13.8587 2.7369 -2.0016 0.9445
13.7514 3.2331 -2.0016 0.9445
13.6264 3.7252 -2.0016 0.9445
13.3237 4.6942 -2.0016 0.9445
12.9521 5.6389 -2.0016 0.9445
12.7411 6.1007 -2.0016 0.9445
12.2701 7.0000 -2.0016 0.9445
12.0106 7.4364 -2.0016 0.9445
11.7356 7.8632 -2.0016 0.9445
9.7813 10.1922 -2.0016 0.9445
9.4087 10.5371 -2.0016 0.9445
9.0240 10.8684 -2.0016 0.9445
7.8020 11.7764 -2.0016 0.9445
6.4087 11.3705 -1.8494 0.9486
5.9960 11.5935 -1.8494 0.9486
5.5755 11.8015 -1.8494 0.9486
4.7135 12.1714 -1.8494 0.9486
4.2731 12.3329 -1.8494 0.9486
3.8272 12.4785 -1.8494 0.9486
3.3763 12.6080 -1.8494 0.9486
2.9211 12.7211 -1.8494 0.9486
2.4621 12.8179 -1.8494 0.9486
0.1186 11.7854 -1.6699 0.9535
-0.7064 11.4137 -1.6203 0.9549
-1.1763 8.7462 -1.2504 0.9650
-3.2554 11.4304 -1.6840 0.9531
-3.7053 11.4334 -1.7029 0.9526
-4.6393 11.4395 -1.7491 0.9514
-5.6305 11.4460 -1.8074 0.9498
-6.1527 11.4494 -1.8417 0.9488
-6.5876 11.2678 -1.8494 0.9486
-7.3798 10.7656 -1.8494 0.9486
-7.7619 10.4935 -1.8494 0.9486
-8.1339 10.2078 -1.8494 0.9486
-8.8461 9.5973 -1.8494 0.9486
-9.1852 9.2732 -1.8494 0.9486
-9.5125 8.9372 -1.8494 0.9486
-9.8275 8.5896 -1.8494 0.9486
-11.8585 7.6768 -2.0016 0.9445
-12.3792 6.8052 -2.0016 0.9445
-12.6157 6.3560 -2.0016 0.9445
-12.8360 5.8986 -2.0016 0.9445
-13.0396 5.4336 -2.0016 0.9445
-13.2264 4.9615 -2.0016 0.9445
-13.5486 3.9988 -2.0016 0.9445
-13.9003 2.5175 -2.0016 0.9445
-13.9818 2.0164 -2.0016 0.9445
-14.0905 1.0070 -2.0016 0.9445
-14.1264 -0.0075 -2.0016 0.9445
-14.0435 -1.5277 -2.0016 0.9445
-13.8976 -2.5323 -2.0016 0.9445
-12.8010 -2.8113 -1.8570 0.9484
-12.4241 -4.1725 -1.8570 0.9484
-12.2661 -4.6162 -1.8570 0.9484
-12.0923 -5.0540 -1.8570 0.9484
-11.5663 -8.1102 -2.0016 0.9445
-10.9540 -8.9200 -2.0016 0.9445
-10.6264 -9.3078 -2.0016 0.9445
-10.2850 -9.6837 -2.0016 0.9445
-9.9304 -10.0470 -2.0016 0.9445
-9.1832 -10.7342 -2.0016 0.9445
-8.3885 -11.3661 -2.0016 0.9445
-7.1167 -12.2028 -2.0016 0.9445
-6.6736 -12.4506 -2.0016 0.9445
-6.2219 -12.6824 -2.0016 0.9445
-4.8210 -13.2783 -2.0016 0.9445
-4.3408 -13.4430 -2.0016 0.9445
-2.8689 -13.8320 -2.0016 0.9445
-2.3700 -13.9262 -2.0016 0.9445
-1.8681 -14.0023 -2.0016 0.9445
-1.3637 -14.0604 -2.0016 0.9445
0.1573 -14.1255 -2.0016 0.9445
1.6765 -14.0266 -2.0016 0.9445
2.1794 -13.9573 -2.0016 0.9445
3.1762 -13.7647 -2.0016 0.9445
5.5853 -12.9753 -2.0016 0.9445
6.0480 -12.7663 -2.0016 0.9445
2.1965 -4.2360 -0.6761 0.9809
6.9492 -12.2989 -2.0016 0.9445
8.6396 -11.1764 -2.0016 0.9445
9.0356 -10.8588 -2.0016 0.9445
10.8310 -9.0689 -2.0016 0.9445
11.1499 -8.6738 -2.0016 0.9445
11.7440 -7.8507 -2.0016 0.9445
12.0185 -7.4236 -2.0016 0.9445
12.9581 -5.6251 -2.0016 0.9445
13.1519 -5.1559 -2.0016 0.9445
13.4882 -4.1980 -2.0016 0.9445
13.6304 -3.7106 -2.0016 0.9445
13.7549 -3.2184 -2.0016 0.9445
13.8617 -2.7221 -2.0016 0.9445
13.9505 -2.2222 -2.0016 0.9445
14.0741 -1.2146 -2.0016 0.9445
14.1086 -0.7081 -2.0016 0.9445
14.1250 -0.2006 -2.0016 0.9445
14.1231 0.3070 -2.0016 0.9445
14.1029 0.8143 -2.0016 0.9445
14.0645 1.3206 -2.0016 0.9445
13.7303 3.3220 -2.0016 0.9445
13.6020 3.8132 -2.0016 0.9445
13.4562 4.2995 -2.0016 0.9445
13.1127 5.2548 -2.0016 0.9445
12.7014 6.1830 -2.0016 0.9445
12.2246 7.0792 -2.0016 0.9445
11.9623 7.5139 -2.0016 0.9445
11.3917 8.3536 -2.0016 0.9445
10.7624 9.1502 -2.0016 0.9445
10.4266 9.5310 -2.0016 0.9445
10.0774 9.8995 -2.0016 0.9445
8.9536 10.9265 -2.0016 0.9445
7.7257 11.8266 -2.0016 0.9445
5.9209 11.6320 -1.8494 0.9486
5.4991 11.8373 -1.8494 0.9486
5.0702 12.0272 -1.8494 0.9486
4.6347 12.2016 -1.8494 0.9486
3.2947 12.6295 -1.8494 0.9486
2.8388 12.7398 -1.8494 0.9486
1.8664 12.5738 -1.8011 0.9499
1.3824 12.3554 -1.7616 0.9510
0.4726 11.9450 -1.6938 0.9529
0.0423 11.7510 -1.6650 0.9536
-0.3741 11.5631 -1.6392 0.9543
-1.1942 11.4169 -1.6265 0.9547
-2.0326 11.4224 -1.6439 0.9542
-2.8935 11.4281 -1.6703 0.9535
-4.7259 11.4401 -1.7538 0.9512
-5.2161 11.4433 -1.7819 0.9505
-5.7230 11.4466 -1.8133 0.9496
-6.2488 11.4500 -1.8482 0.9487
-10.7087 -3.5195 -1.8570 0.9553
-10.5753 -3.9020 -1.8570 0.9553
-10.0940 -5.0174 -1.8570 0.9553
-10.4634 -6.1755 -2.0016 0.9519
-10.2348 -6.5475 -2.0016 0.9519
-9.4707 -7.6108 -2.0016 0.9519
-7.9578 -9.1811 -2.0016 0.9519
-7.6228 -9.4611 -2.0016 0.9519
-6.5604 -10.2265 -2.0016 0.9519
-6.1887 -10.4556 -2.0016 0.9519
-5.8090 -10.6712 -2.0016 0.9519
-5.4218 -10.8731 -2.0016 0.9519
-5.0276 -11.0609 -2.0016 0.9519
-4.6269 -11.2344 -2.0016 0.9519
-4.2202 -11.3934 -2.0016 0.9519
-3.3910 -11.6671 -2.0016 0.9519
-2.9696 -11.7814 -2.0016 0.9519
-2.1158 -11.9642 -2.0016 0.9519
-1.2511 -12.0853 -2.0016 0.9519
-0.8160 -12.1224 -2.0016 0.9519
0.0567 -12.1497 -2.0016 0.9519
0.9292 -12.1143 -2.0016 0.9519
1.3639 -12.0731 -2.0016 0.9519
4.3264 -11.3535 -2.0016 0.9519
4.7316 -11.1907 -2.0016 0.9519
2.1843 -4.2799 -0.7916 0.9807
2.3411 -4.2067 -0.7931 0.9807
6.2861 -10.3973 -2.0016 0.9519
7.0166 -9.9190 -2.0016 0.9519
7.3684 -9.6605 -2.0016 0.9519
7.7108 -9.3895 -2.0016 0.9519
8.0432 -9.1064 -2.0016 0.9519
8.3653 -8.8115 -2.0016 0.9519
8.6765 -8.5052 -2.0016 0.9519
8.9765 -8.1879 -2.0016 0.9519
9.8055 -7.1744 -2.0016 0.9519
10.0570 -6.8174 -2.0016 0.9519
10.5206 -6.0775 -2.0016 0.9519
10.9299 -5.3062 -2.0016 0.9519
11.1135 -4.9100 -2.0016 0.9519
11.4375 -4.0992 -2.0016 0.9519
11.5774 -3.6856 -2.0016 0.9519
11.7023 -3.2672 -2.0016 0.9519
11.8122 -2.8446 -2.0016 0.9519
12.0979 -1.1229 -2.0016 0.9519
12.1304 -0.6874 -2.0016 0.9519
12.1473 -0.2511 -2.0016 0.9519
12.1485 0.1855 -2.0016 0.9519
12.1340 0.6219 -2.0016 0.9519
12.1038 1.0576 -2.0016 0.9519
11.9197 2.3539 -2.0016 0.9519
11.8274 2.7807 -2.0016 0.9519
11.7198 3.2039 -2.0016 0.9519
11.5971 3.6230 -2.0016 0.9519
10.9584 5.2471 -2.0016 0.9519
10.5533 6.0206 -2.0016 0.9519
10.3301 6.3959 -2.0016 0.9519
10.0936 6.7630 -2.0016 0.9519
9.8441 7.1213 -2.0016 0.9519
9.3072 7.8099 -2.0016 0.9519
9.0206 8.1393 -2.0016 0.9519
8.7223 8.4582 -2.0016 0.9519
8.0923 9.0628 -2.0016 0.9519
7.4205 9.6206 -2.0016 0.9519
6.7104 10.1287 -2.0016 0.9519
5.9460 10.5497 -1.9950 0.9521
5.1570 9.9714 -1.8494 0.9555
4.0540 10.4684 -1.8494 0.9555
2.9039 10.8439 -1.8494 0.9555
2.1176 11.0245 -1.8494 0.9555
1.7201 11.0934 -1.8494 0.9555
1.3204 11.1481 -1.8494 0.9555
0.5163 11.2141 -1.8494 0.9555
0.1130 11.2254 -1.8494 0.9555
-0.2904 11.2222 -1.8494 0.9555
-0.6935 11.2046 -1.8494 0.9555
-1.0956 11.1724 -1.8494 0.9555
-2.2916 10.9896 -1.8494 0.9555
-3.4609 10.6792 -1.8494 0.9555
-3.8424 10.5479 -1.8494 0.9555
-4.2189 10.4030 -1.8494 0.9555
-4.9552 10.0732 -1.8494 0.9555
-5.3140 9.8886 -1.8494 0.9555
-6.3473 9.2593 -1.8494 0.9555
-7.3068 8.5225 -1.8494 0.9555
-8.1698 8.2481 -1.9125 0.9540
-8.7655 8.2353 -1.9814 0.9524
-9.4295 7.6619 -2.0016 0.9519
-9.6987 7.3181 -2.0016 0.9519
-9.9554 6.9649 -2.0016 0.9519
-10.1993 6.6026 -2.0016 0.9519
-10.4299 6.2319 -2.0016 0.9519
-11.0400 5.0733 -2.0016 0.9519
-11.3758 4.2673 -2.0016 0.9519
-11.7690 3.0183 -2.0016 0.9519
-11.8698 2.5935 -2.0016 0.9519
-11.9554 2.1653 -2.0016 0.9519
-12.0255 1.7343 -2.0016 0.9519
-12.0800 1.3011 -2.0016 0.9519
-12.1190 0.8661 -2.0016 0.9519
-12.1423 0.4301 -2.0016 0.9519
-12.1499 -0.0065 -2.0016 0.9519
-12.1180 -0.8791 -2.0016 0.9519
-12.0786 -1.3139 -2.0016 0.9519
-11.9531 -2.1780 -2.0016 0.9519
-11.0099 -2.4179 -1.8570 0.9553
-10.5499 -3.9703 -1.8570 0.9553
-10.0614 -5.0826 -1.8570 0.9553
-10.4233 -6.2430 -2.0016 0.9519
-9.9480 -6.9755 -2.0016 0.9519
-9.4213 -7.6719 -2.0016 0.9519
-8.8460 -8.3288 -2.0016 0.9519
-7.5615 -9.5102 -2.0016 0.9519
-7.2149 -9.7758 -2.0016 0.9519
-6.8589 -10.0287 -2.0016 0.9519
-5.3514 -10.9079 -2.0016 0.9519
-4.9560 -11.0931 -2.0016 0.9519
-3.7334 -11.5621 -2.0016 0.9519
-2.8934 -11.8003 -2.0016 0.9519
-2.0384 -11.9777 -2.0016 0.9519
-1.1729 -12.0931 -2.0016 0.9519
-0.7376 -12.1275 -2.0016 0.9519
-0.3014 -12.1461 -2.0016 0.9519
0.5718 -12.1364 -2.0016 0.9519
1.0075 -12.1080 -2.0016 0.9519
1.8745 -12.0044 -2.0016 0.9519
2.3046 -11.9293 -2.0016 0.9519
4.8038 -11.1599 -2.0016 0.9519
5.9769 -10.5781 -2.0016 0.9519
6.3532 -10.3565 -2.0016 0.9519
6.7212 -10.1215 -2.0016 0.9519
7.7714 -9.3394 -2.0016 0.9519
9.5898 -7.4602 -2.0016 0.9519
9.8517 -7.1108 -2.0016 0.9519
10.7688 -5.6260 -2.0016 0.9519
11.1451 -4.8381 -2.0016 0.9519
11.6010 -3.6106 -2.0016 0.9519
11.7232 -3.1914 -2.0016 0.9519
11.8303 -2.7681 -2.0016 0.9519
11.9222 -2.3412 -2.0016 0.9519
11.9986 -1.9113 -2.0016 0.9519
12.0595 -1.4789 -2.0016 0.9519
12.1049 -1.0446 -2.0016 0.9519
12.1346 -0.6090 -2.0016 0.9519
12.1487 -0.1726 -2.0016 0.9519
12.1470 0.2641 -2.0016 0.9519
12.0967 1.1358 -2.0016 0.9519
11.9042 2.4310 -2.0016 0.9519
11.8092 2.8572 -2.0016 0.9519
10.9243 5.3179 -2.0016 0.9519
10.5141 6.0887 -2.0016 0.9519
10.2885 6.4626 -2.0016 0.9519
10.0497 6.8281 -2.0016 0.9519
9.7978 7.1848 -2.0016 0.9519
9.2565 7.8699 -2.0016 0.9519
8.6674 8.5144 -2.0016 0.9519
7.7008 9.3977 -2.0016 0.9519
7.3581 9.6684 -2.0016 0.9519
7.0060 9.9265 -2.0016 0.9519
6.2724 10.3998 -2.0008 0.9520
5.0924 10.0045 -1.8494 0.9555
4.7297 10.1810 -1.8494 0.9555
4.3608 10.3444 -1.8494 0.9555
3.6066 10.6309 -1.8494 0.9555
3.2223 10.7536 -1.8494 0.9555
2.8338 10.8624 -1.8494 0.9555
2.4416 10.9573 -1.8494 0.9555
2.0463 11.0379 -1.8494 0.9555
1.6483 11.1043 -1.8494 0.9555
1.2483 11.1564 -1.8494 0.9555
0.8466 11.1940 -1.8494 0.9555
0.4438 11.2172 -1.8494 0.9555
0.0404 11.2259 -1.8494 0.9555
-1.1679 11.1651 -1.8494 0.9555
-2.3626 10.9746 -1.8494 0.9555
-4.2861 10.3756 -1.8494 0.9555
-4.6562 10.2148 -1.8494 0.9555
-5.3778 9.8540 -1.8494 0.9555
-9.4905 -2.7454 -1.8570 0.9606
-9.2688 -3.4199 -1.8570 0.9606
-8.9993 -4.0768 -1.8570 0.9606
-8.5083 -5.0216 -1.8570 0.9606
-8.3223 -5.3240 -1.8570 0.9606
-8.5350 -6.3680 -2.0016 0.9576
-7.2593 -7.7910 -2.0016 0.9576
-6.6810 -8.2922 -2.0016 0.9576
-5.7499 -8.9630 -2.0016 0.9576
-5.4241 -9.1639 -2.0016 0.9576
-5.0913 -9.3528 -2.0016 0.9576
-4.7519 -9.5298 -2.0016 0.9576
-4.4065 -9.6944 -2.0016 0.9576
-3.3376 -10.1123 -2.0016 0.9576
-1.0965 -10.5922 -2.0016 0.9576
-0.3330 -10.6436 -2.0016 0.9576
0.0497 -10.6487 -2.0016 0.9576
0.4323 -10.6400 -2.0016 0.9576
0.8144 -10.6176 -2.0016 0.9576
1.1954 -10.5815 -2.0016 0.9576
1.9523 -10.4683 -2.0016 0.9576
3.7919 -9.9508 -2.0016 0.9576
2.3411 -4.2066 -0.9049 0.9806
5.5094 -9.1128 -2.0016 0.9576
6.4581 -8.4670 -2.0016 0.9576
6.7582 -8.2295 -2.0016 0.9576
7.6045 -7.4544 -2.0016 0.9576
8.3626 -6.5928 -2.0016 0.9576
8.8145 -5.9751 -2.0016 0.9576
9.0235 -5.6545 -2.0016 0.9576
9.2208 -5.3267 -2.0016 0.9576
10.0244 -3.5928 -2.0016 0.9576
10.1471 -3.2302 -2.0016 0.9576
10.3529 -2.4931 -2.0016 0.9576
10.4357 -2.1195 -2.0016 0.9576
10.5610 -1.3645 -2.0016 0.9576
10.6318 -0.6025 -2.0016 0.9576
10.6465 -0.2201 -2.0016 0.9576
10.6349 0.5451 -2.0016 0.9576
10.5682 1.3075 -2.0016 0.9576
10.5144 1.6864 -2.0016 0.9576
10.4471 2.0631 -2.0016 0.9576
10.2719 2.8081 -2.0016 0.9576
10.0437 3.5386 -2.0016 0.9576
9.6046 4.5989 -2.0016 0.9576
8.3981 6.5475 -2.0016 0.9576
7.6447 7.4132 -2.0016 0.9576
7.3734 7.6831 -2.0016 0.9576
6.8025 8.1929 -2.0016 0.9576
5.8814 8.8773 -2.0016 0.9576
5.5586 9.0829 -2.0016 0.9576
2.8850 9.4066 -1.8494 0.9607
2.2020 9.5895 -1.8494 0.9607
1.5076 9.7229 -1.8494 0.9607
1.1573 9.7708 -1.8494 0.9607
0.8054 9.8061 -1.8494 0.9607
0.0991 9.8386 -1.8494 0.9607
-0.2545 9.8358 -1.8494 0.9607
-0.9603 9.7921 -1.8494 0.9607
-1.1709 8.7059 -1.6511 0.9649
-1.6611 9.6979 -1.8494 0.9607
-3.3677 9.2448 -1.8494 0.9607
-3.6977 9.1178 -1.8494 0.9607
-4.0230 8.9790 -1.8494 0.9607
-5.2679 8.3100 -1.8494 0.9607
-5.6581 8.2539 -1.8809 0.9601
-6.0989 8.2453 -1.9277 0.9591
-6.9146 8.0651 -1.9968 0.9577
-7.2145 7.8272 -2.0008 0.9576
-7.7609 7.2915 -2.0016 0.9576
-8.5005 6.4140 -2.0016 0.9576
-8.9392 5.7869 -2.0016 0.9576
-9.3317 5.1300 -2.0016 0.9576
-9.6760 4.4465 -2.0016 0.9576
-9.9704 3.7401 -2.0016 0.9576
-10.2133 3.0144 -2.0016 0.9576
-10.4784 1.8978 -2.0016 0.9576
-10.5876 1.1403 -2.0016 0.9576
-10.6217 0.7591 -2.0016 0.9576
-10.6421 0.3770 -2.0016 0.9576
-10.6209 -0.7705 -2.0016 0.9576
-10.5381 -1.5313 -2.0016 0.9576
-10.4763 -1.9089 -2.0016 0.9576
-10.1364 -2.2261 -1.9507 0.9586
-9.5673 -2.4645 -1.8570 0.9606
-9.4725 -2.8067 -1.8570 0.9606
-9.3656 -3.1453 -1.8570 0.9606
-9.2465 -3.4798 -1.8570 0.9606
-8.9727 -4.1349 -1.8570 0.9606
-8.6526 -4.7686 -1.8570 0.9606
-8.4756 -5.0765 -1.8570 0.9606
-8.0892 -5.6721 -1.8570 0.9606
-7.4858 -7.5737 -2.0016 0.9576
-7.2088 -7.8378 -2.0016 0.9576
-6.3235 -8.5680 -2.0016 0.9576
-6.0115 -8.7897 -2.0016 0.9576
-5.3647 -9.1988 -2.0016 0.9576
-5.0307 -9.3856 -2.0016 0.9576
-4.3437 -9.7226 -2.0016 0.9576
-3.9915 -9.8724 -2.0016 0.9576
-2.9059 -10.2447 -2.0016 0.9576
-2.5359 -10.3425 -2.0016 0.9576
-2.1627 -10.4269 -2.0016 0.9576
-1.4082 -10.5553 -2.0016 0.9576
-1.0280 -10.5991 -2.0016 0.9576
0.5011 -10.6370 -2.0016 0.9576
0.8830 -10.6121 -2.0016 0.9576
2.7656 -10.2834 -2.0016 0.9576
3.1333 -10.1774 -2.0016 0.9576
3.8562 -9.9261 -2.0016 0.9576
5.2385 -9.2712 -2.0016 0.9576
5.5683 -9.0770 -2.0016 0.9576
6.2058 -8.6536 -2.0016 0.9576
7.6526 -7.4051 -2.0016 0.9576
7.9137 -7.1253 -2.0016 0.9576
8.1647 -6.8363 -2.0016 0.9576
8.4050 -6.5385 -2.0016 0.9576
8.8529 -5.9180 -2.0016 0.9576
9.0599 -5.5961 -2.0016 0.9576
9.4384 -4.9310 -2.0016 0.9576
9.7682 -4.2404 -2.0016 0.9576
10.1677 -3.1645 -2.0016 0.9576
10.2749 -2.7971 -2.0016 0.9576
10.3688 -2.4261 -2.0016 0.9576
10.4492 -2.0520 -2.0016 0.9576
10.5162 -1.6752 -2.0016 0.9576
10.6354 -0.5338 -2.0016 0.9576
10.6477 -0.1512 -2.0016 0.9576
10.6311 0.6139 -2.0016 0.9576
10.6022 0.9955 -2.0016 0.9576
10.4335 2.1306 -2.0016 0.9576
10.3502 2.5042 -2.0016 0.9576
10.1436 3.2410 -2.0016 0.9576
10.0206 3.6034 -2.0016 0.9576
9.8847 3.9612 -2.0016 0.9576
9.5746 4.6609 -2.0016 0.9576
9.2152 5.3365 -2.0016 0.9576
8.8081 5.9845 -2.0016 0.9576
8.5874 6.2972 -2.0016 0.9576
7.5966 7.4625 -2.0016 0.9576
7.3235 7.7307 -2.0016 0.9576
6.7494 8.2367 -2.0016 0.9576
5.8238 8.9152 -2.0016 0.9576
5.4997 9.1187 -2.0016 0.9576
4.8184 9.4661 -1.9965 0.9577
3.8286 9.0819 -1.8525 0.9607
2.4837 9.5204 -1.8494 0.9607
2.1400 9.6035 -1.8494 0.9607
1.4447 9.7324 -1.8494 0.9607
1.0940 9.7781 -1.8494 0.9607
0.7420 9.8111 -1.8494 0.9607
0.0354 9.8390 -1.8494 0.9607
-0.3181 9.8339 -1.8494 0.9607
-0.6713 9.8161 -1.8494 0.9607
-1.0236 9.7857 -1.8494 0.9607
-1.2283 8.7059 -1.6526 0.9648
-2.0707 9.6187 -1.8494 0.9607
-2.4150 9.5381 -1.8494 0.9607
-2.7562 9.4451 -1.8494 0.9607
-3.0938 9.3400 -1.8494 0.9607
-3.4274 9.2228 -1.8494 0.9607
-3.7566 9.0937 -1.8494 0.9607
-4.4000 8.8004 -1.8494 0.9607
-4.7134 8.6366 -1.8494 0.9607
-8.4390 -2.4413 -1.8570 0.9647
-8.3459 -2.7429 -1.8570 0.9647
-8.1273 -3.3352 -1.8570 0.9647
-7.8668 -3.9103 -1.8570 0.9647
-7.7212 -4.1905 -1.8570 0.9647
-7.5656 -4.4652 -1.8570 0.9647
-7.0412 -5.2534 -1.8570 0.9647
-6.8479 -5.5031 -1.8570 0.9647
-6.6998 -6.6914 -2.0016 0.9620
-5.6721 -7.5822 -2.0016 0.9620
-5.1129 -7.9700 -2.0016 0.9620
-3.9183 -8.6203 -2.0016 0.9620
-3.6060 -8.7555 -2.0016 0.9620
-2.6428 -9.0927 -2.0016 0.9620
-1.6490 -9.3243 -2.0016 0.9620
-1.3128 -9.3776 -2.0016 0.9620
-0.9750 -9.4187 -2.0016 0.9620
-0.2961 -9.4644 -2.0016 0.9620
0.0442 -9.4689 -2.0016 0.9620
0.3844 -9.4612 -2.0016 0.9620
1.0629 -9.4092 -2.0016 0.9620
3.3718 -8.8484 -2.0016 0.9620
3.6876 -8.7215 -2.0016 0.9620
3.9986 -8.5833 -2.0016 0.9620
2.1842 -4.2798 -1.0157 0.9805
4.8990 -8.1032 -2.0016 0.9620
5.1871 -7.9219 -2.0016 0.9620
5.7426 -7.5289 -2.0016 0.9620
6.2685 -7.0970 -2.0016 0.9620
6.5195 -6.8672 -2.0016 0.9620
6.7620 -6.6285 -2.0016 0.9620
7.2206 -6.1258 -2.0016 0.9620
7.6419 -5.5914 -2.0016 0.9620
7.8379 -5.3131 -2.0016 0.9620
8.1993 -4.7365 -2.0016 0.9620
8.3642 -4.4388 -2.0016 0.9620
8.5183 -4.1354 -2.0016 0.9620
8.6614 -3.8266 -2.0016 0.9620
8.7933 -3.5129 -2.0016 0.9620
8.9138 -3.1947 -2.0016 0.9620
9.2058 -2.2169 -2.0016 0.9620
9.2796 -1.8847 -2.0016 0.9620
9.3413 -1.5500 -2.0016 0.9620
9.3910 -1.2134 -2.0016 0.9620
9.4285 -0.8751 -2.0016 0.9620
9.4679 0.1446 -2.0016 0.9620
9.4566 0.4847 -2.0016 0.9620
9.4331 0.8242 -2.0016 0.9620
9.2896 1.8346 -2.0016 0.9620
9.2177 2.1672 -2.0016 0.9620
9.1339 2.4970 -2.0016 0.9620
8.9309 3.1465 -2.0016 0.9620
8.6819 3.7798 -2.0016 0.9620
8.5405 4.0893 -2.0016 0.9620
8.3880 4.3936 -2.0016 0.9620
8.2247 4.6922 -2.0016 0.9620
8.0508 4.9847 -2.0016 0.9620
7.8665 5.2707 -2.0016 0.9620
7.2536 6.0867 -2.0016 0.9620
6.7977 6.5919 -2.0016 0.9620
6.5565 6.8319 -2.0016 0.9620
6.3067 7.0631 -2.0016 0.9620
5.5100 7.7008 -2.0016 0.9620
4.9427 8.0766 -2.0016 0.9620
4.6493 8.2490 -2.0016 0.9620
3.4078 8.7998 -1.9947 0.9622
3.0173 8.7086 -1.9482 0.9630
1.9580 8.5271 -1.8494 0.9649
1.3406 8.6457 -1.8494 0.9649
1.0290 8.6883 -1.8494 0.9649
0.7162 8.7196 -1.8494 0.9649
0.0881 8.7485 -1.8494 0.9649
-1.1662 8.6709 -1.8494 0.9649
-1.4770 8.6234 -1.8494 0.9649
-1.7859 8.5648 -1.8494 0.9649
-3.6956 8.2485 -1.9106 0.9637
-4.7643 8.1492 -1.9954 0.9621
-5.0611 7.9839 -1.9982 0.9621
-5.3527 7.8085 -2.0011 0.9620
-5.9009 7.4055 -2.0016 0.9620
-6.1632 7.1887 -2.0016 0.9620
-6.4176 6.9625 -2.0016 0.9620
-6.6636 6.7275 -2.0016 0.9620
-7.9488 5.1458 -2.0016 0.9620
-8.4564 4.2605 -2.0016 0.9620
-8.6040 3.9539 -2.0016 0.9620
-8.7405 3.6422 -2.0016 0.9620
-8.8658 3.3257 -2.0016 0.9620
-9.1722 2.3523 -2.0016 0.9620
-9.2508 2.0212 -2.0016 0.9620
-9.3174 1.6875 -2.0016 0.9620
-9.4631 0.3352 -2.0016 0.9620
-9.4690 -0.0050 -2.0016 0.9620
-9.4442 -0.6851 -2.0016 0.9620
-9.4135 -1.0240 -2.0016 0.9620
-9.3706 -1.3616 -2.0016 0.9620
-9.3156 -1.6975 -2.0016 0.9620
-8.6815 -2.2364 -1.8950 0.9640
-8.4231 -2.4958 -1.8570 0.9647
-8.1056 -3.3877 -1.8570 0.9647
-7.9786 -3.6768 -1.8570 0.9647
-7.6939 -4.2403 -1.8570 0.9647
-7.5366 -4.5140 -1.8570 0.9647
-7.1929 -5.0437 -1.8570 0.9647
-7.1229 -6.2391 -2.0016 0.9620
-6.6564 -6.7346 -2.0016 0.9620
-5.8930 -7.4118 -2.0016 0.9620
-4.7704 -8.1796 -2.0016 0.9620
-4.4734 -8.3457 -2.0016 0.9620
-3.8624 -8.6455 -2.0016 0.9620
-3.5493 -8.7787 -2.0016 0.9620
-3.2315 -8.9005 -2.0016 0.9620
-1.9230 -9.2717 -2.0016 0.9620
-1.2522 -9.3859 -2.0016 0.9620
-0.9141 -9.4248 -2.0016 0.9620
-0.2349 -9.4661 -2.0016 0.9620
0.1054 -9.4684 -2.0016 0.9620
0.4456 -9.4585 -2.0016 0.9620
0.7852 -9.4364 -2.0016 0.9620
1.7961 -9.2971 -2.0016 0.9620
2.1290 -9.2266 -2.0016 0.9620
2.4592 -9.1441 -2.0016 0.9620
2.7862 -9.0498 -2.0016 0.9620
3.1096 -8.9439 -2.0016 0.9620
3.4289 -8.8264 -2.0016 0.9620
4.0540 -8.5573 -2.0016 0.9620
2.1965 -4.2359 -1.0086 0.9807
4.9513 -8.0713 -2.0016 0.9620
5.5182 -7.6949 -2.0016 0.9620
5.7912 -7.4916 -2.0016 0.9620
6.8047 -6.5847 -2.0016 0.9620
7.0370 -6.3359 -2.0016 0.9620
7.2601 -6.0789 -2.0016 0.9620
7.4738 -5.8142 -2.0016 0.9620
7.6779 -5.5418 -2.0016 0.9620
7.8721 -5.2624 -2.0016 0.9620
8.5448 -4.0802 -2.0016 0.9620
8.6859 -3.7706 -2.0016 0.9620
8.8158 -3.4560 -2.0016 0.9620
8.9343 -3.1370 -2.0016 0.9620
9.3511 -1.4896 -2.0016 0.9620
9.3986 -1.1526 -2.0016 0.9620
9.4340 -0.8141 -2.0016 0.9620
9.4571 -0.4746 -2.0016 0.9620
9.4681 -0.1345 -2.0016 0.9620
9.4668 0.2058 -2.0016 0.9620
9.4533 0.5458 -2.0016 0.9620
9.3897 1.2234 -2.0016 0.9620
9.3396 1.5600 -2.0016 0.9620
9.2775 1.8946 -2.0016 0.9620
9.1175 2.5560 -2.0016 0.9620
9.0198 2.8820 -2.0016 0.9620
8.6573 3.8359 -2.0016 0.9620
8.3594 4.4477 -2.0016 0.9620
8.1942 4.7453 -2.0016 0.9620
7.8322 5.3215 -2.0016 0.9620
7.6360 5.5995 -2.0016 0.9620
7.4298 5.8703 -2.0016 0.9620
6.9890 6.3887 -2.0016 0.9620
6.5122 6.8742 -2.0016 0.9620
6.0016 7.3241 -2.0016 0.9620
5.7346 7.5351 -2.0016 0.9620
5.4601 7.7362 -2.0016 0.9620
5.1786 7.9275 -2.0016 0.9620
4.5959 8.2789 -2.0016 0.9620
4.2954 8.4387 -2.0016 0.9620
2.9465 8.6852 -1.9386 0.9632
2.2136 8.4851 -1.8536 0.9648
1.2846 8.6542 -1.8494 0.9649
0.6598 8.7241 -1.8494 0.9649
0.3459 8.7421 -1.8494 0.9649
-0.2829 8.7444 -1.8494 0.9649
-0.5969 8.7286 -1.8494 0.9649
-0.9102 8.7015 -1.8494 0.9649
-1.2223 8.6632 -1.8494 0.9649
-1.5328 8.6137 -1.8494 0.9649
-1.8413 8.5530 -1.8494 0.9649
-2.1474 8.4813 -1.8494 0.9649
-3.4092 8.2527 -1.8874 0.9642
-3.7594 8.2475 -1.9159 0.9636
-4.4942 8.2350 -1.9831 0.9624
-7.5063 -2.4670 -1.8570 0.9681
-7.3097 -2.9997 -1.8570 0.9681
-7.0754 -3.5169 -1.8570 0.9681
-6.4985 -4.4943 -1.8570 0.9681
-6.3328 -4.7250 -1.8570 0.9681
-5.9771 -5.1676 -1.8570 0.9681
-5.7876 -5.3790 -1.8570 0.9681
-5.5906 -5.5835 -1.8570 0.9681
-5.5781 -6.4355 -2.0016 0.9656
-5.1015 -6.8195 -2.0016 0.9656
-4.8531 -6.9984 -2.0016 0.9656
-4.3380 -7.3288 -2.0016 0.9656
-3.5241 -7.7531 -2.0016 0.9656
-3.2432 -7.8747 -2.0016 0.9656
-2.9582 -7.9862 -2.0016 0.9656
-2.3770 -8.1780 -2.0016 0.9656
-1.4831 -8.3863 -2.0016 0.9656
-0.8770 -8.4712 -2.0016 0.9656
-0.5720 -8.4972 -2.0016 0.9656
0.0398 -8.5164 -2.0016 0.9656
0.3458 -8.5094 -2.0016 0.9656
0.9560 -8.4626 -2.0016 0.9656
1.2595 -8.4228 -2.0016 0.9656
2.1586 -8.2383 -2.0016 0.9656
2.7447 -8.0620 -2.0016 0.9656
3.5963 -7.7199 -2.0016 0.9656
2.3111 -4.1527 -1.1169 0.9807
4.9183 -6.9527 -2.0016 0.9656
5.1649 -6.7715 -2.0016 0.9656
5.8636 -6.1764 -2.0016 0.9656
6.0818 -5.9617 -2.0016 0.9656
6.8732 -5.0289 -2.0016 0.9656
7.2166 -4.5223 -2.0016 0.9656
7.3744 -4.2600 -2.0016 0.9656
7.5227 -3.9923 -2.0016 0.9656
7.7900 -3.4417 -2.0016 0.9656
8.0171 -2.8733 -2.0016 0.9656
8.1152 -2.5834 -2.0016 0.9656
8.3461 -1.6951 -2.0016 0.9656
8.5028 -0.4819 -2.0016 0.9656
8.4841 0.7413 -2.0016 0.9656
8.4090 1.3487 -2.0016 0.9656
8.2904 1.9492 -2.0016 0.9656
8.2150 2.2458 -2.0016 0.9656
8.0325 2.8300 -2.0016 0.9656
7.9256 3.1168 -2.0016 0.9656
7.8085 3.3996 -2.0016 0.9656
7.6813 3.6780 -2.0016 0.9656
7.5442 3.9516 -2.0016 0.9656
7.3973 4.2201 -2.0016 0.9656
7.0751 4.7405 -2.0016 0.9656
6.7164 5.2364 -2.0016 0.9656
6.3230 5.7053 -2.0016 0.9656
6.1139 5.9288 -2.0016 0.9656
5.8969 6.1446 -2.0016 0.9656
5.6723 6.3526 -2.0016 0.9656
5.4403 6.5523 -2.0016 0.9656
4.7036 7.0997 -2.0016 0.9656
3.6380 7.7003 -2.0016 0.9656
3.3589 7.8261 -2.0016 0.9656
3.0755 7.9417 -2.0016 0.9656
2.4957 8.1371 -2.0003 0.9656
2.1990 8.2115 -1.9979 0.9657
1.6004 8.3318 -1.9940 0.9657
0.6779 8.2536 -1.9463 0.9665
-0.8082 8.2418 -1.9463 0.9665
-1.4111 8.2385 -1.9644 0.9662
-1.7174 8.2361 -1.9773 0.9660
-2.0281 8.2332 -1.9928 0.9658
-3.4822 7.7720 -2.0016 0.9656
-3.7592 7.6419 -2.0016 0.9656
-4.2983 7.3522 -2.0016 0.9656
-4.5597 7.1930 -2.0016 0.9656
-5.5432 6.4655 -2.0016 0.9656
-5.7720 6.2621 -2.0016 0.9656
-5.9933 6.0507 -2.0016 0.9656
-6.2068 5.8314 -2.0016 0.9656
-6.6096 5.3706 -2.0016 0.9656
-6.7983 5.1296 -2.0016 0.9656
-7.1492 4.6281 -2.0016 0.9656
-7.3108 4.3682 -2.0016 0.9656
-8.0762 2.7027 -2.0016 0.9656
