ply
format ascii 1.0
element vertex 1551
property float32 x
property float32 y
property float32 z
property float32 I
end_header
-26.2746 -22.3517 -1.7494 0.8710
-22.7577 -22.3615 -1.6181 0.8800
-19.7175 -22.3700 -1.5123 0.8874
-17.9388 -21.8864 -1.4351 0.8928
-16.8630 -22.1482 -1.4117 0.8945
-15.9292 -22.5561 -1.4004 0.8953
-14.3782 -21.9928 -1.3326 0.9001
-13.2073 -21.8761 -1.2959 0.9027
-11.4155 -22.3930 -1.2747 0.9042
-9.4625 -22.3985 -1.2331 0.9072
-8.5307 -22.4010 -1.2156 0.9085
-5.8707 -22.4035 -1.1745 0.9114
-5.0203 -22.4058 -1.1645 0.9121
-3.3573 -22.4104 -1.1492 0.9132
-1.7290 -22.4150 -1.1401 0.9139
5.0228 -36.1187 -1.8494 0.8641
6.3145 -35.9154 -1.8494 0.8641
6.7942 -27.0871 -1.4163 0.8942
10.9684 -37.9127 -2.0016 0.8538
13.6569 -37.0292 -2.0016 0.8538
16.2752 -35.9554 -2.0016 0.8538
17.5538 -35.3488 -2.0016 0.8538
2.2694 -4.1862 -0.2415 0.9811
21.2478 -33.2597 -2.0016 0.8538
22.4266 -32.4765 -2.0016 0.8538
23.5765 -31.6516 -2.0016 0.8538
26.7753 -28.8687 -1.9968 0.8541
26.9663 -27.0606 -1.9374 0.8581
26.9886 -25.2073 -1.8729 0.8625
27.5253 -23.9196 -1.8494 0.8641
28.3652 -22.9173 -1.8494 0.8641
29.9345 -20.8258 -1.8494 0.8641
31.9976 -17.4914 -1.8494 0.8641
36.9814 -13.7860 -2.0016 0.8538
37.8742 -11.1006 -2.0016 0.8538
38.5723 -8.3580 -2.0016 0.8538
38.8471 -6.9698 -2.0016 0.8538
36.2497 -5.1700 -1.8570 0.8636
34.0712 -3.6185 -1.7376 0.8718
39.4445 -1.3450 -2.0016 0.8538
39.4395 1.4850 -2.0016 0.8538
39.3609 2.8980 -2.0016 0.8538
39.0520 5.7110 -2.0016 0.8538
38.8222 7.1075 -2.0016 0.8538
34.9576 10.3805 -1.8494 0.8641
34.5630 11.6272 -1.8494 0.8641
33.6410 14.0740 -1.8494 0.8641
33.1148 15.2710 -1.8494 0.8641
30.5917 19.8479 -1.8494 0.8641
27.4403 24.0170 -1.8494 0.8641
27.2665 27.5566 -1.9660 0.8562
26.7359 29.0321 -2.0016 0.8538
25.6779 29.9720 -2.0016 0.8538
24.5868 30.8734 -2.0016 0.8538
23.4641 31.7350 -2.0016 0.8538
22.3113 32.5558 -2.0016 0.8538
18.6867 34.7633 -2.0016 0.8538
14.8461 36.5687 -2.0016 0.8538
13.5255 37.0775 -2.0016 0.8538
3.2840 13.2923 -0.6944 0.9466
2.2144 12.8622 -0.6619 0.9491
1.7425 12.8646 -0.6584 0.9493
1.2302 12.4148 -0.6327 0.9513
0.3336 12.3281 -0.6254 0.9518
-0.5425 12.1379 -0.6162 0.9525
-2.2683 11.9160 -0.6152 0.9526
-3.6093 11.8488 -0.6282 0.9516
-4.1554 12.0707 -0.6474 0.9502
-5.1066 11.9690 -0.6599 0.9492
-5.5447 11.8044 -0.6614 0.9491
-6.2380 12.1302 -0.6918 0.9468
-6.6875 11.9320 -0.6937 0.9467
-7.7889 11.8221 -0.7180 0.9449
-8.4944 11.9382 -0.7431 0.9430
-9.1170 11.8868 -0.7597 0.9418
-12.2093 11.9120 -0.8651 0.9340
-15.1963 11.9282 -0.9797 0.9255
-16.3307 11.8978 -1.0247 0.9223
-17.5105 11.8202 -1.0714 0.9189
-22.7887 12.0440 -1.3072 0.9019
-33.3786 14.6853 -1.8494 0.8641
-37.1717 13.2643 -2.0016 0.8538
-37.6234 11.9231 -2.0016 0.8538
-38.0266 10.5666 -2.0016 0.8538
-38.9413 6.4225 -2.0016 0.8538
-39.4058 2.2041 -2.0016 0.8538
-39.4595 0.7899 -2.0016 0.8538
-39.4625 -0.6253 -2.0016 0.8538
-38.0704 -10.4078 -2.0016 0.8538
-37.6728 -11.7660 -2.0016 0.8538
-35.6039 -17.0304 -2.0016 0.8538
-34.9705 -18.2960 -2.0016 0.8538
-34.2920 -19.5379 -2.0016 0.8538
-31.0169 -19.1766 -1.8494 0.8641
-30.3094 -20.2763 -1.8494 0.8641
-22.8625 -16.5109 -1.4302 0.8932
-16.1911 -22.5554 -1.4081 0.8948
-10.6336 -22.3952 -1.2573 0.9055
-9.6667 -22.3979 -1.2372 0.9069
-8.7290 -22.4005 -1.2192 0.9082
-5.2021 -22.4053 -1.1665 0.9120
-3.5342 -22.4100 -1.1506 0.9131
-1.9031 -22.4145 -1.1408 0.9138
-1.0957 -22.4167 -1.1382 0.9140
0.3968 -17.3377 -0.8795 0.9329
3.4445 -36.3032 -1.8494 0.8641
6.0371 -35.9631 -1.8494 0.8641
7.3226 -35.7235 -1.8494 0.8641
10.6754 -37.9962 -2.0016 0.8538
15.9972 -36.0800 -2.0016 0.8538
17.2805 -35.4832 -2.0016 0.8538
19.7787 -34.1537 -2.0016 0.8538
22.1753 -32.6486 -2.0016 0.8538
24.4578 -30.9757 -2.0016 0.8538
26.5925 -29.1193 -1.9999 0.8539
26.9612 -27.4764 -1.9522 0.8571
26.9840 -25.5957 -1.8862 0.8616
28.9988 -22.1101 -1.8494 0.8641
30.5086 -19.9753 -1.8494 0.8641
31.2051 -18.8687 -1.8494 0.8641
34.7282 -16.1910 -1.9432 0.8577
36.8739 -14.0711 -2.0016 0.8538
38.1715 -10.0304 -2.0016 0.8538
38.5066 -8.6555 -2.0016 0.8538
34.0663 -3.8841 -1.7388 0.8717
39.4667 -0.2347 -2.0016 0.8538
39.2637 4.0044 -2.0016 0.8538
38.8759 6.8077 -2.0016 0.8538
35.3766 8.8477 -1.8494 0.8641
35.0367 10.1104 -1.8494 0.8641
34.2221 12.5951 -1.8494 0.8641
33.2316 15.0149 -1.8494 0.8641
32.6719 16.1967 -1.8494 0.8641
32.0703 17.3576 -1.8494 0.8641
29.6403 17.4446 -1.7442 0.8713
30.7440 19.6111 -1.8494 0.8641
30.0211 20.7007 -1.8494 0.8641
27.6249 23.8045 -1.8494 0.8641
27.2686 25.2566 -1.8850 0.8617
27.2669 27.1349 -1.9509 0.8572
26.9398 28.8041 -2.0001 0.8539
24.8244 30.6827 -2.0016 0.8538
23.7084 31.5529 -2.0016 0.8538
22.5619 32.3827 -2.0016 0.8538
21.3864 33.1707 -2.0016 0.8538
20.1835 33.9161 -2.0016 0.8538
7.6555 16.7265 -0.9329 0.9290
13.8113 36.9719 -2.0016 0.8538
12.4769 37.4433 -2.0016 0.8538
4.5100 15.3489 -0.8113 0.9379
2.8510 13.1139 -0.6806 0.9477
-0.0130 11.9194 -0.6045 0.9534
-1.2932 11.8531 -0.6047 0.9534
-2.2229 12.1886 -0.6283 0.9516
-3.0505 11.8427 -0.6202 0.9522
-3.5236 11.8959 -0.6292 0.9515
-4.4908 11.9420 -0.6470 0.9502
-27.2019 2.2908 -2.0016 0.8963
-25.1089 -3.3119 -1.8570 0.9034
-24.9740 -4.2099 -1.8570 0.9034
-26.2755 -7.4018 -2.0016 0.8963
-24.9476 -11.0818 -2.0016 0.8963
-24.0894 -12.8410 -2.0016 0.8963
-23.6135 -13.6964 -2.0016 0.8963
-19.2204 -16.3507 -1.8502 0.9037
-17.9908 -17.6777 -1.8494 0.9038
-17.3455 -18.3113 -1.8494 0.9038
-15.9887 -19.5072 -1.8494 0.9038
-15.2791 -20.0679 -1.8494 0.9038
-10.4228 -22.3958 -1.8112 0.9057
-9.4625 -22.3985 -1.7828 0.9071
-8.5307 -22.4010 -1.7576 0.9083
-7.6221 -22.3986 -1.7348 0.9095
-6.7370 -22.4010 -1.7152 0.9104
-5.8707 -22.4035 -1.6981 0.9113
-5.0203 -22.4058 -1.6836 0.9120
-4.1208 -22.0732 -1.6464 0.9139
-3.3573 -22.4104 -1.6615 0.9131
-2.5399 -22.4127 -1.6539 0.9135
-1.7290 -22.4150 -1.6484 0.9138
-0.9223 -22.4172 -1.6451 0.9139
0.6592 -21.5364 -1.5798 0.9172
2.5762 -25.0905 -1.8494 0.9038
4.3677 -24.8414 -1.8494 0.9038
5.2555 -24.6688 -1.8494 0.9038
7.0095 -24.2288 -1.8494 0.9038
8.5217 -25.9340 -2.0016 0.8963
9.4460 -25.6118 -2.0016 0.8963
10.3581 -25.2567 -2.0016 0.8963
2.2694 -4.1862 -0.3491 0.9811
13.8622 -23.5166 -2.0016 0.8963
15.5117 -22.4628 -2.0016 0.8963
16.3070 -21.8923 -2.0016 0.8963
19.2690 -19.3364 -2.0016 0.8963
20.6051 -17.9059 -2.0016 0.8963
21.8352 -16.3833 -2.0016 0.8963
22.4086 -15.5899 -2.0016 0.8963
22.9531 -14.7765 -2.0016 0.8963
25.9041 -8.6121 -2.0016 0.8963
26.4546 -6.7337 -2.0016 0.8963
26.6790 -5.7809 -2.0016 0.8963
27.0247 -3.8543 -2.0016 0.8963
27.1455 -2.8829 -2.0016 0.8963
27.2823 -0.9303 -2.0016 0.8963
27.0109 3.9501 -2.0016 0.8963
26.8519 4.9160 -2.0016 0.8963
26.6584 5.8755 -2.0016 0.8963
24.7893 11.4316 -2.0016 0.8963
24.3635 12.3131 -2.0016 0.8963
23.9064 13.1786 -2.0016 0.8963
23.4185 14.0273 -2.0016 0.8963
21.7770 16.4607 -2.0016 0.8963
21.1728 17.2308 -2.0016 0.8963
19.8837 18.7037 -2.0016 0.8963
17.7605 20.7305 -2.0016 0.8963
17.0058 21.3540 -2.0016 0.8963
16.2293 21.9499 -2.0016 0.8963
12.9249 24.0445 -2.0016 0.8963
12.0546 24.4924 -2.0016 0.8963
7.4789 16.6797 -1.3403 0.9293
10.2685 25.2932 -2.0016 0.8963
9.3551 25.6451 -2.0016 0.8963
7.7886 23.9897 -1.8494 0.9038
2.7641 13.2045 -0.9892 0.9473
2.2315 12.9614 -0.9643 0.9486
1.2268 12.3805 -0.9122 0.9513
0.3293 12.1712 -0.8927 0.9523
-0.1046 11.8773 -0.8709 0.9535
-1.8412 12.0002 -0.8902 0.9525
-3.6150 11.8675 -0.9096 0.9515
-4.5968 11.9434 -0.9383 0.9500
-5.0963 11.9449 -0.9522 0.9492
-5.5528 11.8217 -0.9577 0.9490
-6.6591 11.8814 -0.9987 0.9468
-7.2387 11.8943 -1.0209 0.9457
-8.3543 11.7412 -1.0566 0.9438
-9.0939 11.8566 -1.0956 0.9418
-10.4884 11.8146 -1.1584 0.9386
-13.0313 11.8323 -1.2906 0.9318
-14.6573 11.5052 -1.3662 0.9280
-15.8021 11.5127 -1.4335 0.9246
-18.4765 11.5302 -1.5969 0.9164
-22.7078 10.9785 -1.8494 0.9038
-23.4361 9.3230 -1.8494 0.9038
-26.7577 5.4050 -2.0016 0.8963
-27.1834 2.5007 -2.0016 0.8963
-27.2556 1.5245 -2.0016 0.8963
-27.2927 0.5464 -2.0016 0.8963
-25.9548 -2.2785 -1.9104 0.9008
-25.1337 -3.1180 -1.8570 0.9034
-25.0057 -4.0170 -1.8570 0.9034
-24.8456 -4.9110 -1.8570 0.9034
-26.3319 -7.1987 -2.0016 0.8963
-26.0569 -8.1381 -2.0016 0.8963
-25.7484 -9.0671 -2.0016 0.8963
-24.6260 -11.7793 -2.0016 0.8963
-24.1878 -12.6547 -2.0016 0.8963
-23.2188 -14.3554 -2.0016 0.8963
-22.6892 -15.1786 -2.0016 0.8963
-20.7881 -16.1778 -1.9314 0.8997
-17.4863 -18.1769 -1.8494 0.9038
-16.8234 -18.7921 -1.8494 0.9038
-16.1388 -19.3832 -1.8494 0.9038
-14.7084 -20.4898 -1.8494 0.9038
-13.9643 -21.0040 -1.8494 0.9038
-13.2023 -21.4911 -1.8494 0.9038
-12.4233 -21.9507 -1.8494 0.9038
-10.6336 -22.3952 -1.8178 0.9054
-9.6667 -22.3979 -1.7887 0.9068
-6.9258 -22.4005 -1.7192 0.9102
-4.2972 -22.0727 -1.6488 0.9138
-3.5342 -22.4100 -1.6635 0.9130
-1.0957 -22.4167 -1.6456 0.9139
0.3944 -17.2330 -1.2639 0.9332
1.3186 -22.4234 -1.6470 0.9138
3.2812 -25.0081 -1.8494 0.9038
5.0649 -24.7086 -1.8494 0.9038
7.6885 -24.0220 -1.8494 0.9038
9.2480 -25.6839 -2.0016 0.8963
10.1629 -25.3359 -2.0016 0.8963
11.9523 -24.5425 -2.0016 0.8963
2.2340 -4.1979 -0.3487 0.9811
14.5184 -23.1172 -2.0016 0.8963
15.3378 -22.5819 -2.0016 0.8963
16.1376 -22.0175 -2.0016 0.8963
17.6738 -20.8045 -2.0016 0.8963
18.4084 -20.1574 -2.0016 0.8963
19.8055 -18.7865 -2.0016 0.8963
20.4663 -18.0644 -2.0016 0.8963
21.7081 -16.5514 -2.0016 0.8963
22.2876 -15.7624 -2.0016 0.8963
22.8384 -14.9533 -2.0016 0.8963
23.3598 -14.1249 -2.0016 0.8963
24.3119 -12.4146 -2.0016 0.8963
25.1390 -10.6405 -2.0016 0.8963
25.8369 -8.8118 -2.0016 0.8963
26.4019 -6.9377 -2.0016 0.8963
26.6336 -5.9867 -2.0016 0.8963
26.8311 -5.0280 -2.0016 0.8963
26.9942 -4.0628 -2.0016 0.8963
27.2159 -2.1180 -2.0016 0.8963
27.2743 -1.1409 -2.0016 0.8963
27.2860 0.8165 -2.0016 0.8963
27.1573 2.7697 -2.0016 0.8963
26.4825 6.6233 -2.0016 0.8963
26.2280 7.5685 -2.0016 0.8963
25.6182 9.4285 -2.0016 0.8963
25.2637 10.3409 -2.0016 0.8963
24.8768 11.2400 -2.0016 0.8963
24.4578 12.1247 -2.0016 0.8963
24.0074 12.9937 -2.0016 0.8963
23.5261 13.8461 -2.0016 0.8963
23.0145 14.6806 -2.0016 0.8963
22.4734 15.4963 -2.0016 0.8963
20.6796 17.8198 -2.0016 0.8963
18.6467 19.9371 -2.0016 0.8963
17.9200 20.5929 -2.0016 0.8963
16.3982 21.8240 -2.0016 0.8963
15.6052 22.3979 -2.0016 0.8963
14.7922 22.9430 -2.0016 0.8963
12.2433 24.3986 -2.0016 0.8963
10.4634 25.2132 -2.0016 0.8963
9.5528 25.5721 -2.0016 0.8963
7.9736 23.9289 -1.8494 0.9038
3.4266 13.4238 -1.0158 0.9459
2.3587 13.0950 -0.9756 0.9480
1.3535 12.6618 -0.9337 0.9502
0.4206 12.0913 -0.8871 0.9526
-0.0130 11.8946 -0.8721 0.9534
-0.8783 12.0419 -0.8853 0.9527
-1.2930 11.8513 -0.8741 0.9533
-1.7696 12.1586 -0.9009 0.9519
-2.1627 11.8590 -0.8839 0.9528
-2.6142 11.8997 -0.8933 0.9523
-3.5087 11.8457 -0.9059 0.9517
-20.7750 1.7496 -2.0016 0.9196
-20.8117 -1.2381 -2.0016 0.9196
-20.7539 -1.9835 -2.0016 0.9196
-20.6695 -2.7263 -2.0016 0.9196
-20.2572 -4.9299 -2.0016 0.9196
-19.6108 -7.0764 -2.0016 0.9196
-19.3445 -7.7749 -2.0016 0.9196
-18.0343 -10.4606 -2.0016 0.9196
-17.6478 -11.1002 -2.0016 0.9196
-17.2385 -11.7258 -2.0016 0.9196
-16.8070 -12.3363 -2.0016 0.9196
-14.3375 -15.1359 -2.0016 0.9196
-13.7857 -15.6402 -2.0016 0.9196
-12.3144 -16.1741 -1.9516 0.9216
-11.4287 -16.1832 -1.9020 0.9235
-9.3584 -16.8372 -1.8494 0.9255
-6.8555 -18.0020 -1.8494 0.9255
-5.5478 -18.4470 -1.8494 0.9255
-4.8829 -18.6340 -1.8494 0.9255
-3.5351 -18.9360 -1.8494 0.9255
-2.1691 -19.1407 -1.8494 0.9255
-1.4814 -19.2061 -1.8494 0.9255
-0.1014 -19.2629 -1.8494 0.9255
0.5255 -17.1682 -1.6490 0.9333
1.2792 -19.2206 -1.8494 0.9255
2.6533 -19.0795 -1.8494 0.9255
4.0137 -18.8404 -1.8494 0.9255
4.6865 -18.6844 -1.8494 0.9255
5.6130 -19.4017 -1.9390 0.9220
8.5973 -18.9933 -2.0016 0.9196
9.2727 -18.6729 -2.0016 0.9196
10.5870 -17.9604 -2.0016 0.9196
11.2241 -17.5693 -2.0016 0.9196
12.4542 -16.7198 -2.0016 0.9196
13.6203 -15.7844 -2.0016 0.9196
14.1775 -15.2859 -2.0016 0.9196
15.2364 -14.2307 -2.0016 0.9196
16.6763 -12.5125 -2.0016 0.9196
17.1141 -11.9065 -2.0016 0.9196
17.5300 -11.2853 -2.0016 0.9196
18.2936 -10.0001 -2.0016 0.9196
18.9632 -8.6635 -2.0016 0.9196
20.0069 -5.8638 -2.0016 0.9196
20.2043 -5.1428 -2.0016 0.9196
20.5208 -3.6818 -2.0016 0.9196
20.7319 -2.2018 -2.0016 0.9196
20.8337 0.7844 -2.0016 0.9196
20.7922 1.5308 -2.0016 0.9196
20.7240 2.2753 -2.0016 0.9196
20.6291 3.0168 -2.0016 0.9196
20.5076 3.7545 -2.0016 0.9196
20.3599 4.4873 -2.0016 0.9196
19.9860 5.9347 -2.0016 0.9196
19.5093 7.3516 -2.0016 0.9196
19.2332 8.0464 -2.0016 0.9196
18.6072 9.4039 -2.0016 0.9196
17.0718 11.9672 -2.0016 0.9196
16.1704 13.1597 -2.0016 0.9196
15.1858 14.2846 -2.0016 0.9196
13.5642 15.8326 -2.0016 0.9196
12.9879 16.3087 -2.0016 0.9196
12.3948 16.7639 -2.0016 0.9196
11.7859 17.1975 -2.0016 0.9196
9.8712 18.3636 -2.0016 0.9196
9.2065 18.7056 -2.0016 0.9196
3.8440 13.4658 -1.3444 0.9453
2.7564 13.1677 -1.2916 0.9474
2.2196 12.8924 -1.2559 0.9488
1.2392 12.5052 -1.2064 0.9508
-0.5371 12.0154 -1.1547 0.9528
-0.9454 11.7152 -1.1284 0.9539
-1.3976 11.9541 -1.1555 0.9528
-2.2868 12.0131 -1.1740 0.9520
-2.7309 11.9886 -1.1805 0.9518
-3.1536 11.8630 -1.1785 0.9519
-3.6355 11.9346 -1.1978 0.9511
-4.5692 11.8717 -1.2212 0.9502
-5.5643 11.8461 -1.2565 0.9488
-6.2078 12.0714 -1.3032 0.9469
-7.5494 11.4586 -1.3174 0.9464
-8.1560 11.4625 -1.3506 0.9450
-9.4703 11.4712 -1.4281 0.9420
-10.1877 11.4759 -1.4732 0.9402
-10.9528 11.4809 -1.5233 0.9382
-11.7730 11.4863 -1.5791 0.9360
-12.6566 11.4920 -1.6413 0.9336
-16.3421 10.1982 -1.8494 0.9255
-17.3427 8.3846 -1.8494 0.9255
-19.3720 7.7063 -2.0016 0.9196
-19.8744 6.2983 -2.0016 0.9196
-20.0874 5.5818 -2.0016 0.9196
-20.4357 4.1280 -2.0016 0.9196
-20.5706 3.3927 -2.0016 0.9196
-20.8443 0.4173 -2.0016 0.9196
-20.5846 -3.3068 -2.0016 0.9196
-20.2947 -4.7734 -2.0016 0.9196
-20.1105 -5.4979 -2.0016 0.9196
-19.4039 -7.6254 -2.0016 0.9196
-19.1181 -8.3162 -2.0016 0.9196
-18.8077 -8.9963 -2.0016 0.9196
-17.7329 -10.9637 -2.0016 0.9196
-16.9017 -12.2062 -2.0016 0.9196
-16.4533 -12.8043 -2.0016 0.9196
-15.4934 -13.9504 -2.0016 0.9196
-14.4539 -15.0248 -2.0016 0.9196
-13.3098 -15.9854 -1.9970 0.9198
-10.7637 -16.1898 -1.8665 0.9249
-9.4881 -16.7644 -1.8494 0.9255
-8.2624 -17.4012 -1.8494 0.9255
-7.6332 -17.6863 -1.8494 0.9255
-6.3462 -18.1878 -1.8494 0.9255
-5.1851 -16.7703 -1.6852 0.9319
-3.0009 -19.0280 -1.8494 0.9255
-2.3167 -19.1233 -1.8494 0.9255
-0.9404 -19.2402 -1.8494 0.9255
0.3932 -17.1823 -1.6500 0.9333
3.1891 -18.9973 -1.8494 0.9255
4.5422 -18.7200 -1.8494 0.9255
5.3778 -19.1409 -1.9088 0.9232
7.7617 -19.3498 -2.0016 0.9196
8.4505 -19.0591 -2.0016 0.9196
9.1283 -18.7439 -2.0016 0.9196
11.0882 -17.6554 -2.0016 0.9196
12.9197 -16.3628 -2.0016 0.9196
13.4981 -15.8890 -2.0016 0.9196
14.0591 -15.3949 -2.0016 0.9196
15.1261 -14.3479 -2.0016 0.9196
15.6307 -13.7964 -2.0016 0.9196
16.1153 -13.2271 -2.0016 0.9196
17.0217 -12.0383 -2.0016 0.9196
18.2159 -10.1410 -2.0016 0.9196
18.5678 -9.4814 -2.0016 0.9196
18.8958 -8.8096 -2.0016 0.9196
19.7324 -6.7298 -2.0016 0.9196
19.9610 -6.0181 -2.0016 0.9196
20.3410 -4.5722 -2.0016 0.9196
20.7856 -1.6176 -2.0016 0.9196
20.8303 -0.8713 -2.0016 0.9196
20.7409 2.1153 -2.0016 0.9196
20.6517 2.8575 -2.0016 0.9196
20.3939 4.3300 -2.0016 0.9196
20.2256 5.0584 -2.0016 0.9196
20.0312 5.7803 -2.0016 0.9196
19.8111 6.4947 -2.0016 0.9196
19.5655 7.2008 -2.0016 0.9196
18.3352 9.9238 -2.0016 0.9196
17.5769 11.2121 -2.0016 0.9196
17.1637 11.8350 -2.0016 0.9196
16.7283 12.4428 -2.0016 0.9196
16.2715 13.0345 -2.0016 0.9196
15.2956 14.1670 -2.0016 0.9196
14.7778 14.7063 -2.0016 0.9196
13.6861 15.7274 -2.0016 0.9196
13.1134 16.2080 -2.0016 0.9196
11.9182 17.1060 -2.0016 0.9196
9.3506 18.6340 -2.0016 0.9196
7.6003 16.6059 -1.7533 0.9292
7.3836 17.7919 -1.8494 0.9255
6.7410 18.0452 -1.8494 0.9255
6.0897 18.2753 -1.8494 0.9255
4.3787 14.9020 -1.4911 0.9395
3.3797 13.2399 -1.3119 0.9466
2.8577 13.1448 -1.2914 0.9474
2.3051 12.7975 -1.2484 0.9491
1.3324 12.4648 -1.2035 0.9509
0.8700 12.2976 -1.1836 0.9517
-0.0129 11.8570 -1.1383 0.9535
-0.8765 12.0170 -1.1568 0.9527
-1.2868 11.7944 -1.1390 0.9534
-2.5923 11.8003 -1.1599 0.9526
-4.0010 11.9203 -1.2072 0.9507
-4.4844 11.9252 -1.2231 0.9501
-16.8489 0.2072 -2.0016 0.9344
-16.8455 -0.3970 -2.0016 0.9344
-16.8204 -1.0007 -2.0016 0.9344
-16.7055 -2.2034 -2.0016 0.9344
-16.5046 -3.3949 -2.0016 0.9344
-16.0447 -5.1474 -2.0016 0.9344
-15.8498 -5.7193 -2.0016 0.9344
-15.6346 -6.2839 -2.0016 0.9344
-15.1441 -7.3881 -2.0016 0.9344
-14.8695 -7.9263 -2.0016 0.9344
-14.5758 -8.4543 -2.0016 0.9344
-13.9325 -9.4770 -2.0016 0.9344
-13.5837 -9.9704 -2.0016 0.9344
-13.2176 -10.4510 -2.0016 0.9344
-11.5879 -12.2331 -2.0016 0.9344
-7.6528 -15.0121 -2.0016 0.9344
-4.8377 -16.0858 -1.9953 0.9346
-4.2367 -16.1678 -1.9854 0.9349
-2.4232 -16.1757 -1.9429 0.9362
-1.8333 -16.1773 -1.9339 0.9365
0.5013 -16.3786 -1.9465 0.9361
2.3173 -16.6635 -1.9984 0.9345
3.5109 -16.4803 -2.0016 0.9344
4.6828 -16.1864 -2.0016 0.9344
5.8306 -15.8092 -2.0016 0.9344
6.9485 -15.3508 -2.0016 0.9344
7.4944 -15.0918 -2.0016 0.9344
9.0715 -14.1998 -2.0016 0.9344
9.5748 -13.8655 -2.0016 0.9344
10.5437 -13.1437 -2.0016 0.9344
11.4585 -12.3544 -2.0016 0.9344
11.8941 -11.9356 -2.0016 0.9344
12.7188 -11.0526 -2.0016 0.9344
13.1068 -10.5895 -2.0016 0.9344
13.4781 -10.1128 -2.0016 0.9344
13.8320 -9.6231 -2.0016 0.9344
14.1681 -9.1210 -2.0016 0.9344
14.4860 -8.6072 -2.0016 0.9344
15.3264 -7.0020 -2.0016 0.9344
15.9896 -5.3159 -2.0016 0.9344
16.1699 -4.7393 -2.0016 0.9344
16.3295 -4.1565 -2.0016 0.9344
16.5853 -2.9757 -2.0016 0.9344
16.6814 -2.3791 -2.0016 0.9344
16.7559 -1.7795 -2.0016 0.9344
16.8382 0.6340 -2.0016 0.9344
16.5747 3.0345 -2.0016 0.9344
16.4552 3.6268 -2.0016 0.9344
16.3146 4.2144 -2.0016 0.9344
16.1530 4.7966 -2.0016 0.9344
15.5446 6.5032 -2.0016 0.9344
15.3015 7.0563 -2.0016 0.9344
15.0387 7.6004 -2.0016 0.9344
14.7565 8.1347 -2.0016 0.9344
14.1356 9.1712 -2.0016 0.9344
13.7978 9.6721 -2.0016 0.9344
13.0692 10.6359 -2.0016 0.9344
12.6795 11.0977 -2.0016 0.9344
11.8517 11.9777 -2.0016 0.9344
10.9629 12.7962 -2.0016 0.9344
10.4970 13.1810 -2.0016 0.9344
10.0177 13.5489 -2.0016 0.9344
9.0211 14.2319 -2.0016 0.9344
8.5049 14.5458 -2.0015 0.9344
7.3714 13.7132 -1.8494 0.9392
6.8750 13.9687 -1.8494 0.9392
5.8564 14.4254 -1.8494 0.9392
5.3354 14.6261 -1.8494 0.9392
4.8076 14.8080 -1.8494 0.9392
3.8440 13.4658 -1.6634 0.9452
2.1898 12.7196 -1.5331 0.9493
1.6925 12.4953 -1.4978 0.9505
0.7606 12.0750 -1.4372 0.9524
-0.5141 11.5000 -1.3674 0.9547
-1.7523 11.4206 -1.3725 0.9545
-2.1745 11.4233 -1.3813 0.9542
-3.0382 11.4290 -1.4048 0.9535
-3.4824 11.4319 -1.4196 0.9530
-3.9365 11.4349 -1.4365 0.9525
-5.8870 11.4477 -1.5291 0.9495
-8.7948 11.4667 -1.7166 0.9435
-10.7467 11.2649 -1.8494 0.9392
-11.1437 10.8723 -1.8494 0.9392
-11.8941 10.0458 -1.8494 0.9392
-12.5834 9.1677 -1.8494 0.9392
-13.2389 8.2617 -1.8537 0.9391
-14.8869 7.8678 -2.0001 0.9344
-16.2350 4.5113 -2.0016 0.9344
-16.5166 3.3363 -2.0016 0.9344
-16.7793 1.5436 -2.0016 0.9344
-16.8468 0.3373 -2.0016 0.9344
-16.8480 -0.2670 -2.0016 0.9344
-16.8276 -0.8708 -2.0016 0.9344
-16.7220 -2.0744 -2.0016 0.9344
-16.6369 -2.6726 -2.0016 0.9344
-16.4026 -3.8579 -2.0016 0.9344
-16.2537 -4.4435 -2.0016 0.9344
-16.0840 -5.0234 -2.0016 0.9344
-15.8935 -5.5968 -2.0016 0.9344
-15.6826 -6.1630 -2.0016 0.9344
-15.4516 -6.7213 -2.0016 0.9344
-15.2007 -7.2709 -2.0016 0.9344
-14.9302 -7.8112 -2.0016 0.9344
-14.3321 -8.8611 -2.0016 0.9344
-13.6603 -9.8653 -2.0016 0.9344
-13.2978 -10.3487 -2.0016 0.9344
-12.9183 -10.8188 -2.0016 0.9344
-11.2391 -12.5543 -2.0016 0.9344
-10.7818 -12.9492 -2.0016 0.9344
-9.8261 -13.6885 -2.0016 0.9344
-6.6770 -15.4708 -2.0016 0.9344
-4.9631 -16.0525 -1.9959 0.9346
-3.7544 -16.1703 -1.9719 0.9353
-3.1487 -16.1730 -1.9572 0.9358
-1.3737 -16.1796 -1.9288 0.9367
0.3742 -16.3542 -1.9432 0.9362
2.1875 -16.6723 -1.9974 0.9345
3.3836 -16.5069 -2.0016 0.9344
4.5577 -16.2220 -2.0016 0.9344
7.3777 -15.1492 -2.0016 0.9344
2.2340 -4.1978 -0.5649 0.9810
8.4443 -14.5815 -2.0016 0.9344
8.9617 -14.2694 -2.0016 0.9344
10.9094 -12.8418 -2.0016 0.9344
12.6331 -11.1505 -2.0016 0.9344
13.0247 -10.6904 -2.0016 0.9344
13.3996 -10.2165 -2.0016 0.9344
13.7573 -9.7296 -2.0016 0.9344
14.7224 -8.1962 -2.0016 0.9344
15.2719 -7.1201 -2.0016 0.9344
15.5174 -6.5680 -2.0016 0.9344
16.1329 -4.8639 -2.0016 0.9344
16.4399 -3.6954 -2.0016 0.9344
16.5619 -3.1036 -2.0016 0.9344
16.6625 -2.5078 -2.0016 0.9344
16.7417 -1.9088 -2.0016 0.9344
16.8354 -0.7042 -2.0016 0.9344
16.8499 -0.1002 -2.0016 0.9344
16.8426 0.5040 -2.0016 0.9344
16.8137 1.1075 -2.0016 0.9344
16.7632 1.7096 -2.0016 0.9344
16.5976 2.9064 -2.0016 0.9344
16.4827 3.4996 -2.0016 0.9344
16.3467 4.0883 -2.0016 0.9344
16.0117 5.2492 -2.0016 0.9344
15.8132 5.8199 -2.0016 0.9344
15.3555 6.9380 -2.0016 0.9344
15.0969 7.4841 -2.0016 0.9344
13.8720 9.5653 -2.0016 0.9344
13.5201 10.0565 -2.0016 0.9344
12.7648 10.9995 -2.0016 0.9344
12.3622 11.4500 -2.0016 0.9344
11.9437 11.8859 -2.0016 0.9344
11.5099 12.3065 -2.0016 0.9344
10.1220 13.4712 -2.0016 0.9344
9.6325 13.8254 -2.0016 0.9344
8.6171 14.4801 -2.0016 0.9344
6.9826 13.9152 -1.8494 0.9392
6.4792 14.1566 -1.8494 0.9392
5.9675 14.3798 -1.8494 0.9392
4.9218 14.7704 -1.8494 0.9392
2.3000 12.7693 -1.5412 0.9491
1.7976 12.5427 -1.5051 0.9502
-0.0128 11.7261 -1.3929 0.9539
-0.4266 11.5395 -1.3717 0.9546
-1.2456 11.4173 -1.3643 0.9548
-1.6621 11.4200 -1.3708 0.9546
-2.0832 11.4227 -1.3792 0.9543
-2.5100 11.4255 -1.3896 0.9540
-2.9438 11.4284 -1.4018 0.9536
-3.3860 11.4313 -1.4162 0.9531
-3.8378 11.4342 -1.4327 0.9526
-4.3010 11.4373 -1.4515 0.9520
-14.0766 1.1855 -2.0016 0.9445
-14.1100 0.6800 -2.0016 0.9445
-14.1253 0.1737 -2.0016 0.9445
-14.1225 -0.3328 -2.0016 0.9445
-14.1015 -0.8389 -2.0016 0.9445
-13.9299 -2.3482 -2.0016 0.9445
-12.7343 -3.0991 -1.8570 0.9484
-12.4795 -4.0036 -1.8570 0.9484
-12.3280 -4.4484 -1.8570 0.9484
-12.6961 -6.1938 -2.0016 0.9445
-11.9577 -7.5212 -2.0016 0.9445
-11.6804 -7.9451 -2.0016 0.9445
-11.3880 -8.3587 -2.0016 0.9445
-11.0810 -8.7617 -2.0016 0.9445
-10.7598 -9.1533 -2.0016 0.9445
-9.7147 -10.2557 -2.0016 0.9445
-9.3408 -10.5974 -2.0016 0.9445
-8.9549 -10.9255 -2.0016 0.9445
-8.1489 -11.5391 -2.0016 0.9445
-7.7300 -11.8238 -2.0016 0.9445
-6.4158 -12.5854 -2.0016 0.9445
-5.9604 -12.8074 -2.0016 0.9445
-5.0273 -13.2015 -2.0016 0.9445
-4.5508 -13.3733 -2.0016 0.9445
-4.0684 -13.5279 -2.0016 0.9445
-3.0886 -13.7846 -2.0016 0.9445
-2.0929 -13.9705 -2.0016 0.9445
-1.0864 -14.0846 -2.0016 0.9445
-0.5807 -14.1145 -2.0016 0.9445
-0.0743 -14.1262 -2.0016 0.9445
0.9381 -14.0952 -2.0016 0.9445
1.4429 -14.0525 -2.0016 0.9445
1.9457 -13.9918 -2.0016 0.9445
3.4368 -13.7020 -2.0016 0.9445
3.9258 -13.5699 -2.0016 0.9445
4.8882 -13.2537 -2.0016 0.9445
5.3602 -13.0700 -2.0016 0.9445
6.2830 -12.6523 -2.0016 0.9445
2.2694 -4.1861 -0.6747 0.9809
7.1735 -12.1695 -2.0016 0.9445
8.0271 -11.6242 -2.0016 0.9445
8.4386 -11.3289 -2.0016 0.9445
8.8394 -11.0191 -2.0016 0.9445
9.2288 -10.6951 -2.0016 0.9445
10.3238 -9.6424 -2.0016 0.9445
10.9882 -8.8778 -2.0016 0.9445
11.2994 -8.4781 -2.0016 0.9445
11.8779 -7.6466 -2.0016 0.9445
12.1444 -7.2159 -2.0016 0.9445
12.3953 -6.7758 -2.0016 0.9445
12.8490 -5.8702 -2.0016 0.9445
13.0512 -5.4057 -2.0016 0.9445
13.2366 -4.9344 -2.0016 0.9445
13.5561 -3.9732 -2.0016 0.9445
13.9044 -2.4947 -2.0016 0.9445
14.0474 -1.4919 -2.0016 0.9445
14.0919 -0.9873 -2.0016 0.9445
14.1182 -0.4814 -2.0016 0.9445
14.1264 0.0251 -2.0016 0.9445
14.1164 0.5315 -2.0016 0.9445
14.0883 1.0373 -2.0016 0.9445
13.7953 3.0405 -2.0016 0.9445
13.0319 5.4520 -2.0016 0.9445
12.6077 6.3718 -2.0016 0.9445
12.1187 7.2589 -2.0016 0.9445
10.9566 8.9167 -2.0016 0.9445
10.6299 9.3038 -2.0016 0.9445
10.2895 9.6789 -2.0016 0.9445
9.9359 10.0416 -2.0016 0.9445
9.5695 10.3914 -2.0016 0.9445
9.1908 10.7278 -2.0016 0.9445
7.5629 11.9314 -2.0016 0.9445
7.1050 12.1516 -1.9945 0.9447
6.1799 11.4965 -1.8494 0.9486
5.7637 11.7107 -1.8494 0.9486
5.3401 11.9098 -1.8494 0.9486
4.9097 12.0936 -1.8494 0.9486
4.0305 12.4143 -1.8494 0.9486
2.6743 12.7753 -1.8494 0.9486
2.1898 12.7196 -1.8287 0.9492
-0.1030 11.6854 -1.6558 0.9539
-0.5141 11.5000 -1.6311 0.9546
-0.9212 11.4151 -1.6227 0.9548
-1.3349 11.4178 -1.6288 0.9546
-2.1745 11.4233 -1.6476 0.9541
-2.6028 11.4262 -1.6604 0.9538
-4.4023 11.4379 -1.7365 0.9517
-5.8870 11.4477 -1.8239 0.9493
-6.7856 11.1497 -1.8494 0.9486
-7.5671 10.6349 -1.8494 0.9486
-8.3097 10.0653 -1.8494 0.9486
-9.0096 9.4439 -1.8494 0.9486
-9.3424 9.1149 -1.8494 0.9486
-11.9843 7.4788 -2.0016 0.9445
-12.2447 7.0443 -2.0016 0.9445
-13.7375 3.2916 -2.0016 0.9445
-13.8467 2.7970 -2.0016 0.9445
-14.0670 1.2941 -2.0016 0.9445
-14.1236 0.2827 -2.0016 0.9445
-12.3619 -4.3531 -1.8570 0.9484
-12.2740 -6.9931 -2.0016 0.9445
-12.0154 -7.4287 -2.0016 0.9445
-11.4522 -8.2706 -2.0016 0.9445
-10.8301 -9.0700 -2.0016 0.9445
-10.1523 -9.8227 -2.0016 0.9445
-9.4223 -10.5250 -2.0016 0.9445
-8.6439 -11.1731 -2.0016 0.9445
-8.2378 -11.4758 -2.0016 0.9445
-6.9580 -12.2940 -2.0016 0.9445
-5.1291 -13.1623 -2.0016 0.9445
-3.6862 -13.6370 -2.0016 0.9445
-3.1949 -13.7604 -2.0016 0.9445
-2.6995 -13.8661 -2.0016 0.9445
-1.1951 -14.0758 -2.0016 0.9445
0.3232 -14.1227 -2.0016 0.9445
1.3343 -14.0632 -2.0016 0.9445
1.8377 -14.0064 -2.0016 0.9445
2.3387 -13.9315 -2.0016 0.9445
3.8210 -13.5998 -2.0016 0.9445
4.3061 -13.4541 -2.0016 0.9445
4.7857 -13.2911 -2.0016 0.9445
5.2591 -13.1109 -2.0016 0.9445
5.7258 -12.9140 -2.0016 0.9445
7.0793 -12.2245 -2.0016 0.9445
7.5130 -11.9628 -2.0016 0.9445
8.3510 -11.3937 -2.0016 0.9445
8.7541 -11.0870 -2.0016 0.9445
9.5260 -10.4312 -2.0016 0.9445
10.5910 -9.3481 -2.0016 0.9445
10.9193 -8.9623 -2.0016 0.9445
11.5335 -8.1568 -2.0016 0.9445
12.0883 -7.3094 -2.0016 0.9445
12.5810 -6.4244 -2.0016 0.9445
12.8033 -5.9692 -2.0016 0.9445
13.0091 -5.5063 -2.0016 0.9445
13.3702 -4.5600 -2.0016 0.9445
13.5251 -4.0777 -2.0016 0.9445
13.7825 -3.0980 -2.0016 0.9445
13.8847 -2.6019 -2.0016 0.9445
14.0838 -1.0960 -2.0016 0.9445
14.1141 -0.5904 -2.0016 0.9445
14.0959 0.9285 -2.0016 0.9445
13.9931 1.9362 -2.0016 0.9445
13.8184 2.9339 -2.0016 0.9445
13.7043 3.4275 -2.0016 0.9445
13.4235 4.4007 -2.0016 0.9445
13.2571 4.8791 -2.0016 0.9445
13.0736 5.3513 -2.0016 0.9445
12.8734 5.8165 -2.0016 0.9445
12.4235 6.7241 -2.0016 0.9445
12.1744 7.1652 -2.0016 0.9445
11.6297 8.0191 -2.0016 0.9445
11.3347 8.4309 -2.0016 0.9445
11.0251 8.8318 -2.0016 0.9445
9.2733 10.6565 -2.0016 0.9445
8.8853 10.9821 -2.0016 0.9445
8.0755 11.5906 -2.0016 0.9445
7.2052 12.1076 -1.9963 0.9447
5.8539 11.6658 -1.8494 0.9486
5.0029 12.0553 -1.8494 0.9486
4.5675 12.2270 -1.8494 0.9486
4.1262 12.3828 -1.8494 0.9486
3.2283 12.6467 -1.8494 0.9486
2.7728 12.7543 -1.8494 0.9486
2.3000 12.7693 -1.8384 0.9489
1.7976 12.5427 -1.7953 0.9501
0.4146 11.9189 -1.6898 0.9530
-0.0128 11.7261 -1.6615 0.9537
-1.2726 8.7437 -1.2519 0.9649
-2.0832 11.4227 -1.6452 0.9542
-2.5100 11.4255 -1.6575 0.9538
-2.9438 11.4284 -1.6721 0.9534
-3.8378 11.4342 -1.7089 0.9524
-4.3010 11.4373 -1.7313 0.9518
-12.1070 1.0196 -2.0016 0.9519
-12.1489 0.1494 -2.0016 0.9519
-12.1284 -0.7216 -2.0016 0.9519
-12.0455 -1.5888 -2.0016 0.9519
-11.9808 -2.0196 -2.0016 0.9519
-11.0411 -2.2711 -1.8570 0.9553
-10.9526 -2.6654 -1.8570 0.9553
-10.7334 -3.4434 -1.8570 0.9553
-10.4591 -4.2037 -1.8570 0.9553
-10.3016 -4.5760 -1.8570 0.9553
-10.1310 -4.9424 -1.8570 0.9553
-9.9473 -5.3024 -1.8570 0.9553
-9.7946 -7.1892 -2.0016 0.9519
-8.6664 -8.5155 -2.0016 0.9519
-8.3555 -8.8207 -2.0016 0.9519
-8.0339 -9.1146 -2.0016 0.9519
-7.7019 -9.3968 -2.0016 0.9519
-6.2796 -10.4013 -2.0016 0.9519
-5.5181 -10.8245 -2.0016 0.9519
-4.3239 -11.3544 -2.0016 0.9519
-3.9141 -11.5021 -2.0016 0.9519
-3.4992 -11.6351 -2.0016 0.9519
-3.0798 -11.7530 -2.0016 0.9519
-2.2297 -11.9435 -2.0016 0.9519
-1.8001 -12.0158 -2.0016 0.9519
-1.3681 -12.0726 -2.0016 0.9519
-0.4995 -12.1396 -2.0016 0.9519
0.3717 -12.1442 -2.0016 0.9519
0.8069 -12.1231 -2.0016 0.9519
1.2410 -12.0863 -2.0016 0.9519
1.6735 -12.0341 -2.0016 0.9519
2.5315 -11.8832 -2.0016 0.9519
3.3766 -11.6713 -2.0016 0.9519
4.2042 -11.3993 -2.0016 0.9519
4.6102 -11.2412 -2.0016 0.9519
5.0103 -11.0687 -2.0016 0.9519
5.4039 -10.8820 -2.0016 0.9519
6.1698 -10.4668 -2.0016 0.9519
6.9039 -9.9978 -2.0016 0.9519
7.2579 -9.7438 -2.0016 0.9519
7.9375 -9.1987 -2.0016 0.9519
8.2622 -8.9082 -2.0016 0.9519
8.5763 -8.6062 -2.0016 0.9519
8.8793 -8.2932 -2.0016 0.9519
9.1709 -7.9695 -2.0016 0.9519
9.4507 -7.6356 -2.0016 0.9519
9.9736 -6.9388 -2.0016 0.9519
10.4452 -6.2063 -2.0016 0.9519
10.6610 -5.8278 -2.0016 0.9519
10.8631 -5.4418 -2.0016 0.9519
11.0512 -5.0488 -2.0016 0.9519
11.2251 -4.6494 -2.0016 0.9519
11.3846 -4.2440 -2.0016 0.9519
11.5294 -3.8331 -2.0016 0.9519
12.1202 -0.8491 -2.0016 0.9519
12.1428 -0.4141 -2.0016 0.9519
12.1499 0.0216 -2.0016 0.9519
12.1413 0.4571 -2.0016 0.9519
12.1171 0.8921 -2.0016 0.9519
12.0220 1.7581 -2.0016 0.9519
11.9512 2.1880 -2.0016 0.9519
11.7637 3.0388 -2.0016 0.9519
11.6472 3.4586 -2.0016 0.9519
11.0332 5.0880 -2.0016 0.9519
10.6402 5.8655 -2.0016 0.9519
9.6925 7.3263 -2.0016 0.9519
9.4236 7.6691 -2.0016 0.9519
9.1426 8.0020 -2.0016 0.9519
8.8498 8.3247 -2.0016 0.9519
8.2306 8.9374 -2.0016 0.9519
7.5689 9.5042 -2.0016 0.9519
6.1219 10.4703 -1.9981 0.9520
4.9573 10.0721 -1.8494 0.9555
4.5930 10.2434 -1.8494 0.9555
4.2228 10.4015 -1.8494 0.9555
2.6925 10.8983 -1.8494 0.9555
2.3001 10.9878 -1.8494 0.9555
1.5068 11.1244 -1.8494 0.9555
1.1070 11.1713 -1.8494 0.9555
0.3036 11.2219 -1.8494 0.9555
-0.9030 11.1896 -1.8494 0.9555
-1.3364 8.7096 -1.4516 0.9649
-2.0993 11.0280 -1.8494 0.9555
-3.2712 10.7388 -1.8494 0.9555
-3.6541 10.6146 -1.8494 0.9555
-4.4054 10.3255 -1.8494 0.9555
-4.7727 10.1609 -1.8494 0.9555
-5.1339 9.9833 -1.8494 0.9555
-5.4885 9.7928 -1.8494 0.9555
-6.5083 9.1469 -1.8494 0.9555
-6.8320 8.9076 -1.8494 0.9555
-7.4528 8.3952 -1.8494 0.9555
-7.8746 8.2542 -1.8793 0.9548
-8.4479 8.2422 -1.9444 0.9533
-9.2780 7.8362 -2.0007 0.9520
-9.5573 7.5019 -2.0016 0.9519
-9.8201 7.1544 -2.0016 0.9519
-10.0702 6.7978 -2.0016 0.9519
-10.7419 5.6772 -2.0016 0.9519
-10.9386 5.2884 -2.0016 0.9519
-11.1211 4.8928 -2.0016 0.9519
-11.4431 4.0834 -2.0016 0.9519
-11.5822 3.6705 -2.0016 0.9519
-11.8154 2.8311 -2.0016 0.9519
-11.9093 2.4057 -2.0016 0.9519
-11.9879 1.9771 -2.0016 0.9519
-12.0988 1.1130 -2.0016 0.9519
-12.1474 0.2432 -2.0016 0.9519
-12.1483 -0.1925 -2.0016 0.9519
-12.1336 -0.6279 -2.0016 0.9519
-12.1033 -1.0625 -2.0016 0.9519
-12.0574 -1.4958 -2.0016 0.9519
-11.9961 -1.9271 -2.0016 0.9519
-10.9728 -2.5808 -1.8570 0.9553
-10.8732 -2.9726 -1.8570 0.9553
-10.7597 -3.3605 -1.8570 0.9553
-10.6323 -3.7441 -1.8570 0.9553
-10.4912 -4.1229 -1.8570 0.9553
-10.3367 -4.4963 -1.8570 0.9553
-10.1688 -4.8640 -1.8570 0.9553
-9.9879 -5.2255 -1.8570 0.9553
-9.7941 -5.5802 -1.8570 0.9553
-9.5885 -7.4620 -2.0016 0.9519
-9.3148 -7.8009 -2.0016 0.9519
-7.7742 -9.3371 -2.0016 0.9519
-7.0852 -9.8701 -2.0016 0.9519
-5.6015 -10.7816 -2.0016 0.9519
-5.2113 -10.9755 -2.0016 0.9519
-4.8145 -11.1553 -2.0016 0.9519
-4.0028 -11.4716 -2.0016 0.9519
-2.3218 -11.9260 -2.0016 0.9519
-1.8927 -12.0015 -2.0016 0.9519
-1.4612 -12.0617 -2.0016 0.9519
-1.0279 -12.1063 -2.0016 0.9519
-0.5932 -12.1354 -2.0016 0.9519
-0.1577 -12.1488 -2.0016 0.9519
1.1476 -12.0955 -2.0016 0.9519
1.5806 -12.0466 -2.0016 0.9519
2.0114 -11.9822 -2.0016 0.9519
2.4397 -11.9024 -2.0016 0.9519
2.8649 -11.8073 -2.0016 0.9519
3.2864 -11.6970 -2.0016 0.9519
4.5233 -11.2765 -2.0016 0.9519
4.9247 -11.1071 -2.0016 0.9519
2.2340 -4.1978 -0.7834 0.9809
6.4618 -10.2890 -2.0016 0.9519
7.1825 -9.7995 -2.0016 0.9519
7.5292 -9.5357 -2.0016 0.9519
8.5096 -8.6722 -2.0016 0.9519
8.8150 -8.3615 -2.0016 0.9519
9.1091 -8.0401 -2.0016 0.9519
9.3915 -7.7083 -2.0016 0.9519
10.3970 -6.2867 -2.0016 0.9519
10.6157 -5.9099 -2.0016 0.9519
11.3515 -4.3317 -2.0016 0.9519
11.4995 -3.9219 -2.0016 0.9519
11.6327 -3.5072 -2.0016 0.9519
11.7509 -3.0878 -2.0016 0.9519
11.9420 -2.2379 -2.0016 0.9519
12.0717 -1.3764 -2.0016 0.9519
12.1236 0.7986 -2.0016 0.9519
12.0872 1.2327 -2.0016 0.9519
12.0352 1.6653 -2.0016 0.9519
11.9678 2.0957 -2.0016 0.9519
11.8849 2.5234 -2.0016 0.9519
11.7868 2.9479 -2.0016 0.9519
11.6736 3.3686 -2.0016 0.9519
11.4022 4.1964 -2.0016 0.9519
10.8857 5.3964 -2.0016 0.9519
10.4710 6.1626 -2.0016 0.9519
10.2433 6.5341 -2.0016 0.9519
9.7488 7.2513 -2.0016 0.9519
9.4825 7.5961 -2.0016 0.9519
9.2041 7.9312 -2.0016 0.9519
8.9138 8.2561 -2.0016 0.9519
8.6121 8.5704 -2.0016 0.9519
7.9758 9.1655 -2.0016 0.9519
6.9456 9.9689 -2.0016 0.9519
6.5837 10.2115 -2.0016 0.9519
6.2073 10.4307 -1.9996 0.9520
5.6863 10.3852 -1.9505 0.9531
5.0349 10.0336 -1.8494 0.9555
4.6719 10.2076 -1.8494 0.9555
4.3029 10.3686 -1.8494 0.9555
3.9284 10.5162 -1.8494 0.9555
2.3848 10.9698 -1.8494 0.9555
1.9900 11.0482 -1.8494 0.9555
1.5926 11.1124 -1.8494 0.9555
-0.0123 11.2260 -1.8494 0.9555
-0.8166 11.1962 -1.8494 0.9555
-1.2700 8.7263 -1.4527 0.9649
-2.0141 11.0438 -1.8494 0.9555
-2.4087 10.9645 -1.8494 0.9555
-3.1882 10.7637 -1.8494 0.9555
-10.6113 0.8936 -2.0016 0.9576
-10.6365 0.5126 -2.0016 0.9576
-10.6480 0.1310 -2.0016 0.9576
-10.6300 -0.6324 -2.0016 0.9576
-10.6005 -1.0131 -2.0016 0.9576
-10.5574 -1.3925 -2.0016 0.9576
-10.4305 -2.1455 -2.0016 0.9576
-9.5994 -2.3361 -1.8570 0.9606
-9.5095 -2.6788 -1.8570 0.9606
-9.2931 -3.3533 -1.8570 0.9606
-9.1669 -3.6844 -1.8570 0.9606
-9.0289 -4.0107 -1.8570 0.9606
-8.8793 -4.3318 -1.8570 0.9606
-8.7183 -4.6473 -1.8570 0.9606
-8.5461 -4.9569 -1.8570 0.9606
-8.3629 -5.2601 -1.8570 0.9606
-8.1689 -5.5566 -1.8570 0.9606
-8.5845 -6.3010 -2.0016 0.9576
-8.3531 -6.6047 -2.0016 0.9576
-8.1110 -6.9000 -2.0016 0.9576
-7.8584 -7.1863 -2.0016 0.9576
-7.5957 -7.4634 -2.0016 0.9576
-7.3232 -7.7310 -2.0016 0.9576
-7.0413 -7.9886 -2.0016 0.9576
-6.7504 -8.2359 -2.0016 0.9576
-5.5038 -9.1162 -2.0016 0.9576
-5.1734 -9.3077 -2.0016 0.9576
-4.1441 -9.8094 -2.0016 0.9576
-3.7897 -9.9516 -2.0016 0.9576
-3.0669 -10.1976 -2.0016 0.9576
-2.6993 -10.3010 -2.0016 0.9576
-2.3283 -10.3912 -2.0016 0.9576
-1.5777 -10.5313 -2.0016 0.9576
-1.1991 -10.5811 -2.0016 0.9576
-0.8189 -10.6173 -2.0016 0.9576
-0.4378 -10.6398 -2.0016 0.9576
0.7072 -10.6253 -2.0016 0.9576
1.8440 -10.4879 -2.0016 0.9576
2.2188 -10.4151 -2.0016 0.9576
2.5908 -10.3289 -2.0016 0.9576
3.3242 -10.1167 -2.0016 0.9576
4.0406 -9.8524 -2.0016 0.9576
4.7362 -9.5376 -2.0016 0.9576
5.4075 -9.1737 -2.0016 0.9576
5.7329 -8.9739 -2.0016 0.9576
6.0510 -8.7626 -2.0016 0.9576
8.0379 -6.9849 -2.0016 0.9576
8.2832 -6.6923 -2.0016 0.9576
8.5178 -6.3910 -2.0016 0.9576
8.9538 -5.7642 -2.0016 0.9576
9.3439 -5.1078 -2.0016 0.9576
9.5210 -4.7695 -2.0016 0.9576
9.6859 -4.4251 -2.0016 0.9576
9.9781 -3.7196 -2.0016 0.9576
10.2189 -2.9951 -2.0016 0.9576
10.3198 -2.6268 -2.0016 0.9576
10.6228 -0.7442 -2.0016 0.9576
10.6426 -0.3629 -2.0016 0.9576
10.6413 0.4007 -2.0016 0.9576
10.6201 0.7819 -2.0016 0.9576
10.5852 1.1622 -2.0016 0.9576
10.4747 1.9177 -2.0016 0.9576
10.3992 2.2920 -2.0016 0.9576
10.3104 2.6634 -2.0016 0.9576
10.2083 3.0313 -2.0016 0.9576
9.8238 4.1099 -2.0016 0.9576
9.5040 4.8032 -2.0016 0.9576
9.1354 5.4719 -2.0016 0.9576
8.9333 5.7959 -2.0016 0.9576
8.7198 6.1125 -2.0016 0.9576
8.4950 6.4212 -2.0016 0.9576
8.2594 6.7216 -2.0016 0.9576
8.0131 7.0134 -2.0016 0.9576
7.7565 7.2962 -2.0016 0.9576
7.2137 7.8332 -2.0016 0.9576
6.9282 8.0868 -2.0016 0.9576
5.0379 9.3722 -2.0000 0.9576
4.6856 9.5202 -1.9944 0.9577
3.7011 9.1164 -1.8494 0.9607
3.3718 9.2433 -1.8494 0.9607
3.0383 9.3582 -1.8494 0.9607
2.3599 9.5519 -1.8494 0.9607
2.0159 9.6303 -1.8494 0.9607
1.6693 9.6964 -1.8494 0.9607
0.6186 9.8196 -1.8494 0.9607
-0.4394 9.8293 -1.8494 0.9607
-1.0450 8.9380 -1.6914 0.9640
-1.3330 8.6879 -1.6521 0.9649
-1.8399 9.6655 -1.8494 0.9607
-2.5278 9.5088 -1.8494 0.9607
-2.8671 9.4121 -1.8494 0.9607
-3.2027 9.3032 -1.8494 0.9607
-3.8611 9.0498 -1.8494 0.9607
-4.1831 8.9056 -1.8494 0.9607
-4.4997 8.7499 -1.8494 0.9607
-6.7566 8.1840 -1.9948 0.9577
-7.6221 7.4365 -2.0016 0.9576
-8.3765 6.5751 -2.0016 0.9576
-9.4148 4.9758 -2.0016 0.9576
-9.5871 4.6351 -2.0016 0.9576
-9.7472 4.2884 -2.0016 0.9576
-10.1513 3.2170 -2.0016 0.9576
-10.2601 2.8510 -2.0016 0.9576
-10.4380 2.1084 -2.0016 0.9576
-10.5069 1.7329 -2.0016 0.9576
-10.5623 1.3551 -2.0016 0.9576
-10.6040 0.9755 -2.0016 0.9576
-10.6467 0.2131 -2.0016 0.9576
-10.6475 -0.1687 -2.0016 0.9576
-10.5140 -1.6890 -2.0016 0.9576
-10.4467 -2.0649 -2.0016 0.9576
-9.6172 -2.2620 -1.8570 0.9606
-9.4304 -2.9453 -1.8570 0.9606
-9.3187 -3.2815 -1.8570 0.9606
-9.1951 -3.6135 -1.8570 0.9606
-8.9125 -4.2631 -1.8570 0.9606
-8.4032 -5.1954 -1.8570 0.9606
-8.2116 -5.4934 -1.8570 0.9606
-8.6329 -6.2346 -2.0016 0.9576
-8.1640 -6.8372 -2.0016 0.9576
-7.6531 -7.4046 -2.0016 0.9576
-7.1028 -7.9340 -2.0016 0.9576
-5.8957 -8.8678 -2.0016 0.9576
-4.2197 -9.7771 -2.0016 0.9576
-3.5082 -10.0543 -2.0016 0.9576
-3.1455 -10.1736 -2.0016 0.9576
-2.0350 -10.4526 -2.0016 0.9576
-0.5199 -10.6361 -2.0016 0.9576
-0.1382 -10.6479 -2.0016 0.9576
1.0059 -10.6012 -2.0016 0.9576
1.7629 -10.5019 -2.0016 0.9576
2.5109 -10.3485 -2.0016 0.9576
3.2461 -10.1420 -2.0016 0.9576
3.6076 -10.0191 -2.0016 0.9576
3.9645 -9.8833 -2.0016 0.9576
2.2340 -4.1978 -0.8938 0.9808
5.6635 -9.0179 -2.0016 0.9576
5.9832 -8.8090 -2.0016 0.9576
6.2952 -8.5888 -2.0016 0.9576
7.1810 -7.8633 -2.0016 0.9576
7.4583 -7.6008 -2.0016 0.9576
7.7260 -7.3285 -2.0016 0.9576
8.2313 -6.7560 -2.0016 0.9576
8.6942 -6.1488 -2.0016 0.9576
8.9091 -5.8332 -2.0016 0.9576
9.4839 -4.8428 -2.0016 0.9576
9.6514 -4.4997 -2.0016 0.9576
9.8065 -4.1508 -2.0016 0.9576
10.0788 -3.4374 -2.0016 0.9576
10.1955 -3.0739 -2.0016 0.9576
10.2992 -2.7063 -2.0016 0.9576
10.3896 -2.3354 -2.0016 0.9576
10.4666 -1.9614 -2.0016 0.9576
10.5803 -1.2063 -2.0016 0.9576
10.6395 -0.4450 -2.0016 0.9576
10.6486 -0.0633 -2.0016 0.9576
10.6441 0.3185 -2.0016 0.9576
10.5483 1.4595 -2.0016 0.9576
9.8552 4.0339 -2.0016 0.9576
9.7042 4.3846 -2.0016 0.9576
9.3651 5.0687 -2.0016 0.9576
9.1773 5.4013 -2.0016 0.9576
8.9778 5.7268 -2.0016 0.9576
8.7667 6.0450 -2.0016 0.9576
8.5443 6.3554 -2.0016 0.9576
8.3110 6.6577 -2.0016 0.9576
6.9904 8.0331 -2.0016 0.9576
6.6979 8.2786 -2.0016 0.9576
6.0875 8.7373 -2.0016 0.9576
5.7703 8.9499 -2.0016 0.9576
5.4458 9.1510 -2.0016 0.9576
4.7618 9.4894 -1.9956 0.9577
3.7713 9.0876 -1.8494 0.9607
3.4431 9.2170 -1.8494 0.9607
3.1104 9.3345 -1.8494 0.9607
2.4335 9.5334 -1.8494 0.9607
2.0902 9.6145 -1.8494 0.9607
0.3420 9.8331 -1.8494 0.9607
-0.0107 9.8391 -1.8494 0.9607
-0.3635 9.8324 -1.8494 0.9607
-1.0671 9.7810 -1.8494 0.9607
-1.7653 9.6794 -1.8494 0.9607
-2.1111 9.6099 -1.8494 0.9607
-3.1308 9.3277 -1.8494 0.9607
-9.4356 0.7946 -2.0016 0.9620
-9.4580 0.4558 -2.0016 0.9620
-9.4683 0.1164 -2.0016 0.9620
-9.4261 -0.9009 -2.0016 0.9620
-9.2748 -1.9078 -2.0016 0.9620
-8.2635 -2.9818 -1.8570 0.9647
-7.5993 -4.4077 -1.8570 0.9647
-7.4363 -4.6774 -1.8570 0.9647
-7.2639 -4.9410 -1.8570 0.9647
-7.0821 -5.1982 -1.8570 0.9647
-7.2123 -6.1355 -2.0016 0.9620
-6.9877 -6.3902 -2.0016 0.9620
-6.7541 -6.6366 -2.0016 0.9620
-6.5119 -6.8745 -2.0016 0.9620
-6.2612 -7.1035 -2.0016 0.9620
-5.4623 -7.7347 -2.0016 0.9620
-5.1815 -7.9256 -2.0016 0.9620
-4.3005 -8.4361 -2.0016 0.9620
-3.9953 -8.5849 -2.0016 0.9620
-3.6850 -8.7226 -2.0016 0.9620
-3.0505 -8.9642 -2.0016 0.9620
-2.7271 -9.0678 -2.0016 0.9620
-2.0703 -9.2399 -2.0016 0.9620
-1.7377 -9.3082 -2.0016 0.9620
-0.7282 -9.4410 -2.0016 0.9620
-0.3893 -9.4610 -2.0016 0.9620
-0.0498 -9.4689 -2.0016 0.9620
0.2897 -9.4646 -2.0016 0.9620
0.6288 -9.4481 -2.0016 0.9620
1.3042 -9.3788 -2.0016 0.9620
1.6397 -9.3260 -2.0016 0.9620
2.3037 -9.1845 -2.0016 0.9620
2.6315 -9.0960 -2.0016 0.9620
2.9559 -8.9958 -2.0016 0.9620
3.5930 -8.7609 -2.0016 0.9620
3.9047 -8.6264 -2.0016 0.9620
4.2115 -8.4809 -2.0016 0.9620
2.2693 -4.1860 -1.0065 0.9807
4.8084 -8.1573 -2.0016 0.9620
5.0978 -7.9797 -2.0016 0.9620
6.9201 -6.4633 -2.0016 0.9620
7.1474 -6.2111 -2.0016 0.9620
7.3654 -5.9508 -2.0016 0.9620
7.5741 -5.6830 -2.0016 0.9620
7.9618 -5.1256 -2.0016 0.9620
8.1405 -4.8368 -2.0016 0.9620
8.3087 -4.5419 -2.0016 0.9620
8.4661 -4.2411 -2.0016 0.9620
8.6128 -3.9348 -2.0016 0.9620
8.8726 -3.3075 -2.0016 0.9620
8.9855 -2.9873 -2.0016 0.9620
9.0868 -2.6632 -2.0016 0.9620
9.1764 -2.3357 -2.0016 0.9620
9.2543 -2.0053 -2.0016 0.9620
9.4161 -1.0000 -2.0016 0.9620
9.4459 -0.6618 -2.0016 0.9620
9.4635 -0.3227 -2.0016 0.9620
9.4690 0.0168 -2.0016 0.9620
9.4623 0.3563 -2.0016 0.9620
9.4435 0.6953 -2.0016 0.9620
9.4125 1.0334 -2.0016 0.9620
9.2471 2.0381 -2.0016 0.9620
8.8608 3.3390 -2.0016 0.9620
8.5987 3.9653 -2.0016 0.9620
7.3443 5.9769 -2.0016 0.9620
7.1253 6.2364 -2.0016 0.9620
6.4145 6.9654 -2.0016 0.9620
5.6295 7.6139 -2.0016 0.9620
4.7795 8.1743 -2.0016 0.9620
3.8723 8.6361 -2.0006 0.9620
3.1986 8.7684 -1.9729 0.9626
2.8045 8.6382 -1.9198 0.9635
1.7926 8.5634 -1.8494 0.9649
1.1743 8.6698 -1.8494 0.9649
0.5500 8.7317 -1.8494 0.9649
0.2366 8.7458 -1.8494 0.9649
-0.7038 8.7206 -1.8494 0.9649
-1.0160 8.6898 -1.8494 0.9649
-3.1776 8.2560 -1.8699 0.9645
-3.5203 8.2511 -1.8962 0.9640
-3.8731 8.2457 -1.9257 0.9634
-4.2372 8.2396 -1.9585 0.9628
-4.6121 8.2290 -1.9940 0.9622
-4.9108 8.0693 -1.9967 0.9621
-5.2044 7.8994 -1.9996 0.9621
-5.4897 7.7153 -2.0016 0.9620
-6.0284 7.3021 -2.0016 0.9620
-6.2864 7.0812 -2.0016 0.9620
-6.5362 6.8513 -2.0016 0.9620
-6.7776 6.6126 -2.0016 0.9620
-7.0103 6.3653 -2.0016 0.9620
-7.4485 5.8466 -2.0016 0.9620
-7.8483 5.2978 -2.0016 0.9620
-8.0332 5.0131 -2.0016 0.9620
-8.3717 4.4245 -2.0016 0.9620
-8.5250 4.1215 -2.0016 0.9620
-8.6673 3.8132 -2.0016 0.9620
-8.7984 3.5001 -2.0016 0.9620
-8.9182 3.1824 -2.0016 0.9620
-9.0266 2.8606 -2.0016 0.9620
-9.1233 2.5351 -2.0016 0.9620
-9.2084 2.2064 -2.0016 0.9620
-9.2816 1.8748 -2.0016 0.9620
-9.3428 1.5409 -2.0016 0.9620
-9.4292 0.8674 -2.0016 0.9620
-9.4678 -0.1500 -2.0016 0.9620
-9.4327 -0.8281 -2.0016 0.9620
-9.3970 -1.1657 -2.0016 0.9620
-9.2893 -1.8361 -2.0016 0.9620
-9.2175 -2.1680 -2.0016 0.9620
-8.4741 -2.3167 -1.8570 0.9647
-8.3856 -2.6190 -1.8570 0.9647
-8.2863 -2.9179 -1.8570 0.9647
-8.0559 -3.5042 -1.8570 0.9647
-7.9251 -3.7908 -1.8570 0.9647
-7.6331 -4.3489 -1.8570 0.9647
-7.4722 -4.6198 -1.8570 0.9647
-7.1220 -5.1434 -1.8570 0.9647
-6.9330 -5.3954 -1.8570 0.9647
-6.8052 -6.5842 -2.0016 0.9620
-6.5647 -6.8240 -2.0016 0.9620
-6.0588 -7.2769 -2.0016 0.9620
-5.5218 -7.6923 -2.0016 0.9620
-5.2425 -7.8853 -2.0016 0.9620
-4.9564 -8.0682 -2.0016 0.9620
-4.6640 -8.2407 -2.0016 0.9620
-4.3655 -8.4027 -2.0016 0.9620
-4.0615 -8.5538 -2.0016 0.9620
-2.7970 -9.0465 -2.0016 0.9620
-2.4709 -9.1410 -2.0016 0.9620
-0.8011 -9.4351 -2.0016 0.9620
-0.1229 -9.4682 -2.0016 0.9620
0.5559 -9.4527 -2.0016 0.9620
0.8944 -9.4267 -2.0016 0.9620
1.2318 -9.3886 -2.0016 0.9620
1.5676 -9.3384 -2.0016 0.9620
1.9014 -9.2761 -2.0016 0.9620
2.5612 -9.1161 -2.0016 0.9620
2.8864 -9.0184 -2.0016 0.9620
3.8380 -8.6563 -2.0016 0.9620
4.1459 -8.5131 -2.0016 0.9620
2.2339 -4.1977 -1.0051 0.9807
4.7453 -8.1942 -2.0016 0.9620
5.0360 -8.0188 -2.0016 0.9620
5.3203 -7.8331 -2.0016 0.9620
5.5977 -7.6373 -2.0016 0.9620
5.8679 -7.4317 -2.0016 0.9620
6.1306 -7.2165 -2.0016 0.9620
7.3193 -6.0075 -2.0016 0.9620
7.5300 -5.7412 -2.0016 0.9620
8.1029 -4.8995 -2.0016 0.9620
8.2733 -4.6059 -2.0016 0.9620
8.4332 -4.3063 -2.0016 0.9620
8.5821 -4.0012 -2.0016 0.9620
8.7201 -3.6909 -2.0016 0.9620
8.9621 -3.0566 -2.0016 0.9620
9.0659 -2.7333 -2.0016 0.9620
9.1581 -2.4065 -2.0016 0.9620
9.3636 -1.4093 -2.0016 0.9620
9.4405 -0.7347 -2.0016 0.9620
9.4607 -0.3957 -2.0016 0.9620
9.4648 0.2832 -2.0016 0.9620
9.4485 0.6224 -2.0016 0.9620
9.2625 1.9666 -2.0016 0.9620
9.1861 2.2974 -2.0016 0.9620
8.9978 2.9498 -2.0016 0.9620
6.9470 6.4344 -2.0016 0.9620
6.7118 6.6793 -2.0016 0.9620
6.2160 7.1431 -2.0016 0.9620
5.9559 7.3614 -2.0016 0.9620
5.1310 7.9583 -2.0016 0.9620
4.8424 8.1372 -2.0016 0.9620
3.2863 8.7973 -1.9851 0.9623
1.5509 8.6104 -1.8494 0.9649
0.9299 8.6994 -1.8494 0.9649
0.3041 8.7437 -1.8494 0.9649
-0.0095 8.7490 -1.8494 0.9649
-0.3232 8.7430 -1.8494 0.9649
-0.6364 8.7258 -1.8494 0.9649
-0.9489 8.6974 -1.8494 0.9649
-1.2601 8.6578 -1.8494 0.9649
-1.5697 8.6070 -1.8494 0.9649
-2.7839 8.2943 -1.8494 0.9649
-3.1050 8.2570 -1.8647 0.9646
-8.4864 0.7147 -2.0016 0.9656
-8.5158 0.1047 -2.0016 0.9656
-8.5014 -0.5058 -2.0016 0.9656
-8.4778 -0.8102 -2.0016 0.9656
-8.4433 -1.1137 -2.0016 0.9656
-8.3980 -1.4157 -2.0016 0.9656
-7.9143 -2.2294 -1.9324 0.9668
-7.5236 -2.4137 -1.8570 0.9681
-7.3313 -2.9466 -1.8570 0.9681
-7.1013 -3.4644 -1.8570 0.9681
-6.9725 -3.7167 -1.8570 0.9681
-6.5331 -4.4439 -1.8570 0.9681
-6.1979 -4.9006 -1.8570 0.9681
-5.6425 -5.5443 -1.8592 0.9680
-5.6313 -6.3889 -2.0016 0.9656
-5.1590 -6.7760 -2.0016 0.9656
-4.9128 -6.9566 -2.0016 0.9656
-3.5934 -7.7212 -2.0016 0.9656
-3.3143 -7.8451 -2.0016 0.9656
-2.4528 -8.1556 -2.0016 0.9656
-2.1588 -8.2383 -2.0016 0.9656
-1.8620 -8.3104 -2.0016 0.9656
-1.2618 -8.4225 -2.0016 0.9656
-0.9590 -8.4623 -2.0016 0.9656
-0.3501 -8.5092 -2.0016 0.9656
0.2605 -8.5125 -2.0016 0.9656
2.3668 -8.1810 -2.0016 0.9656
2.6586 -8.0908 -2.0016 0.9656
3.2315 -7.8795 -2.0016 0.9656
3.5119 -7.7586 -2.0016 0.9656
2.2524 -4.1547 -1.1107 0.9808
4.8393 -7.0079 -2.0016 0.9656
5.7914 -6.2442 -2.0016 0.9656
6.2239 -5.8131 -2.0016 0.9656
6.6245 -5.3522 -2.0016 0.9656
6.9910 -4.8637 -2.0016 0.9656
7.1609 -4.6100 -2.0016 0.9656
7.3215 -4.3503 -2.0016 0.9656
7.4728 -4.0850 -2.0016 0.9656
7.6145 -3.8144 -2.0016 0.9656
7.7463 -3.5390 -2.0016 0.9656
7.8682 -3.2590 -2.0016 0.9656
7.9800 -2.9748 -2.0016 0.9656
8.3826 -1.5040 -2.0016 0.9656
8.4311 -1.2025 -2.0016 0.9656
8.4688 -0.8994 -2.0016 0.9656
8.4956 -0.5952 -2.0016 0.9656
8.5115 -0.2902 -2.0016 0.9656
8.4656 0.9294 -2.0016 0.9656
7.8566 3.2869 -2.0016 0.9656
7.3061 4.3762 -2.0016 0.9656
6.6055 5.3756 -2.0016 0.9656
6.4085 5.6090 -2.0016 0.9656
5.9901 6.0538 -2.0016 0.9656
5.7692 6.2647 -2.0016 0.9656
5.5409 6.4675 -2.0016 0.9656
5.3054 6.6620 -2.0016 0.9656
5.0632 6.8479 -2.0016 0.9656
4.8144 7.0250 -2.0016 0.9656
4.5595 7.1931 -2.0016 0.9656
4.2987 7.3520 -2.0016 0.9656
3.7608 7.6411 -2.0016 0.9656
2.6298 8.1000 -2.0015 0.9656
2.0376 8.2475 -1.9966 0.9657
1.4306 8.3098 -1.9817 0.9659
0.5195 8.2466 -1.9420 0.9666
0.2230 8.2434 -1.9381 0.9667
-0.6652 8.2424 -1.9434 0.9666
-0.9635 8.2411 -1.9501 0.9665
-1.2642 8.2395 -1.9591 0.9663
-2.4745 8.1234 -1.9958 0.9657
-2.7662 8.0355 -1.9973 0.9657
-3.0551 7.9377 -1.9989 0.9657
-4.6855 7.1117 -2.0016 0.9656
-5.1830 6.7577 -2.0016 0.9656
-5.4220 6.5675 -2.0016 0.9656
-5.6540 6.3689 -2.0016 0.9656
-5.8787 6.1621 -2.0016 0.9656
-6.0958 5.9474 -2.0016 0.9656
-6.3051 5.7250 -2.0016 0.9656
-6.5063 5.4953 -2.0016 0.9656
-6.8834 5.0149 -2.0016 0.9656
-7.0587 4.7649 -2.0016 0.9656
-7.7954 3.4296 -2.0016 0.9656
-8.2055 2.2801 -2.0016 0.9656
-8.2820 1.9844 -2.0016 0.9656
-8.4029 1.3859 -2.0016 0.9656
-8.5032 0.4756 -2.0016 0.9656
-8.5147 0.1705 -2.0016 0.9656
-8.5051 -0.4401 -2.0016 0.9656
-8.4086 -1.3508 -2.0016 0.9656
-8.3548 -1.6514 -2.0016 0.9656
-8.2902 -1.9499 -2.0016 0.9656
-7.5420 -2.3555 -1.8570 0.9681
-7.4527 -2.6244 -1.8570 0.9681
-7.2455 -3.1517 -1.8570 0.9681
-7.1278 -3.4094 -1.8570 0.9681
-7.0010 -3.6628 -1.8570 0.9681
-6.8652 -3.9114 -1.8570 0.9681
-6.7205 -4.1551 -1.8570 0.9681
-5.8718 -5.2870 -1.8570 0.9681
-5.9043 -6.1375 -2.0016 0.9656
-5.6805 -6.3452 -2.0016 0.9656
-5.4493 -6.5448 -2.0016 0.9656
-4.7151 -7.0921 -2.0016 0.9656
-4.4578 -7.2566 -2.0016 0.9656
-4.1948 -7.4117 -2.0016 0.9656
-2.8057 -8.0410 -2.0016 0.9656
-1.9261 -8.2958 -2.0016 0.9656
-1.3267 -8.4125 -2.0016 0.9656
-0.7205 -8.4859 -2.0016 0.9656
-0.4158 -8.5063 -2.0016 0.9656
-0.1106 -8.5157 -2.0016 0.9656
0.1948 -8.5142 -2.0016 0.9656
0.5000 -8.5018 -2.0016 0.9656
1.1079 -8.4441 -2.0016 0.9656
1.7101 -8.3430 -2.0016 0.9656
2.0081 -8.2763 -2.0016 0.9656
2.3036 -8.1990 -2.0016 0.9656
2.5961 -8.1111 -2.0016 0.9656
3.1706 -7.9042 -2.0016 0.9656
2.1397 -4.3937 -1.1486 0.9801
2.4049 -4.1528 -1.1278 0.9805
4.5294 -7.2121 -2.0016 0.9656
5.7430 -6.2887 -2.0016 0.9656
5.9648 -6.0788 -2.0016 0.9656
6.1789 -5.8610 -2.0016 0.9656
6.3850 -5.6357 -2.0016 0.9656
6.5830 -5.4032 -2.0016 0.9656
6.9532 -4.9175 -2.0016 0.9656
7.1251 -4.6651 -2.0016 0.9656
7.2877 -4.4067 -2.0016 0.9656
7.4411 -4.1425 -2.0016 0.9656
7.5848 -3.8731 -2.0016 0.9656
7.7188 -3.5987 -2.0016 0.9656
