ply
format ascii 1.0
element vertex 1597
property float32 x
property float32 y
property float32 z
property float32 I
end_header
-3.2329 -10.1462 -2.0016 0.9576
-2.4960 -10.3522 -2.0016 0.9576
-1.7462 -10.5047 -2.0016 0.9576
0.1591 -10.6476 -2.0016 0.9576
0.5415 -10.6350 -2.0016 0.9576
2.0593 -10.4478 -2.0016 0.9576
2.8042 -10.2730 -2.0016 0.9576
3.5346 -10.0451 -2.0016 0.9576
4.2468 -9.7653 -2.0016 0.9576
4.5949 -9.6065 -2.0016 0.9576
2.2078 -4.2192 -0.8951 0.9808
5.9236 -8.8492 -2.0016 0.9576
6.8413 -8.1605 -2.0016 0.9576
7.1301 -7.9095 -2.0016 0.9576
7.9397 -7.0964 -2.0016 0.9576
8.4287 -6.5080 -2.0016 0.9576
8.6571 -6.2010 -2.0016 0.9576
8.8743 -5.8859 -2.0016 0.9576
9.0800 -5.5633 -2.0016 0.9576
9.6259 -4.5541 -2.0016 0.9576
9.7833 -4.2053 -2.0016 0.9576
10.2848 -2.7606 -2.0016 0.9576
10.4564 -2.0149 -2.0016 0.9576
10.5221 -1.6380 -2.0016 0.9576
10.5741 -1.2589 -2.0016 0.9576
10.6372 -0.4964 -2.0016 0.9576
10.6289 0.6510 -2.0016 0.9576
10.5986 1.0324 -2.0016 0.9576
10.5547 1.4125 -2.0016 0.9576
10.4972 1.7908 -2.0016 0.9576
9.8710 3.9951 -2.0016 0.9576
9.5587 4.6936 -2.0016 0.9576
9.3839 5.0339 -2.0016 0.9576
8.9982 5.6948 -2.0016 0.9576
8.7878 6.0144 -2.0016 0.9576
8.5660 6.3262 -2.0016 0.9576
8.0896 6.9250 -2.0016 0.9576
7.5715 7.4880 -2.0016 0.9576
7.2976 7.7551 -2.0016 0.9576
6.7219 8.2591 -2.0016 0.9576
6.4208 8.4953 -2.0016 0.9576
5.7943 8.9344 -2.0016 0.9576
5.1377 9.3274 -2.0016 0.9576
4.7859 9.4795 -1.9960 0.9577
3.7923 9.0789 -1.8494 0.9607
3.1306 9.3278 -1.8494 0.9607
2.4527 9.5285 -1.8494 0.9607
1.7622 9.6800 -1.8494 0.9607
1.4132 9.7370 -1.8494 0.9607
1.0625 9.7815 -1.8494 0.9607
-0.3496 9.8329 -1.8494 0.9607
-0.7026 9.8140 -1.8494 0.9607
-1.0547 9.7824 -1.8494 0.9607
-1.7544 9.6814 -1.8494 0.9607
-2.4451 9.5304 -1.8494 0.9607
-3.7850 9.0819 -1.8494 0.9607
-4.1088 8.9401 -1.8494 0.9607
-4.4274 8.7867 -1.8494 0.9607
-6.2197 8.2428 -1.9409 0.9588
-8.3279 6.6365 -2.0016 0.9576
-8.5610 6.3330 -2.0016 0.9576
-8.7829 6.0214 -2.0016 0.9576
-9.1927 5.3752 -2.0016 0.9576
-9.3798 5.0414 -2.0016 0.9576
-9.7176 4.3549 -2.0016 0.9576
-9.8678 4.0030 -2.0016 0.9576
-10.0052 3.6459 -2.0016 0.9576
-10.3394 2.5482 -2.0016 0.9576
-10.4243 2.1751 -2.0016 0.9576
-10.4957 1.7992 -2.0016 0.9576
-10.5536 1.4210 -2.0016 0.9576
-10.5978 1.0409 -2.0016 0.9576
-10.6284 0.6595 -2.0016 0.9576
-10.6452 0.2772 -2.0016 0.9576
-10.6376 -0.4879 -2.0016 0.9576
-10.5751 -1.2505 -2.0016 0.9576
-9.4460 -2.8948 -1.8570 0.9606
-9.3359 -3.2323 -1.8570 0.9606
-9.2138 -3.5656 -1.8570 0.9606
-9.0797 -3.8943 -1.8570 0.9606
-8.6080 -4.8486 -1.8570 0.9606
-8.4283 -5.1547 -1.8570 0.9606
-8.6621 -6.1940 -2.0016 0.9576
-8.4339 -6.5012 -2.0016 0.9576
-8.1949 -6.8000 -2.0016 0.9576
-7.6855 -7.3709 -2.0016 0.9576
-7.1364 -7.9038 -2.0016 0.9576
-6.8478 -8.1551 -2.0016 0.9576
6.5529 -6.8354 -2.0016 0.9620
7.0268 -6.3472 -2.0016 0.9620
7.4644 -5.8263 -2.0016 0.9620
7.6689 -5.5543 -2.0016 0.9620
8.3854 -4.3985 -2.0016 0.9620
8.5380 -4.0944 -2.0016 0.9620
8.6796 -3.7850 -2.0016 0.9620
8.9290 -3.1520 -2.0016 0.9620
9.0365 -2.8292 -2.0016 0.9620
9.3486 -1.5056 -2.0016 0.9620
9.4325 -0.8305 -2.0016 0.9620
9.4678 -0.1510 -2.0016 0.9620
9.4291 0.8686 -2.0016 0.9620
9.3918 1.2067 -2.0016 0.9620
9.3424 1.5434 -2.0016 0.9620
9.2809 1.8780 -2.0016 0.9620
9.1221 2.5396 -2.0016 0.9620
9.0250 2.8657 -2.0016 0.9620
8.9162 3.1881 -2.0016 0.9620
8.7959 3.5063 -2.0016 0.9620
8.5214 4.1289 -2.0016 0.9620
8.2030 4.7301 -2.0016 0.9620
7.8421 5.3069 -2.0016 0.9620
7.4408 5.8563 -2.0016 0.9620
7.2256 6.1199 -2.0016 0.9620
6.7675 6.6229 -2.0016 0.9620
6.5252 6.8618 -2.0016 0.9620
6.0157 7.3126 -2.0016 0.9620
5.7491 7.5240 -2.0016 0.9620
5.1940 7.9174 -2.0016 0.9620
4.6120 8.2699 -2.0016 0.9620
4.3119 8.4303 -2.0016 0.9620
3.6893 8.7036 -1.9982 0.9621
2.5860 8.5680 -1.8918 0.9641
1.9200 8.5357 -1.8494 0.9649
1.3021 8.6516 -1.8494 0.9649
0.9905 8.6927 -1.8494 0.9649
0.6775 8.7227 -1.8494 0.9649
0.3637 8.7414 -1.8494 0.9649
-0.2649 8.7450 -1.8494 0.9649
-0.5789 8.7298 -1.8494 0.9649
-1.2043 8.6657 -1.8494 0.9649
-2.4366 8.4158 -1.8520 0.9648
-2.7335 8.3110 -1.8494 0.9649
-3.0489 8.2577 -1.8607 0.9647
-3.3888 8.2530 -1.8859 0.9642
-3.7383 8.2478 -1.9141 0.9637
-4.0988 8.2419 -1.9457 0.9631
-4.4715 8.2354 -1.9809 0.9624
-5.3872 7.7868 -2.0015 0.9620
-6.1939 7.1622 -2.0016 0.9620
-7.9705 5.1122 -2.0016 0.9620
-8.4742 4.2249 -2.0016 0.9620
-8.6205 3.9177 -2.0016 0.9620
-8.9920 2.9675 -2.0016 0.9620
-9.0928 2.6425 -2.0016 0.9620
-9.2591 1.9828 -2.0016 0.9620
-9.3244 1.6489 -2.0016 0.9620
-9.3650 -1.3999 -2.0016 0.9620
-8.4129 -2.5299 -1.8570 0.9647
-8.2095 -3.1275 -1.8570 0.9647
-8.0918 -3.4204 -1.8570 0.9647
-7.9637 -3.7089 -1.8570 0.9647
-7.1727 -5.0723 -1.8570 0.9647
-6.7900 -5.5743 -1.8570 0.9647
-7.0981 -6.2674 -2.0016 0.9620
-6.1271 -7.2195 -2.0016 0.9620
-5.3148 -7.8368 -2.0016 0.9620
-5.0298 -8.0227 -2.0016 0.9620
-4.1374 -8.5173 -2.0016 0.9620
-3.1970 -8.9130 -2.0016 0.9620
-2.8747 -9.0221 -2.0016 0.9620
-2.2195 -9.2052 -2.0016 0.9620
-1.8873 -9.2790 -2.0016 0.9620
-1.5528 -9.3408 -2.0016 0.9620
-1.2162 -9.3906 -2.0016 0.9620
-0.8780 -9.4282 -2.0016 0.9620
-0.5387 -9.4537 -2.0016 0.9620
-0.1988 -9.4669 -2.0016 0.9620
0.4815 -9.4568 -2.0016 0.9620
0.8210 -9.4334 -2.0016 0.9620
1.1593 -9.3978 -2.0016 0.9620
1.4962 -9.3501 -2.0016 0.9620
1.8312 -9.2903 -2.0016 0.9620
2.1638 -9.2185 -2.0016 0.9620
2.8201 -9.0393 -2.0016 0.9620
3.1430 -8.9322 -2.0016 0.9620
4.6887 -8.2267 -2.0016 0.9620
4.9812 -8.0530 -2.0016 0.9620
5.2673 -7.8688 -2.0016 0.9620
5.5466 -7.6745 -2.0016 0.9620
5.8187 -7.4703 -2.0016 0.9620
6.8288 -6.5598 -2.0016 0.9620
7.2822 -6.0525 -2.0016 0.9620
7.4949 -5.7869 -2.0016 0.9620
7.6980 -5.5139 -2.0016 0.9620
7.8911 -5.2338 -2.0016 0.9620
8.0740 -4.9470 -2.0016 0.9620
8.6994 -3.7394 -2.0016 0.9620
8.8281 -3.4244 -2.0016 0.9620
8.9454 -3.1051 -2.0016 0.9620
9.2980 -1.7917 -2.0016 0.9620
9.3563 -1.4565 -2.0016 0.9620
9.4026 -1.1194 -2.0016 0.9620
9.4368 -0.7809 -2.0016 0.9620
9.4685 -0.1013 -2.0016 0.9620
9.4660 0.2390 -2.0016 0.9620
9.4244 0.9180 -2.0016 0.9620
9.3854 1.2560 -2.0016 0.9620
9.3342 1.5924 -2.0016 0.9620
9.1957 2.2586 -2.0016 0.9620
9.0098 2.9130 -2.0016 0.9620
8.8993 3.2348 -2.0016 0.9620
8.6441 3.8655 -2.0016 0.9620
8.3442 4.4762 -2.0016 0.9620
8.0012 5.0638 -2.0016 0.9620
7.6170 5.6253 -2.0016 0.9620
7.4100 5.8953 -2.0016 0.9620
6.9675 6.4122 -2.0016 0.9620
6.7327 6.6584 -2.0016 0.9620
6.4891 6.8959 -2.0016 0.9620
5.7095 7.5541 -2.0016 0.9620
5.4344 7.7543 -2.0016 0.9620
5.1523 7.9446 -2.0016 0.9620
4.8636 8.1245 -2.0016 0.9620
4.5685 8.2940 -2.0016 0.9620
4.2676 8.4528 -2.0016 0.9620
3.9612 8.6007 -2.0016 0.9620
3.3122 8.8066 -1.9888 0.9623
2.9109 8.6734 -1.9339 0.9633
2.5334 8.5559 -1.8862 0.9642
2.1828 8.4801 -1.8510 0.9648
1.8752 8.5457 -1.8494 0.9649
1.5669 8.6075 -1.8494 0.9649
0.9448 8.6978 -1.8494 0.9649
0.3178 8.7432 -1.8494 0.9649
0.0035 8.7490 -1.8494 0.9649
-0.3108 8.7435 -1.8494 0.9649
-0.6247 8.7267 -1.8494 0.9649
-1.2498 8.6593 -1.8494 0.9649
-1.8683 8.5472 -1.8494 0.9649
-2.7771 8.2965 -1.8494 0.9649
-4.1524 8.2410 -1.9506 0.9630
-4.5271 8.2344 -1.9863 0.9623
-5.9713 7.3489 -2.0016 0.9620
-6.7273 6.6637 -2.0016 0.9620
-7.1885 6.1635 -2.0016 0.9620
-7.4052 5.9012 -2.0016 0.9620
-7.8099 5.3543 -2.0016 0.9620
-7.9972 5.0702 -2.0016 0.9620
-8.1742 4.7796 -2.0016 0.9620
-8.4963 4.1804 -2.0016 0.9620
-8.6410 3.8724 -2.0016 0.9620
-8.7745 3.5595 -2.0016 0.9620
-9.0075 2.9202 -2.0016 0.9620
-9.1939 2.2659 -2.0016 0.9620
-9.2694 1.9341 -2.0016 0.9620
-9.3843 1.2635 -2.0016 0.9620
-9.4237 0.9256 -2.0016 0.9620
-9.4508 0.5864 -2.0016 0.9620
-9.4685 -0.0937 -2.0016 0.9620
-9.4591 -0.4338 -2.0016 0.9620
-9.2994 -1.7843 -2.0016 0.9620
-9.2293 -2.1172 -2.0016 0.9620
-8.3016 -2.8742 -1.8570 0.9647
-8.1930 -3.1706 -1.8570 0.9647
-7.9442 -3.7507 -1.8570 0.9647
-7.8043 -4.0336 -1.8570 0.9647
-7.6543 -4.3114 -1.8570 0.9647
-7.3250 -4.8499 -1.8570 0.9647
-6.7606 -5.6099 -1.8570 0.9647
-7.0651 -6.3045 -2.0016 0.9620
-6.3457 -7.0281 -2.0016 0.9620
6.1107 -5.9320 -2.0016 0.9656
6.3199 -5.7087 -2.0016 0.9656
7.3949 -4.2244 -2.0016 0.9656
7.5419 -3.9560 -2.0016 0.9656
7.8065 -3.4043 -2.0016 0.9656
7.9237 -3.1216 -2.0016 0.9656
8.0308 -2.8349 -2.0016 0.9656
8.1274 -2.5446 -2.0016 0.9656
8.2136 -2.2510 -2.0016 0.9656
8.2892 -1.9544 -2.0016 0.9656
8.3540 -1.6554 -2.0016 0.9656
8.4513 -1.0512 -2.0016 0.9656
8.5050 -0.4416 -2.0016 0.9656
8.4470 1.0853 -2.0016 0.9656
8.4026 1.3881 -2.0016 0.9656
8.1171 2.5774 -2.0016 0.9656
8.0192 2.8673 -2.0016 0.9656
7.5258 3.9865 -2.0016 0.9656
7.3777 4.2543 -2.0016 0.9656
7.0532 4.7730 -2.0016 0.9656
6.8772 5.0234 -2.0016 0.9656
6.6923 5.2672 -2.0016 0.9656
6.4987 5.5042 -2.0016 0.9656
6.0867 5.9567 -2.0016 0.9656
5.8688 6.1715 -2.0016 0.9656
5.6433 6.3783 -2.0016 0.9656
5.1707 6.7671 -2.0016 0.9656
4.9243 6.9485 -2.0016 0.9656
4.1481 7.4380 -2.0016 0.9656
3.8782 7.5822 -2.0016 0.9656
3.0399 7.9554 -2.0016 0.9656
2.7521 8.0595 -2.0016 0.9656
1.8632 8.2834 -1.9954 0.9657
1.5611 8.3274 -1.9912 0.9658
1.2470 8.2850 -1.9691 0.9662
0.9417 8.2650 -1.9550 0.9664
0.6410 8.2520 -1.9452 0.9666
0.3430 8.2432 -1.9390 0.9667
0.0466 8.2435 -1.9374 0.9667
-0.5466 8.2427 -1.9415 0.9666
-1.7550 8.2358 -1.9791 0.9660
-2.0652 8.2291 -1.9940 0.9657
-2.9449 7.9762 -1.9983 0.9657
-4.3300 7.3336 -2.0016 0.9656
-4.5907 7.1733 -2.0016 0.9656
-5.0939 6.8251 -2.0016 0.9656
-5.5708 6.4417 -2.0016 0.9656
-6.0190 6.0251 -2.0016 0.9656
-6.2316 5.8049 -2.0016 0.9656
-6.8200 5.1008 -2.0016 0.9656
-6.9988 4.8525 -2.0016 0.9656
-7.1686 4.5979 -2.0016 0.9656
-7.4803 4.0713 -2.0016 0.9656
-7.7533 3.5236 -2.0016 0.9656
-7.8749 3.2428 -2.0016 0.9656
-8.0874 2.6690 -2.0016 0.9656
-8.1781 2.3767 -2.0016 0.9656
-8.2582 2.0814 -2.0016 0.9656
-8.3276 1.7833 -2.0016 0.9656
-8.4342 1.1807 -2.0016 0.9656
-8.4972 0.5721 -2.0016 0.9656
-8.5123 0.2664 -2.0016 0.9656
-8.5164 -0.0396 -2.0016 0.9656
-8.3107 -1.8606 -2.0016 0.9656
-8.2385 -2.1580 -2.0016 0.9656
-7.5665 -2.2754 -1.8570 0.9681
-7.1626 -3.3358 -1.8570 0.9681
-6.7621 -4.0871 -1.8570 0.9681
-6.4512 -4.5621 -1.8570 0.9681
-6.1069 -5.0135 -1.8570 0.9681
-5.9229 -5.2297 -1.8570 0.9681
-5.7312 -5.4391 -1.8570 0.9681
-5.5107 -6.4932 -2.0016 0.9656
-5.2739 -6.6870 -2.0016 0.9656
-5.0303 -6.8721 -2.0016 0.9656
-4.7801 -7.0484 -2.0016 0.9656
-3.4436 -7.7892 -2.0016 0.9656
-3.1615 -7.9079 -2.0016 0.9656
-2.8754 -8.0163 -2.0016 0.9656
-2.5856 -8.1145 -2.0016 0.9656
-2.2924 -8.2021 -2.0016 0.9656
-1.9962 -8.2792 -2.0016 0.9656
-1.3966 -8.4012 -2.0016 0.9656
-0.1788 -8.5146 -2.0016 0.9656
0.7384 -8.4844 -2.0016 0.9656
1.0427 -8.4524 -2.0016 0.9656
2.2427 -8.2158 -2.0016 0.9656
2.5364 -8.1300 -2.0016 0.9656
2.8268 -8.0336 -2.0016 0.9656
3.3964 -7.8099 -2.0016 0.9656
2.3743 -4.1659 -1.1269 0.9805
4.7374 -7.0772 -2.0016 0.9656
4.9886 -6.9024 -2.0016 0.9656
5.2334 -6.7188 -2.0016 0.9656
5.4714 -6.5264 -2.0016 0.9656
5.9259 -6.1167 -2.0016 0.9656
6.3498 -5.6754 -2.0016 0.9656
7.2618 -4.4493 -2.0016 0.9656
7.4169 -4.1855 -2.0016 0.9656
7.5625 -3.9164 -2.0016 0.9656
7.6984 -3.6422 -2.0016 0.9656
7.9400 -3.0800 -2.0016 0.9656
8.0455 -2.7927 -2.0016 0.9656
8.1407 -2.5019 -2.0016 0.9656
8.2253 -2.2078 -2.0016 0.9656
8.3626 -1.6115 -2.0016 0.9656
8.4567 -1.0068 -2.0016 0.9656
8.4874 -0.7024 -2.0016 0.9656
8.5072 -0.3970 -2.0016 0.9656
8.5160 -0.0911 -2.0016 0.9656
8.5005 0.5206 -2.0016 0.9656
8.4412 1.1297 -2.0016 0.9656
8.3383 1.7329 -2.0016 0.9656
8.1923 2.3272 -2.0016 0.9656
8.1034 2.6200 -2.0016 0.9656
8.0041 2.9094 -2.0016 0.9656
7.7745 3.4766 -2.0016 0.9656
7.5048 4.0259 -2.0016 0.9656
7.3553 4.2929 -2.0016 0.9656
7.0281 4.8100 -2.0016 0.9656
6.2666 5.7671 -2.0016 0.9656
6.0554 5.9885 -2.0016 0.9656
5.8363 6.2022 -2.0016 0.9656
4.1089 7.4597 -2.0016 0.9656
3.8383 7.6025 -2.0016 0.9656
2.9980 7.9713 -2.0016 0.9656
1.8195 8.2920 -1.9952 0.9657
1.2016 8.2789 -1.9661 0.9662
0.8976 8.2631 -1.9534 0.9664
0.5973 8.2500 -1.9440 0.9666
0.2996 8.2433 -1.9386 0.9667
0.0033 8.2435 -1.9374 0.9667
-0.5901 8.2426 -1.9422 0.9666
-1.1892 8.2399 -1.9566 0.9664
-1.8002 8.2354 -1.9812 0.9660
-2.1086 8.2189 -1.9942 0.9657
-2.6970 8.0573 -1.9969 0.9657
-2.9872 7.9617 -1.9985 0.9657
-3.2742 7.8562 -2.0003 0.9656
-4.1030 7.4629 -2.0016 0.9656
-4.3685 7.3107 -2.0016 0.9656
-4.8821 6.9782 -2.0016 0.9656
-5.1297 6.7983 -2.0016 0.9656
-5.6046 6.4124 -2.0016 0.9656
-5.8313 6.2069 -2.0016 0.9656
-6.8467 5.0649 -2.0016 0.9656
-7.0242 4.8156 -2.0016 0.9656
-7.7717 3.4829 -2.0016 0.9656
-8.1013 2.6265 -2.0016 0.9656
-8.1905 2.3337 -2.0016 0.9656
-8.3369 1.7396 -2.0016 0.9656
-8.3940 1.4389 -2.0016 0.9656
-8.4403 1.1364 -2.0016 0.9656
-8.5001 0.5274 -2.0016 0.9656
-8.5075 -0.3902 -2.0016 0.9656
-8.4880 -0.6956 -2.0016 0.9656
-8.4575 -1.0001 -2.0016 0.9656
-8.4161 -1.3033 -2.0016 0.9656
-8.3008 -1.9042 -2.0016 0.9656
-7.5545 -2.3151 -1.8570 0.9681
-7.4664 -2.5850 -1.8570 0.9681
-7.3687 -2.8516 -1.8570 0.9681
-7.2615 -3.1145 -1.8570 0.9681
-6.8843 -3.8777 -1.8570 0.9681
-6.7405 -4.1225 -1.8570 0.9681
-6.5881 -4.3620 -1.8570 0.9681
-6.4271 -4.5959 -1.8570 0.9681
-5.8953 -5.2607 -1.8570 0.9681
-5.5024 -5.6705 -1.8570 0.9681
-5.4766 -6.5220 -2.0016 0.9656
5.9191 -4.9724 -2.0016 0.9686
6.4197 -4.3067 -2.0016 0.9686
6.5703 -4.0732 -2.0016 0.9686
6.8458 -3.5909 -2.0016 0.9686
7.0860 -3.0901 -2.0016 0.9686
7.2896 -2.5733 -2.0016 0.9686
7.3774 -2.3098 -2.0016 0.9686
7.4556 -2.0432 -2.0016 0.9686
7.5242 -1.7740 -2.0016 0.9686
7.6321 -1.2292 -2.0016 0.9686
7.7007 -0.6780 -2.0016 0.9686
7.7201 -0.4009 -2.0016 0.9686
7.7289 0.1545 -2.0016 0.9686
7.7184 0.4321 -2.0016 0.9686
7.6979 0.7091 -2.0016 0.9686
7.6675 0.9852 -2.0016 0.9686
7.6271 1.2600 -2.0016 0.9686
7.5769 1.5332 -2.0016 0.9686
7.5169 1.8044 -2.0016 0.9686
7.3680 2.3395 -2.0016 0.9686
7.2792 2.6027 -2.0016 0.9686
7.1810 2.8626 -2.0016 0.9686
6.8313 3.6186 -2.0016 0.9686
6.4023 4.3326 -2.0016 0.9686
6.0747 4.7811 -2.0016 0.9686
5.7157 5.2050 -2.0016 0.9686
5.1225 5.7897 -2.0016 0.9686
4.9112 5.9700 -2.0016 0.9686
4.2403 6.4637 -2.0016 0.9686
4.0054 6.6119 -2.0016 0.9686
3.7652 6.7515 -2.0016 0.9686
3.5203 6.8825 -2.0016 0.9686
3.0170 7.1175 -2.0016 0.9686
2.7593 7.2213 -2.0016 0.9686
2.4981 7.3157 -2.0016 0.9686
1.6965 7.5420 -2.0016 0.9686
1.1505 7.6444 -2.0016 0.9686
0.8752 7.6808 -2.0016 0.9686
0.5987 7.7073 -2.0016 0.9686
-0.2341 7.7269 -2.0016 0.9686
-0.5115 7.7135 -2.0016 0.9686
-0.7883 7.6902 -2.0016 0.9686
-1.3385 7.6137 -2.0016 0.9686
-1.6111 7.5607 -2.0016 0.9686
-2.4153 7.3435 -2.0016 0.9686
-2.9363 7.1511 -2.0016 0.9686
-3.1914 7.0410 -2.0016 0.9686
-3.4423 6.9218 -2.0016 0.9686
-3.6887 6.7937 -2.0016 0.9686
-3.9304 6.6568 -2.0016 0.9686
-4.1670 6.5113 -2.0016 0.9686
-4.3982 6.3573 -2.0016 0.9686
-5.0567 5.8472 -2.0016 0.9686
-5.2635 5.6618 -2.0016 0.9686
-5.4635 5.4690 -2.0016 0.9686
-5.6565 5.2692 -2.0016 0.9686
-6.0202 4.8494 -2.0016 0.9686
-6.6528 3.9371 -2.0016 0.9686
-6.7900 3.6955 -2.0016 0.9686
-7.0378 3.1984 -2.0016 0.9686
-7.1481 2.9435 -2.0016 0.9686
-7.2493 2.6848 -2.0016 0.9686
-7.3411 2.4227 -2.0016 0.9686
-7.4961 1.8893 -2.0016 0.9686
-7.6124 1.3461 -2.0016 0.9686
-7.6558 1.0718 -2.0016 0.9686
-7.7130 0.5193 -2.0016 0.9686
-7.7267 0.2418 -2.0016 0.9686
-7.7304 -0.0359 -2.0016 0.9686
-7.7241 -0.3136 -2.0016 0.9686
-7.6455 -1.1429 -2.0016 0.9686
-7.5996 -1.4168 -2.0016 0.9686
-7.3757 -2.2180 -1.9942 0.9687
-6.7022 -2.5533 -1.8570 0.9708
-6.6062 -2.7924 -1.8570 0.9708
-6.5016 -3.0279 -1.8570 0.9708
-6.3886 -3.2596 -1.8570 0.9708
-6.2674 -3.4870 -1.8570 0.9708
-6.0008 -3.9280 -1.8570 0.9708
-5.8558 -4.1411 -1.8570 0.9708
-5.3763 -4.7471 -1.8570 0.9708
-5.2023 -4.9371 -1.8570 0.9708
-4.4414 -5.6314 -1.8570 0.9708
-4.3390 -6.3979 -2.0016 0.9686
-4.1063 -6.5497 -2.0016 0.9686
-3.3778 -6.9535 -2.0016 0.9686
-0.9929 -7.6665 -2.0016 0.9686
-0.7168 -7.6972 -2.0016 0.9686
-0.4398 -7.7180 -2.0016 0.9686
-0.1623 -7.7288 -2.0016 0.9686
0.1155 -7.7296 -2.0016 0.9686
0.3931 -7.7205 -2.0016 0.9686
0.6702 -7.7014 -2.0016 0.9686
1.4950 -7.5846 -2.0016 0.9686
1.7665 -7.5259 -2.0016 0.9686
2.0357 -7.4576 -2.0016 0.9686
2.5660 -7.2922 -2.0016 0.9686
2.1048 -4.4005 -1.2630 0.9800
2.3424 -4.1099 -1.2248 0.9806
4.0666 -6.5744 -2.0016 0.9686
4.7504 -6.0987 -2.0016 0.9686
4.9664 -5.9241 -2.0016 0.9686
5.1761 -5.7419 -2.0016 0.9686
5.3790 -5.5522 -2.0016 0.9686
5.5750 -5.3554 -2.0016 0.9686
5.9451 -4.9412 -2.0016 0.9686
6.2846 -4.5016 -2.0016 0.9686
6.5916 -4.0387 -2.0016 0.9686
6.7325 -3.7993 -2.0016 0.9686
6.9879 -3.3060 -2.0016 0.9686
7.1021 -3.0528 -2.0016 0.9686
7.2073 -2.7957 -2.0016 0.9686
7.3894 -2.2710 -2.0016 0.9686
7.4662 -2.0040 -2.0016 0.9686
7.5334 -1.7345 -2.0016 0.9686
7.5908 -1.4627 -2.0016 0.9686
7.6385 -1.1891 -2.0016 0.9686
7.6763 -0.9139 -2.0016 0.9686
7.7042 -0.6375 -2.0016 0.9686
7.7300 -0.0827 -2.0016 0.9686
7.7160 0.4726 -2.0016 0.9686
7.6941 0.7495 -2.0016 0.9686
7.6622 1.0254 -2.0016 0.9686
7.5074 1.8439 -2.0016 0.9686
7.4363 2.1124 -2.0016 0.9686
7.2654 2.6409 -2.0016 0.9686
6.8122 3.6544 -2.0016 0.9686
6.5322 4.1341 -2.0016 0.9686
6.2185 4.5925 -2.0016 0.9686
5.8727 5.0272 -2.0016 0.9686
5.0920 5.8165 -2.0016 0.9686
4.6612 6.1671 -2.0016 0.9686
4.4366 6.3306 -2.0016 0.9686
3.9706 6.6329 -2.0016 0.9686
3.4841 6.9008 -2.0016 0.9686
3.2339 7.0216 -2.0016 0.9686
2.9796 7.1332 -2.0016 0.9686
2.7214 7.2357 -2.0016 0.9686
2.4596 7.3287 -2.0016 0.9686
2.1948 7.4124 -2.0016 0.9686
1.9271 7.4864 -2.0016 0.9686
1.1104 7.6503 -2.0016 0.9686
0.8348 7.6853 -2.0016 0.9686
-0.2746 7.7256 -2.0016 0.9686
-1.6508 7.5522 -2.0016 0.9686
-1.9211 7.4880 -2.0016 0.9686
-2.9738 7.1356 -2.0016 0.9686
-3.7243 6.7742 -2.0016 0.9686
-3.9653 6.6360 -2.0016 0.9686
-4.4316 6.3342 -2.0016 0.9686
-4.6563 6.1709 -2.0016 0.9686
-4.8750 5.9996 -2.0016 0.9686
-5.2932 5.6341 -2.0016 0.9686
-5.4922 5.4403 -2.0016 0.9686
-5.6841 5.2394 -2.0016 0.9686
-5.8686 5.0318 -2.0016 0.9686
-6.5289 4.1393 -2.0016 0.9686
-6.8093 3.6598 -2.0016 0.9686
-6.9363 3.4128 -2.0016 0.9686
-7.1635 2.9060 -2.0016 0.9686
-7.2633 2.6467 -2.0016 0.9686
-7.3537 2.3841 -2.0016 0.9686
-7.4346 2.1183 -2.0016 0.9686
-7.5675 1.5790 -2.0016 0.9686
-7.6193 1.3061 -2.0016 0.9686
-7.6935 0.7556 -2.0016 0.9686
-7.7156 0.4788 -2.0016 0.9686
-7.7279 0.2013 -2.0016 0.9686
-7.7224 -0.3542 -2.0016 0.9686
-7.7047 -0.6314 -2.0016 0.9686
-7.6770 -0.9078 -2.0016 0.9686
-7.5348 -1.7285 -2.0016 0.9686
-7.4678 -1.9981 -2.0016 0.9686
-7.2554 -2.2235 -1.9648 0.9691
-6.7774 -2.3465 -1.8570 0.9708
-6.6887 -2.5884 -1.8570 0.9708
-6.1185 -3.7421 -1.8570 0.9708
-5.9801 -3.9595 -1.8570 0.9708
-5.1763 -4.9644 -1.8570 0.9708
-4.9946 -5.1472 -1.8570 0.9708
-4.8064 -5.3233 -1.8570 0.9708
4.8929 -5.1038 -2.0016 0.9710
5.2468 -4.7393 -2.0016 0.9710
5.5735 -4.3503 -2.0016 0.9710
5.7262 -4.1473 -2.0016 0.9710
5.8715 -3.9389 -2.0016 0.9710
6.1392 -3.5071 -2.0016 0.9710
6.2612 -3.2843 -2.0016 0.9710
6.3752 -3.0572 -2.0016 0.9710
6.4809 -2.8262 -2.0016 0.9710
6.5783 -2.5916 -2.0016 0.9710
6.7474 -2.1125 -2.0016 0.9710
6.8189 -1.8687 -2.0016 0.9710
7.0163 -0.8727 -2.0016 0.9710
7.0431 -0.6201 -2.0016 0.9710
7.0405 0.6485 -2.0016 0.9710
7.0127 0.9011 -2.0016 0.9710
6.9758 1.1524 -2.0016 0.9710
6.8750 1.6503 -2.0016 0.9710
6.8113 1.8963 -2.0016 0.9710
6.6575 2.3805 -2.0016 0.9710
6.5677 2.6181 -2.0016 0.9710
6.4694 2.8524 -2.0016 0.9710
6.3628 3.0829 -2.0016 0.9710
6.1250 3.5319 -2.0016 0.9710
5.9941 3.7496 -2.0016 0.9710
5.8556 3.9626 -2.0016 0.9710
5.7094 4.1704 -2.0016 0.9710
5.5559 4.3728 -2.0016 0.9710
4.8723 5.1235 -2.0016 0.9710
4.6850 5.2953 -2.0016 0.9710
4.4918 5.4602 -2.0016 0.9710
4.2927 5.6180 -2.0016 0.9710
3.6633 6.0473 -2.0016 0.9710
3.4437 6.1750 -2.0016 0.9710
2.9914 6.4063 -2.0016 0.9710
2.2848 6.6910 -2.0016 0.9710
2.0429 6.7688 -2.0016 0.9710
1.3028 6.9493 -2.0016 0.9710
0.8004 7.0249 -2.0016 0.9710
0.2939 7.0642 -2.0016 0.9710
-0.2141 7.0671 -2.0016 0.9710
-0.7210 7.0335 -2.0016 0.9710
-0.9732 7.0030 -2.0016 0.9710
-1.2242 6.9635 -2.0016 0.9710
-1.4736 6.9151 -2.0016 0.9710
-1.7210 6.8577 -2.0016 0.9710
-1.9663 6.7914 -2.0016 0.9710
-2.2090 6.7164 -2.0016 0.9710
-2.4489 6.6327 -2.0016 0.9710
-2.6856 6.5404 -2.0016 0.9710
-3.1483 6.3307 -2.0016 0.9710
-3.3737 6.2135 -2.0016 0.9710
-3.8112 5.9552 -2.0016 0.9710
-4.0226 5.8145 -2.0016 0.9710
-4.2289 5.6662 -2.0016 0.9710
-5.1734 4.8192 -2.0016 0.9710
-5.6619 4.2346 -2.0016 0.9710
-5.9514 3.8171 -2.0016 0.9710
-6.0847 3.6009 -2.0016 0.9710
-6.5377 2.6922 -2.0016 0.9710
-6.6302 2.4555 -2.0016 0.9710
-6.7142 2.2158 -2.0016 0.9710
-6.8559 1.7279 -2.0016 0.9710
-6.9136 1.4805 -2.0016 0.9710
-6.9623 1.2312 -2.0016 0.9710
-7.0021 0.9803 -2.0016 0.9710
-7.0703 -0.0328 -2.0016 0.9710
-7.0645 -0.2868 -2.0016 0.9710
-7.0496 -0.5404 -2.0016 0.9710
-6.9506 -1.2958 -2.0016 0.9710
-6.8995 -1.5447 -2.0016 0.9710
-6.8396 -1.7916 -2.0016 0.9710
-6.5381 -2.2252 -1.9552 0.9717
-5.8430 -2.9812 -1.8570 0.9731
-5.7321 -3.1892 -1.8570 0.9731
-5.4884 -3.5926 -1.8570 0.9731
-5.2162 -3.9774 -1.8570 0.9731
-5.0700 -4.1622 -1.8570 0.9731
-4.9172 -4.3417 -1.8570 0.9731
-4.7580 -4.5155 -1.8570 0.9731
-4.4215 -4.8455 -1.8570 0.9731
-4.0621 -5.1505 -1.8570 0.9731
-3.8745 -5.2931 -1.8570 0.9731
-3.4844 -5.5577 -1.8570 0.9731
-3.2825 -5.6793 -1.8570 0.9731
-3.3158 -6.2446 -2.0016 0.9710
-2.8589 -6.4666 -2.0016 0.9710
-2.1465 -6.7366 -2.0016 0.9710
-1.9031 -6.8094 -2.0016 0.9710
-1.4092 -6.9285 -2.0016 0.9710
-1.1594 -6.9746 -2.0016 0.9710
-0.6556 -7.0399 -2.0016 0.9710
-0.1484 -7.0688 -2.0016 0.9710
0.1056 -7.0695 -2.0016 0.9710
2.1057 -6.7495 -2.0016 0.9710
2.3468 -6.6695 -2.0016 0.9710
2.5849 -6.5809 -2.0016 0.9710
2.8197 -6.4837 -2.0016 0.9710
3.7194 -6.0130 -2.0016 0.9710
3.9330 -5.8755 -2.0016 0.9710
4.3447 -5.5779 -2.0016 0.9710
4.5423 -5.4182 -2.0016 0.9710
4.9196 -5.0781 -2.0016 0.9710
5.2716 -4.7117 -2.0016 0.9710
5.7479 -4.1172 -2.0016 0.9710
5.8921 -3.9080 -2.0016 0.9710
6.0287 -3.6938 -2.0016 0.9710
6.1575 -3.4748 -2.0016 0.9710
6.2784 -3.2514 -2.0016 0.9710
6.6794 -2.3185 -2.0016 0.9710
6.8901 -1.5864 -2.0016 0.9710
6.9426 -1.3378 -2.0016 0.9710
6.9862 -1.0875 -2.0016 0.9710
7.0681 0.1784 -2.0016 0.9710
7.0571 0.4322 -2.0016 0.9710
7.0079 0.9379 -2.0016 0.9710
6.6450 2.4154 -2.0016 0.9710
6.5539 2.6526 -2.0016 0.9710
6.3465 3.1163 -2.0016 0.9710
5.8347 3.9933 -2.0016 0.9710
5.2025 4.7879 -2.0016 0.9710
4.8453 5.1491 -2.0016 0.9710
4.6572 5.3198 -2.0016 0.9710
3.8471 5.9320 -2.0016 0.9710
3.6315 6.0664 -2.0016 0.9710
3.4112 6.1930 -2.0016 0.9710
3.1865 6.3115 -2.0016 0.9710
2.7251 6.5241 -2.0016 0.9710
2.4890 6.6178 -2.0016 0.9710
2.2496 6.7029 -2.0016 0.9710
2.0073 6.7794 -2.0016 0.9710
1.7625 6.8471 -2.0016 0.9710
0.7635 7.0290 -2.0016 0.9710
0.0028 7.0703 -2.0016 0.9710
-0.2512 7.0659 -2.0016 0.9710
-0.7579 7.0296 -2.0016 0.9710
-1.0100 6.9978 -2.0016 0.9710
-1.7570 6.8485 -2.0016 0.9710
-2.2443 6.7047 -2.0016 0.9710
-2.4837 6.6197 -2.0016 0.9710
-2.7199 6.5262 -2.0016 0.9710
-2.9526 6.4243 -2.0016 0.9710
-3.4063 6.1957 -2.0016 0.9710
-3.8424 5.9351 -2.0016 0.9710
-4.0531 5.7933 -2.0016 0.9710
-4.2586 5.6439 -2.0016 0.9710
-4.4587 5.4873 -2.0016 0.9710
-4.6529 5.3235 -2.0016 0.9710
-5.0232 4.9757 -2.0016 0.9710
-5.3675 4.6021 -2.0016 0.9710
-5.6841 4.2049 -2.0016 0.9710
-5.8315 3.9979 -2.0016 0.9710
-5.9713 3.7858 -2.0016 0.9710
-6.1035 3.5689 -2.0016 0.9710
-6.2278 3.3473 -2.0016 0.9710
-6.3440 3.1214 -2.0016 0.9710
-6.7997 1.9374 -2.0016 0.9710
-6.8649 1.6919 -2.0016 0.9710
-6.9687 1.1946 -2.0016 0.9710
-7.0071 0.9435 -2.0016 0.9710
-7.0365 0.6911 -2.0016 0.9710
-7.0568 0.4379 -2.0016 0.9710
-7.0629 -0.3239 -2.0016 0.9710
-7.0214 -0.8302 -2.0016 0.9710
-6.9871 -1.0820 -2.0016 0.9710
-6.9437 -1.3323 -2.0016 0.9710
-6.8913 -1.5809 -2.0016 0.9710
-6.4409 -2.2300 -1.9296 0.9721
-6.0285 -2.5856 -1.8570 0.9731
-5.3358 -3.8155 -1.8570 0.9731
-5.1953 -4.0047 -1.8570 0.9731
-5.0480 -4.1888 -1.8570 0.9731
-4.8943 -4.3674 -1.8570 0.9731
-4.7342 -4.5405 -1.8570 0.9731
-4.3960 -4.8687 -1.8570 0.9731
-4.2182 -5.0235 -1.8570 0.9731
4.6693 -4.5327 -2.0016 0.9731
4.9827 -4.1857 -2.0016 0.9731
5.1298 -4.0040 -2.0016 0.9731
5.2704 -3.8171 -2.0016 0.9731
5.4041 -3.6253 -2.0016 0.9731
5.9650 -2.6012 -2.0016 0.9731
6.2102 -1.9443 -2.0016 0.9731
6.4247 -1.0347 -2.0016 0.9731
6.4987 -0.3375 -2.0016 0.9731
6.5062 0.1301 -2.0016 0.9731
6.4544 0.8293 -2.0016 0.9731
6.4205 1.0607 -2.0016 0.9731
6.3782 1.2906 -2.0016 0.9731
6.2023 1.9694 -2.0016 0.9731
6.1276 2.1910 -2.0016 0.9731
6.0449 2.4097 -2.0016 0.9731
5.8563 2.8375 -2.0016 0.9731
5.7505 3.0461 -2.0016 0.9731
5.5170 3.4511 -2.0016 0.9731
5.2549 3.8384 -2.0016 0.9731
4.9657 4.2058 -2.0016 0.9731
4.8114 4.3815 -2.0016 0.9731
4.4844 4.7157 -2.0016 0.9731
4.3121 4.8737 -2.0016 0.9731
3.9510 5.1708 -2.0016 0.9731
3.5695 5.4411 -2.0016 0.9731
3.3717 5.5659 -2.0016 0.9731
2.9633 5.7936 -2.0016 0.9731
2.5397 5.9914 -2.0016 0.9731
2.1029 6.1583 -2.0016 0.9731
1.8803 6.2299 -2.0016 0.9731
1.6553 6.2934 -2.0016 0.9731
1.1991 6.3961 -2.0016 0.9731
0.7367 6.4656 -2.0016 0.9731
0.0368 6.5074 -2.0016 0.9731
-0.1970 6.5045 -2.0016 0.9731
-0.6636 6.4736 -2.0016 0.9731
-0.8957 6.4455 -2.0016 0.9731
-1.1267 6.4092 -2.0016 0.9731
-1.3563 6.3646 -2.0016 0.9731
-1.5840 6.3117 -2.0016 0.9731
-2.4718 6.0198 -2.0016 0.9731
-2.6865 5.9271 -2.0016 0.9731
-2.8977 5.8267 -2.0016 0.9731
-3.5078 5.4811 -2.0016 0.9731
-3.7024 5.3516 -2.0016 0.9731
-4.0771 5.0719 -2.0016 0.9731
-4.2567 4.9222 -2.0016 0.9731
-5.0678 4.0822 -2.0016 0.9731
-5.6003 3.3142 -2.0016 0.9731
-5.8238 2.9035 -2.0016 0.9731
-5.9244 2.6924 -2.0016 0.9731
-6.1797 2.0394 -2.0016 0.9731
-6.2489 1.8160 -2.0016 0.9731
-6.3632 1.3626 -2.0016 0.9731
-6.4446 0.9022 -2.0016 0.9731
-6.4928 0.4371 -2.0016 0.9731
-6.5043 0.2036 -2.0016 0.9731
-6.5074 -0.0302 -2.0016 0.9731
-6.5021 -0.2640 -2.0016 0.9731
-6.4664 -0.7302 -2.0016 0.9731
-6.4360 -0.9621 -2.0016 0.9731
-6.3503 -1.4217 -2.0016 0.9731
-6.2318 -1.8740 -2.0016 0.9731
-6.1605 -2.0967 -2.0016 0.9731
-5.8548 -2.2304 -1.9271 0.9741
-5.5610 -2.3506 -1.8570 0.9751
-5.4730 -2.5489 -1.8570 0.9751
-5.0514 -3.3066 -1.8570 0.9751
-4.9294 -3.4859 -1.8570 0.9751
-4.5257 -3.9961 -1.8570 0.9751
-4.3792 -4.1561 -1.8570 0.9751
-4.0695 -4.4598 -1.8570 0.9751
-3.3887 -4.9967 -1.8570 0.9751
-2.0384 -5.6829 -1.8570 0.9751
-1.7516 -6.2673 -2.0016 0.9731
-1.5253 -6.3262 -2.0016 0.9731
-1.2971 -6.3769 -2.0016 0.9731
-1.0671 -6.4194 -2.0016 0.9731
-0.3702 -6.4969 -2.0016 0.9731
-0.1366 -6.5060 -2.0016 0.9731
0.0972 -6.5068 -2.0016 0.9731
1.0283 -6.4257 -2.0016 0.9731
1.2585 -6.3846 -2.0016 0.9731
1.7137 -6.2778 -2.0016 0.9731
1.9381 -6.2122 -2.0016 0.9731
2.1600 -6.1385 -2.0016 0.9731
2.2073 -5.6195 -1.8570 0.9751
2.4078 -5.5365 -1.8570 0.9751
2.0765 -4.3412 -1.4802 0.9801
2.3259 -4.0810 -1.4448 0.9805
3.8118 -5.2742 -2.0016 0.9731
4.1807 -4.9869 -2.0016 0.9731
4.3572 -4.8335 -2.0016 0.9731
4.6930 -4.5081 -2.0016 0.9731
5.0046 -4.1595 -2.0016 0.9731
5.1508 -3.9770 -2.0016 0.9731
5.2903 -3.7894 -2.0016 0.9731
5.4231 -3.5969 -2.0016 0.9731
5.5488 -3.3997 -2.0016 0.9731
5.7786 -2.9925 -2.0016 0.9731
5.8824 -2.7830 -2.0016 0.9731
5.9785 -2.5699 -2.0016 0.9731
6.1477 -2.1339 -2.0016 0.9731
6.2203 -1.9117 -2.0016 0.9731
6.2850 -1.6870 -2.0016 0.9731
6.3416 -1.4601 -2.0016 0.9731
6.4618 -0.7693 -2.0016 0.9731
6.5004 -0.3033 -2.0016 0.9731
6.5054 0.1642 -2.0016 0.9731
6.4953 0.3978 -2.0016 0.9731
6.4768 0.6309 -2.0016 0.9731
6.4500 0.8632 -2.0016 0.9731
6.4148 1.0944 -2.0016 0.9731
6.2598 1.7782 -2.0016 0.9731
6.0322 2.4414 -2.0016 0.9731
5.8413 2.8682 -2.0016 0.9731
5.0924 4.0515 -2.0016 0.9731
4.9436 4.2318 -2.0016 0.9731
4.7883 4.4067 -2.0016 0.9731
3.9238 5.1915 -2.0016 0.9731
3.5409 5.4598 -2.0016 0.9731
3.3424 5.5835 -2.0016 0.9731
3.1397 5.7000 -2.0016 0.9731
2.9329 5.8091 -2.0016 0.9731
2.7223 5.9107 -2.0016 0.9731
2.5082 6.0047 -2.0016 0.9731
2.2908 6.0909 -2.0016 0.9731
2.0705 6.1693 -2.0016 0.9731
1.6222 6.3020 -2.0016 0.9731
1.1655 6.4023 -2.0016 0.9731
0.4699 6.4905 -2.0016 0.9731
0.0026 6.5075 -2.0016 0.9731
-0.2312 6.5034 -2.0016 0.9731
-0.6976 6.4700 -2.0016 0.9731
-2.0656 6.1709 -2.0016 0.9731
-2.2860 6.0928 -2.0016 0.9731
-2.5034 6.0067 -2.0016 0.9731
-2.7176 5.9129 -2.0016 0.9731
-3.3380 5.5862 -2.0016 0.9731
-3.5365 5.4626 -2.0016 0.9731
-3.7305 5.3321 -2.0016 0.9731
-3.9196 5.1946 -2.0016 0.9731
-4.1037 5.0504 -2.0016 0.9731
-4.2825 4.8997 -2.0016 0.9731
-4.4558 4.7427 -2.0016 0.9731
-4.9402 4.2358 -2.0016 0.9731
-5.0892 4.0556 -2.0016 0.9731
-5.2316 3.8701 -2.0016 0.9731
-5.3673 3.6797 -2.0016 0.9731
-5.6176 3.2848 -2.0016 0.9731
-5.8390 2.8729 -2.0016 0.9731
-5.9384 2.6613 -2.0016 0.9731
-6.0302 2.4462 -2.0016 0.9731
-6.1142 2.2280 -2.0016 0.9731
-6.1903 2.0069 -2.0016 0.9731
-6.2584 1.7832 -2.0016 0.9731
-6.3703 1.3292 -2.0016 0.9731
-6.4139 1.0995 -2.0016 0.9731
-6.4493 0.8684 -2.0016 0.9731
-6.4763 0.6361 -2.0016 0.9731
-6.5053 0.1694 -2.0016 0.9731
-6.5072 -0.0644 -2.0016 0.9731
-6.5006 -0.2981 -2.0016 0.9731
-6.4857 -0.5315 -2.0016 0.9731
-6.3909 -1.2262 -2.0016 0.9731
-6.3427 -1.4550 -2.0016 0.9731
-6.2219 -1.9067 -2.0016 0.9731
-6.1494 -2.1290 -2.0016 0.9731
-5.5486 -2.3798 -1.8570 0.9751
-5.3634 -2.7721 -1.8570 0.9751
-5.2603 -2.9630 -1.8570 0.9751
-5.0340 -3.3331 -1.8570 0.9751
-4.9110 -3.5118 -1.8570 0.9751
-4.7817 -3.6859 -1.8570 0.9751
-4.6462 -3.8553 -1.8570 0.9751
-4.5047 -4.0198 -1.8570 0.9751
-4.2044 -4.3328 -1.8570 0.9751
4.1670 -4.3467 -2.0016 0.9749
4.3205 -4.1942 -2.0016 0.9749
4.4684 -4.0362 -2.0016 0.9749
4.7467 -3.7050 -2.0016 0.9749
4.8767 -3.5320 -2.0016 0.9749
5.0005 -3.3545 -2.0016 0.9749
5.1178 -3.1727 -2.0016 0.9749
5.2284 -2.9868 -2.0016 0.9749
5.3324 -2.7971 -2.0016 0.9749
5.4294 -2.6037 -2.0016 0.9749
5.5195 -2.4069 -2.0016 0.9749
5.6780 -2.0044 -2.0016 0.9749
5.8073 -1.5915 -2.0016 0.9749
5.8607 -1.3818 -2.0016 0.9749
5.9066 -1.1704 -2.0016 0.9749
5.9982 -0.5281 -2.0016 0.9749
6.0133 -0.3123 -2.0016 0.9749
6.0207 -0.0960 -2.0016 0.9749
5.9723 0.7674 -2.0016 0.9749
5.8551 1.4055 -2.0016 0.9749
5.8008 1.6150 -2.0016 0.9749
5.6699 2.0273 -2.0016 0.9749
5.5097 2.4292 -2.0016 0.9749
5.4189 2.6256 -2.0016 0.9749
4.9869 3.3747 -2.0016 0.9749
4.7317 3.7241 -2.0016 0.9749
4.5948 3.8917 -2.0016 0.9749
4.3035 4.2116 -2.0016 0.9749
4.1495 4.3635 -2.0016 0.9749
3.4816 4.9128 -2.0016 0.9749
2.9328 5.2589 -2.0016 0.9749
2.5476 5.4559 -2.0016 0.9749
2.3500 5.5439 -2.0016 0.9749
2.1493 5.6248 -2.0016 0.9749
1.9458 5.6984 -2.0016 0.9749
1.5316 5.8234 -2.0016 0.9749
1.3214 5.8747 -2.0016 0.9749
1.1095 5.9183 -2.0016 0.9749
0.8962 5.9544 -2.0016 0.9749
0.4663 6.0034 -2.0016 0.9749
0.2503 6.0162 -2.0016 0.9749
0.0340 6.0213 -2.0016 0.9749
-0.1823 6.0187 -2.0016 0.9749
-0.6140 5.9901 -2.0016 0.9749
-1.0426 5.9305 -2.0016 0.9749
-1.4657 5.8403 -2.0016 0.9749
-1.8813 5.7200 -2.0016 0.9749
-2.0856 5.6487 -2.0016 0.9749
-2.2872 5.5702 -2.0016 0.9749
-2.4858 5.4844 -2.0016 0.9749
-2.6812 5.3915 -2.0016 0.9749
-2.8732 5.2917 -2.0016 0.9749
-3.2458 5.0718 -2.0016 0.9749
-3.4259 4.9519 -2.0016 0.9749
-3.6016 4.8256 -2.0016 0.9749
-4.0999 4.4101 -2.0016 0.9749
-4.5506 3.9434 -2.0016 0.9749
-4.9484 3.4309 -2.0016 0.9749
-5.0685 3.2509 -2.0016 0.9749
-5.1820 3.0667 -2.0016 0.9749
-5.2888 2.8785 -2.0016 0.9749
-5.4819 2.4913 -2.0016 0.9749
-5.7822 1.6804 -2.0016 0.9749
-5.8388 1.4716 -2.0016 0.9749
-5.8879 1.2609 -2.0016 0.9749
-5.9294 1.0485 -2.0016 0.9749
-5.9633 0.8348 -2.0016 0.9749
-5.9894 0.6200 -2.0016 0.9749
-6.0078 0.4045 -2.0016 0.9749
-6.0214 -0.0280 -2.0016 0.9749
-6.0165 -0.2443 -2.0016 0.9749
-5.9834 -0.6757 -2.0016 0.9749
-5.9194 -1.1036 -2.0016 0.9749
-5.0642 -2.3585 -1.8570 0.9767
-4.9762 -2.5389 -1.8570 0.9767
-4.5612 -3.2256 -1.8570 0.9767
-4.3178 -3.5448 -1.8570 0.9767
-4.0521 -3.8456 -1.8570 0.9767
-3.2997 -4.5079 -1.8570 0.9767
-3.1356 -4.6235 -1.8570 0.9767
-2.4410 -5.0250 -1.8570 0.9767
-2.2589 -5.1094 -1.8570 0.9767
-2.0739 -5.1873 -1.8570 0.9767
-1.6960 -5.3228 -1.8570 0.9767
-1.5037 -5.3803 -1.8570 0.9767
-1.3094 -5.4309 -1.8570 0.9767
-0.7181 -5.5449 -1.8585 0.9767
-0.1173 -5.5853 -1.8570 0.9767
0.6842 -5.5459 -1.8575 0.9767
1.0803 -5.4810 -1.8570 0.9767
1.2766 -5.4387 -1.8570 0.9767
1.6638 -5.3330 -1.8570 0.9767
1.8543 -5.2698 -1.8570 0.9767
2.2279 -5.1230 -1.8570 0.9767
2.3176 -4.0664 -1.5558 0.9805
3.1076 -4.6424 -1.8570 0.9767
3.2724 -4.5278 -1.8570 0.9767
3.4329 -4.4073 -1.8570 0.9767
3.8684 -4.6144 -2.0016 0.9749
4.0317 -4.4725 -2.0016 0.9749
4.1898 -4.3247 -2.0016 0.9749
4.3425 -4.1714 -2.0016 0.9749
4.6308 -3.8488 -2.0016 0.9749
4.8952 -3.5064 -2.0016 0.9749
5.0180 -3.3282 -2.0016 0.9749
5.2441 -2.9593 -2.0016 0.9749
5.4430 -2.5751 -2.0016 0.9749
5.5320 -2.3779 -2.0016 0.9749
5.6139 -2.1776 -2.0016 0.9749
5.7558 -1.7689 -2.0016 0.9749
5.8679 -1.3510 -2.0016 0.9749
5.9127 -1.1394 -2.0016 0.9749
5.9792 -0.7119 -2.0016 0.9749
6.0149 -0.2807 -2.0016 0.9749
6.0195 0.1520 -2.0016 0.9749
6.0102 0.3681 -2.0016 0.9749
5.9682 0.7987 -2.0016 0.9749
5.8955 1.2252 -2.0016 0.9749
5.8476 1.4362 -2.0016 0.9749
5.7923 1.6454 -2.0016 0.9749
5.7294 1.8524 -2.0016 0.9749
5.5816 2.2590 -2.0016 0.9749
5.4969 2.4581 -2.0016 0.9749
5.3062 2.8465 -2.0016 0.9749
5.2005 3.0353 -2.0016 0.9749
5.0881 3.2201 -2.0016 0.9749
4.9691 3.4009 -2.0016 0.9749
4.8437 3.5772 -2.0016 0.9749
4.7121 3.7489 -2.0016 0.9749
4.5743 3.9158 -2.0016 0.9749
3.8009 4.6702 -2.0016 0.9749
3.6307 4.8037 -2.0016 0.9749
3.2764 5.0520 -2.0016 0.9749
3.0928 5.1665 -2.0016 0.9749
2.5190 5.4692 -2.0016 0.9749
1.7096 5.7737 -2.0016 0.9749
1.2906 5.8815 -2.0016 0.9749
0.6503 5.9862 -2.0016 0.9749
-0.4300 6.0061 -2.0016 0.9749
-0.6455 5.9867 -2.0016 0.9749
-1.2859 5.8825 -2.0016 0.9749
-1.4964 5.8326 -2.0016 0.9749
-1.7049 5.7750 -2.0016 0.9749
-2.1152 5.6377 -2.0016 0.9749
-2.3164 5.5581 -2.0016 0.9749
-2.5146 5.4713 -2.0016 0.9749
-2.7095 5.3774 -2.0016 0.9749
-2.9010 5.2766 -2.0016 0.9749
-3.2724 5.0546 -2.0016 0.9749
-3.4518 4.9338 -2.0016 0.9749
-3.9627 4.5338 -2.0016 0.9749
-4.4274 4.0811 -2.0016 0.9749
-4.5712 3.9194 -2.0016 0.9749
-4.7091 3.7527 -2.0016 0.9749
-5.0855 3.2242 -2.0016 0.9749
-5.3039 2.8507 -2.0016 0.9749
-5.5798 2.2635 -2.0016 0.9749
-5.6575 2.0616 -2.0016 0.9749
-5.7279 1.8570 -2.0016 0.9749
-5.8945 1.2299 -2.0016 0.9749
-5.9349 1.0174 -2.0016 0.9749
-6.0211 -0.0596 -2.0016 0.9749
-6.0151 -0.2759 -2.0016 0.9749
-5.9798 -0.7071 -2.0016 0.9749
-5.9505 -0.9215 -2.0016 0.9749
-5.8690 -1.3464 -2.0016 0.9749
-5.8168 -1.5563 -2.0016 0.9749
-5.7572 -1.7643 -2.0016 0.9749
-5.0518 -2.3851 -1.8570 0.9767
-4.8675 -2.7417 -1.8570 0.9767
-4.7658 -2.9148 -1.8570 0.9767
-4.6580 -3.0841 -1.8570 0.9767
-4.4245 -3.4106 -1.8570 0.9767
-4.2992 -3.5674 -1.8570 0.9767
-4.1682 -3.7195 -1.8570 0.9767
-3.8904 -4.0092 -1.8570 0.9767
-3.5924 -4.2782 -1.8570 0.9767
4.0160 -3.8986 -2.0016 0.9765
4.4122 -3.4439 -2.0016 0.9765
4.5331 -3.2831 -2.0016 0.9765
4.6481 -3.1181 -2.0016 0.9765
4.8600 -2.7763 -2.0016 0.9765
5.0468 -2.4202 -2.0016 0.9765
5.1305 -2.2373 -2.0016 0.9765
5.2779 -1.8631 -2.0016 0.9765
5.3414 -1.6723 -2.0016 0.9765
5.3981 -1.4793 -2.0016 0.9765
5.4477 -1.2845 -2.0016 0.9765
5.4903 -1.0879 -2.0016 0.9765
5.5755 -0.4909 -2.0016 0.9765
5.5896 -0.2903 -2.0016 0.9765
5.5964 -0.0893 -2.0016 0.9765
5.5735 0.5134 -2.0016 0.9765
5.5515 0.7133 -2.0016 0.9765
5.5222 0.9123 -2.0016 0.9765
5.4859 1.1101 -2.0016 0.9765
5.3920 1.5011 -2.0016 0.9765
5.2703 1.8844 -2.0016 0.9765
5.1214 2.2580 -2.0016 0.9765
5.0370 2.4406 -2.0016 0.9765
4.9460 2.6199 -2.0016 0.9765
4.6354 3.1369 -2.0016 0.9765
4.3982 3.4616 -2.0016 0.9765
3.7088 4.1919 -2.0016 0.9765
3.5558 4.3224 -2.0016 0.9765
2.9000 4.7872 -2.0016 0.9765
2.7261 4.8883 -2.0016 0.9765
2.3681 5.0714 -2.0016 0.9765
1.9978 5.2284 -2.0016 0.9765
1.8087 5.2968 -2.0016 0.9765
1.4237 5.4130 -2.0016 0.9765
1.2283 5.4607 -2.0016 0.9765
1.0313 5.5013 -2.0016 0.9765
0.8330 5.5348 -2.0016 0.9765
0.6336 5.5611 -2.0016 0.9765
0.2327 5.5923 -2.0016 0.9765
0.0316 5.5970 -2.0016 0.9765
-0.3704 5.5848 -2.0016 0.9765
-0.9691 5.5126 -2.0016 0.9765
-1.1665 5.4742 -2.0016 0.9765
-1.3624 5.4287 -2.0016 0.9765
-1.9386 5.2506 -2.0016 0.9765
-2.8457 4.8197 -2.0016 0.9765
-3.1845 4.6029 -2.0016 0.9765
-3.3478 4.4855 -2.0016 0.9765
-3.5067 4.3624 -2.0016 0.9765
-3.6612 4.2336 -2.0016 0.9765
-3.8109 4.0993 -2.0016 0.9765
-4.0955 3.8151 -2.0016 0.9765
-4.2299 3.6655 -2.0016 0.9765
-4.3588 3.5111 -2.0016 0.9765
-4.5997 3.1891 -2.0016 0.9765
-4.8168 2.8506 -2.0016 0.9765
-4.9161 2.6757 -2.0016 0.9765
-5.0956 2.3158 -2.0016 0.9765
-5.1755 2.1312 -2.0016 0.9765
-5.2487 1.9439 -2.0016 0.9765
-5.3151 1.7541 -2.0016 0.9765
-5.3747 1.5620 -2.0016 0.9765
-5.4274 1.3679 -2.0016 0.9765
-5.4730 1.1720 -2.0016 0.9765
-5.5430 0.7760 -2.0016 0.9765
-5.5673 0.5764 -2.0016 0.9765
-5.5844 0.3760 -2.0016 0.9765
-5.5944 0.1751 -2.0016 0.9765
-5.5970 -0.0260 -2.0016 0.9765
-5.5617 -0.6281 -2.0016 0.9765
-5.5356 -0.8275 -2.0016 0.9765
-5.5023 -1.0258 -2.0016 0.9765
-5.3600 -1.6119 -2.0016 0.9765
-5.2986 -1.8034 -2.0016 0.9765
-5.2304 -1.9926 -2.0016 0.9765
-5.1554 -2.1792 -2.0016 0.9765
-4.8022 -2.2365 -1.8944 0.9777
-4.5377 -2.5247 -1.8570 0.9782
-4.4441 -2.6861 -1.8570 0.9782
-4.3447 -2.8440 -1.8570 0.9782
-4.0135 -3.2949 -1.8570 0.9782
-3.7666 -3.5746 -1.8570 0.9782
-3.6357 -3.7076 -1.8570 0.9782
-3.3601 -3.9591 -1.8570 0.9782
-3.2157 -4.0773 -1.8570 0.9782
-2.4353 -4.5863 -1.8570 0.9782
-1.9277 -4.8217 -1.8570 0.9782
-1.7532 -4.8879 -1.8570 0.9782
-1.2172 -5.0481 -1.8570 0.9782
-1.0350 -5.0886 -1.8570 0.9782
-0.8515 -5.1225 -1.8570 0.9782
-0.6669 -5.1498 -1.8570 0.9782
-0.2954 -5.1844 -1.8570 0.9782
-0.1090 -5.1916 -1.8570 0.9782
0.2641 -5.1861 -1.8570 0.9782
0.4502 -5.1732 -1.8570 0.9782
0.6358 -5.1537 -1.8570 0.9782
0.8205 -5.1276 -1.8570 0.9782
1.0042 -5.0948 -1.8570 0.9782
1.1866 -5.0554 -1.8570 0.9782
1.3675 -5.0095 -1.8570 0.9782
1.7236 -4.8984 -1.8570 0.9782
1.8985 -4.8333 -1.8570 0.9782
2.0709 -4.7620 -1.8570 0.9782
2.0298 -4.2437 -1.6823 0.9802
2.1232 -4.0576 -1.6377 0.9807
2.4808 -4.0106 -1.6864 0.9802
2.8886 -4.3152 -1.8570 0.9782
3.3361 -3.9794 -1.8570 0.9782
3.4769 -3.8570 -1.8570 0.9782
4.1731 -3.7299 -2.0016 0.9765
4.3045 -3.5776 -2.0016 0.9765
4.4302 -3.4206 -2.0016 0.9765
4.8745 -2.7508 -2.0016 0.9765
5.0594 -2.3937 -2.0016 0.9765
5.4057 -1.4510 -2.0016 0.9765
5.5305 -0.8609 -2.0016 0.9765
5.5780 -0.4616 -2.0016 0.9765
5.5910 -0.2609 -2.0016 0.9765
5.5953 0.1412 -2.0016 0.9765
5.5476 0.7424 -2.0016 0.9765
5.5174 0.9413 -2.0016 0.9765
5.4355 1.3350 -2.0016 0.9765
5.2604 1.9121 -2.0016 0.9765
5.1095 2.2849 -2.0016 0.9765
5.0241 2.4670 -2.0016 0.9765
4.8340 2.8214 -2.0016 0.9765
4.7295 2.9932 -2.0016 0.9765
4.6189 3.1612 -2.0016 0.9765
4.5024 3.3251 -2.0016 0.9765
4.1185 3.7902 -2.0016 0.9765
3.9796 3.9357 -2.0016 0.9765
3.8357 4.0762 -2.0016 0.9765
3.5331 4.3411 -2.0016 0.9765
3.2122 4.5835 -2.0016 0.9765
3.0455 4.6960 -2.0016 0.9765
2.8748 4.8024 -2.0016 0.9765
2.7004 4.9026 -2.0016 0.9765
2.3414 5.0838 -2.0016 0.9765
2.1573 5.1646 -2.0016 0.9765
1.7809 5.3062 -2.0016 0.9765
1.3952 5.4204 -2.0016 0.9765
1.0024 5.5066 -2.0016 0.9765
0.4041 5.5825 -2.0016 0.9765
0.2033 5.5934 -2.0016 0.9765
0.0022 5.5971 -2.0016 0.9765
-0.3997 5.5828 -2.0016 0.9765
-1.3909 5.4215 -2.0016 0.9765
-1.7766 5.3076 -2.0016 0.9765
-1.9662 5.2404 -2.0016 0.9765
-2.1531 5.1664 -2.0016 0.9765
-2.3374 5.0857 -2.0016 0.9765
-2.6965 4.9047 -2.0016 0.9765
-3.0417 4.6984 -2.0016 0.9765
-3.2086 4.5861 -2.0016 0.9765
-4.3772 3.4882 -2.0016 0.9765
-4.4997 3.3287 -2.0016 0.9765
-5.1077 2.2890 -2.0016 0.9765
-5.3243 1.7261 -2.0016 0.9765
-5.5470 0.7469 -2.0016 0.9765
-5.5703 0.5471 -2.0016 0.9765
-5.5968 -0.0554 -2.0016 0.9765
-5.5784 -0.4571 -2.0016 0.9765
-5.5312 -0.8565 -2.0016 0.9765
-5.4069 -1.4467 -2.0016 0.9765
-5.2891 -1.8312 -2.0016 0.9765
-5.2199 -2.0200 -2.0016 0.9765
-5.1439 -2.2062 -2.0016 0.9765
-4.6131 -2.3843 -1.8570 0.9782
-4.5244 -2.5485 -1.8570 0.9782
-4.4300 -2.7094 -1.8570 0.9782
-4.3298 -2.8668 -1.8570 0.9782
-4.2240 -3.0205 -1.8570 0.9782
-4.1127 -3.1703 -1.8570 0.9782
-3.9962 -3.3160 -1.8570 0.9782
-3.8745 -3.4574 -1.8570 0.9782
-3.6162 -3.7267 -1.8570 0.9782
3.3534 -3.4980 -1.8570 0.9795
3.7476 -3.6380 -2.0016 0.9779
3.8759 -3.5010 -2.0016 0.9779
3.9992 -3.3595 -2.0016 0.9779
4.1173 -3.2137 -2.0016 0.9779
4.2301 -3.0637 -2.0016 0.9779
4.3374 -2.9098 -2.0016 0.9779
4.6253 -2.4262 -2.0016 0.9779
4.7876 -2.0878 -2.0016 0.9779
4.9252 -1.7386 -2.0016 0.9779
4.9844 -1.5606 -2.0016 0.9779
5.0373 -1.3805 -2.0016 0.9779
5.0836 -1.1986 -2.0016 0.9779
5.1234 -1.0152 -2.0016 0.9779
5.2029 -0.4581 -2.0016 0.9779
5.2149 0.2919 -2.0016 0.9779
5.2010 0.4791 -2.0016 0.9779
5.1804 0.6656 -2.0016 0.9779
5.1532 0.8513 -2.0016 0.9779
5.1193 1.0359 -2.0016 0.9779
5.0317 1.4008 -2.0016 0.9779
4.9781 1.5807 -2.0016 0.9779
4.8517 1.9341 -2.0016 0.9779
4.6155 2.4448 -2.0016 0.9779
4.5247 2.6091 -2.0016 0.9779
4.4280 2.7700 -2.0016 0.9779
4.3257 2.9273 -2.0016 0.9779
4.1043 3.2303 -2.0016 0.9779
3.9856 3.3757 -2.0016 0.9779
3.7329 3.6531 -2.0016 0.9779
3.4610 3.9118 -2.0016 0.9779
2.8649 4.3672 -2.0016 0.9779
2.3784 4.6501 -2.0016 0.9779
0.5913 5.1895 -2.0016 0.9779
0.4045 5.2073 -2.0016 0.9779
0.2171 5.2185 -2.0016 0.9779
-0.1581 5.2206 -2.0016 0.9779
-0.5326 5.1958 -2.0016 0.9779
-0.7189 5.1733 -2.0016 0.9779
-1.6319 4.9616 -2.0016 0.9779
-1.8091 4.8997 -2.0016 0.9779
-1.9839 4.8316 -2.0016 0.9779
-2.4922 4.5901 -2.0016 0.9779
-2.6555 4.4976 -2.0016 0.9779
-3.1240 4.1858 -2.0016 0.9779
-3.2724 4.0708 -2.0016 0.9779
-3.5563 3.8253 -2.0016 0.9779
-3.8217 3.5601 -2.0016 0.9779
-3.9472 3.4205 -2.0016 0.9779
-4.1826 3.1282 -2.0016 0.9779
-4.3964 2.8198 -2.0016 0.9779
-4.5876 2.4969 -2.0016 0.9779
-4.7550 2.1610 -2.0016 0.9779
-4.8296 1.9888 -2.0016 0.9779
-5.1072 1.0937 -2.0016 0.9779
-5.1432 0.9095 -2.0016 0.9779
-5.1726 0.7241 -2.0016 0.9779
-5.1953 0.5378 -2.0016 0.9779
-5.2112 0.3508 -2.0016 0.9779
-5.2205 0.1634 -2.0016 0.9779
-5.2230 -0.0243 -2.0016 0.9779
-5.2077 -0.3992 -2.0016 0.9779
-5.1901 -0.5861 -2.0016 0.9779
-5.1346 -0.9572 -2.0016 0.9779
-5.0969 -1.1411 -2.0016 0.9779
-5.0018 -1.5041 -2.0016 0.9779
-4.9445 -1.6829 -2.0016 0.9779
-4.7347 -2.2051 -2.0016 0.9779
-4.0544 -2.6539 -1.8570 0.9795
-3.9564 -2.7979 -1.8570 0.9795
-3.8533 -2.9382 -1.8570 0.9795
-3.3927 -3.4599 -1.8570 0.9795
-3.0008 -3.8048 -1.8570 0.9795
-2.5740 -4.1056 -1.8570 0.9795
-1.9594 -4.4320 -1.8570 0.9795
-1.7989 -4.4995 -1.8570 0.9795
-1.4712 -4.6170 -1.8570 0.9795
-0.9658 -4.7485 -1.8570 0.9795
-0.7946 -4.7802 -1.8570 0.9795
-0.6224 -4.8056 -1.8570 0.9795
-0.4493 -4.8249 -1.8570 0.9795
-0.2757 -4.8379 -1.8570 0.9795
-0.1017 -4.8447 -1.8570 0.9795
1.1073 -4.7175 -1.8570 0.9795
1.2761 -4.6747 -1.8570 0.9795
1.6084 -4.5710 -1.8570 0.9795
1.7716 -4.5103 -1.8570 0.9795
1.9325 -4.4437 -1.8570 0.9795
2.0930 -3.9999 -1.7300 0.9808
2.2800 -4.0004 -1.7645 0.9805
2.4748 -4.0010 -1.8029 0.9800
2.6955 -4.0268 -1.8570 0.9795
2.8385 -3.9274 -1.8570 0.9795
2.9777 -3.8229 -1.8570 0.9795
3.2445 -3.5992 -1.8570 0.9795
3.3717 -3.4803 -1.8570 0.9795
3.7667 -3.6183 -2.0016 0.9779
3.8942 -3.4806 -2.0016 0.9779
4.0168 -3.3385 -2.0016 0.9779
4.7213 -2.2337 -2.0016 0.9779
4.7985 -2.0626 -2.0016 0.9779
4.9926 -1.5344 -2.0016 0.9779
5.0445 -1.3540 -2.0016 0.9779
5.1287 -0.9883 -2.0016 0.9779
5.1864 -0.6175 -2.0016 0.9779
5.2052 -0.4307 -2.0016 0.9779
5.1984 0.5064 -2.0016 0.9779
5.0243 1.4272 -2.0016 0.9779
4.9088 1.7843 -2.0016 0.9779
4.8415 1.9595 -2.0016 0.9779
4.6026 2.4691 -2.0016 0.9779
4.5109 2.6328 -2.0016 0.9779
4.4134 2.7932 -2.0016 0.9779
4.2015 3.1029 -2.0016 0.9779
3.9678 3.3966 -2.0016 0.9779
3.5793 3.8037 -2.0016 0.9779
3.4404 3.9299 -2.0016 0.9779
3.2970 4.0509 -2.0016 0.9779
3.1493 4.1668 -2.0016 0.9779
2.8420 4.3822 -2.0016 0.9779
2.5200 4.5749 -2.0016 0.9779
2.3540 4.6625 -2.0016 0.9779
2.0131 4.8195 -2.0016 0.9779
1.6618 4.9516 -2.0016 0.9779
1.4829 5.0081 -2.0016 0.9779
0.9354 5.1386 -2.0016 0.9779
0.5640 5.1925 -2.0016 0.9779
-0.5599 5.1929 -2.0016 0.9779
-0.7461 5.1695 -2.0016 0.9779
-0.9313 5.1393 -2.0016 0.9779
-1.1154 5.1026 -2.0016 0.9779
-1.2980 5.0592 -2.0016 0.9779
-1.4789 5.0093 -2.0016 0.9779
-1.6579 4.9529 -2.0016 0.9779
-1.8348 4.8902 -2.0016 0.9779
-2.0093 4.8211 -2.0016 0.9779
-2.1812 4.7458 -2.0016 0.9779
-2.6791 4.4836 -2.0016 0.9779
-3.2937 4.0536 -2.0016 0.9779
-3.4372 3.9326 -2.0016 0.9779
-3.5763 3.8066 -2.0016 0.9779
-3.8404 3.5400 -2.0016 0.9779
-3.9651 3.3997 -2.0016 0.9779
-4.0847 3.2551 -2.0016 0.9779
-4.3079 2.9534 -2.0016 0.9779
-4.4112 2.7967 -2.0016 0.9779
-4.5088 2.6364 -2.0016 0.9779
-4.6865 2.3058 -2.0016 0.9779
-4.9074 1.7882 -2.0016 0.9779
-5.0231 1.4312 -2.0016 0.9779
-5.0713 1.2499 -2.0016 0.9779
-5.1129 1.0669 -2.0016 0.9779
-5.1763 0.6970 -2.0016 0.9779
-5.1980 0.5106 -2.0016 0.9779
-5.2130 0.3235 -2.0016 0.9779
-5.2213 0.1360 -2.0016 0.9779
-5.2175 -0.2393 -2.0016 0.9779
-5.1615 -0.7993 -2.0016 0.9779
-5.0908 -1.1678 -2.0016 0.9779
-4.9938 -1.5304 -2.0016 0.9779
-4.9356 -1.7088 -2.0016 0.9779
-4.8710 -1.8850 -2.0016 0.9779
-4.8001 -2.0588 -2.0016 0.9779
-4.3358 -2.2409 -1.8703 0.9793
-4.1339 -2.5283 -1.8570 0.9795
-3.9417 -2.8186 -1.8570 0.9795
-3.8379 -2.9584 -1.8570 0.9795
-3.7291 -3.0944 -1.8570 0.9795
-3.6155 -3.2263 -1.8570 0.9795
-3.4973 -3.3542 -1.8570 0.9795
-3.3745 -3.4776 -1.8570 0.9795
-3.2474 -3.5966 -1.8570 0.9795
-3.1161 -3.7110 -1.8570 0.9795
3.7446 -3.1457 -2.0016 0.9791
4.1566 -2.5768 -2.0016 0.9791
4.2464 -2.4258 -2.0016 0.9791
4.4828 -1.9549 -2.0016 0.9791
4.5501 -1.7926 -2.0016 0.9791
4.6116 -1.6279 -2.0016 0.9791
4.6671 -1.4612 -2.0016 0.9791
4.7600 -1.1223 -2.0016 0.9791
4.8283 -0.7776 -2.0016 0.9791
4.8531 -0.6037 -2.0016 0.9791
4.8717 -0.4289 -2.0016 0.9791
4.8839 -0.2536 -2.0016 0.9791
4.8899 -0.0780 -2.0016 0.9791
4.8829 0.2733 -2.0016 0.9791
4.8506 0.6233 -2.0016 0.9791
4.8251 0.7971 -2.0016 0.9791
4.7934 0.9699 -2.0016 0.9791
4.6612 1.4800 -2.0016 0.9791
4.6050 1.6466 -2.0016 0.9791
4.3216 2.2892 -2.0016 0.9791
4.2366 2.4430 -2.0016 0.9791
4.1461 2.5936 -2.0016 0.9791
3.8430 3.0246 -2.0016 0.9791
3.7319 3.1608 -2.0016 0.9791
3.6159 3.2928 -2.0016 0.9791
3.4953 3.4206 -2.0016 0.9791
3.2406 3.6627 -2.0016 0.9791
3.1069 3.7768 -2.0016 0.9791
2.9692 3.8860 -2.0016 0.9791
2.3820 4.2712 -2.0016 0.9791
2.2270 4.3540 -2.0016 0.9791
1.9086 4.5027 -2.0016 0.9791
1.5804 4.6281 -2.0016 0.9791
1.4131 4.6819 -2.0016 0.9791
1.0732 4.7713 -2.0016 0.9791
0.5537 4.8591 -2.0016 0.9791
-0.1481 4.8883 -2.0016 0.9791
-0.3236 4.8798 -2.0016 0.9791
-0.6732 4.8440 -2.0016 0.9791
-1.0192 4.7831 -2.0016 0.9791
-1.1904 4.7434 -2.0016 0.9791
-1.5280 4.6457 -2.0016 0.9791
-1.6939 4.5878 -2.0016 0.9791
-1.8576 4.5240 -2.0016 0.9791
-2.0189 4.4543 -2.0016 0.9791
-2.1777 4.3789 -2.0016 0.9791
-2.4865 4.2112 -2.0016 0.9791
-2.7824 4.0218 -2.0016 0.9791
-3.0640 3.8116 -2.0016 0.9791
-3.1990 3.6991 -2.0016 0.9791
-3.3298 3.5818 -2.0016 0.9791
-3.4564 3.4598 -2.0016 0.9791
-3.5784 3.3334 -2.0016 0.9791
-3.6959 3.2027 -2.0016 0.9791
-4.0190 2.7865 -2.0016 0.9791
-4.2087 2.4907 -2.0016 0.9791
-4.2955 2.3379 -2.0016 0.9791
-4.4523 2.0234 -2.0016 0.9791
-4.5221 1.8622 -2.0016 0.9791
-4.6441 1.5326 -2.0016 0.9791
-4.7422 1.1952 -2.0016 0.9791
-4.7821 1.0241 -2.0016 0.9791
-1.9468 0.2725 -0.8045 0.9915
-1.9574 0.2026 -0.8054 0.9915
-1.9505 0.1313 -0.8001 0.9916
-1.9273 0.0603 -0.7892 0.9917
-1.9027 -0.0088 -0.7787 0.9918
-1.9550 -0.2922 -0.8090 0.9915
-2.1946 -0.4091 -0.9137 0.9904
-4.7309 -1.2392 -2.0016 0.9791
-4.6833 -1.4084 -2.0016 0.9791
-4.6297 -1.5757 -2.0016 0.9791
-4.5701 -1.7410 -2.0016 0.9791
-4.3462 -2.2175 -1.9969 0.9791
-3.7963 -2.4850 -1.8570 0.9806
-3.5069 -2.8790 -1.8570 0.9806
-3.4012 -3.0031 -1.8570 0.9806
-3.2911 -3.1234 -1.8570 0.9806
-2.6799 -3.6612 -1.8570 0.9806
-2.5467 -3.7551 -1.8570 0.9806
-2.4101 -3.8442 -1.8570 0.9806
-2.2705 -3.9283 -1.8570 0.9806
-2.1279 -4.0073 -1.8570 0.9806
-1.9825 -4.0812 -1.8570 0.9806
-1.8346 -4.1498 -1.8570 0.9806
-1.3775 -4.3231 -1.8570 0.9806
-1.2213 -4.3698 -1.8570 0.9806
-1.0635 -4.4108 -1.8570 0.9806
-0.9044 -4.4462 -1.8570 0.9806
-0.7440 -4.4758 -1.8570 0.9806
-0.5828 -4.4997 -1.8570 0.9806
-0.4207 -4.5177 -1.8570 0.9806
-0.2581 -4.5299 -1.8570 0.9806
0.0678 -4.5367 -1.8570 0.9806
0.3934 -4.5202 -1.8570 0.9806
0.5555 -4.5031 -1.8570 0.9806
0.8774 -4.4516 -1.8570 0.9806
1.0368 -4.4172 -1.8570 0.9806
1.1948 -4.3771 -1.8570 0.9806
1.8095 -4.1608 -1.8570 0.9806
2.2466 -3.9420 -1.8570 0.9806
2.6577 -3.6774 -1.8570 0.9806
2.7881 -3.5795 -1.8570 0.9806
3.0380 -3.3701 -1.8570 0.9806
