ply
format ascii 1.0
element vertex 1599
property float32 x
property float32 y
property float32 z
property float32 I
end_header
2.1934 -4.1119 -1.2066 0.9809
4.1186 -6.5420 -2.0016 0.9686
5.0129 -5.8848 -2.0016 0.9686
5.4224 -5.5098 -2.0016 0.9686
5.8039 -5.1063 -2.0016 0.9686
5.9836 -4.8946 -2.0016 0.9686
6.4753 -4.2226 -2.0016 0.9686
6.6228 -3.9873 -2.0016 0.9686
7.0132 -3.2519 -2.0016 0.9686
7.1255 -2.9979 -2.0016 0.9686
7.2286 -2.7401 -2.0016 0.9686
7.4066 -2.2141 -2.0016 0.9686
7.6018 -1.4047 -2.0016 0.9686
7.6473 -1.1307 -2.0016 0.9686
7.6830 -0.8554 -2.0016 0.9686
7.7246 -0.3017 -2.0016 0.9686
7.7122 0.5309 -2.0016 0.9686
7.6542 1.0831 -2.0016 0.9686
7.4203 2.1680 -2.0016 0.9686
7.2455 2.6951 -2.0016 0.9686
7.0334 3.2082 -2.0016 0.9686
6.9136 3.4587 -2.0016 0.9686
6.7849 3.7048 -2.0016 0.9686
6.5015 4.1822 -2.0016 0.9686
6.0139 4.8573 -2.0016 0.9686
5.8356 5.0701 -2.0016 0.9686
5.2564 5.6684 -2.0016 0.9686
4.8360 6.0311 -2.0016 0.9686
4.3906 6.3626 -2.0016 0.9686
4.1593 6.5162 -2.0016 0.9686
3.6808 6.7980 -2.0016 0.9686
3.4343 6.9258 -2.0016 0.9686
3.1833 7.0446 -2.0016 0.9686
2.9283 7.1544 -2.0016 0.9686
2.4072 7.3462 -2.0016 0.9686
1.0561 7.6580 -2.0016 0.9686
0.2263 7.7272 -2.0016 0.9686
-0.0514 7.7303 -2.0016 0.9686
-0.3290 7.7235 -2.0016 0.9686
-0.6061 7.7067 -2.0016 0.9686
-0.8825 7.6799 -2.0016 0.9686
-1.1577 7.6433 -2.0016 0.9686
-1.4315 7.5968 -2.0016 0.9686
-1.7034 7.5405 -2.0016 0.9686
-2.2403 7.3988 -2.0016 0.9686
-3.0231 7.1149 -2.0016 0.9686
-3.2766 7.0017 -2.0016 0.9686
-3.5260 6.8795 -2.0016 0.9686
-4.4747 6.3037 -2.0016 0.9686
-4.6982 6.1390 -2.0016 0.9686
-4.9157 5.9663 -2.0016 0.9686
-5.1268 5.7859 -2.0016 0.9686
-5.3313 5.5980 -2.0016 0.9686
-5.5289 5.4030 -2.0016 0.9686
-6.0779 4.7769 -2.0016 0.9686
-6.4052 4.3283 -2.0016 0.9686
-6.5565 4.0955 -2.0016 0.9686
-6.6993 3.8574 -2.0016 0.9686
-6.9589 3.3666 -2.0016 0.9686
-7.0754 3.1145 -2.0016 0.9686
-7.1826 2.8583 -2.0016 0.9686
-4.0350 -5.1718 -1.8570 0.9731
-3.6534 -5.4481 -1.8570 0.9731
-3.4554 -5.5758 -1.8570 0.9731
-3.2834 -6.2617 -2.0016 0.9710
-3.0564 -6.3756 -2.0016 0.9710
-2.8254 -6.4812 -2.0016 0.9710
-2.1119 -6.7475 -2.0016 0.9710
-1.8683 -6.8190 -2.0016 0.9710
-1.6222 -6.8817 -2.0016 0.9710
0.3949 -7.0593 -2.0016 0.9710
1.1519 -6.9759 -2.0016 0.9710
1.4017 -6.9300 -2.0016 0.9710
1.6496 -6.8752 -2.0016 0.9710
2.1389 -6.7390 -2.0016 0.9710
2.6171 -6.5681 -2.0016 0.9710
2.8513 -6.4699 -2.0016 0.9710
2.0924 -4.3204 -1.3590 0.9802
3.7484 -5.9949 -2.0016 0.9710
4.3714 -5.5570 -2.0016 0.9710
4.7590 -5.2289 -2.0016 0.9710
4.9437 -5.0546 -2.0016 0.9710
5.2938 -4.6867 -2.0016 0.9710
5.6166 -4.2946 -2.0016 0.9710
5.7672 -4.0901 -2.0016 0.9710
6.4051 -2.9940 -2.0016 0.9710
6.5085 -2.7621 -2.0016 0.9710
6.6900 -2.2878 -2.0016 0.9710
6.8369 -1.8016 -2.0016 0.9710
6.9486 -1.3062 -2.0016 0.9710
7.0245 -0.8041 -2.0016 0.9710
7.0702 -0.0439 -2.0016 0.9710
7.0672 0.2101 -2.0016 0.9710
7.0036 0.9690 -2.0016 0.9710
6.7179 2.2045 -2.0016 0.9710
6.6344 2.4444 -2.0016 0.9710
6.5423 2.6811 -2.0016 0.9710
6.4418 2.9143 -2.0016 0.9710
6.3330 3.1437 -2.0016 0.9710
6.0910 3.5902 -2.0016 0.9710
5.6695 4.2245 -2.0016 0.9710
5.1822 4.8098 -2.0016 0.9710
4.4401 5.5023 -2.0016 0.9710
4.2396 5.6582 -2.0016 0.9710
3.8225 5.9479 -2.0016 0.9710
2.9314 6.4340 -2.0016 0.9710
2.4620 6.6278 -2.0016 0.9710
2.2224 6.7120 -2.0016 0.9710
1.9799 6.7875 -2.0016 0.9710
1.7349 6.8542 -2.0016 0.9710
1.4876 6.9121 -2.0016 0.9710
1.2384 6.9610 -2.0016 0.9710
0.2289 7.0666 -2.0016 0.9710
-0.0251 7.0703 -2.0016 0.9710
-0.2790 7.0648 -2.0016 0.9710
-0.5325 7.0503 -2.0016 0.9710
-0.7854 7.0266 -2.0016 0.9710
-1.0372 6.9938 -2.0016 0.9710
-1.2877 6.9521 -2.0016 0.9710
-1.5366 6.9013 -2.0016 0.9710
-1.7834 6.8417 -2.0016 0.9710
-2.0280 6.7732 -2.0016 0.9710
-2.2699 6.6960 -2.0016 0.9710
-2.9770 6.4130 -2.0016 0.9710
-3.4296 6.1828 -2.0016 0.9710
-4.2796 5.6280 -2.0016 0.9710
-5.2162 4.7729 -2.0016 0.9710
-5.5453 4.3862 -2.0016 0.9710
-5.9849 3.7643 -2.0016 0.9710
-6.2397 3.3250 -2.0016 0.9710
-6.4623 2.8685 -2.0016 0.9710
-6.5611 2.6346 -2.0016 0.9710
-6.6515 2.3973 -2.0016 0.9710
-6.9262 1.4201 -2.0016 0.9710
-6.9728 1.1704 -2.0016 0.9710
-7.0103 0.9193 -2.0016 0.9710
-7.0388 0.6669 -2.0016 0.9710
-7.0582 0.4137 -2.0016 0.9710
-7.0685 0.1599 -2.0016 0.9710
-7.0618 -0.3479 -2.0016 0.9710
-7.0447 -0.6013 -2.0016 0.9710
-7.0186 -0.8539 -2.0016 0.9710
-6.9834 -1.1054 -2.0016 0.9710
-6.8860 -1.6038 -2.0016 0.9710
-6.7531 -2.0940 -2.0016 0.9710
-6.3813 -2.2329 -1.9139 0.9723
-5.8175 -3.0307 -1.8570 0.9731
-5.5849 -3.4405 -1.8570 0.9731
-5.4578 -3.6389 -1.8570 0.9731
-5.3236 -3.8325 -1.8570 0.9731
-5.1825 -4.0212 -1.8570 0.9731
-4.7199 -4.5553 -1.8570 0.9731
-4.5533 -4.7219 -1.8570 0.9731
-3.4381 -5.5864 -1.8570 0.9731
-3.2640 -6.2718 -2.0016 0.9710
-2.8053 -6.4900 -2.0016 0.9710
-2.5705 -6.5865 -2.0016 0.9710
-1.8471 -6.8248 -2.0016 0.9710
-1.6008 -6.8867 -2.0016 0.9710
-1.3525 -6.9398 -2.0016 0.9710
-0.5982 -7.0450 -2.0016 0.9710
-0.0910 -7.0697 -2.0016 0.9710
0.1630 -7.0685 -2.0016 0.9710
0.4167 -7.0580 -2.0016 0.9710
1.6709 -6.8700 -2.0016 0.9710
2.4001 -6.6505 -2.0016 0.9710
2.8713 -6.4610 -2.0016 0.9710
2.0936 -4.2889 -1.3511 0.9804
2.1858 -4.0977 -1.3147 0.9809
2.3771 -4.0948 -1.3404 0.9805
3.7669 -5.9833 -2.0016 0.9710
4.1867 -5.6975 -2.0016 0.9710
4.3886 -5.5434 -2.0016 0.9710
4.7752 -5.2141 -2.0016 0.9710
5.1372 -4.8579 -2.0016 0.9710
5.3083 -4.6703 -2.0016 0.9710
5.6299 -4.2772 -2.0016 0.9710
5.7798 -4.0722 -2.0016 0.9710
5.9224 -3.8620 -2.0016 0.9710
6.3034 -3.2026 -2.0016 0.9710
6.4143 -2.9742 -2.0016 0.9710
6.6113 -2.5061 -2.0016 0.9710
6.6970 -2.2670 -2.0016 0.9710
6.7741 -2.0251 -2.0016 0.9710
6.8425 -1.7805 -2.0016 0.9710
6.9943 -1.0342 -2.0016 0.9710
7.0703 -0.0220 -2.0016 0.9710
7.0665 0.2319 -2.0016 0.9710
7.0536 0.4856 -2.0016 0.9710
7.0006 0.9906 -2.0016 0.9710
6.9114 1.4906 -2.0016 0.9710
6.8534 1.7379 -2.0016 0.9710
6.7866 1.9829 -2.0016 0.9710
6.5339 2.7013 -2.0016 0.9710
6.4327 2.9342 -2.0016 0.9710
6.3232 3.1633 -2.0016 0.9710
6.2055 3.3884 -2.0016 0.9710
5.1673 4.8258 -2.0016 0.9710
4.9906 5.0083 -2.0016 0.9710
4.8076 5.1843 -2.0016 0.9710
4.6183 5.3536 -2.0016 0.9710
4.4230 5.5160 -2.0016 0.9710
4.0157 5.8193 -2.0016 0.9710
3.5876 6.0925 -2.0016 0.9710
3.3665 6.2174 -2.0016 0.9710
3.1410 6.3343 -2.0016 0.9710
2.6782 6.5435 -2.0016 0.9710
2.2016 6.7188 -2.0016 0.9710
1.9589 6.7936 -2.0016 0.9710
1.4662 6.9166 -2.0016 0.9710
0.9659 7.0040 -2.0016 0.9710
0.7138 7.0342 -2.0016 0.9710
-0.0470 7.0702 -2.0016 0.9710
-0.3009 7.0639 -2.0016 0.9710
-0.5544 7.0486 -2.0016 0.9710
-0.8071 7.0241 -2.0016 0.9710
-1.5579 6.8965 -2.0016 0.9710
-2.2907 6.6890 -2.0016 0.9710
-2.5294 6.6024 -2.0016 0.9710
-2.7649 6.5073 -2.0016 0.9710
-3.2249 6.2920 -2.0016 0.9710
-3.8829 5.9087 -2.0016 0.9710
-4.2970 5.6147 -2.0016 0.9710
-4.4959 5.4568 -2.0016 0.9710
-4.6890 5.2918 -2.0016 0.9710
-4.8760 5.1200 -2.0016 0.9710
-5.2309 4.7568 -2.0016 0.9710
-5.5589 4.3690 -2.0016 0.9710
-5.7122 4.1665 -2.0016 0.9710
-5.9966 3.7458 -2.0016 0.9710
-6.1272 3.5280 -2.0016 0.9710
-6.2500 3.3057 -2.0016 0.9710
-6.3647 3.0791 -2.0016 0.9710
-6.4711 2.8485 -2.0016 0.9710
-6.5693 2.6143 -2.0016 0.9710
-3.7138 -4.7601 -1.8570 0.9751
-3.5405 -4.8904 -1.8570 0.9751
-3.1803 -5.1319 -1.8570 0.9751
-2.8037 -5.3469 -1.8570 0.9751
-2.6099 -5.4442 -1.8570 0.9751
-2.4127 -5.5344 -1.8570 0.9751
-2.2123 -5.6175 -1.8570 0.9751
-1.9438 -6.2104 -2.0016 0.9731
-1.7195 -6.2762 -2.0016 0.9731
-1.0345 -6.4247 -2.0016 0.9731
-0.1039 -6.5067 -2.0016 0.9731
0.5966 -6.4801 -2.0016 0.9731
1.0602 -6.4205 -2.0016 0.9731
1.2901 -6.3783 -2.0016 0.9731
1.5183 -6.3279 -2.0016 0.9731
1.9686 -6.2026 -2.0016 0.9731
2.4348 -5.5247 -1.8570 0.9751
2.1621 -4.0836 -1.4212 0.9808
3.4500 -5.5177 -2.0016 0.9731
3.6459 -5.3902 -2.0016 0.9731
3.8371 -5.2558 -2.0016 0.9731
4.3802 -4.8126 -2.0016 0.9731
4.5502 -4.6522 -2.0016 0.9731
4.7143 -4.4858 -2.0016 0.9731
5.0242 -4.1358 -2.0016 0.9731
5.1695 -3.9527 -2.0016 0.9731
5.6822 -3.1718 -2.0016 0.9731
5.8952 -2.7557 -2.0016 0.9731
5.9904 -2.5422 -2.0016 0.9731
6.0778 -2.3254 -2.0016 0.9731
6.1574 -2.1056 -2.0016 0.9731
6.2290 -1.8831 -2.0016 0.9731
6.3482 -1.4312 -2.0016 0.9731
6.4345 -0.9718 -2.0016 0.9731
6.4877 -0.5074 -2.0016 0.9731
6.5017 -0.2741 -2.0016 0.9731
6.4935 0.4268 -2.0016 0.9731
6.4461 0.8918 -2.0016 0.9731
6.4099 1.1228 -2.0016 0.9731
6.3128 1.5800 -2.0016 0.9731
6.2520 1.8057 -2.0016 0.9731
6.1831 2.0290 -2.0016 0.9731
6.0215 2.4676 -2.0016 0.9731
5.9290 2.6823 -2.0016 0.9731
5.4838 3.5036 -2.0016 0.9731
5.2181 3.8882 -2.0016 0.9731
4.9256 4.2528 -2.0016 0.9731
4.4396 4.7579 -2.0016 0.9731
4.2659 4.9142 -2.0016 0.9731
3.7126 5.3446 -2.0016 0.9731
3.3193 5.5973 -2.0016 0.9731
2.2660 6.1002 -2.0016 0.9731
1.8223 6.2471 -2.0016 0.9731
1.5968 6.3085 -2.0016 0.9731
1.1398 6.4069 -2.0016 0.9731
0.6770 6.4722 -2.0016 0.9731
0.4441 6.4923 -2.0016 0.9731
0.2106 6.5041 -2.0016 0.9731
-0.0231 6.5074 -2.0016 0.9731
-0.4901 6.4890 -2.0016 0.9731
-0.7229 6.4672 -2.0016 0.9731
-1.4143 6.3519 -2.0016 0.9731
-1.8666 6.2340 -2.0016 0.9731
-3.7504 5.3181 -2.0016 0.9731
-3.9389 5.1800 -2.0016 0.9731
-4.1224 5.0352 -2.0016 0.9731
-4.3006 4.8839 -2.0016 0.9731
-4.4732 4.7263 -2.0016 0.9731
-4.6401 4.5626 -2.0016 0.9731
-4.8009 4.3930 -2.0016 0.9731
-4.9556 4.2177 -2.0016 0.9731
-5.1039 4.0370 -2.0016 0.9731
-5.2456 3.8511 -2.0016 0.9731
-5.3805 3.6602 -2.0016 0.9731
-5.6294 3.2646 -2.0016 0.9731
-5.7430 3.0603 -2.0016 0.9731
-5.9478 2.6402 -2.0016 0.9731
-6.1220 2.2064 -2.0016 0.9731
-6.2646 1.7613 -2.0016 0.9731
-6.3749 1.3071 -2.0016 0.9731
-6.4177 1.0773 -2.0016 0.9731
-6.5058 0.1472 -2.0016 0.9731
-6.4996 -0.3202 -2.0016 0.9731
-6.4839 -0.5534 -2.0016 0.9731
-6.4275 -1.0174 -2.0016 0.9731
-6.3868 -1.2476 -2.0016 0.9731
-6.2807 -1.7028 -2.0016 0.9731
-6.1423 -2.1493 -2.0016 0.9731
-5.5461 -2.4002 -1.8588 0.9750
-5.2507 -2.9800 -1.8570 0.9751
-5.1403 -3.1666 -1.8570 0.9751
-5.0233 -3.3492 -1.8570 0.9751
-4.8998 -3.5274 -1.8570 0.9751
-4.6339 -3.8700 -1.8570 0.9751
-4.4919 -4.0340 -1.8570 0.9751
-4.3442 -4.1927 -1.8570 0.9751
-3.8680 -4.6356 -1.8570 0.9751
-3.6990 -4.7715 -1.8570 0.9751
-3.3470 -5.0247 -1.8570 0.9751
-2.7871 -5.3556 -1.8570 0.9751
-2.5930 -5.4522 -1.8570 0.9751
-2.3970 -5.5453 -1.8581 0.9750
-2.1949 -5.6243 -1.8570 0.9751
-2.1466 -6.1432 -2.0016 0.9731
-1.9246 -6.2164 -2.0016 0.9731
-1.7001 -6.2815 -2.0016 0.9731
-1.4734 -6.3385 -2.0016 0.9731
-1.0146 -6.4279 -2.0016 0.9731
-0.7831 -6.4602 -2.0016 0.9731
-0.5506 -6.4841 -2.0016 0.9731
-0.3174 -6.4997 -2.0016 0.9731
0.1500 -6.5057 -2.0016 0.9731
0.3836 -6.4962 -2.0016 0.9731
0.8489 -6.4519 -2.0016 0.9731
1.3098 -6.3743 -2.0016 0.9731
2.2091 -6.1211 -2.0016 0.9731
2.2521 -5.6016 -1.8570 0.9751
2.4519 -5.5171 -1.8570 0.9751
2.0796 -4.2602 -1.4581 0.9804
2.1782 -4.0834 -1.4235 0.9808
2.3686 -4.0803 -1.4511 0.9804
3.6626 -5.3789 -2.0016 0.9731
3.8534 -5.2439 -2.0016 0.9731
4.3951 -4.7990 -2.0016 0.9731
4.8857 -4.2985 -2.0016 0.9731
5.0370 -4.1202 -2.0016 0.9731
5.4509 -3.5546 -2.0016 0.9731
5.8016 -2.9477 -2.0016 0.9731
5.9037 -2.7374 -2.0016 0.9731
5.9982 -2.5236 -2.0016 0.9731
6.2978 -1.6387 -2.0016 0.9731
6.3991 -1.1824 -2.0016 0.9731
6.5025 -0.2539 -2.0016 0.9731
6.5075 -0.0203 -2.0016 0.9731
6.4719 0.6798 -2.0016 0.9731
6.4433 0.9118 -2.0016 0.9731
6.3612 1.3719 -2.0016 0.9731
6.3078 1.5995 -2.0016 0.9731
6.2463 1.8250 -2.0016 0.9731
6.0138 2.4863 -2.0016 0.9731
5.8198 2.9115 -2.0016 0.9731
5.2061 3.9044 -2.0016 0.9731
5.0625 4.0888 -2.0016 0.9731
4.9124 4.2680 -2.0016 0.9731
4.7559 4.4417 -2.0016 0.9731
4.5933 4.6096 -2.0016 0.9731
4.4248 4.7716 -2.0016 0.9731
4.2506 4.9274 -2.0016 0.9731
3.8860 5.2198 -2.0016 0.9731
3.6960 5.3560 -2.0016 0.9731
3.5012 5.4853 -2.0016 0.9731
3.0985 5.7225 -2.0016 0.9731
2.6797 5.9301 -2.0016 0.9731
2.4650 6.0225 -2.0016 0.9731
2.2471 6.1072 -2.0016 0.9731
1.5772 6.3134 -2.0016 0.9731
0.6569 6.4742 -2.0016 0.9731
0.4240 6.4937 -2.0016 0.9731
0.1905 6.5047 -2.0016 0.9731
-0.0432 6.5073 -2.0016 0.9731
-0.2769 6.5016 -2.0016 0.9731
-0.5102 6.4874 -2.0016 0.9731
-1.2050 6.3949 -2.0016 0.9731
-1.6610 6.2919 -2.0016 0.9731
-1.8859 6.2282 -2.0016 0.9731
-2.7582 5.8940 -2.0016 0.9731
-3.1742 5.6808 -2.0016 0.9731
-3.3762 5.5631 -2.0016 0.9731
-3.5738 5.4383 -2.0016 0.9731
-4.1380 5.0224 -2.0016 0.9731
-4.6542 4.5482 -2.0016 0.9731
-4.8145 4.3781 -2.0016 0.9731
-4.9687 4.2024 -2.0016 0.9731
-5.3918 3.6436 -2.0016 0.9731
-5.5192 3.4476 -2.0016 0.9731
-5.9560 2.6217 -2.0016 0.9731
-2.7703 -4.8512 -1.8570 0.9767
-2.5943 -4.9476 -1.8570 0.9767
-1.8591 -5.2681 -1.8570 0.9767
-1.6687 -5.3314 -1.8570 0.9767
-1.4762 -5.3879 -1.8570 0.9767
-1.2817 -5.4375 -1.8570 0.9767
-1.0856 -5.4800 -1.8570 0.9767
-0.4899 -5.5650 -1.8570 0.9767
0.3120 -5.5778 -1.8570 0.9767
0.5121 -5.5630 -1.8570 0.9767
0.7121 -5.5451 -1.8583 0.9767
0.9101 -5.5119 -1.8570 0.9767
1.1075 -5.4756 -1.8570 0.9767
1.3034 -5.4323 -1.8570 0.9767
1.8802 -5.2606 -1.8570 0.9767
2.0643 -4.2624 -1.5743 0.9802
2.3435 -4.0659 -1.5599 0.9804
2.9617 -4.7368 -1.8570 0.9767
3.2941 -4.5120 -1.8570 0.9767
3.8905 -4.5959 -2.0016 0.9749
4.0530 -4.4532 -2.0016 0.9749
4.2103 -4.3047 -2.0016 0.9749
4.3622 -4.1507 -2.0016 0.9749
4.6489 -3.8269 -2.0016 0.9749
4.7834 -3.6575 -2.0016 0.9749
5.0336 -3.3047 -2.0016 0.9749
5.1490 -3.1218 -2.0016 0.9749
5.3598 -2.7441 -2.0016 0.9749
5.5430 -2.3523 -2.0016 0.9749
5.6975 -1.9484 -2.0016 0.9749
5.7638 -1.7425 -2.0016 0.9749
5.8227 -1.5344 -2.0016 0.9749
5.9824 -0.6848 -2.0016 0.9749
6.0031 -0.4695 -2.0016 0.9749
6.0213 -0.0374 -2.0016 0.9749
6.0188 0.1789 -2.0016 0.9749
5.9904 0.6105 -2.0016 0.9749
5.9311 1.0389 -2.0016 0.9749
5.7850 1.6708 -2.0016 0.9749
5.6501 2.0817 -2.0016 0.9749
5.5717 2.2833 -2.0016 0.9749
5.3935 2.6774 -2.0016 0.9749
5.2938 2.8693 -2.0016 0.9749
5.0742 3.2419 -2.0016 0.9749
4.6961 3.7689 -2.0016 0.9749
4.5577 3.9351 -2.0016 0.9749
4.4134 4.0963 -2.0016 0.9749
4.2635 4.2521 -2.0016 0.9749
3.7814 4.6860 -2.0016 0.9749
3.2554 5.0656 -2.0016 0.9749
3.0714 5.1792 -2.0016 0.9749
2.6917 5.3863 -2.0016 0.9749
2.4965 5.4795 -2.0016 0.9749
2.2981 5.5656 -2.0016 0.9749
2.0968 5.6446 -2.0016 0.9749
1.4775 5.8374 -2.0016 0.9749
0.8411 5.9624 -2.0016 0.9749
0.6264 5.9888 -2.0016 0.9749
0.4109 6.0074 -2.0016 0.9749
0.1949 6.0183 -2.0016 0.9749
-0.0214 6.0214 -2.0016 0.9749
-0.6689 5.9842 -2.0016 0.9749
-0.8834 5.9563 -2.0016 0.9749
-1.0967 5.9207 -2.0016 0.9749
-1.7271 5.7684 -2.0016 0.9749
-1.9332 5.7027 -2.0016 0.9749
-2.1368 5.6296 -2.0016 0.9749
-2.3376 5.5492 -2.0016 0.9749
-2.7299 5.3671 -2.0016 0.9749
-2.9208 5.2656 -2.0016 0.9749
-3.1081 5.1573 -2.0016 0.9749
-3.6447 4.7931 -2.0016 0.9749
-3.9794 4.5191 -2.0016 0.9749
-4.4424 4.0649 -2.0016 0.9749
-5.0971 3.2059 -2.0016 0.9749
-5.2089 3.0208 -2.0016 0.9749
-5.4123 2.6391 -2.0016 0.9749
-5.5036 2.4430 -2.0016 0.9749
-5.5878 2.2437 -2.0016 0.9749
-5.7344 1.8369 -2.0016 0.9749
-5.7967 1.6297 -2.0016 0.9749
-5.8515 1.4205 -2.0016 0.9749
-5.8987 1.2094 -2.0016 0.9749
-5.9384 0.9968 -2.0016 0.9749
-5.9703 0.7829 -2.0016 0.9749
-6.0111 0.3523 -2.0016 0.9749
-6.0199 0.1362 -2.0016 0.9749
-5.9996 -0.5121 -2.0016 0.9749
-5.9474 -0.9414 -2.0016 0.9749
-5.9097 -1.1544 -2.0016 0.9749
-5.8645 -1.3659 -2.0016 0.9749
-5.8116 -1.5756 -2.0016 0.9749
-5.6085 -2.1916 -2.0016 0.9749
-4.8586 -2.7574 -1.8570 0.9767
-4.7564 -2.9301 -1.8570 0.9767
-4.6481 -3.0990 -1.8570 0.9767
-4.5338 -3.2640 -1.8570 0.9767
-4.4137 -3.4247 -1.8570 0.9767
-3.7309 -4.1581 -1.8570 0.9767
-3.5791 -4.2894 -1.8570 0.9767
-3.0970 -4.6495 -1.8570 0.9767
-2.9280 -4.7577 -1.8570 0.9767
-2.2166 -5.1279 -1.8570 0.9767
-2.0310 -5.2042 -1.8570 0.9767
-1.8428 -5.2738 -1.8570 0.9767
-1.6522 -5.3366 -1.8570 0.9767
-1.0686 -5.4833 -1.8570 0.9767
-0.8710 -5.5182 -1.8570 0.9767
-0.6723 -5.5463 -1.8571 0.9767
-0.4727 -5.5665 -1.8570 0.9767
0.1288 -5.5850 -1.8570 0.9767
0.3293 -5.5768 -1.8570 0.9767
0.5294 -5.5614 -1.8570 0.9767
0.9272 -5.5090 -1.8570 0.9767
1.3202 -5.4282 -1.8570 0.9767
1.5144 -5.3773 -1.8570 0.9767
1.7065 -5.3195 -1.8570 0.9767
2.0839 -5.1833 -1.8570 0.9767
2.2687 -5.1051 -1.8570 0.9767
2.3601 -4.0656 -1.5626 0.9804
3.1442 -4.6177 -1.8570 0.9767
4.2237 -4.2917 -2.0016 0.9749
4.5208 -3.9774 -2.0016 0.9749
4.9224 -3.4681 -2.0016 0.9749
5.1587 -3.1058 -2.0016 0.9749
5.2669 -2.9186 -2.0016 0.9749
5.3683 -2.7275 -2.0016 0.9749
5.5502 -2.3351 -2.0016 0.9749
5.6305 -2.1343 -2.0016 0.9749
5.7692 -1.7246 -2.0016 0.9749
5.8781 -1.3061 -2.0016 0.9749
5.9567 -0.8808 -2.0016 0.9749
6.0169 -0.2350 -2.0016 0.9749
6.0214 -0.0187 -2.0016 0.9749
6.0182 0.1975 -2.0016 0.9749
6.0072 0.4135 -2.0016 0.9749
5.9885 0.6290 -2.0016 0.9749
5.9279 1.0573 -2.0016 0.9749
5.8367 1.4800 -2.0016 0.9749
5.7798 1.6887 -2.0016 0.9749
5.5646 2.3006 -2.0016 0.9749
5.4784 2.4989 -2.0016 0.9749
5.2849 2.8857 -2.0016 0.9749
5.1779 3.0737 -2.0016 0.9749
4.9439 3.4374 -2.0016 0.9749
4.6844 3.7834 -2.0016 0.9749
4.2503 4.2653 -2.0016 0.9749
4.0944 4.4152 -2.0016 0.9749
3.9331 4.5594 -2.0016 0.9749
3.7669 4.6977 -2.0016 0.9749
3.2397 5.0756 -2.0016 0.9749
3.0554 5.1887 -2.0016 0.9749
2.8671 5.2951 -2.0016 0.9749
2.4796 5.4872 -2.0016 0.9749
2.2809 5.5727 -2.0016 0.9749
2.0793 5.6510 -2.0016 0.9749
1.4594 5.8419 -2.0016 0.9749
1.2487 5.8905 -2.0016 0.9749
0.8226 5.9650 -2.0016 0.9749
0.6079 5.9907 -2.0016 0.9749
0.3923 6.0086 -2.0016 0.9749
-0.2562 6.0160 -2.0016 0.9749
-0.9018 5.9535 -2.0016 0.9749
-1.1150 5.9173 -2.0016 0.9749
-1.7450 5.7630 -2.0016 0.9749
-1.9508 5.6967 -2.0016 0.9749
-2.1542 5.6229 -2.0016 0.9749
-3.3069 5.0321 -2.0016 0.9749
-3.4855 4.9101 -2.0016 0.9749
-3.9934 4.5067 -2.0016 0.9749
-4.1526 4.3604 -2.0016 0.9749
-4.7342 3.7209 -2.0016 0.9749
-4.8648 3.5484 -2.0016 0.9749
-4.9891 3.3714 -2.0016 0.9749
-5.2182 3.0046 -2.0016 0.9749
-5.5111 2.4259 -2.0016 0.9749
-2.0751 -4.7601 -1.8570 0.9782
-1.9028 -4.8316 -1.8570 0.9782
-1.7281 -4.8968 -1.8570 0.9782
-1.3721 -5.0082 -1.8570 0.9782
-1.0091 -5.0938 -1.8570 0.9782
0.1036 -5.1918 -1.8570 0.9782
0.6614 -5.1505 -1.8570 0.9782
1.5709 -4.9495 -1.8570 0.9782
1.9221 -4.8240 -1.8570 0.9782
2.0941 -4.7518 -1.8570 0.9782
2.5085 -4.0119 -1.6921 0.9801
3.3551 -3.9634 -1.8570 0.9782
3.4953 -3.8403 -1.8570 0.9782
4.0548 -3.8582 -2.0016 0.9765
4.3213 -3.5572 -2.0016 0.9765
4.4462 -3.3997 -2.0016 0.9765
4.6788 -3.0718 -2.0016 0.9765
4.8873 -2.7280 -2.0016 0.9765
4.9821 -2.5507 -2.0016 0.9765
5.5007 -1.0341 -2.0016 0.9765
5.5608 -0.6365 -2.0016 0.9765
5.5801 -0.4364 -2.0016 0.9765
5.5921 -0.2357 -2.0016 0.9765
5.5850 0.3671 -2.0016 0.9765
5.4749 1.1631 -2.0016 0.9765
5.4296 1.3589 -2.0016 0.9765
5.3181 1.7452 -2.0016 0.9765
5.1791 2.1224 -2.0016 0.9765
5.0995 2.3070 -2.0016 0.9765
4.9208 2.6671 -2.0016 0.9765
4.6053 3.1809 -2.0016 0.9765
4.4881 3.3443 -2.0016 0.9765
4.3651 3.5033 -2.0016 0.9765
4.2365 3.6578 -2.0016 0.9765
4.1024 3.8076 -2.0016 0.9765
3.9630 3.9525 -2.0016 0.9765
3.8185 4.0922 -2.0016 0.9765
3.5149 4.3558 -2.0016 0.9765
3.0260 4.7086 -2.0016 0.9765
2.6802 4.9136 -2.0016 0.9765
2.3206 5.0934 -2.0016 0.9765
2.1362 5.1734 -2.0016 0.9765
1.3734 5.4260 -2.0016 0.9765
1.1776 5.4718 -2.0016 0.9765
0.7818 5.5422 -2.0016 0.9765
-0.0198 5.5971 -2.0016 0.9765
-0.4216 5.5812 -2.0016 0.9765
-1.2164 5.4633 -2.0016 0.9765
-1.6054 5.3619 -2.0016 0.9765
-1.7970 5.3008 -2.0016 0.9765
-2.1728 5.1581 -2.0016 0.9765
-2.3567 5.0768 -2.0016 0.9765
-2.7150 4.8945 -2.0016 0.9765
-3.5457 4.3307 -2.0016 0.9765
-3.8474 4.0651 -2.0016 0.9765
-3.9909 3.9243 -2.0016 0.9765
-4.2623 3.6277 -2.0016 0.9765
-4.3899 3.4722 -2.0016 0.9765
-4.5117 3.3124 -2.0016 0.9765
-4.6278 3.1482 -2.0016 0.9765
-5.0309 2.4531 -2.0016 0.9765
-5.3882 1.5149 -2.0016 0.9765
-5.4830 1.1242 -2.0016 0.9765
-5.5199 0.9266 -2.0016 0.9765
-5.5496 0.7277 -2.0016 0.9765
-5.5875 0.3275 -2.0016 0.9765
-5.5957 0.1266 -2.0016 0.9765
-5.5903 -0.2754 -2.0016 0.9765
-5.5768 -0.4760 -2.0016 0.9765
-5.5561 -0.6760 -2.0016 0.9765
-5.4021 -1.4646 -2.0016 0.9765
-5.3460 -1.6577 -2.0016 0.9765
-5.2830 -1.8486 -2.0016 0.9765
-5.2132 -2.0371 -2.0016 0.9765
-4.6053 -2.3992 -1.8570 0.9782
-4.5162 -2.5631 -1.8570 0.9782
-4.1026 -3.1833 -1.8570 0.9782
-3.6045 -3.7380 -1.8570 0.9782
-3.4679 -3.8650 -1.8570 0.9782
-3.3269 -3.9871 -1.8570 0.9782
-3.1815 -4.1040 -1.8570 0.9782
-3.0321 -4.2156 -1.8570 0.9782
-2.7217 -4.4224 -1.8570 0.9782
-2.5611 -4.5173 -1.8570 0.9782
-2.3972 -4.6063 -1.8570 0.9782
-2.2302 -4.6895 -1.8570 0.9782
-1.8879 -4.8375 -1.8570 0.9782
-1.7129 -4.9021 -1.8570 0.9782
-1.5358 -4.9605 -1.8570 0.9782
-1.3566 -5.0125 -1.8570 0.9782
-0.9933 -5.0969 -1.8570 0.9782
-0.6249 -5.1551 -1.8570 0.9782
-0.4394 -5.1742 -1.8570 0.9782
-0.2532 -5.1866 -1.8570 0.9782
0.1197 -5.1914 -1.8570 0.9782
0.6774 -5.1484 -1.8570 0.9782
0.8619 -5.1208 -1.8570 0.9782
1.2272 -5.0457 -1.8570 0.9782
1.7628 -4.8844 -1.8570 0.9782
1.9371 -4.8180 -1.8570 0.9782
2.3487 -4.0460 -1.6730 0.9803
3.2232 -4.0714 -1.8570 0.9782
4.3323 -3.5438 -2.0016 0.9765
4.5755 -3.2237 -2.0016 0.9765
4.6883 -3.0573 -2.0016 0.9765
4.7951 -2.8870 -2.0016 0.9765
5.1591 -2.1706 -2.0016 0.9765
5.2337 -1.9839 -2.0016 0.9765
5.4638 -1.2140 -2.0016 0.9765
5.5039 -1.0170 -2.0016 0.9765
5.5369 -0.8187 -2.0016 0.9765
5.5627 -0.6193 -2.0016 0.9765
5.5419 0.7842 -2.0016 0.9765
5.5101 0.9827 -2.0016 0.9765
5.4254 1.3757 -2.0016 0.9765
5.3126 1.7616 -2.0016 0.9765
5.2459 1.9513 -2.0016 0.9765
4.5955 3.1952 -2.0016 0.9765
4.4778 3.3581 -2.0016 0.9765
4.3543 3.5168 -2.0016 0.9765
4.2252 3.6709 -2.0016 0.9765
4.0906 3.8203 -2.0016 0.9765
3.9507 3.9647 -2.0016 0.9765
3.6560 4.2381 -2.0016 0.9765
3.5014 4.3667 -2.0016 0.9765
3.0114 4.7179 -2.0016 0.9765
2.6650 4.9219 -2.0016 0.9765
2.3048 5.1005 -2.0016 0.9765
1.5507 5.3780 -2.0016 0.9765
1.3566 5.4302 -2.0016 0.9765
1.1607 5.4754 -2.0016 0.9765
0.3647 5.5852 -2.0016 0.9765
-0.2382 5.5920 -2.0016 0.9765
-0.4389 5.5799 -2.0016 0.9765
-0.6390 5.5605 -2.0016 0.9765
-0.8382 5.5340 -2.0016 0.9765
-1.2333 5.4595 -2.0016 0.9765
-1.4286 5.4117 -2.0016 0.9765
-2.0024 5.2267 -2.0016 0.9765
-3.0738 4.6775 -2.0016 0.9765
-3.4017 4.4448 -2.0016 0.9765
-3.5591 4.3197 -2.0016 0.9765
-3.8600 4.0531 -2.0016 0.9765
-4.4006 3.4586 -2.0016 0.9765
-4.5220 3.2984 -2.0016 0.9765
-4.6375 3.1338 -2.0016 0.9765
-4.7471 2.9653 -2.0016 0.9765
-4.8505 2.7929 -2.0016 0.9765
-5.0385 2.4375 -2.0016 0.9765
-5.1228 2.2550 -2.0016 0.9765
-2.9808 -3.8205 -1.8570 0.9795
-2.6988 -4.0246 -1.8570 0.9795
-2.4030 -4.2080 -1.8570 0.9795
-1.9365 -4.4420 -1.8570 0.9795
-0.9417 -4.7534 -1.8570 0.9795
-0.7703 -4.7841 -1.8570 0.9795
-0.5980 -4.8087 -1.8570 0.9795
-0.4249 -4.8271 -1.8570 0.9795
-0.2513 -4.8392 -1.8570 0.9795
-0.0773 -4.8451 -1.8570 0.9795
0.2706 -4.8382 -1.8570 0.9795
0.4442 -4.8253 -1.8570 0.9795
0.6172 -4.8063 -1.8570 0.9795
0.7894 -4.7810 -1.8570 0.9795
0.9606 -4.7496 -1.8570 0.9795
1.1306 -4.7120 -1.8570 0.9795
1.2991 -4.6684 -1.8570 0.9795
2.3058 -4.0005 -1.7695 0.9804
2.5031 -4.0033 -1.8093 0.9800
2.7149 -4.0138 -1.8570 0.9795
2.9960 -3.8086 -1.8570 0.9795
3.1309 -3.6985 -1.8570 0.9795
3.7838 -3.6004 -2.0016 0.9779
3.9107 -3.4622 -2.0016 0.9779
4.1491 -3.1725 -2.0016 0.9779
4.3661 -2.8665 -2.0016 0.9779
4.5606 -2.5457 -2.0016 0.9779
4.7316 -2.2118 -2.0016 0.9779
4.8782 -1.8664 -2.0016 0.9779
4.9420 -1.6900 -2.0016 0.9779
4.9996 -1.5115 -2.0016 0.9779
5.0506 -1.3309 -2.0016 0.9779
5.1331 -0.9649 -2.0016 0.9779
5.2071 -0.4072 -2.0016 0.9779
5.2184 -0.2200 -2.0016 0.9779
5.2229 -0.0324 -2.0016 0.9779
5.2207 0.1552 -2.0016 0.9779
5.2118 0.3426 -2.0016 0.9779
5.1961 0.5295 -2.0016 0.9779
5.1447 0.9011 -2.0016 0.9779
5.1090 1.0853 -2.0016 0.9779
5.0179 1.4493 -2.0016 0.9779
4.9627 1.6285 -2.0016 0.9779
4.9010 1.8057 -2.0016 0.9779
4.8330 1.9806 -2.0016 0.9779
4.7587 2.1529 -2.0016 0.9779
4.6783 2.3224 -2.0016 0.9779
4.4995 2.6522 -2.0016 0.9779
4.4014 2.8121 -2.0016 0.9779
4.2976 2.9683 -2.0016 0.9779
4.1882 3.1208 -2.0016 0.9779
4.0734 3.2692 -2.0016 0.9779
3.9534 3.4134 -2.0016 0.9779
3.8282 3.5531 -2.0016 0.9779
3.6982 3.6883 -2.0016 0.9779
3.5633 3.8188 -2.0016 0.9779
3.4239 3.9443 -2.0016 0.9779
3.1319 4.1799 -2.0016 0.9779
2.9798 4.2896 -2.0016 0.9779
2.8238 4.3939 -2.0016 0.9779
2.6642 4.4925 -2.0016 0.9779
2.5011 4.5853 -2.0016 0.9779
1.9934 4.8277 -2.0016 0.9779
1.8188 4.8961 -2.0016 0.9779
1.6417 4.9583 -2.0016 0.9779
1.4626 5.0141 -2.0016 0.9779
1.2816 5.0634 -2.0016 0.9779
0.7296 5.1718 -2.0016 0.9779
0.3564 5.2109 -2.0016 0.9779
-0.0185 5.2230 -2.0016 0.9779
-0.5802 5.1907 -2.0016 0.9779
-0.7662 5.1665 -2.0016 0.9779
-0.9513 5.1357 -2.0016 0.9779
-1.3175 5.0541 -2.0016 0.9779
-2.1992 4.7375 -2.0016 0.9779
-2.3679 4.6554 -2.0016 0.9779
-2.6960 4.4735 -2.0016 0.9779
-2.8549 4.3738 -2.0016 0.9779
-3.0101 4.2684 -2.0016 0.9779
-3.1615 4.1575 -2.0016 0.9779
-3.7242 3.6620 -2.0016 0.9779
-3.8533 3.5259 -2.0016 0.9779
-4.0965 3.2402 -2.0016 0.9779
-4.4212 2.7808 -2.0016 0.9779
-4.7739 2.1191 -2.0016 0.9779
-4.9741 1.5933 -2.0016 0.9779
-5.0756 1.2322 -2.0016 0.9779
-5.1166 1.0491 -2.0016 0.9779
-5.1510 0.8646 -2.0016 0.9779
-5.1787 0.6791 -2.0016 0.9779
-5.1998 0.4927 -2.0016 0.9779
-5.2141 0.3056 -2.0016 0.9779
-5.1848 -0.6308 -2.0016 0.9779
-5.1261 -1.0013 -2.0016 0.9779
-5.0869 -1.1848 -2.0016 0.9779
-5.0410 -1.3667 -2.0016 0.9779
-4.7934 -2.0745 -2.0016 0.9779
-4.6642 -2.2207 -1.9797 0.9781
-4.3088 -2.2448 -1.8619 0.9794
-4.2245 -2.3975 -1.8615 0.9794
-3.9327 -2.8312 -1.8570 0.9795
-3.8284 -2.9706 -1.8570 0.9795
-3.7193 -3.1062 -1.8570 0.9795
-3.6053 -3.2377 -1.8570 0.9795
-3.4867 -3.3651 -1.8570 0.9795
-3.3636 -3.4882 -1.8570 0.9795
-3.2362 -3.6067 -1.8570 0.9795
-2.8295 -3.9339 -1.8570 0.9795
-2.6864 -4.0330 -1.8570 0.9795
-2.2370 -4.2985 -1.8570 0.9795
-2.0812 -4.3761 -1.8570 0.9795
-1.7617 -4.5142 -1.8570 0.9795
-1.5984 -4.5745 -1.8570 0.9795
-1.2660 -4.6775 -1.8570 0.9795
-1.0972 -4.7199 -1.8570 0.9795
-0.7555 -4.7865 -1.8570 0.9795
-0.5831 -4.8105 -1.8570 0.9795
-0.4100 -4.8284 -1.8570 0.9795
-0.2363 -4.8400 -1.8570 0.9795
0.2856 -4.8373 -1.8570 0.9795
0.4592 -4.8240 -1.8570 0.9795
0.8042 -4.7785 -1.8570 0.9795
1.1452 -4.7085 -1.8570 0.9795
1.4802 -4.6141 -1.8570 0.9795
1.8076 -4.4960 -1.8570 0.9795
1.9679 -4.4282 -1.8570 0.9795
2.3223 -4.0006 -1.7727 0.9804
2.8694 -3.9048 -1.8570 0.9795
3.0078 -3.7993 -1.8570 0.9795
3.1423 -3.6888 -1.8570 0.9795
3.3990 -3.4537 -1.8570 0.9795
3.7950 -3.5887 -2.0016 0.9779
4.0428 -3.3070 -2.0016 0.9779
4.1589 -3.1597 -2.0016 0.9779
4.4746 -2.6940 -2.0016 0.9779
4.5685 -2.5316 -2.0016 0.9779
4.8143 -2.0255 -2.0016 0.9779
4.8839 -1.8513 -2.0016 0.9779
4.9473 -1.6747 -2.0016 0.9779
5.0042 -1.4960 -2.0016 0.9779
5.0547 -1.3153 -2.0016 0.9779
5.0987 -1.1329 -2.0016 0.9779
5.1669 -0.7640 -2.0016 0.9779
5.1910 -0.5779 -2.0016 0.9779
5.2084 -0.3911 -2.0016 0.9779
5.2107 0.3587 -2.0016 0.9779
5.1715 0.7318 -2.0016 0.9779
5.1419 0.9171 -2.0016 0.9779
5.1056 1.1011 -2.0016 0.9779
4.9576 1.6439 -2.0016 0.9779
4.8953 1.8209 -2.0016 0.9779
4.8268 1.9955 -2.0016 0.9779
4.6711 2.3368 -2.0016 0.9779
4.5842 2.5031 -2.0016 0.9779
4.4913 2.6661 -2.0016 0.9779
4.0633 3.2818 -2.0016 0.9779
3.8172 3.5650 -2.0016 0.9779
3.6867 3.6998 -2.0016 0.9779
3.4116 3.9548 -2.0016 0.9779
3.2674 4.0748 -2.0016 0.9779
3.1190 4.1895 -2.0016 0.9779
2.9665 4.2989 -2.0016 0.9779
2.6502 4.5007 -2.0016 0.9779
1.8036 4.9018 -2.0016 0.9779
1.6264 4.9634 -2.0016 0.9779
1.0831 5.1095 -2.0016 0.9779
0.8989 5.1451 -2.0016 0.9779
0.5273 5.1964 -2.0016 0.9779
0.3403 5.2119 -2.0016 0.9779
-0.4095 5.2070 -2.0016 0.9779
-0.5962 5.1889 -2.0016 0.9779
-0.7822 5.1641 -2.0016 0.9779
-0.9672 5.1327 -2.0016 0.9779
-1.6922 4.9413 -2.0016 0.9779
-1.8685 4.8774 -2.0016 0.9779
-2.0425 4.8071 -2.0016 0.9779
-2.3823 4.6481 -2.0016 0.9779
-2.8684 4.3649 -2.0016 0.9779
-3.0233 4.2591 -2.0016 0.9779
-3.4639 3.9092 -2.0016 0.9779
-3.7355 3.6505 -2.0016 0.9779
-4.2198 3.0779 -2.0016 0.9779
-4.6170 2.4420 -2.0016 0.9779
-4.7017 2.2746 -2.0016 0.9779
-4.8529 1.9312 -2.0016 0.9779
-2.7910 -3.5773 -1.8570 0.9806
-2.5270 -3.7684 -1.8570 0.9806
-2.3900 -3.8567 -1.8570 0.9806
-1.6626 -4.2216 -1.8570 0.9806
-1.5099 -4.2786 -1.8570 0.9806
-1.3553 -4.3301 -1.8570 0.9806
-1.1989 -4.3760 -1.8570 0.9806
-0.8817 -4.4508 -1.8570 0.9806
-0.7213 -4.4795 -1.8570 0.9806
-0.3979 -4.5198 -1.8570 0.9806
-0.2353 -4.5311 -1.8570 0.9806
-0.0724 -4.5367 -1.8570 0.9806
0.0906 -4.5363 -1.8570 0.9806
0.7392 -4.4766 -1.8570 0.9806
0.8995 -4.4472 -1.8570 0.9806
1.0586 -4.4120 -1.8570 0.9806
1.3726 -4.3246 -1.8570 0.9806
1.6795 -4.2150 -1.8570 0.9806
1.8298 -4.1519 -1.8570 0.9806
1.9777 -4.0835 -1.8570 0.9806
2.2657 -3.9310 -1.8570 0.9806
2.4054 -3.8471 -1.8570 0.9806
2.6754 -3.6645 -1.8570 0.9806
3.0540 -3.3555 -1.8570 0.9806
3.1725 -3.2437 -1.8570 0.9806
3.2870 -3.1277 -1.8570 0.9806
3.6617 -3.2418 -2.0016 0.9791
3.8850 -2.9705 -2.0016 0.9791
3.9891 -2.8291 -2.0016 0.9791
4.1819 -2.5355 -2.0016 0.9791
4.2703 -2.3836 -2.0016 0.9791
4.5676 -1.7476 -2.0016 0.9791
4.8063 -0.9035 -2.0016 0.9791
4.8357 -0.7303 -2.0016 0.9791
4.8588 -0.5562 -2.0016 0.9791
4.8862 -0.2060 -2.0016 0.9791
4.8904 -0.0304 -2.0016 0.9791
4.8653 0.4958 -2.0016 0.9791
4.8172 0.8438 -2.0016 0.9791
4.7838 1.0162 -2.0016 0.9791
4.6467 1.5249 -2.0016 0.9791
4.5889 1.6908 -2.0016 0.9791
4.4557 2.0158 -2.0016 0.9791
4.3805 2.1745 -2.0016 0.9791
4.2996 2.3304 -2.0016 0.9791
4.2131 2.4833 -2.0016 0.9791
4.1212 2.6330 -2.0016 0.9791
3.8141 3.0610 -2.0016 0.9791
3.7017 3.1960 -2.0016 0.9791
3.4627 3.4535 -2.0016 0.9791
3.3364 3.5756 -2.0016 0.9791
3.0712 3.8059 -2.0016 0.9791
2.4946 4.2065 -2.0016 0.9791
2.3419 4.2933 -2.0016 0.9791
2.0276 4.4504 -2.0016 0.9791
1.5372 4.6426 -2.0016 0.9791
1.3695 4.6948 -2.0016 0.9791
1.2000 4.7410 -2.0016 0.9791
0.8566 4.8149 -2.0016 0.9791
0.3337 4.8791 -2.0016 0.9791
0.1583 4.8879 -2.0016 0.9791
-0.1930 4.8867 -2.0016 0.9791
-0.3683 4.8766 -2.0016 0.9791
-0.5432 4.8602 -2.0016 0.9791
-0.7174 4.8376 -2.0016 0.9791
-0.8907 4.8087 -2.0016 0.9791
-1.2336 4.7324 -2.0016 0.9791
-1.4028 4.6850 -2.0016 0.9791
-1.7354 4.5722 -2.0016 0.9791
-1.8985 4.5069 -2.0016 0.9791
-2.0592 4.4359 -2.0016 0.9791
-2.2171 4.3590 -2.0016 0.9791
-2.5243 4.1887 -2.0016 0.9791
-2.8185 3.9967 -2.0016 0.9791
-3.2320 3.6703 -2.0016 0.9791
-3.3617 3.5519 -2.0016 0.9791
-3.4871 3.4289 -2.0016 0.9791
-3.6080 3.3014 -2.0016 0.9791
-3.7242 3.1697 -2.0016 0.9791
-3.8357 3.0339 -2.0016 0.9791
-4.0436 2.7507 -2.0016 0.9791
-4.1397 2.6038 -2.0016 0.9791
-4.2306 2.4534 -2.0016 0.9791
-4.3160 2.2999 -2.0016 0.9791
-4.6574 1.4919 -2.0016 0.9791
-4.7080 1.3236 -2.0016 0.9791
-4.7525 1.1537 -2.0016 0.9791
-2.1019 0.3528 -0.8723 0.9908
-1.9113 -0.0254 -0.7823 0.9918
-1.9575 -0.1671 -0.8041 0.9915
-1.9538 -0.2377 -0.8056 0.9915
-4.7630 -1.1094 -2.0016 0.9791
-4.7201 -1.2797 -2.0016 0.9791
-4.6161 -1.6152 -2.0016 0.9791
-4.5551 -1.7800 -2.0016 0.9791
-4.4882 -1.9424 -2.0016 0.9791
-3.8631 -2.3798 -1.8570 0.9806
-3.5847 -2.7815 -1.8570 0.9806
-3.3758 -3.0316 -1.8570 0.9806
-3.1495 -3.2661 -1.8570 0.9806
-3.0301 -3.3771 -1.8570 0.9806
-2.9069 -3.4838 -1.8570 0.9806
-2.7799 -3.5859 -1.8570 0.9806
-2.5153 -3.7762 -1.8570 0.9806
-2.0946 -4.0248 -1.8570 0.9806
-1.9487 -4.0975 -1.8570 0.9806
-1.8003 -4.1648 -1.8570 0.9806
-1.6495 -4.2268 -1.8570 0.9806
-1.3419 -4.3343 -1.8570 0.9806
-1.1854 -4.3797 -1.8570 0.9806
-0.8679 -4.4535 -1.8570 0.9806
-0.7074 -4.4818 -1.8570 0.9806
-0.3839 -4.5210 -1.8570 0.9806
-0.2213 -4.5318 -1.8570 0.9806
-0.0584 -4.5369 -1.8570 0.9806
0.1046 -4.5360 -1.8570 0.9806
0.2674 -4.5294 -1.8570 0.9806
0.4299 -4.5168 -1.8570 0.9806
1.2299 -4.3674 -1.8570 0.9806
1.3860 -4.3204 -1.8570 0.9806
1.5402 -4.2678 -1.8570 0.9806
1.6925 -4.2097 -1.8570 0.9806
1.8426 -4.1462 -1.8570 0.9806
1.9903 -4.0774 -1.8570 0.9806
2.2779 -3.9240 -1.8570 0.9806
2.4173 -3.8397 -1.8570 0.9806
2.6867 -3.6562 -1.8570 0.9806
2.9422 -3.4540 -1.8570 0.9806
3.0644 -3.3461 -1.8570 0.9806
3.1826 -3.2339 -1.8570 0.9806
3.2967 -3.1175 -1.8570 0.9806
3.6717 -3.2304 -2.0016 0.9791
3.8941 -2.9585 -2.0016 0.9791
3.9979 -2.8167 -2.0016 0.9791
4.0965 -2.6713 -2.0016 0.9791
4.1898 -2.5225 -2.0016 0.9791
4.2776 -2.3704 -2.0016 0.9791
4.5078 -1.8966 -2.0016 0.9791
4.6323 -1.5681 -2.0016 0.9791
4.7329 -1.2315 -2.0016 0.9791
4.8379 -0.7153 -2.0016 0.9791
4.8868 -0.1908 -2.0016 0.9791
4.8879 0.1604 -2.0016 0.9791
4.7806 1.0310 -2.0016 0.9791
4.6420 1.5392 -2.0016 0.9791
4.5195 1.8685 -2.0016 0.9791
4.4495 2.0296 -2.0016 0.9791
4.1130 2.6458 -2.0016 0.9791
3.9125 2.9342 -2.0016 0.9791
3.6918 3.2075 -2.0016 0.9791
3.3254 3.5859 -2.0016 0.9791
3.0594 3.8154 -2.0016 0.9791
2.7776 4.0252 -2.0016 0.9791
2.6313 4.1223 -2.0016 0.9791
2.4815 4.2142 -2.0016 0.9791
2.3286 4.3006 -2.0016 0.9791
2.1726 4.3814 -2.0016 0.9791
1.8525 4.5261 -2.0016 0.9791
1.6888 4.5897 -2.0016 0.9791
1.5228 4.6474 -2.0016 0.9791
1.1853 4.7447 -2.0016 0.9791
1.0142 4.7842 -2.0016 0.9791
0.8417 4.8175 -2.0016 0.9791
0.4937 4.8655 -2.0016 0.9791
-0.0325 4.8904 -2.0016 0.9791
-0.5583 4.8585 -2.0016 0.9791
-0.7324 4.8354 -2.0016 0.9791
-0.9056 4.8059 -2.0016 0.9791
-1.2482 4.7285 -2.0016 0.9791
-1.5845 4.6267 -2.0016 0.9791
-1.9125 4.5011 -2.0016 0.9791
-2.0729 4.4295 -2.0016 0.9791
-2.2306 4.3522 -2.0016 0.9791
-2.3855 4.2692 -2.0016 0.9791
-2.5373 4.1808 -2.0016 0.9791
-2.6858 4.0870 -2.0016 0.9791
-2.8308 3.9879 -2.0016 0.9791
-3.1098 3.7744 -2.0016 0.9791
-3.2433 3.6603 -2.0016 0.9791
-3.6182 3.2902 -2.0016 0.9791
-3.7340 3.1582 -2.0016 0.9791
-3.8451 3.0220 -2.0016 0.9791
-4.0521 2.7382 -2.0016 0.9791
-4.1478 2.5909 -2.0016 0.9791
-4.4024 2.1298 -2.0016 0.9791
-2.6210 -3.3594 -1.8570 0.9816
-2.4987 -3.4514 -1.8570 0.9816
-2.3731 -3.5389 -1.8570 0.9816
-2.1130 -3.7001 -1.8570 0.9816
-1.7027 -3.9059 -1.8570 0.9816
-1.4180 -4.0181 -1.8570 0.9816
-1.2728 -4.0664 -1.8570 0.9816
-0.8280 -4.1797 -1.8570 0.9816
-0.6774 -4.2067 -1.8570 0.9816
-0.3737 -4.2445 -1.8570 0.9816
-0.2210 -4.2552 -1.8570 0.9816
-0.0680 -4.2604 -1.8570 0.9816
0.0850 -4.2601 -1.8570 0.9816
0.2380 -4.2543 -1.8570 0.9816
0.6942 -4.2040 -1.8570 0.9816
0.8447 -4.1764 -1.8570 0.9816
1.1423 -4.1049 -1.8570 0.9816
1.2890 -4.0613 -1.8570 0.9816
1.4340 -4.0124 -1.8570 0.9816
1.7183 -3.8991 -1.8570 0.9816
2.1277 -3.6916 -1.8570 0.9816
3.0908 -2.9409 -1.8594 0.9816
3.4387 -3.0443 -2.0016 0.9802
3.5458 -2.9189 -2.0016 0.9802
3.7462 -2.6568 -2.0016 0.9802
3.8392 -2.5206 -2.0016 0.9802
4.0102 -2.2385 -2.0016 0.9802
4.1606 -1.9448 -2.0016 0.9802
4.2277 -1.7942 -2.0016 0.9802
4.3456 -1.4861 -2.0016 0.9802
4.3962 -1.3290 -2.0016 0.9802
4.4411 -1.1703 -2.0016 0.9802
4.4802 -1.0100 -2.0016 0.9802
4.5412 -0.6858 -2.0016 0.9802
4.5787 -0.3581 -2.0016 0.9802
4.5886 -0.1934 -2.0016 0.9802
4.5926 -0.0285 -2.0016 0.9802
4.5828 0.3012 -2.0016 0.9802
4.5690 0.4656 -2.0016 0.9802
4.5493 0.6294 -2.0016 0.9802
4.4123 1.2743 -2.0016 0.9802
4.3637 1.4320 -2.0016 0.9802
4.3095 1.5878 -2.0016 0.9802
4.2497 1.7415 -2.0016 0.9802
4.1844 1.8930 -2.0016 0.9802
3.8702 2.4727 -2.0016 0.9802
3.7789 2.6101 -2.0016 0.9802
3.6827 2.7441 -2.0016 0.9802
3.5818 2.8746 -2.0016 0.9802
3.2518 3.2432 -2.0016 0.9802
2.7539 3.6754 -2.0016 0.9802
2.6201 3.7719 -2.0016 0.9802
2.4830 3.8636 -2.0016 0.9802
2.3426 3.9503 -2.0016 0.9802
2.0530 4.1082 -2.0016 0.9802
1.9042 4.1793 -2.0016 0.9802
1.7528 4.2450 -2.0016 0.9802
1.5992 4.3052 -2.0016 0.9802
1.1269 4.4523 -2.0016 0.9802
0.8044 4.5217 -2.0016 0.9802
0.3134 4.5820 -2.0016 0.9802
-0.0163 4.5926 -2.0016 0.9802
-0.3459 4.5796 -2.0016 0.9802
-0.5102 4.5642 -2.0016 0.9802
-0.8365 4.5158 -2.0016 0.9802
-1.7829 4.2325 -2.0016 0.9802
-2.0821 4.0936 -2.0016 0.9802
-2.5103 3.8459 -2.0016 0.9802
-2.7799 3.6558 -2.0016 0.9802
-2.9094 3.5536 -2.0016 0.9802
-3.0352 3.4468 -2.0016 0.9802
-3.1570 3.3356 -2.0016 0.9802
-3.7021 2.7179 -2.0016 0.9802
-3.8876 2.4452 -2.0016 0.9802
-3.9729 2.3040 -2.0016 0.9802
-4.1281 2.0129 -2.0016 0.9802
-4.1977 1.8633 -2.0016 0.9802
-4.2619 1.7113 -2.0016 0.9802
-1.5112 0.3099 -0.6723 0.9933
-1.5191 0.1992 -0.6677 0.9933
-1.5271 0.1447 -0.6685 0.9933
-1.5296 0.0896 -0.6678 0.9933
-1.5294 -0.0753 -0.6673 0.9933
-1.5283 -0.1304 -0.6685 0.9933
-1.5217 -0.1851 -0.6681 0.9933
-1.5030 -0.2936 -0.6674 0.9933
-1.5785 -0.4894 -0.7202 0.9928
-1.5929 -0.5574 -0.7355 0.9927
-4.2777 -1.6716 -2.0016 0.9802
-4.2149 -1.8241 -2.0016 0.9802
-4.1467 -1.9743 -2.0016 0.9802
-3.9182 -2.2237 -1.9635 0.9805
-3.4580 -2.4895 -1.8570 0.9816
-3.2704 -2.7313 -1.8570 0.9816
-3.1702 -2.8470 -1.8570 0.9816
-2.8456 -3.1714 -1.8570 0.9816
-2.7299 -3.2716 -1.8570 0.9816
-2.4880 -3.4591 -1.8570 0.9816
-2.3622 -3.5462 -1.8570 0.9816
-2.1015 -3.7066 -1.8570 0.9816
-1.4055 -4.0224 -1.8570 0.9816
-1.2602 -4.0703 -1.8570 0.9816
-0.9647 -4.1503 -1.8570 0.9816
-0.5128 -4.2300 -1.8570 0.9816
-0.3605 -4.2456 -1.8570 0.9816
-0.2078 -4.2559 -1.8570 0.9816
-0.0548 -4.2606 -1.8570 0.9816
0.5558 -4.2245 -1.8570 0.9816
0.7072 -4.2018 -1.8570 0.9816
1.0070 -4.1402 -1.8570 0.9816
1.4464 -4.0079 -1.8570 0.9816
1.8691 -3.8291 -1.8570 0.9816
2.0054 -3.7595 -1.8570 0.9816
2.1392 -3.6850 -1.8570 0.9816
2.2701 -3.6058 -1.8570 0.9816
2.6448 -3.3407 -1.8570 0.9816
2.7631 -3.2436 -1.8570 0.9816
2.8778 -3.1423 -1.8570 0.9816
3.0959 -2.9276 -1.8570 0.9816
3.7544 -2.6452 -2.0016 0.9802
3.9346 -2.3689 -2.0016 0.9802
4.0171 -2.2260 -2.0016 0.9802
4.0945 -2.0803 -2.0016 0.9802
4.1666 -1.9319 -2.0016 0.9802
4.2333 -1.7811 -2.0016 0.9802
4.2945 -1.6279 -2.0016 0.9802
4.3502 -1.4726 -2.0016 0.9802
4.4003 -1.3154 -2.0016 0.9802
4.4447 -1.1565 -2.0016 0.9802
4.5162 -0.8345 -2.0016 0.9802
4.5433 -0.6718 -2.0016 0.9802
4.5645 -0.5082 -2.0016 0.9802
4.5798 -0.3439 -2.0016 0.9802
4.5892 -0.1792 -2.0016 0.9802
4.5926 -0.0143 -2.0016 0.9802
4.5902 0.1507 -2.0016 0.9802
4.5675 0.4798 -2.0016 0.9802
4.4894 0.9682 -2.0016 0.9802
4.4084 1.2880 -2.0016 0.9802
4.1785 1.9060 -2.0016 0.9802
4.1074 2.0548 -2.0016 0.9802
3.9493 2.3443 -2.0016 0.9802
3.8625 2.4847 -2.0016 0.9802
3.7708 2.6218 -2.0016 0.9802
3.4669 3.0121 -2.0016 0.9802
3.3565 3.1347 -2.0016 0.9802
3.2418 3.2532 -2.0016 0.9802
3.1228 3.3676 -2.0016 0.9802
2.8731 3.5830 -2.0016 0.9802
2.6084 3.7800 -2.0016 0.9802
2.3304 3.9575 -2.0016 0.9802
2.1868 4.0387 -2.0016 0.9802
2.0403 4.1146 -2.0016 0.9802
1.7397 4.2504 -2.0016 0.9802
1.2724 4.4129 -2.0016 0.9802
0.9524 4.4928 -2.0016 0.9802
0.6274 4.5496 -2.0016 0.9802
0.4636 4.5692 -2.0016 0.9802
-0.0305 4.5926 -2.0016 0.9802
-0.1954 4.5885 -2.0016 0.9802
-0.3601 4.5785 -2.0016 0.9802
-0.5243 4.5626 -2.0016 0.9802
-0.6878 4.5409 -2.0016 0.9802
-1.3309 4.3956 -2.0016 0.9802
-1.4879 4.3449 -2.0016 0.9802
-1.7960 4.2269 -2.0016 0.9802
-1.9466 4.1597 -2.0016 0.9802
-2.0948 4.0871 -2.0016 0.9802
-2.3828 3.9262 -2.0016 0.9802
-2.6584 3.7450 -2.0016 0.9802
-2.7912 3.6471 -2.0016 0.9802
-2.9204 3.5445 -2.0016 0.9802
-3.1673 3.3258 -2.0016 0.9802
-3.2847 3.2099 -2.0016 0.9802
-3.5066 2.9658 -2.0016 0.9802
-3.8053 2.5715 -2.0016 0.9802
-3.8952 2.4331 -2.0016 0.9802
-3.9801 2.2917 -2.0016 0.9802
-4.1343 2.0001 -2.0016 0.9802
-4.2035 1.8503 -2.0016 0.9802
-4.2672 1.6981 -2.0016 0.9802
-2.2344 -3.3319 -1.8570 0.9825
-1.6032 -3.6775 -1.8570 0.9825
-1.3351 -3.7831 -1.8570 0.9825
-1.1983 -3.8286 -1.8570 0.9825
-0.7796 -3.9353 -1.8570 0.9825
-0.4951 -3.9811 -1.8570 0.9825
-0.3518 -3.9963 -1.8570 0.9825
-0.0640 -4.0112 -1.8570 0.9825
0.0801 -4.0110 -1.8570 0.9825
0.2241 -4.0055 -1.8570 0.9825
0.5110 -3.9791 -1.8570 0.9825
0.6536 -3.9582 -1.8570 0.9825
0.7953 -3.9321 -1.8570 0.9825
0.9360 -3.9010 -1.8570 0.9825
1.0755 -3.8649 -1.8570 0.9825
1.2136 -3.8238 -1.8570 0.9825
1.3502 -3.7777 -1.8570 0.9825
1.4850 -3.7268 -1.8570 0.9825
1.7487 -3.6106 -1.8570 0.9825
1.8772 -3.5455 -1.8570 0.9825
2.0033 -3.4758 -1.8570 0.9825
2.1269 -3.4016 -1.8570 0.9825
2.3655 -3.2401 -1.8570 0.9825
2.5920 -3.0620 -1.8570 0.9825
2.7003 -2.9669 -1.8570 0.9825
2.8051 -2.8680 -1.8570 0.9825
2.9112 -2.7700 -1.8601 0.9824
3.0038 -2.6593 -1.8570 0.9825
3.3385 -2.7482 -2.0016 0.9811
3.4350 -2.6265 -2.0016 0.9811
3.6976 -2.2418 -2.0016 0.9811
3.7757 -2.1076 -2.0016 0.9811
3.8490 -1.9706 -2.0016 0.9811
3.9805 -1.6892 -2.0016 0.9811
4.0915 -1.3992 -2.0016 0.9811
4.2497 -0.7989 -2.0016 0.9811
4.3109 -0.3372 -2.0016 0.9811
4.3203 -0.1821 -2.0016 0.9811
4.3148 0.2836 -2.0016 0.9811
4.3018 0.4384 -2.0016 0.9811
4.2593 0.7460 -2.0016 0.9811
4.2297 0.8985 -2.0016 0.9811
4.1543 1.1998 -2.0016 0.9811
4.1085 1.3483 -2.0016 0.9811
4.0012 1.6397 -2.0016 0.9811
3.8016 2.0605 -2.0016 0.9811
3.6439 2.3281 -2.0016 0.9811
3.5579 2.4575 -2.0016 0.9811
3.4674 2.5837 -2.0016 0.9811
3.2730 2.8259 -2.0016 0.9811
3.0617 3.0535 -2.0016 0.9811
2.9500 3.1615 -2.0016 0.9811
2.8346 3.2654 -2.0016 0.9811
2.7155 3.3651 -2.0016 0.9811
2.5929 3.4605 -2.0016 0.9811
2.4669 3.5514 -2.0016 0.9811
2.3378 3.6377 -2.0016 0.9811
2.2056 3.7193 -2.0016 0.9811
2.0706 3.7961 -2.0016 0.9811
1.9330 3.8680 -2.0016 0.9811
1.7928 3.9349 -2.0016 0.9811
1.5057 4.0535 -2.0016 0.9811
1.3592 4.1049 -2.0016 0.9811
1.2109 4.1511 -2.0016 0.9811
0.7574 4.2573 -2.0016 0.9811
0.6040 4.2817 -2.0016 0.9811
0.2951 4.3140 -2.0016 0.9811
-0.0153 4.3241 -2.0016 0.9811
-0.1706 4.3207 -2.0016 0.9811
-0.6344 4.2773 -2.0016 0.9811
-0.7876 4.2518 -2.0016 0.9811
-0.9398 4.2207 -2.0016 0.9811
-1.0907 4.1843 -2.0016 0.9811
-1.2403 4.1424 -2.0016 0.9811
-1.5344 4.0427 -2.0016 0.9811
-1.6786 3.9850 -2.0016 0.9811
-1.8207 3.9221 -2.0016 0.9811
-1.9604 3.8542 -2.0016 0.9811
-2.2320 3.7035 -2.0016 0.9811
-2.3635 3.6210 -2.0016 0.9811
-2.4920 3.5338 -2.0016 0.9811
-2.6174 3.4420 -2.0016 0.9811
-2.7393 3.3458 -2.0016 0.9811
-2.9724 3.1405 -2.0016 0.9811
-3.3914 2.6825 -2.0016 0.9811
-3.5753 2.4322 -2.0016 0.9811
-3.6603 2.3022 -2.0016 0.9811
-3.7406 2.1693 -2.0016 0.9811
-3.8161 2.0335 -2.0016 0.9811
-3.8867 1.8951 -2.0016 0.9811
-1.3205 0.3712 -0.6349 0.9940
-1.3067 0.3172 -0.6224 0.9941
-1.3066 0.2679 -0.6174 0.9941
-1.3202 0.2216 -0.6197 0.9941
-1.3364 0.0302 -0.6188 0.9941
-1.3353 -0.0178 -0.6181 0.9941
-1.3383 -0.0659 -0.6202 0.9941
-1.3378 -0.1142 -0.6215 0.9941
-1.3324 -0.1621 -0.6213 0.9941
-1.3232 -0.2094 -0.6201 0.9941
-1.3105 -0.2560 -0.6181 0.9941
-1.3026 -0.3034 -0.6191 0.9941
-1.3281 -0.4118 -0.6436 0.9939
-1.3220 -0.5721 -0.6668 0.9937
-3.9042 -1.8588 -2.0016 0.9811
-3.8349 -1.9979 -2.0016 0.9811
-3.7607 -2.1343 -2.0016 0.9811
-3.6100 -2.2239 -1.9626 0.9815
-3.3612 -2.2410 -1.8700 0.9824
-3.2558 -2.3439 -1.8570 0.9825
-3.1695 -2.4593 -1.8570 0.9825
-2.7847 -2.8878 -1.8570 0.9825
-2.6792 -2.9860 -1.8570 0.9825
-2.5702 -3.0803 -1.8570 0.9825
-2.4579 -3.1706 -1.8570 0.9825
-2.3425 -3.2568 -1.8570 0.9825
-2.2240 -3.3388 -1.8570 0.9825
-1.9786 -3.4899 -1.8570 0.9825
-1.8520 -3.5587 -1.8570 0.9825
-1.5918 -3.6824 -1.8570 0.9825
-1.3233 -3.7872 -1.8570 0.9825
-1.0481 -3.8724 -1.8570 0.9825
-0.9083 -3.9076 -1.8570 0.9825
-0.6255 -3.9627 -1.8570 0.9825
-0.4828 -3.9826 -1.8570 0.9825
-0.0516 -4.0114 -1.8570 0.9825
0.2365 -4.0048 -1.8570 0.9825
0.5233 -3.9775 -1.8570 0.9825
0.6658 -3.9561 -1.8570 0.9825
0.9481 -3.8981 -1.8570 0.9825
1.0875 -3.8616 -1.8570 0.9825
1.2255 -3.8200 -1.8570 0.9825
1.3619 -3.7735 -1.8570 0.9825
1.7598 -3.6052 -1.8570 0.9825
1.8882 -3.5396 -1.8570 0.9825
2.0141 -3.4695 -1.8570 0.9825
2.1374 -3.3950 -1.8570 0.9825
2.2579 -3.3160 -1.8570 0.9825
2.3756 -3.2328 -1.8570 0.9825
2.4901 -3.1454 -1.8570 0.9825
2.6015 -3.0539 -1.8570 0.9825
2.7095 -2.9585 -1.8570 0.9825
3.0229 -2.6595 -1.8637 0.9824
3.4431 -2.6159 -2.0016 0.9811
3.7045 -2.2304 -2.0016 0.9811
3.9229 -1.8190 -2.0016 0.9811
3.9857 -1.6769 -2.0016 0.9811
4.0434 -1.5327 -2.0016 0.9811
4.2212 -0.9379 -2.0016 0.9811
4.2976 -0.4785 -2.0016 0.9811
4.3208 -0.1687 -2.0016 0.9811
4.3004 0.4517 -2.0016 0.9811
4.2569 0.7592 -2.0016 0.9811
4.2269 0.9116 -2.0016 0.9811
4.1914 1.0628 -2.0016 0.9811
4.1506 1.2127 -2.0016 0.9811
4.0528 1.5075 -2.0016 0.9811
3.9961 1.6521 -2.0016 0.9811
3.8672 1.9347 -2.0016 0.9811
3.7952 2.0723 -2.0016 0.9811
3.7183 2.2073 -2.0016 0.9811
3.6366 2.3394 -2.0016 0.9811
3.3639 2.7169 -2.0016 0.9811
3.0522 3.0630 -2.0016 0.9811
2.8245 3.2742 -2.0016 0.9811
2.7050 3.3735 -2.0016 0.9811
2.3265 3.6449 -2.0016 0.9811
1.9210 3.8740 -2.0016 0.9811
1.6380 4.0019 -2.0016 0.9811
1.4932 4.0581 -2.0016 0.9811
1.0480 4.1952 -2.0016 0.9811
0.7442 4.2596 -2.0016 0.9811
0.4365 4.3020 -2.0016 0.9811
0.2817 4.3149 -2.0016 0.9811
-0.0287 4.3240 -2.0016 0.9811
-0.3390 4.3108 -2.0016 0.9811
-0.4936 4.2958 -2.0016 0.9811
-0.8007 4.2493 -2.0016 0.9811
-0.9528 4.2178 -2.0016 0.9811
-1.4009 4.0909 -2.0016 0.9811
-1.6910 3.9798 -2.0016 0.9811
-1.9723 3.8481 -2.0016 0.9811
-2.1092 3.7748 -2.0016 0.9811
-2.2434 3.6966 -2.0016 0.9811
-2.3747 3.6137 -2.0016 0.9811
-2.5030 3.5260 -2.0016 0.9811
-2.8677 3.2364 -2.0016 0.9811
-2.9821 3.1313 -2.0016 0.9811
-3.3016 2.7924 -2.0016 0.9811
-3.5828 2.4211 -2.0016 0.9811
-3.6674 2.2908 -2.0016 0.9811
-3.8224 2.0217 -2.0016 0.9811
-3.8925 1.8831 -2.0016 0.9811
-1.3293 0.5290 -0.6622 0.9937
-2.3287 -2.9848 -1.8570 0.9833
-2.2200 -3.0665 -1.8570 0.9833
-2.1085 -3.1442 -1.8570 0.9833
-1.9942 -3.2179 -1.8570 0.9833
-1.8773 -3.2874 -1.8570 0.9833
-1.7580 -3.3527 -1.8570 0.9833
-1.6365 -3.4137 -1.8570 0.9833
-1.5128 -3.4703 -1.8570 0.9833
-1.2598 -3.5699 -1.8570 0.9833
-1.1308 -3.6129 -1.8570 0.9833
-0.8686 -3.6847 -1.8570 0.9833
-0.1963 -3.7806 -1.8570 0.9833
0.0756 -3.7850 -1.8570 0.9833
0.2114 -3.7798 -1.8570 0.9833
0.3471 -3.7698 -1.8570 0.9833
0.4822 -3.7549 -1.8570 0.9833
0.7505 -3.7106 -1.8570 0.9833
1.1452 -3.6083 -1.8570 0.9833
1.2741 -3.5649 -1.8570 0.9833
1.6501 -3.4072 -1.8570 0.9833
1.7714 -3.3457 -1.8570 0.9833
1.8904 -3.2799 -1.8570 0.9833
2.0070 -3.2099 -1.8570 0.9833
2.2323 -3.0576 -1.8570 0.9833
2.5482 -2.7997 -1.8570 0.9833
2.6471 -2.7064 -1.8570 0.9833
2.7426 -2.6096 -1.8570 0.9833
2.8779 -2.5479 -1.8854 0.9830
3.2415 -2.4785 -2.0016 0.9820
3.4892 -2.1155 -2.0016 0.9820
3.5630 -1.9888 -2.0016 0.9820
3.6321 -1.8596 -2.0016 0.9820
3.6965 -1.7279 -2.0016 0.9820
3.8110 -1.4581 -2.0016 0.9820
3.9458 -1.0398 -2.0016 0.9820
3.9806 -0.8974 -2.0016 0.9820
4.0347 -0.6094 -2.0016 0.9820
4.0540 -0.4641 -2.0016 0.9820
4.0768 -0.1719 -2.0016 0.9820
4.0594 0.4137 -2.0016 0.9820
4.0193 0.7040 -2.0016 0.9820
3.9750 0.8444 -1.9934 0.9821
3.7757 1.5473 -2.0016 0.9820
3.7177 1.6819 -2.0016 0.9820
3.6549 1.8143 -2.0016 0.9820
3.5874 1.9444 -2.0016 0.9820
3.4386 2.1969 -2.0016 0.9820
3.3574 2.3190 -2.0016 0.9820
3.1823 2.5540 -2.0016 0.9820
3.0885 2.6667 -2.0016 0.9820
2.8892 2.8815 -2.0016 0.9820
2.5625 3.1755 -2.0016 0.9820
2.4468 3.2655 -2.0016 0.9820
2.2061 3.4327 -2.0016 0.9820
1.5573 3.7716 -2.0016 0.9820
1.2826 3.8736 -2.0016 0.9820
1.1427 3.9172 -2.0016 0.9820
1.0012 3.9557 -2.0016 0.9820
0.5700 4.0405 -2.0016 0.9820
0.4245 4.0583 -2.0016 0.9820
-0.0145 4.0804 -2.0016 0.9820
-0.1610 4.0773 -2.0016 0.9820
-0.3073 4.0689 -2.0016 0.9820
-0.4533 4.0552 -2.0016 0.9820
-0.5986 4.0363 -2.0016 0.9820
-0.7432 4.0122 -2.0016 0.9820
-1.1704 3.9090 -2.0016 0.9820
-1.5841 3.7604 -2.0016 0.9820
-1.8499 3.6370 -2.0016 0.9820
-1.9793 3.5682 -2.0016 0.9820
-2.1062 3.4949 -2.0016 0.9820
-2.5849 3.1573 -2.0016 0.9820
-2.6967 3.0624 -2.0016 0.9820
-3.0104 2.7546 -2.0016 0.9820
-3.1074 2.6447 -2.0016 0.9820
-3.2004 2.5314 -2.0016 0.9820
-3.3738 2.2951 -2.0016 0.9820
-3.4541 2.1725 -2.0016 0.9820
-3.5298 2.0470 -2.0016 0.9820
-1.1171 0.5953 -0.6209 0.9944
-1.1505 0.4620 -0.6081 0.9945
-1.1617 0.2820 -0.5864 0.9947
-1.1729 0.2405 -0.5873 0.9947
-1.1819 0.1984 -0.5879 0.9947
-1.1888 0.1559 -0.5881 0.9947
-1.1935 0.1131 -0.5880 0.9947
-1.1943 -0.1019 -0.5880 0.9947
-1.1902 -0.1448 -0.5881 0.9947
-1.1839 -0.1874 -0.5880 0.9947
-1.1586 -0.3141 -0.5888 0.9947
-1.1521 -0.4502 -0.6067 0.9945
-1.1223 -0.5847 -0.6207 0.9944
-3.5488 -2.0140 -2.0016 0.9820
-3.1103 -2.2392 -1.8799 0.9831
-2.8166 -2.5295 -1.8570 0.9833
-2.7240 -2.6290 -1.8570 0.9833
-2.6278 -2.7251 -1.8570 0.9833
-2.4254 -2.9067 -1.8570 0.9833
-2.2105 -3.0733 -1.8570 0.9833
-2.0987 -3.1507 -1.8570 0.9833
-1.6259 -3.4188 -1.8570 0.9833
-1.3763 -3.5267 -1.8570 0.9833
-1.2488 -3.5738 -1.8570 0.9833
-1.1196 -3.6164 -1.8570 0.9833
-0.9890 -3.6542 -1.8570 0.9833
-0.8571 -3.6874 -1.8570 0.9833
-0.5902 -3.7394 -1.8570 0.9833
-0.4556 -3.7582 -1.8570 0.9833
0.0873 -3.7847 -1.8570 0.9833
0.2231 -3.7791 -1.8570 0.9833
0.4938 -3.7534 -1.8570 0.9833
0.7620 -3.7082 -1.8570 0.9833
0.8947 -3.6785 -1.8570 0.9833
1.5374 -3.4595 -1.8570 0.9833
2.0169 -3.2037 -1.8570 0.9833
2.3498 -2.9682 -1.8570 0.9833
2.4549 -2.8819 -1.8570 0.9833
