ply
format ascii 1.0
element vertex 1595
property float32 x
property float32 y
property float32 z
property float32 I
end_header
6.9536 -1.2796 -2.0016 0.9710
6.9950 -1.0292 -2.0016 0.9710
7.0275 -0.7774 -2.0016 0.9710
7.0312 0.7426 -2.0016 0.9710
7.0000 0.9945 -2.0016 0.9710
6.8526 1.7412 -2.0016 0.9710
6.7857 1.9861 -2.0016 0.9710
6.7100 2.2283 -2.0016 0.9710
6.6257 2.4677 -2.0016 0.9710
5.6552 4.2436 -2.0016 0.9710
4.0152 5.8196 -2.0016 0.9710
3.3663 6.2175 -2.0016 0.9710
3.1410 6.3343 -2.0016 0.9710
2.9116 6.4430 -2.0016 0.9710
2.6785 6.5433 -2.0016 0.9710
2.4419 6.6353 -2.0016 0.9710
1.4672 6.9164 -2.0016 0.9710
0.9672 7.0039 -2.0016 0.9710
0.2087 7.0672 -2.0016 0.9710
-0.5522 7.0487 -2.0016 0.9710
-0.8048 7.0244 -2.0016 0.9710
-1.5553 6.8972 -2.0016 0.9710
-2.0461 6.7678 -2.0016 0.9710
-2.2877 6.6900 -2.0016 0.9710
-2.5263 6.6036 -2.0016 0.9710
-2.7617 6.5087 -2.0016 0.9710
-3.2215 6.2937 -2.0016 0.9710
-3.4454 6.1741 -2.0016 0.9710
-4.0891 5.7679 -2.0016 0.9710
-4.2935 5.6174 -2.0016 0.9710
-4.6854 5.2949 -2.0016 0.9710
-5.0532 4.9452 -2.0016 0.9710
-5.2274 4.7606 -2.0016 0.9710
-5.3950 4.5699 -2.0016 0.9710
-5.5555 4.3733 -2.0016 0.9710
-6.1288 2.1874 -2.0016 0.9731
-6.2034 1.9661 -2.0016 0.9731
-6.2700 1.7421 -2.0016 0.9731
-6.4547 0.8269 -2.0016 0.9731
-6.4802 0.5947 -2.0016 0.9731
-6.4974 0.3617 -2.0016 0.9731
-6.5062 0.1282 -2.0016 0.9731
-6.4823 -0.5719 -2.0016 0.9731
-6.4576 -0.8042 -2.0016 0.9731
-6.4246 -1.0355 -2.0016 0.9731
-6.3833 -1.2654 -2.0016 0.9731
-6.2760 -1.7201 -2.0016 0.9731
-6.2103 -1.9442 -2.0016 0.9731
-5.6854 -2.2393 -1.8794 0.9748
-5.5344 -2.4127 -1.8570 0.9751
-5.2430 -2.9936 -1.8570 0.9751
-5.0147 -3.3621 -1.8570 0.9751
-4.4819 -4.0451 -1.8570 0.9751
-4.0211 -4.5034 -1.8570 0.9751
-3.8569 -4.6449 -1.8570 0.9751
-3.6877 -4.7803 -1.8570 0.9751
-3.1524 -5.1490 -1.8570 0.9751
-2.9656 -5.2589 -1.8570 0.9751
-2.7749 -5.3619 -1.8570 0.9751
-2.1825 -5.6291 -1.8570 0.9751
-1.6865 -6.2851 -2.0016 0.9731
-1.4599 -6.3416 -2.0016 0.9731
-0.7697 -6.4618 -2.0016 0.9731
-0.5373 -6.4853 -2.0016 0.9731
-0.3041 -6.5004 -2.0016 0.9731
-0.0706 -6.5071 -2.0016 0.9731
0.1630 -6.5054 -2.0016 0.9731
0.3964 -6.4954 -2.0016 0.9731
0.8613 -6.4502 -2.0016 0.9731
1.3219 -6.3718 -2.0016 0.9731
1.5497 -6.3203 -2.0016 0.9731
1.7756 -6.2606 -2.0016 0.9731
2.2201 -6.1170 -2.0016 0.9731
2.2621 -5.5976 -1.8570 0.9751
2.4616 -5.5128 -1.8570 0.9751
2.1872 -4.0832 -1.4247 0.9808
2.3778 -4.0801 -1.4525 0.9804
3.4763 -5.5011 -2.0016 0.9731
3.6715 -5.3728 -2.0016 0.9731
3.8620 -5.2376 -2.0016 0.9731
4.4027 -4.7921 -2.0016 0.9731
4.7351 -4.4639 -2.0016 0.9731
5.0431 -4.1127 -2.0016 0.9731
5.1875 -3.9290 -2.0016 0.9731
5.6964 -3.1462 -2.0016 0.9731
5.8056 -2.9397 -2.0016 0.9731
5.9074 -2.7294 -2.0016 0.9731
6.0016 -2.5156 -2.0016 0.9731
6.0880 -2.2986 -2.0016 0.9731
6.1666 -2.0786 -2.0016 0.9731
6.2372 -1.8559 -2.0016 0.9731
6.3543 -1.4036 -2.0016 0.9731
6.4006 -1.1747 -2.0016 0.9731
6.4386 -0.9442 -2.0016 0.9731
6.5075 -0.0130 -2.0016 0.9731
6.5037 0.2206 -2.0016 0.9731
6.4712 0.6866 -2.0016 0.9731
6.4423 0.9184 -2.0016 0.9731
6.3599 1.3782 -2.0016 0.9731
6.2446 1.8309 -2.0016 0.9731
6.1749 2.0539 -2.0016 0.9731
6.0972 2.2742 -2.0016 0.9731
5.7089 3.1234 -2.0016 0.9731
5.4701 3.5249 -2.0016 0.9731
5.2032 3.9082 -2.0016 0.9731
5.0595 4.0925 -2.0016 0.9731
4.4218 4.7744 -2.0016 0.9731
4.2475 4.9301 -2.0016 0.9731
4.0678 5.0794 -2.0016 0.9731
3.8829 5.2221 -2.0016 0.9731
3.4983 5.4872 -2.0016 0.9731
3.2991 5.6092 -2.0016 0.9731
3.0956 5.7240 -2.0016 0.9731
2.8882 5.8315 -2.0016 0.9731
2.2446 6.1081 -2.0016 0.9731
2.0239 6.1848 -2.0016 0.9731
1.8006 6.2534 -2.0016 0.9731
1.5750 6.3140 -2.0016 0.9731
1.3473 6.3665 -2.0016 0.9731
1.1179 6.4107 -2.0016 0.9731
0.8871 6.4467 -2.0016 0.9731
-0.0446 6.5073 -2.0016 0.9731
-0.2782 6.5015 -2.0016 0.9731
-0.5113 6.4874 -2.0016 0.9731
-0.7439 6.4648 -2.0016 0.9731
-0.9754 6.4340 -2.0016 0.9731
-1.2057 6.3948 -2.0016 0.9731
-1.8862 6.2281 -2.0016 0.9731
-2.1085 6.1564 -2.0016 0.9731
-2.5447 5.9893 -2.0016 0.9731
-2.9679 5.7913 -2.0016 0.9731
-3.1738 5.6810 -2.0016 0.9731
-3.3757 5.5635 -2.0016 0.9731
-3.5732 5.4387 -2.0016 0.9731
-3.7661 5.3069 -2.0016 0.9731
-3.9542 5.1684 -2.0016 0.9731
-4.1371 5.0231 -2.0016 0.9731
-4.4868 4.7134 -2.0016 0.9731
-4.6531 4.5493 -2.0016 0.9731
-4.8134 4.3793 -2.0016 0.9731
-5.1152 4.0227 -2.0016 0.9731
-5.3906 3.6454 -2.0016 0.9731
-5.5180 3.4496 -2.0016 0.9731
-6.0452 2.4089 -2.0016 0.9731
-6.1278 2.1904 -2.0016 0.9731
-6.3277 1.5190 -2.0016 0.9731
-6.3782 1.2909 -2.0016 0.9731
-6.4543 0.8300 -2.0016 0.9731
-6.4800 0.5978 -2.0016 0.9731
-6.4973 0.3648 -2.0016 0.9731
-6.5062 0.1314 -2.0016 0.9731
-6.5067 -0.1022 -2.0016 0.9731
-6.4988 -0.3357 -2.0016 0.9731
-6.4826 -0.5688 -2.0016 0.9731
-6.3839 -1.2623 -2.0016 0.9731
-6.3344 -1.4907 -2.0016 0.9731
-6.2112 -1.9413 -2.0016 0.9731
-5.6925 -2.2389 -1.8814 0.9747
-5.4455 -2.6072 -1.8570 0.9751
-5.3484 -2.8009 -1.8570 0.9751
-5.2444 -2.9911 -1.8570 0.9751
-5.1337 -3.1774 -1.8570 0.9751
-5.0163 -3.3596 -1.8570 0.9751
-4.4839 -4.0429 -1.8570 0.9751
-4.0233 -4.5015 -1.8570 0.9751
-3.6900 -4.7786 -1.8570 0.9751
-3.5161 -4.9079 -1.8570 0.9751
-3.3376 -5.0310 -1.8570 0.9751
-2.9681 -5.2574 -1.8570 0.9751
-2.1852 -5.6281 -1.8570 0.9751
-2.1360 -6.1469 -2.0016 0.9731
-1.6896 -6.2843 -2.0016 0.9731
-1.0042 -6.4295 -2.0016 0.9731
-0.7728 -6.4614 -2.0016 0.9731
-0.0738 -6.5071 -2.0016 0.9731
0.1599 -6.5055 -2.0016 0.9731
1.0892 -6.4157 -2.0016 0.9731
1.3188 -6.3724 -2.0016 0.9731
1.5467 -6.3210 -2.0016 0.9731
1.9962 -6.1938 -2.0016 0.9731
2.2172 -6.1181 -2.0016 0.9731
2.0801 -4.2476 -1.4547 0.9804
2.3752 -4.0801 -1.4521 0.9804
3.6690 -5.3746 -2.0016 0.9731
3.8595 -5.2394 -2.0016 0.9731
4.0451 -5.0975 -2.0016 0.9731
4.4004 -4.7942 -2.0016 0.9731
4.5696 -4.6332 -2.0016 0.9731
4.7329 -4.4661 -2.0016 0.9731
5.0412 -4.1151 -2.0016 0.9731
5.1856 -3.9315 -2.0016 0.9731
5.3234 -3.7428 -2.0016 0.9731
5.5782 -3.3513 -2.0016 0.9731
5.6949 -3.1489 -2.0016 0.9731
5.8042 -2.9425 -2.0016 0.9731
5.9061 -2.7322 -2.0016 0.9731
6.0004 -2.5185 -2.0016 0.9731
6.0869 -2.3015 -2.0016 0.9731
6.1656 -2.0815 -2.0016 0.9731
6.2363 -1.8589 -2.0016 0.9731
6.2990 -1.6338 -2.0016 0.9731
6.3536 -1.4067 -2.0016 0.9731
6.4000 -1.1777 -2.0016 0.9731
6.4680 -0.7156 -2.0016 0.9731
6.5027 -0.2497 -2.0016 0.9731
6.5038 0.2175 -2.0016 0.9731
6.4919 0.4508 -2.0016 0.9731
6.4715 0.6835 -2.0016 0.9731
6.4428 0.9153 -2.0016 0.9731
6.4058 1.1460 -2.0016 0.9731
6.3071 1.6026 -2.0016 0.9731
6.1758 2.0509 -2.0016 0.9731
5.9196 2.7029 -2.0016 0.9731
5.8187 2.9137 -2.0016 0.9731
5.5947 3.3236 -2.0016 0.9731
5.3419 3.7164 -2.0016 0.9731
5.2050 3.9057 -2.0016 0.9731
4.9114 4.2691 -2.0016 0.9731
4.7550 4.4426 -2.0016 0.9731
4.5925 4.6104 -2.0016 0.9731
2.2475 6.1071 -2.0016 0.9731
1.8036 6.2525 -2.0016 0.9731
1.1210 6.4102 -2.0016 0.9731
0.1921 6.5046 -2.0016 0.9731
-0.2750 6.5017 -2.0016 0.9731
-0.7408 6.4652 -2.0016 0.9731
-1.4315 6.3481 -2.0016 0.9731
-1.8832 6.2290 -2.0016 0.9731
-2.1055 6.1574 -2.0016 0.9731
-2.9651 5.7927 -2.0016 0.9731
-3.9517 5.1702 -2.0016 0.9731
-4.3124 4.8734 -2.0016 0.9731
-4.6509 4.5515 -2.0016 0.9731
-4.9655 4.2061 -2.0016 0.9731
-5.2544 3.8391 -2.0016 0.9731
-5.3888 3.6480 -2.0016 0.9731
-5.6711 2.0241 -2.0016 0.9749
-5.7401 1.8192 -2.0016 0.9749
-5.9023 1.1916 -2.0016 0.9749
-5.9413 0.9790 -2.0016 0.9749
-5.9962 0.5503 -2.0016 0.9749
-6.0121 0.3347 -2.0016 0.9749
-6.0203 0.1187 -2.0016 0.9749
-5.8607 -1.3821 -2.0016 0.9749
-5.8073 -1.5916 -2.0016 0.9749
-5.6781 -2.0041 -2.0016 0.9749
-5.6025 -2.2066 -2.0016 0.9749
-5.1427 -2.2420 -1.8649 0.9766
-4.9477 -2.5941 -1.8570 0.9767
-4.6401 -3.1109 -1.8570 0.9767
-4.5255 -3.2755 -1.8570 0.9767
-4.0102 -3.8894 -1.8570 0.9767
-3.0861 -4.6567 -1.8570 0.9767
-2.9170 -4.7645 -1.8570 0.9767
-2.7441 -4.8661 -1.8570 0.9767
-2.5677 -4.9614 -1.8570 0.9767
-2.2051 -5.1329 -1.8570 0.9767
-2.0195 -5.2087 -1.8570 0.9767
-1.8312 -5.2778 -1.8570 0.9767
-1.6406 -5.3402 -1.8570 0.9767
-1.4478 -5.3956 -1.8570 0.9767
-1.2532 -5.4441 -1.8570 0.9767
-0.8594 -5.5200 -1.8570 0.9767
-0.4612 -5.5674 -1.8570 0.9767
-0.2611 -5.5804 -1.8570 0.9767
-0.0606 -5.5862 -1.8570 0.9767
0.1399 -5.5847 -1.8570 0.9767
0.5402 -5.5603 -1.8570 0.9767
0.7403 -5.5441 -1.8593 0.9767
1.3304 -5.4258 -1.8570 0.9767
1.7162 -5.3163 -1.8570 0.9767
1.9059 -5.2513 -1.8570 0.9767
2.1795 -4.0688 -1.5343 0.9807
3.3225 -4.5058 -1.8609 0.9767
3.9120 -4.5775 -2.0016 0.9749
4.2304 -4.2851 -2.0016 0.9749
4.5269 -3.9705 -2.0016 0.9749
4.6665 -3.8055 -2.0016 0.9749
5.1631 -3.0985 -2.0016 0.9749
5.2709 -2.9112 -2.0016 0.9749
5.4662 -2.5255 -2.0016 0.9749
5.6333 -2.1269 -2.0016 0.9749
5.7060 -1.9233 -2.0016 0.9749
5.8293 -1.5090 -2.0016 0.9749
5.9225 -1.0869 -2.0016 0.9749
5.9577 -0.8736 -2.0016 0.9749
6.0171 -0.2282 -2.0016 0.9749
6.0180 0.2041 -2.0016 0.9749
5.9878 0.6353 -2.0016 0.9749
5.9612 0.8498 -2.0016 0.9749
5.8848 1.2753 -2.0016 0.9749
5.8353 1.4857 -2.0016 0.9749
5.7782 1.6942 -2.0016 0.9749
5.7137 1.9005 -2.0016 0.9749
5.6418 2.1044 -2.0016 0.9749
5.5626 2.3055 -2.0016 0.9749
5.2825 2.8901 -2.0016 0.9749
5.1754 3.0778 -2.0016 0.9749
5.0616 3.2616 -2.0016 0.9749
4.8145 3.6163 -2.0016 0.9749
4.6816 3.7868 -2.0016 0.9749
4.3979 4.1129 -2.0016 0.9749
4.0915 4.4178 -2.0016 0.9749
3.7640 4.7000 -2.0016 0.9749
3.4172 4.9579 -2.0016 0.9749
3.2370 5.0774 -2.0016 0.9749
1.6661 5.7863 -2.0016 0.9749
1.4573 5.8424 -2.0016 0.9749
0.3908 6.0087 -2.0016 0.9749
0.1749 6.0189 -2.0016 0.9749
-0.0413 6.0213 -2.0016 0.9749
-0.2574 6.0159 -2.0016 0.9749
-0.6883 5.9820 -2.0016 0.9749
-0.9026 5.9534 -2.0016 0.9749
-1.1157 5.9172 -2.0016 0.9749
-1.3274 5.8733 -2.0016 0.9749
-1.5373 5.8219 -2.0016 0.9749
-1.7453 5.7630 -2.0016 0.9749
-1.9510 5.6966 -2.0016 0.9749
-2.1542 5.6229 -2.0016 0.9749
-2.5521 5.4539 -2.0016 0.9749
-2.7462 5.3588 -2.0016 0.9749
-3.1235 5.1479 -2.0016 0.9749
-3.8281 4.6479 -2.0016 0.9749
-4.1517 4.3613 -2.0016 0.9749
-4.4539 4.0522 -2.0016 0.9749
-4.5965 3.8898 -2.0016 0.9749
-4.8637 3.5500 -2.0016 0.9749
-4.9880 3.3731 -2.0016 0.9749
-5.2171 3.0066 -2.0016 0.9749
-5.3217 2.8174 -2.0016 0.9749
-5.4194 2.6246 -2.0016 0.9749
-5.5937 2.2290 -2.0016 0.9749
-5.7392 1.8220 -2.0016 0.9749
-6.0207 -0.0946 -2.0016 0.9749
-5.9984 -0.5263 -2.0016 0.9749
-5.9756 -0.7413 -2.0016 0.9749
-5.8080 -1.5888 -2.0016 0.9749
-5.0387 -2.4124 -1.8570 0.9767
-4.7502 -2.9401 -1.8570 0.9767
-4.5271 -3.2733 -1.8570 0.9767
-4.2806 -3.5897 -1.8570 0.9767
-3.8699 -4.0290 -1.8570 0.9767
-3.7228 -4.1653 -1.8570 0.9767
-3.0884 -4.6552 -1.8570 0.9767
-2.9193 -4.7631 -1.8570 0.9767
-2.7464 -4.8648 -1.8570 0.9767
-2.5700 -4.9602 -1.8570 0.9767
-2.3904 -5.0493 -1.8570 0.9767
-1.4504 -5.3949 -1.8570 0.9767
-1.0597 -5.4851 -1.8570 0.9767
-0.8621 -5.5196 -1.8570 0.9767
-0.6634 -5.5470 -1.8570 0.9767
-0.4639 -5.5672 -1.8570 0.9767
-0.0633 -5.5861 -1.8570 0.9767
0.3376 -5.5763 -1.8570 0.9767
0.9351 -5.5077 -1.8570 0.9767
1.7137 -5.3172 -1.8570 0.9767
2.0907 -5.1805 -1.8570 0.9767
2.2753 -5.1021 -1.8570 0.9767
2.0661 -4.2191 -1.5616 0.9804
2.1770 -4.0689 -1.5339 0.9807
2.3667 -4.0655 -1.5637 0.9804
2.9821 -4.7240 -1.8570 0.9767
3.1497 -4.6139 -1.8570 0.9767
3.3213 -4.5088 -1.8615 0.9767
3.4726 -4.3761 -1.8570 0.9767
3.9098 -4.5794 -2.0016 0.9749
4.0717 -4.4361 -2.0016 0.9749
4.3794 -4.1326 -2.0016 0.9749
4.5250 -3.9727 -2.0016 0.9749
4.7983 -3.6379 -2.0016 0.9749
4.9258 -3.4633 -2.0016 0.9749
5.0469 -3.2843 -2.0016 0.9749
5.2695 -2.9137 -2.0016 0.9749
5.4650 -2.5282 -2.0016 0.9749
5.5522 -2.3304 -2.0016 0.9749
5.7051 -1.9261 -2.0016 0.9749
5.7705 -1.7200 -2.0016 0.9749
5.8791 -1.3016 -2.0016 0.9749
5.9220 -1.0898 -2.0016 0.9749
5.9573 -0.8765 -2.0016 0.9749
6.0048 -0.4469 -2.0016 0.9749
6.0181 0.2012 -2.0016 0.9749
6.0070 0.4171 -2.0016 0.9749
5.8360 1.4829 -2.0016 0.9749
5.7790 1.6914 -2.0016 0.9749
5.3842 2.6960 -2.0016 0.9749
5.1769 3.0754 -2.0016 0.9749
5.0631 3.2592 -2.0016 0.9749
4.6835 3.7846 -2.0016 0.9749
4.5446 3.9502 -2.0016 0.9749
4.3999 4.1108 -2.0016 0.9749
4.0936 4.4159 -2.0016 0.9749
3.5952 4.8303 -2.0016 0.9749
3.4195 4.9563 -2.0016 0.9749
2.0796 5.6509 -2.0016 0.9749
1.6689 5.7855 -2.0016 0.9749
1.4601 5.8417 -2.0016 0.9749
0.1778 6.0188 -2.0016 0.9749
-0.0384 6.0213 -2.0016 0.9749
-0.4703 6.0030 -2.0016 0.9749
-0.6854 5.9823 -2.0016 0.9749
-1.1128 5.9177 -2.0016 0.9749
-1.3245 5.8740 -2.0016 0.9749
-1.5345 5.8226 -2.0016 0.9749
-2.1515 5.6239 -2.0016 0.9749
-2.3520 5.5431 -2.0016 0.9749
-2.9342 5.2581 -2.0016 0.9749
-3.1211 5.1494 -2.0016 0.9749
-3.3039 5.0341 -2.0016 0.9749
-3.6565 4.7841 -2.0016 0.9749
-3.8259 4.6498 -2.0016 0.9749
-3.9903 4.5094 -2.0016 0.9749
-4.1496 4.3633 -2.0016 0.9749
-4.3035 4.2116 -2.0016 0.9749
-4.4519 4.0544 -2.0016 0.9749
-4.7313 3.7245 -2.0016 0.9749
-4.9864 3.3755 -2.0016 0.9749
-5.3355 1.6910 -2.0016 0.9765
-5.4431 1.3039 -2.0016 0.9765
-5.5737 0.5115 -2.0016 0.9765
-5.5884 0.3111 -2.0016 0.9765
-5.5960 0.1103 -2.0016 0.9765
-5.5964 -0.0906 -2.0016 0.9765
-5.5895 -0.2914 -2.0016 0.9765
-5.5754 -0.4919 -2.0016 0.9765
-5.4903 -1.0884 -2.0016 0.9765
-5.4477 -1.2847 -2.0016 0.9765
-5.3980 -1.4794 -2.0016 0.9765
-5.2780 -1.8629 -2.0016 0.9765
-5.2077 -2.0511 -2.0016 0.9765
-4.6882 -2.2474 -1.8592 0.9782
-4.5095 -2.5748 -1.8570 0.9782
-4.4141 -2.7350 -1.8570 0.9782
-4.3131 -2.8917 -1.8570 0.9782
-4.0946 -3.1937 -1.8570 0.9782
-3.5954 -3.7468 -1.8570 0.9782
-3.4586 -3.8734 -1.8570 0.9782
-3.3173 -3.9951 -1.8570 0.9782
-3.1718 -4.1116 -1.8570 0.9782
-3.0222 -4.2228 -1.8570 0.9782
-2.5507 -4.5232 -1.8570 0.9782
-2.3867 -4.6118 -1.8570 0.9782
-1.8771 -4.8416 -1.8570 0.9782
-1.5250 -4.9638 -1.8570 0.9782
-1.3458 -5.0154 -1.8570 0.9782
-0.7989 -5.1310 -1.8570 0.9782
-0.6142 -5.1563 -1.8570 0.9782
-0.4287 -5.1751 -1.8570 0.9782
-0.2427 -5.1871 -1.8570 0.9782
0.1300 -5.1912 -1.8570 0.9782
0.3163 -5.1832 -1.8570 0.9782
0.5021 -5.1685 -1.8570 0.9782
1.0548 -5.0845 -1.8570 0.9782
1.2366 -5.0434 -1.8570 0.9782
1.4169 -4.9958 -1.8570 0.9782
1.7716 -4.8812 -1.8570 0.9782
2.0003 -4.4798 -1.7545 0.9794
2.1717 -4.0543 -1.6447 0.9807
2.9298 -4.2874 -1.8570 0.9782
3.5132 -3.8239 -1.8570 0.9782
3.9322 -3.9831 -2.0016 0.9765
4.0727 -3.8394 -2.0016 0.9765
4.2078 -3.6907 -2.0016 0.9765
4.4618 -3.3793 -2.0016 0.9765
4.5802 -3.2170 -2.0016 0.9765
4.6927 -3.0505 -2.0016 0.9765
4.9934 -2.5284 -2.0016 0.9765
5.0810 -2.3476 -2.0016 0.9765
5.1620 -2.1637 -2.0016 0.9765
5.2363 -1.9770 -2.0016 0.9765
5.3039 -1.7878 -2.0016 0.9765
5.4185 -1.4027 -2.0016 0.9765
5.4653 -1.2073 -2.0016 0.9765
5.5052 -1.0103 -2.0016 0.9765
5.5635 -0.6128 -2.0016 0.9765
5.5819 -0.4127 -2.0016 0.9765
5.5971 -0.0112 -2.0016 0.9765
5.5939 0.1897 -2.0016 0.9765
5.5411 0.7899 -2.0016 0.9765
5.4240 1.3810 -2.0016 0.9765
5.3710 1.5748 -2.0016 0.9765
5.2442 1.9561 -2.0016 0.9765
5.1706 2.1430 -2.0016 0.9765
5.0035 2.5084 -2.0016 0.9765
4.9102 2.6864 -2.0016 0.9765
4.4753 3.3615 -2.0016 0.9765
4.3517 3.5200 -2.0016 0.9765
4.2226 3.6739 -2.0016 0.9765
4.0880 3.8231 -2.0016 0.9765
3.8032 4.1065 -2.0016 0.9765
3.3397 4.4915 -2.0016 0.9765
3.0089 4.7195 -2.0016 0.9765
2.6625 4.9232 -2.0016 0.9765
2.1179 5.1809 -2.0016 0.9765
1.5487 5.3786 -2.0016 0.9765
1.3546 5.4307 -2.0016 0.9765
1.1588 5.4758 -2.0016 0.9765
0.9615 5.5139 -2.0016 0.9765
0.5635 5.5687 -2.0016 0.9765
-0.2392 5.5920 -2.0016 0.9765
-0.4398 5.5798 -2.0016 0.9765
-1.0371 5.5002 -2.0016 0.9765
-1.2338 5.4594 -2.0016 0.9765
-1.6223 5.3568 -2.0016 0.9765
-1.8135 5.2951 -2.0016 0.9765
-2.0024 5.2266 -2.0016 0.9765
-2.1887 5.1514 -2.0016 0.9765
-2.3722 5.0695 -2.0016 0.9765
-2.7298 4.8863 -2.0016 0.9765
-2.9034 4.7851 -2.0016 0.9765
-3.0733 4.6778 -2.0016 0.9765
-3.2392 4.5645 -2.0016 0.9765
-3.5583 4.3204 -2.0016 0.9765
-3.7111 4.1899 -2.0016 0.9765
-4.0022 3.9128 -2.0016 0.9765
-4.1400 3.7667 -2.0016 0.9765
-4.3996 3.4599 -2.0016 0.9765
-4.6365 3.1354 -2.0016 0.9765
-4.7460 2.9670 -2.0016 0.9765
-4.9466 2.6188 -2.0016 0.9765
-5.0374 2.4396 -2.0016 0.9765
-5.1218 2.2572 -2.0016 0.9765
-5.1995 2.0719 -2.0016 0.9765
-5.2705 1.8840 -2.0016 0.9765
-5.3921 1.5010 -2.0016 0.9765
-5.4425 1.3065 -2.0016 0.9765
-5.4859 1.1103 -2.0016 0.9765
-5.5734 0.5142 -2.0016 0.9765
-5.5883 0.3138 -2.0016 0.9765
-5.5757 -0.4892 -2.0016 0.9765
-5.5545 -0.6890 -2.0016 0.9765
-5.4483 -1.2821 -2.0016 0.9765
-5.3987 -1.4768 -2.0016 0.9765
-5.3423 -1.6697 -2.0016 0.9765
-5.2789 -1.8603 -2.0016 0.9765
-5.2087 -2.0486 -2.0016 0.9765
-4.6919 -2.2464 -1.8602 0.9781
-4.6001 -2.4091 -1.8570 0.9782
-4.4155 -2.7329 -1.8570 0.9782
-4.3145 -2.8896 -1.8570 0.9782
-4.0961 -3.1917 -1.8570 0.9782
-3.9789 -3.3367 -1.8570 0.9782
-3.8566 -3.4773 -1.8570 0.9782
-3.7293 -3.6135 -1.8570 0.9782
-3.4604 -3.8718 -1.8570 0.9782
-3.1737 -4.1100 -1.8570 0.9782
-3.0242 -4.2213 -1.8570 0.9782
-2.7135 -4.4274 -1.8570 0.9782
-2.5529 -4.5219 -1.8570 0.9782
-2.2219 -4.6934 -1.8570 0.9782
-2.0520 -4.7702 -1.8570 0.9782
-1.7045 -4.9051 -1.8570 0.9782
-1.3482 -5.0147 -1.8570 0.9782
-1.1674 -5.0599 -1.8570 0.9782
-0.9850 -5.0985 -1.8570 0.9782
-0.8014 -5.1306 -1.8570 0.9782
-0.6167 -5.1560 -1.8570 0.9782
-0.4312 -5.1749 -1.8570 0.9782
-0.2452 -5.1870 -1.8570 0.9782
0.1276 -5.1912 -1.8570 0.9782
1.2342 -5.0440 -1.8570 0.9782
1.4145 -4.9964 -1.8570 0.9782
1.9434 -4.8154 -1.8570 0.9782
2.3553 -4.0460 -1.6742 0.9803
3.3718 -3.9492 -1.8570 0.9782
3.5114 -3.8256 -1.8570 0.9782
4.0708 -3.8413 -2.0016 0.9765
4.3359 -3.5394 -2.0016 0.9765
4.4601 -3.3815 -2.0016 0.9765
4.8982 -2.7084 -2.0016 0.9765
4.9922 -2.5308 -2.0016 0.9765
5.0799 -2.3500 -2.0016 0.9765
5.2354 -1.9795 -2.0016 0.9765
5.4178 -1.4053 -2.0016 0.9765
5.5047 -1.0130 -2.0016 0.9765
5.5375 -0.8147 -2.0016 0.9765
5.5632 -0.6155 -2.0016 0.9765
5.5817 -0.4154 -2.0016 0.9765
5.5930 -0.2148 -2.0016 0.9765
5.5940 0.1870 -2.0016 0.9765
5.5836 0.3877 -2.0016 0.9765
5.5415 0.7873 -2.0016 0.9765
5.4707 1.1828 -2.0016 0.9765
5.4247 1.3784 -2.0016 0.9765
5.3717 1.5722 -2.0016 0.9765
5.3118 1.7640 -2.0016 0.9765
5.2451 1.9535 -2.0016 0.9765
4.7063 3.0295 -2.0016 0.9765
4.3534 3.5179 -2.0016 0.9765
4.2243 3.6719 -2.0016 0.9765
3.8051 4.1047 -2.0016 0.9765
3.6554 4.2386 -2.0016 0.9765
3.3419 4.4899 -2.0016 0.9765
3.1786 4.6070 -2.0016 0.9765
3.0111 4.7181 -2.0016 0.9765
2.8399 4.8231 -2.0016 0.9765
2.6649 4.9220 -2.0016 0.9765
2.4865 5.0144 -2.0016 0.9765
2.1204 5.1799 -2.0016 0.9765
1.5513 5.3778 -2.0016 0.9765
1.1615 5.4753 -2.0016 0.9765
0.9642 5.5134 -2.0016 0.9765
0.7657 5.5445 -2.0016 0.9765
0.5662 5.5684 -2.0016 0.9765
-0.0357 5.5970 -2.0016 0.9765
-0.6371 5.5607 -2.0016 0.9765
-0.8363 5.5343 -2.0016 0.9765
-1.2312 5.4600 -2.0016 0.9765
-1.8110 5.2960 -2.0016 0.9765
-2.1862 5.1524 -2.0016 0.9765
-2.7274 4.8876 -2.0016 0.9765
-3.0711 4.6793 -2.0016 0.9765
-3.2370 4.5661 -2.0016 0.9765
-3.7091 4.1916 -2.0016 0.9765
-3.8572 4.0558 -2.0016 0.9765
-4.2708 3.6177 -2.0016 0.9765
-4.3979 3.4621 -2.0016 0.9765
-4.5193 3.3020 -2.0016 0.9765
-4.6350 3.1376 -2.0016 0.9765
-4.9790 1.5780 -2.0016 0.9779
-5.0324 1.3983 -2.0016 0.9779
-5.1535 0.8492 -2.0016 0.9779
-5.2220 0.1029 -2.0016 0.9779
-5.1565 -0.8311 -2.0016 0.9779
-5.1233 -1.0156 -2.0016 0.9779
-5.0373 -1.3806 -2.0016 0.9779
-4.8597 -1.9140 -2.0016 0.9779
-4.7878 -2.0872 -2.0016 0.9779
-4.6362 -2.2224 -1.9703 0.9782
-4.2916 -2.2502 -1.8570 0.9795
-4.1192 -2.5522 -1.8570 0.9795
-4.0249 -2.6985 -1.8570 0.9795
-3.8209 -2.9802 -1.8570 0.9795
-3.7115 -3.1155 -1.8570 0.9795
-3.5973 -3.2467 -1.8570 0.9795
-3.0956 -3.7281 -1.8570 0.9795
-2.9598 -3.8368 -1.8570 0.9795
-2.6769 -4.0392 -1.8570 0.9795
-2.0713 -4.3808 -1.8570 0.9795
-1.4230 -4.6321 -1.8570 0.9795
-0.9169 -4.7582 -1.8570 0.9795
-0.7455 -4.7881 -1.8570 0.9795
-0.4001 -4.8292 -1.8570 0.9795
-0.2265 -4.8405 -1.8570 0.9795
-0.0526 -4.8455 -1.8570 0.9795
0.1214 -4.8442 -1.8570 0.9795
0.2952 -4.8368 -1.8570 0.9795
0.4686 -4.8230 -1.8570 0.9795
0.6414 -4.8031 -1.8570 0.9795
0.8134 -4.7770 -1.8570 0.9795
1.3222 -4.6619 -1.8570 0.9795
2.1427 -4.0001 -1.7390 0.9807
2.3315 -4.0006 -1.7745 0.9804
2.7340 -4.0008 -1.8570 0.9795
2.8758 -3.9001 -1.8570 0.9795
3.0140 -3.7944 -1.8570 0.9795
3.1482 -3.6838 -1.8570 0.9795
3.2784 -3.5684 -1.8570 0.9795
3.9266 -3.4441 -2.0016 0.9779
4.0477 -3.3009 -2.0016 0.9779
4.1636 -3.1535 -2.0016 0.9779
4.2741 -3.0020 -2.0016 0.9779
4.5720 -2.5252 -2.0016 0.9779
4.6597 -2.3594 -2.0016 0.9779
4.7414 -2.1907 -2.0016 0.9779
4.8864 -1.8449 -2.0016 0.9779
5.0061 -1.4896 -2.0016 0.9779
5.0564 -1.3089 -2.0016 0.9779
5.1916 -0.5718 -2.0016 0.9779
5.2193 -0.1979 -2.0016 0.9779
5.2103 0.3643 -2.0016 0.9779
5.1410 0.9223 -2.0016 0.9779
5.1045 1.1062 -2.0016 0.9779
5.0120 1.4696 -2.0016 0.9779
4.9561 1.6485 -2.0016 0.9779
4.8937 1.8253 -2.0016 0.9779
4.8250 1.9998 -2.0016 0.9779
4.5821 2.5069 -2.0016 0.9779
4.4892 2.6697 -2.0016 0.9779
4.2861 2.9849 -2.0016 0.9779
3.9404 3.4284 -2.0016 0.9779
3.8148 3.5676 -2.0016 0.9779
3.6843 3.7022 -2.0016 0.9779
3.5490 3.8321 -2.0016 0.9779
3.4092 3.9570 -2.0016 0.9779
3.1165 4.1914 -2.0016 0.9779
2.6479 4.5021 -2.0016 0.9779
2.4846 4.5942 -2.0016 0.9779
2.3181 4.6804 -2.0016 0.9779
1.9763 4.8347 -2.0016 0.9779
1.8015 4.9025 -2.0016 0.9779
1.6244 4.9640 -2.0016 0.9779
1.4452 5.0191 -2.0016 0.9779
1.2641 5.0678 -2.0016 0.9779
0.5258 5.1965 -2.0016 0.9779
-0.2233 5.2183 -2.0016 0.9779
-0.4104 5.2069 -2.0016 0.9779
-0.7829 5.1640 -2.0016 0.9779
-0.9678 5.1326 -2.0016 0.9779
-1.1514 5.0946 -2.0016 0.9779
-2.5474 4.5597 -2.0016 0.9779
-2.8679 4.3652 -2.0016 0.9779
-3.1737 4.1482 -2.0016 0.9779
-3.3205 4.0316 -2.0016 0.9779
-3.4631 3.9099 -2.0016 0.9779
-3.6012 3.7830 -2.0016 0.9779
-3.7347 3.6513 -2.0016 0.9779
-3.8633 3.5149 -2.0016 0.9779
-3.9870 3.3740 -2.0016 0.9779
-4.3266 2.9259 -2.0016 0.9779
-4.4288 2.7687 -2.0016 0.9779
-4.6160 2.4438 -2.0016 0.9779
-4.7795 2.1064 -2.0016 0.9779
-4.8520 1.9334 -2.0016 0.9779
-4.9183 1.7581 -2.0016 0.9779
-4.9782 1.5804 -2.0016 0.9779
-5.0787 1.2192 -2.0016 0.9779
-5.1192 1.0361 -2.0016 0.9779
-5.1531 0.8517 -2.0016 0.9779
-5.1804 0.6662 -2.0016 0.9779
-5.2009 0.4798 -2.0016 0.9779
-5.2148 0.2928 -2.0016 0.9779
-5.2220 0.1054 -2.0016 0.9779
-5.2030 -0.4565 -2.0016 0.9779
-4.8606 -1.9117 -2.0016 0.9779
-4.2943 -2.2489 -1.8577 0.9794
-4.1204 -2.5503 -1.8570 0.9795
-4.0262 -2.6965 -1.8570 0.9795
-3.9268 -2.8393 -1.8570 0.9795
-3.8224 -2.9784 -1.8570 0.9795
-3.7130 -3.1137 -1.8570 0.9795
-3.4800 -3.3720 -1.8570 0.9795
-3.3568 -3.4948 -1.8570 0.9795
-3.2292 -3.6130 -1.8570 0.9795
-3.0974 -3.7266 -1.8570 0.9795
-2.5322 -4.1315 -1.8570 0.9795
-2.3823 -4.2197 -1.8570 0.9795
-1.9149 -4.4514 -1.8570 0.9795
-1.5906 -4.5773 -1.8570 0.9795
-1.4253 -4.6314 -1.8570 0.9795
-1.2581 -4.6796 -1.8570 0.9795
-1.0893 -4.7217 -1.8570 0.9795
-0.9192 -4.7578 -1.8570 0.9795
-0.7478 -4.7877 -1.8570 0.9795
-0.5755 -4.8115 -1.8570 0.9795
-0.2288 -4.8403 -1.8570 0.9795
0.4663 -4.8233 -1.8570 0.9795
0.6391 -4.8034 -1.8570 0.9795
0.8111 -4.7774 -1.8570 0.9795
0.9820 -4.7452 -1.8570 0.9795
1.3199 -4.6625 -1.8570 0.9795
1.4864 -4.6121 -1.8570 0.9795
1.8135 -4.4936 -1.8570 0.9795
2.5370 -4.0190 -1.8213 0.9798
2.7321 -4.0021 -1.8570 0.9795
3.0121 -3.7958 -1.8570 0.9795
3.1465 -3.6853 -1.8570 0.9795
3.2767 -3.5700 -1.8570 0.9795
3.4027 -3.4500 -1.8570 0.9795
3.7988 -3.5846 -2.0016 0.9779
3.9250 -3.4460 -2.0016 0.9779
4.2727 -3.0041 -2.0016 0.9779
4.3777 -2.8488 -2.0016 0.9779
4.4772 -2.6898 -2.0016 0.9779
4.8160 -2.0214 -2.0016 0.9779
5.1368 -0.9453 -2.0016 0.9779
5.1674 -0.7603 -2.0016 0.9779
5.2086 -0.3876 -2.0016 0.9779
5.2192 -0.2004 -2.0016 0.9779
5.2230 -0.0129 -2.0016 0.9779
5.2201 0.1745 -2.0016 0.9779
5.2105 0.3618 -2.0016 0.9779
5.1941 0.5486 -2.0016 0.9779
5.1414 0.9198 -2.0016 0.9779
5.0127 1.4671 -2.0016 0.9779
4.8260 1.9975 -2.0016 0.9779
4.4904 2.6676 -2.0016 0.9779
4.3918 2.8270 -2.0016 0.9779
4.2875 2.9829 -2.0016 0.9779
4.1777 3.1348 -2.0016 0.9779
4.0625 3.2828 -2.0016 0.9779
3.6860 3.7004 -2.0016 0.9779
3.4111 3.9553 -2.0016 0.9779
3.2669 4.0752 -2.0016 0.9779
3.1185 4.1899 -2.0016 0.9779
2.9661 4.2991 -2.0016 0.9779
2.4868 4.5930 -2.0016 0.9779
2.1509 4.7596 -2.0016 0.9779
1.9787 4.8337 -2.0016 0.9779
1.6268 4.9632 -2.0016 0.9779
1.2665 5.0671 -2.0016 0.9779
0.8997 5.1450 -2.0016 0.9779
0.3415 5.2119 -2.0016 0.9779
-0.0333 5.2229 -2.0016 0.9779
-0.5946 5.1891 -2.0016 0.9779
-0.7804 5.1644 -2.0016 0.9779
-0.9653 5.1331 -2.0016 0.9779
-1.3311 5.0506 -2.0016 0.9779
-1.5115 4.9996 -2.0016 0.9779
-2.2114 4.7318 -2.0016 0.9779
-2.5452 4.5609 -2.0016 0.9779
-2.7072 4.4666 -2.0016 0.9779
-3.7329 3.6531 -2.0016 0.9779
-3.9854 3.3759 -2.0016 0.9779
-4.1040 3.2307 -2.0016 0.9779
-4.6059 1.6439 -2.0016 0.9791
-4.7120 1.3092 -2.0016 0.9791
-4.7559 1.1393 -2.0016 0.9791
-1.9444 0.1082 -0.7970 0.9916
-1.9141 -0.0310 -0.7835 0.9918
-1.9578 -0.1727 -0.8044 0.9915
-1.9530 -0.2432 -0.8055 0.9915
-2.0468 -0.3299 -0.8485 0.9911
-4.7599 -1.1225 -2.0016 0.9791
-4.7166 -1.2927 -2.0016 0.9791
-4.6671 -1.4611 -2.0016 0.9791
-4.5503 -1.7922 -2.0016 0.9791
-4.4830 -1.9544 -2.0016 0.9791
-3.9402 -2.2498 -1.8570 0.9806
-3.6755 -2.6603 -1.8570 0.9806
-3.4752 -2.9171 -1.8570 0.9806
-3.3683 -3.0400 -1.8570 0.9806
-3.0220 -3.3844 -1.8570 0.9806
-2.8985 -3.4907 -1.8570 0.9806
-2.5065 -3.7821 -1.8570 0.9806
-2.2287 -3.9521 -1.8570 0.9806
-2.0854 -4.0296 -1.8570 0.9806
-1.6402 -4.2304 -1.8570 0.9806
-1.4873 -4.2866 -1.8570 0.9806
-1.3324 -4.3372 -1.8570 0.9806
-1.1759 -4.3822 -1.8570 0.9806
-1.0179 -4.4216 -1.8570 0.9806
-0.8585 -4.4553 -1.8570 0.9806
-0.6980 -4.4832 -1.8570 0.9806
-0.3746 -4.5218 -1.8570 0.9806
-0.2121 -4.5323 -1.8570 0.9806
0.2764 -4.5288 -1.8570 0.9806
0.7616 -4.4729 -1.8570 0.9806
0.9216 -4.4426 -1.8570 0.9806
1.3939 -4.3178 -1.8570 0.9806
1.8499 -4.1430 -1.8570 0.9806
1.9975 -4.0739 -1.8570 0.9806
2.2846 -3.9201 -1.8570 0.9806
2.4238 -3.8356 -1.8570 0.9806
2.8221 -3.5528 -1.8570 0.9806
2.9478 -3.4492 -1.8570 0.9806
3.0697 -3.3412 -1.8570 0.9806
3.3015 -3.1124 -1.8570 0.9806
3.6766 -3.2248 -2.0016 0.9791
3.7900 -3.0908 -2.0016 0.9791
3.8985 -2.9527 -2.0016 0.9791
4.1003 -2.6654 -2.0016 0.9791
4.2810 -2.3644 -2.0016 0.9791
4.4396 -2.0512 -2.0016 0.9791
4.6343 -1.5621 -2.0016 0.9791
4.6874 -1.3947 -2.0016 0.9791
4.7344 -1.2256 -2.0016 0.9791
4.8388 -0.7096 -2.0016 0.9791
4.8611 -0.5354 -2.0016 0.9791
4.8772 -0.3606 -2.0016 0.9791
4.8905 -0.0098 -2.0016 0.9791
4.8786 0.3411 -2.0016 0.9791
4.8632 0.5160 -2.0016 0.9791
4.8415 0.6902 -2.0016 0.9791
4.7393 1.2067 -2.0016 0.9791
4.6929 1.3760 -2.0016 0.9791
4.6405 1.5436 -2.0016 0.9791
4.5821 1.7091 -2.0016 0.9791
4.5178 1.8725 -2.0016 0.9791
4.4477 2.0334 -2.0016 0.9791
4.2904 2.3473 -2.0016 0.9791
4.2034 2.4998 -2.0016 0.9791
4.0132 2.7949 -2.0016 0.9791
3.9103 2.9371 -2.0016 0.9791
3.6895 3.2101 -2.0016 0.9791
3.5719 3.3404 -2.0016 0.9791
2.9181 3.9245 -2.0016 0.9791
2.7754 4.0267 -2.0016 0.9791
2.6290 4.1237 -2.0016 0.9791
2.3264 4.3017 -2.0016 0.9791
1.8505 4.5269 -2.0016 0.9791
1.6868 4.5904 -2.0016 0.9791
1.5210 4.6480 -2.0016 0.9791
1.3532 4.6996 -2.0016 0.9791
1.0125 4.7845 -2.0016 0.9791
0.8402 4.8178 -2.0016 0.9791
0.6667 4.8449 -2.0016 0.9791
0.1420 4.8884 -2.0016 0.9791
-0.0335 4.8904 -2.0016 0.9791
-0.9061 4.8058 -2.0016 0.9791
-1.0781 4.7702 -2.0016 0.9791
-1.2486 4.7284 -2.0016 0.9791
-1.4175 4.6806 -2.0016 0.9791
-1.7496 4.5668 -2.0016 0.9791
-2.3852 4.2694 -2.0016 0.9791
-2.6853 4.0873 -2.0016 0.9791
-2.8303 3.9883 -2.0016 0.9791
-3.1091 3.7750 -2.0016 0.9791
-3.4969 3.4189 -2.0016 0.9791
-3.7332 3.1592 -2.0016 0.9791
-3.8442 3.0232 -2.0016 0.9791
-3.9502 2.8832 -2.0016 0.9791
-4.0511 2.7396 -2.0016 0.9791
-4.2372 2.4419 -2.0016 0.9791
-4.3222 2.2882 -2.0016 0.9791
-4.4015 2.1316 -2.0016 0.9791
-4.4752 1.9723 -2.0016 0.9791
-4.5431 1.8104 -2.0016 0.9791
-4.6051 1.6461 -2.0016 0.9791
-4.6613 1.4798 -2.0016 0.9791
-4.7114 1.3115 -2.0016 0.9791
-4.7554 1.1416 -2.0016 0.9791
-4.7933 0.9701 -2.0016 0.9791
-2.0804 0.3438 -0.8630 0.9909
-1.9516 0.2510 -0.8053 0.9915
-1.9579 0.1806 -0.8047 0.9915
-1.9178 0.0387 -0.7851 0.9917
-1.9136 -0.0301 -0.7833 0.9918
-1.9419 -0.1003 -0.7958 0.9916
-1.9578 -0.1718 -0.8043 0.9915
-1.9531 -0.2423 -0.8055 0.9915
-2.0428 -0.3282 -0.8468 0.9911
-4.6678 -1.4589 -2.0016 0.9791
-4.6125 -1.6255 -2.0016 0.9791
-4.5511 -1.7900 -2.0016 0.9791
-4.4110 -2.1119 -2.0016 0.9791
-3.8709 -2.3958 -1.8632 0.9805
-3.6768 -2.6585 -1.8570 0.9806
-3.4766 -2.9154 -1.8570 0.9806
-3.3697 -3.0384 -1.8570 0.9806
-3.1431 -3.2723 -1.8570 0.9806
-2.9002 -3.4893 -1.8570 0.9806
-2.7731 -3.5912 -1.8570 0.9806
-2.6424 -3.6884 -1.8570 0.9806
-2.3710 -3.8685 -1.8570 0.9806
-2.2306 -3.9511 -1.8570 0.9806
-1.6422 -4.2296 -1.8570 0.9806
-0.8606 -4.4549 -1.8570 0.9806
-0.2142 -4.5322 -1.8570 0.9806
0.1115 -4.5359 -1.8570 0.9806
0.2742 -4.5290 -1.8570 0.9806
0.5984 -4.4976 -1.8570 0.9806
0.7595 -4.4732 -1.8570 0.9806
1.3918 -4.3185 -1.8570 0.9806
1.5459 -4.2658 -1.8570 0.9806
1.6980 -4.2075 -1.8570 0.9806
1.8480 -4.1439 -1.8570 0.9806
2.2827 -3.9212 -1.8570 0.9806
2.4220 -3.8367 -1.8570 0.9806
2.5581 -3.7473 -1.8570 0.9806
2.6910 -3.6531 -1.8570 0.9806
2.8204 -3.5542 -1.8570 0.9806
2.9461 -3.4506 -1.8570 0.9806
3.0681 -3.3427 -1.8570 0.9806
3.3000 -3.1140 -1.8570 0.9806
3.6751 -3.2266 -2.0016 0.9791
3.7885 -3.0926 -2.0016 0.9791
4.0006 -2.8128 -2.0016 0.9791
4.0990 -2.6674 -2.0016 0.9791
4.3620 -2.2113 -2.0016 0.9791
4.5094 -1.8927 -2.0016 0.9791
4.6336 -1.5643 -2.0016 0.9791
4.6867 -1.3970 -2.0016 0.9791
4.7749 -1.0572 -2.0016 0.9791
4.8097 -0.8851 -2.0016 0.9791
4.8384 -0.7119 -2.0016 0.9791
4.8608 -0.5378 -2.0016 0.9791
4.8770 -0.3629 -2.0016 0.9791
4.8869 -0.1876 -2.0016 0.9791
4.8905 -0.0121 -2.0016 0.9791
4.8878 0.1634 -2.0016 0.9791
4.8788 0.3388 -2.0016 0.9791
4.8635 0.5137 -2.0016 0.9791
4.8141 0.8612 -2.0016 0.9791
4.7399 1.2044 -2.0016 0.9791
4.6936 1.3737 -2.0016 0.9791
4.5829 1.7069 -2.0016 0.9791
4.5187 1.8703 -2.0016 0.9791
4.2915 2.3452 -2.0016 0.9791
4.1122 2.6471 -2.0016 0.9791
3.8038 3.0738 -2.0016 0.9791
3.6910 3.2083 -2.0016 0.9791
3.5735 3.3387 -2.0016 0.9791
3.4514 3.4648 -2.0016 0.9791
2.9200 3.9231 -2.0016 0.9791
2.7773 4.0254 -2.0016 0.9791
2.6310 4.1225 -2.0016 0.9791
2.4813 4.2143 -2.0016 0.9791
1.8527 4.5260 -2.0016 0.9791
1.6890 4.5896 -2.0016 0.9791
1.3554 4.6989 -2.0016 0.9791
1.0148 4.7840 -2.0016 0.9791
0.6690 4.8445 -2.0016 0.9791
0.4947 4.8654 -2.0016 0.9791
0.1444 4.8884 -2.0016 0.9791
-0.0312 4.8904 -2.0016 0.9791
-0.3819 4.8756 -2.0016 0.9791
-0.7307 4.8356 -2.0016 0.9791
-0.9038 4.8063 -2.0016 0.9791
-1.0758 4.7707 -2.0016 0.9791
-1.2463 4.7290 -2.0016 0.9791
-1.5824 4.6274 -2.0016 0.9791
-1.7474 4.5677 -2.0016 0.9791
-1.9102 4.5020 -2.0016 0.9791
-2.0706 4.4305 -2.0016 0.9791
-2.2283 4.3533 -2.0016 0.9791
-2.3831 4.2706 -2.0016 0.9791
-2.5349 4.1823 -2.0016 0.9791
-3.1073 3.7765 -2.0016 0.9791
-3.2409 3.6625 -2.0016 0.9791
-3.3702 3.5438 -2.0016 0.9791
-3.4953 3.4205 -2.0016 0.9791
-3.6158 3.2929 -2.0016 0.9791
-3.7317 3.1610 -2.0016 0.9791
-4.0498 2.7415 -2.0016 0.9791
-1.5948 0.5692 -0.7380 0.9926
-1.5379 0.3684 -0.6892 0.9931
-1.5086 0.3046 -0.6707 0.9933
-1.5200 0.1947 -0.6678 0.9933
-1.5275 0.1402 -0.6685 0.9933
-1.5296 0.0851 -0.6676 0.9933
-1.5256 -0.0247 -0.6650 0.9934
-1.5295 -0.0797 -0.6675 0.9933
-1.5279 -0.1348 -0.6685 0.9933
-1.5210 -0.1894 -0.6680 0.9933
-1.5086 -0.2431 -0.6660 0.9934
-1.5055 -0.2984 -0.6689 0.9933
-1.5352 -0.3621 -0.6874 0.9931
-1.5600 -0.4276 -0.7050 0.9930
-1.5798 -0.4946 -0.7214 0.9928
-1.5938 -0.5625 -0.7366 0.9927
-4.2732 -1.6830 -2.0016 0.9802
-4.1414 -1.9853 -2.0016 0.9802
-3.8970 -2.2251 -1.9557 0.9806
-3.6268 -2.2472 -1.8594 0.9816
-3.5391 -2.3728 -1.8570 0.9816
-3.4517 -2.4983 -1.8570 0.9816
-3.2635 -2.7395 -1.8570 0.9816
-3.1631 -2.8548 -1.8570 0.9816
-2.8379 -3.1783 -1.8570 0.9816
-2.7220 -3.2781 -1.8570 0.9816
-2.2248 -3.6339 -1.8570 0.9816
-2.0930 -3.7115 -1.8570 0.9816
-1.9584 -3.7842 -1.8570 0.9816
-1.6819 -3.9149 -1.8570 0.9816
-1.3967 -4.0255 -1.8570 0.9816
-0.9559 -4.1523 -1.8570 0.9816
-0.8062 -4.1839 -1.8570 0.9816
-0.6555 -4.2102 -1.8570 0.9816
-0.5040 -4.2310 -1.8570 0.9816
-0.3518 -4.2464 -1.8570 0.9816
-0.1991 -4.2563 -1.8570 0.9816
-0.0463 -4.2607 -1.8570 0.9816
0.1067 -4.2596 -1.8570 0.9816
0.5640 -4.2234 -1.8570 0.9816
0.7152 -4.2005 -1.8570 0.9816
0.8655 -4.1721 -1.8570 0.9816
1.0147 -4.1383 -1.8570 0.9816
1.3090 -4.0549 -1.8570 0.9816
1.5965 -3.9505 -1.8570 0.9816
1.8758 -3.8258 -1.8570 0.9816
2.4040 -3.5180 -1.8570 0.9816
2.6502 -3.3364 -1.8570 0.9816
2.7683 -3.2392 -1.8570 0.9816
2.8827 -3.1377 -1.8570 0.9816
3.6611 -2.7729 -2.0016 0.9802
3.7583 -2.6397 -2.0016 0.9802
3.9379 -2.3633 -2.0016 0.9802
4.0202 -2.2204 -2.0016 0.9802
4.0973 -2.0747 -2.0016 0.9802
4.2966 -1.6222 -2.0016 0.9802
4.4846 -0.9906 -2.0016 0.9802
4.5172 -0.8290 -2.0016 0.9802
4.5651 -0.5028 -2.0016 0.9802
4.5802 -0.3386 -2.0016 0.9802
4.5894 -0.1740 -2.0016 0.9802
4.5927 -0.0092 -2.0016 0.9802
4.5670 0.4846 -2.0016 0.9802
4.5467 0.6482 -2.0016 0.9802
4.5205 0.8110 -2.0016 0.9802
4.4885 0.9727 -2.0016 0.9802
4.4071 1.2922 -2.0016 0.9802
4.3579 1.4495 -2.0016 0.9802
4.3031 1.6050 -2.0016 0.9802
4.0291 2.2043 -2.0016 0.9802
3.9474 2.3475 -2.0016 0.9802
3.7688 2.6247 -2.0016 0.9802
2.7404 3.6855 -2.0016 0.9802
2.4689 3.8726 -2.0016 0.9802
2.3283 3.9587 -2.0016 0.9802
2.0383 4.1156 -2.0016 0.9802
1.8893 4.1861 -2.0016 0.9802
1.7378 4.2512 -2.0016 0.9802
1.5841 4.3108 -2.0016 0.9802
1.2708 4.4134 -2.0016 0.9802
0.9509 4.4932 -2.0016 0.9802
0.6261 4.5498 -2.0016 0.9802
0.4624 4.5693 -2.0016 0.9802
0.1334 4.5907 -2.0016 0.9802
-0.0315 4.5926 -2.0016 0.9802
-0.3609 4.5785 -2.0016 0.9802
-0.5250 4.5626 -2.0016 0.9802
-0.8510 4.5131 -2.0016 0.9802
-1.3312 4.3955 -2.0016 0.9802
-1.7959 4.2270 -2.0016 0.9802
-3.0451 3.4380 -2.0016 0.9802
-3.1666 3.3265 -2.0016 0.9802
-3.6100 2.8390 -2.0016 0.9802
-3.9792 2.2932 -2.0016 0.9802
-4.0589 2.1489 -2.0016 0.9802
-4.1334 2.0018 -2.0016 0.9802
-4.2026 1.8521 -2.0016 0.9802
-1.5950 0.5701 -0.7382 0.9926
-1.5816 0.5021 -0.7232 0.9928
-1.5625 0.4350 -0.7068 0.9929
-1.5382 0.3693 -0.6894 0.9931
-1.5090 0.3054 -0.6710 0.9933
-1.5069 0.2491 -0.6657 0.9934
-1.5198 0.1954 -0.6678 0.9933
-1.5263 0.0308 -0.6653 0.9934
-1.5211 -0.1887 -0.6680 0.9933
-1.5088 -0.2424 -0.6660 0.9934
-1.5050 -0.2976 -0.6686 0.9933
-1.5349 -0.3612 -0.6872 0.9931
-1.5936 -0.5616 -0.7364 0.9927
-4.2740 -1.6810 -2.0016 0.9802
-3.6294 -2.2464 -1.8602 0.9815
-3.5403 -2.3711 -1.8570 0.9816
-3.4529 -2.4966 -1.8570 0.9816
-3.3610 -2.6190 -1.8570 0.9816
-3.2649 -2.7379 -1.8570 0.9816
-3.1645 -2.8533 -1.8570 0.9816
-2.9516 -3.0730 -1.8570 0.9816
-2.6042 -3.3725 -1.8570 0.9816
-2.4815 -3.4638 -1.8570 0.9816
-1.5422 -3.9720 -1.8570 0.9816
-1.3986 -4.0248 -1.8570 0.9816
-1.2532 -4.0724 -1.8570 0.9816
-0.9579 -4.1519 -1.8570 0.9816
-0.6575 -4.2099 -1.8570 0.9816
-0.5060 -4.2308 -1.8570 0.9816
-0.3538 -4.2462 -1.8570 0.9816
-0.0483 -4.2606 -1.8570 0.9816
0.1047 -4.2596 -1.8570 0.9816
0.2575 -4.2531 -1.8570 0.9816
0.4100 -4.2412 -1.8570 0.9816
0.5620 -4.2237 -1.8570 0.9816
1.0127 -4.1388 -1.8570 0.9816
1.4518 -4.0060 -1.8570 0.9816
1.5946 -3.9513 -1.8570 0.9816
1.8740 -3.8267 -1.8570 0.9816
2.0101 -3.7570 -1.8570 0.9816
2.2745 -3.6031 -1.8570 0.9816
2.5271 -3.4306 -1.8570 0.9816
2.6486 -3.3377 -1.8570 0.9816
2.7667 -3.2405 -1.8570 0.9816
3.4513 -3.0301 -2.0016 0.9802
3.5578 -2.9042 -2.0016 0.9802
3.6598 -2.7747 -2.0016 0.9802
3.9368 -2.3652 -2.0016 0.9802
4.0964 -2.0766 -2.0016 0.9802
4.2958 -1.6243 -2.0016 0.9802
4.3514 -1.4690 -2.0016 0.9802
4.4456 -1.1531 -2.0016 0.9802
4.5168 -0.8312 -2.0016 0.9802
4.5437 -0.6685 -2.0016 0.9802
4.5648 -0.5050 -2.0016 0.9802
4.5893 -0.1762 -2.0016 0.9802
4.5816 0.3181 -2.0016 0.9802
4.5673 0.4824 -2.0016 0.9802
4.5470 0.6460 -2.0016 0.9802
4.4078 1.2901 -2.0016 0.9802
4.3586 1.4475 -2.0016 0.9802
4.3038 1.6030 -2.0016 0.9802
4.1778 1.9076 -2.0016 0.9802
4.1066 2.0563 -2.0016 0.9802
4.0301 2.2024 -2.0016 0.9802
3.8618 2.4858 -2.0016 0.9802
3.7700 2.6229 -2.0016 0.9802
3.6735 2.7565 -2.0016 0.9802
3.5722 2.8866 -2.0016 0.9802
3.2412 3.2538 -2.0016 0.9802
2.9994 3.4780 -2.0016 0.9802
2.8726 3.5834 -2.0016 0.9802
2.6081 3.7802 -2.0016 0.9802
1.8913 4.1852 -2.0016 0.9802
1.1137 4.4556 -2.0016 0.9802
0.9530 4.4927 -2.0016 0.9802
0.3003 4.5828 -2.0016 0.9802
-0.6862 4.5411 -2.0016 0.9802
-1.3290 4.3962 -2.0016 0.9802
-1.7939 4.2278 -2.0016 0.9802
-2.5199 3.8396 -2.0016 0.9802
-2.9181 3.5465 -2.0016 0.9802
-3.0435 3.4394 -2.0016 0.9802
-3.1650 3.3280 -2.0016 0.9802
-3.3956 3.0923 -2.0016 0.9802
-3.7083 2.7094 -2.0016 0.9802
-1.3054 0.3127 -0.6213 0.9941
-1.3079 0.2641 -0.6176 0.9941
-1.3373 0.1227 -0.6216 0.9941
-1.3376 -0.1180 -0.6216 0.9941
-1.3223 -0.2131 -0.6200 0.9941
-1.3038 -0.3075 -0.6201 0.9941
-1.3182 -0.3613 -0.6327 0.9940
-1.3288 -0.4160 -0.6445 0.9939
-3.7551 -2.1441 -2.0016 0.9811
-3.3449 -2.2425 -1.8641 0.9824
-3.2498 -2.3522 -1.8570 0.9825
-3.1633 -2.4673 -1.8570 0.9825
-3.0727 -2.5793 -1.8570 0.9825
-2.9782 -2.6879 -1.8570 0.9825
-2.6720 -2.9925 -1.8570 0.9825
-2.5628 -3.0864 -1.8570 0.9825
-2.4504 -3.1764 -1.8570 0.9825
-2.3348 -3.2623 -1.8570 0.9825
-1.9706 -3.4944 -1.8570 0.9825
-1.8439 -3.5629 -1.8570 0.9825
-1.7148 -3.6268 -1.8570 0.9825
-1.1781 -3.8349 -1.8570 0.9825
-0.9000 -3.9095 -1.8570 0.9825
-0.6172 -3.9640 -1.8570 0.9825
-0.1875 -4.0074 -1.8570 0.9825
0.1005 -4.0105 -1.8570 0.9825
0.3879 -3.9930 -1.8570 0.9825
0.5310 -3.9765 -1.8570 0.9825
0.8149 -3.9281 -1.8570 0.9825
0.9554 -3.8963 -1.8570 0.9825
1.2324 -3.8178 -1.8570 0.9825
1.3687 -3.7711 -1.8570 0.9825
1.7661 -3.6021 -1.8570 0.9825
2.0200 -3.4661 -1.8570 0.9825
2.1431 -3.3914 -1.8570 0.9825
2.2634 -3.3122 -1.8570 0.9825
2.6064 -3.0498 -1.8570 0.9825
2.9191 -2.7519 -1.8570 0.9825
3.1038 -2.7224 -1.9110 0.9820
3.3511 -2.7328 -2.0016 0.9811
3.4470 -2.6108 -2.0016 0.9811
3.5385 -2.4853 -2.0016 0.9811
3.7851 -2.0906 -2.0016 0.9811
3.8578 -1.9534 -2.0016 0.9811
4.0976 -1.3812 -2.0016 0.9811
4.1445 -1.2332 -2.0016 0.9811
4.1861 -1.0836 -2.0016 0.9811
4.2531 -0.7805 -2.0016 0.9811
4.2981 -0.4734 -2.0016 0.9811
4.3210 -0.1638 -2.0016 0.9811
4.2808 0.6103 -2.0016 0.9811
4.2260 0.9158 -2.0016 0.9811
4.1494 1.2166 -2.0016 0.9811
4.1031 1.3648 -2.0016 0.9811
4.0514 1.5112 -2.0016 0.9811
3.7165 2.2103 -2.0016 0.9811
3.6348 2.3422 -2.0016 0.9811
3.4574 2.5970 -2.0016 0.9811
3.3620 2.7194 -2.0016 0.9811
2.9382 3.1725 -2.0016 0.9811
2.7030 3.3751 -2.0016 0.9811
2.5801 3.4700 -2.0016 0.9811
2.4539 3.5604 -2.0016 0.9811
2.1922 3.7272 -2.0016 0.9811
2.0570 3.8035 -2.0016 0.9811
1.7788 3.9413 -2.0016 0.9811
1.6362 4.0026 -2.0016 0.9811
1.4915 4.0587 -2.0016 0.9811
1.3448 4.1097 -2.0016 0.9811
1.1965 4.1553 -2.0016 0.9811
1.0465 4.1955 -2.0016 0.9811
0.8953 4.2304 -2.0016 0.9811
0.1256 4.3223 -2.0016 0.9811
-0.3398 4.3107 -2.0016 0.9811
-0.4943 4.2958 -2.0016 0.9811
-0.9532 4.2177 -2.0016 0.9811
-1.2533 4.1385 -2.0016 0.9811
-1.4011 4.0908 -2.0016 0.9811
-1.5470 4.0379 -2.0016 0.9811
-1.8327 3.9165 -2.0016 0.9811
-2.1089 3.7749 -2.0016 0.9811
-2.3743 3.6139 -2.0016 0.9811
-2.7490 3.3378 -2.0016 0.9811
-2.9814 3.1319 -2.0016 0.9811
-3.3008 2.7933 -2.0016 0.9811
-3.5819 2.4223 -2.0016 0.9811
-3.6666 2.2922 -2.0016 0.9811
-3.7465 2.1591 -2.0016 0.9811
-3.8216 2.0232 -2.0016 0.9811
-1.3334 0.4766 -0.6554 0.9938
-1.3056 0.3134 -0.6215 0.9941
-1.3385 0.0752 -0.6205 0.9941
-1.3361 0.0270 -0.6186 0.9941
-1.3356 -0.0210 -0.6183 0.9941
-1.3377 -0.1174 -0.6216 0.9941
-1.3320 -0.1652 -0.6213 0.9941
-1.3225 -0.2125 -0.6200 0.9941
-1.3095 -0.2589 -0.6179 0.9941
-1.3036 -0.3068 -0.6199 0.9941
-1.3181 -0.3606 -0.6325 0.9940
-1.3286 -0.4153 -0.6443 0.9939
-1.3335 -0.4700 -0.6545 0.9938
-1.3213 -0.5753 -0.6671 0.9937
-3.9001 -1.8673 -2.0016 0.9811
-3.8306 -2.0061 -2.0016 0.9811
-3.5947 -2.2249 -1.9569 0.9815
-3.3475 -2.2419 -1.8649 0.9824
-3.1645 -2.4658 -1.8570 0.9825
-3.0739 -2.5778 -1.8570 0.9825
-2.9794 -2.6865 -1.8570 0.9825
-2.7790 -2.8933 -1.8570 0.9825
-2.6734 -2.9912 -1.8570 0.9825
-2.5643 -3.0852 -1.8570 0.9825
-2.3364 -3.2612 -1.8570 0.9825
-2.2178 -3.3430 -1.8570 0.9825
-2.0964 -3.4204 -1.8570 0.9825
-1.8456 -3.5620 -1.8570 0.9825
-1.7166 -3.6260 -1.8570 0.9825
-1.3168 -3.7895 -1.8570 0.9825
-1.1800 -3.8343 -1.8570 0.9825
-0.9019 -3.9091 -1.8570 0.9825
-0.7610 -3.9389 -1.8570 0.9825
-0.6191 -3.9637 -1.8570 0.9825
-0.3331 -3.9979 -1.8570 0.9825
-0.0455 -4.0115 -1.8570 0.9825
0.0985 -4.0105 -1.8570 0.9825
0.2424 -4.0044 -1.8570 0.9825
0.3860 -3.9931 -1.8570 0.9825
0.5291 -3.9767 -1.8570 0.9825
1.0928 -3.8601 -1.8570 0.9825
1.2306 -3.8183 -1.8570 0.9825
1.3669 -3.7717 -1.8570 0.9825
1.6339 -3.6639 -1.8570 0.9825
1.7644 -3.6029 -1.8570 0.9825
1.8926 -3.5373 -1.8570 0.9825
2.0183 -3.4671 -1.8570 0.9825
2.1415 -3.3924 -1.8570 0.9825
2.2618 -3.3133 -1.8570 0.9825
2.4937 -3.1425 -1.8570 0.9825
2.7127 -2.9555 -1.8570 0.9825
3.0432 -2.6718 -1.8745 0.9823
3.3498 -2.7344 -2.0016 0.9811
3.4457 -2.6124 -2.0016 0.9811
3.7066 -2.2269 -2.0016 0.9811
3.7841 -2.0924 -2.0016 0.9811
3.8568 -1.9552 -2.0016 0.9811
3.9245 -1.8155 -2.0016 0.9811
4.0969 -1.3831 -2.0016 0.9811
4.1439 -1.2352 -2.0016 0.9811
4.1856 -1.0857 -2.0016 0.9811
4.2527 -0.7826 -2.0016 0.9811
4.2979 -0.4755 -2.0016 0.9811
4.3122 -0.3209 -2.0016 0.9811
4.3209 -0.1659 -2.0016 0.9811
4.3217 0.1445 -2.0016 0.9811
4.3002 0.4542 -2.0016 0.9811
4.2811 0.6082 -2.0016 0.9811
4.2264 0.9138 -2.0016 0.9811
4.1500 1.2146 -2.0016 0.9811
4.1037 1.3628 -2.0016 0.9811
3.8665 1.9361 -2.0016 0.9811
3.7945 2.0736 -2.0016 0.9811
3.7176 2.2085 -2.0016 0.9811
3.6359 2.3405 -2.0016 0.9811
3.3633 2.7178 -2.0016 0.9811
3.2636 2.8367 -2.0016 0.9811
3.1596 2.9521 -2.0016 0.9811
3.0516 3.0636 -2.0016 0.9811
2.7046 3.3738 -2.0016 0.9811
2.5818 3.4687 -2.0016 0.9811
2.4556 3.5592 -2.0016 0.9811
2.3263 3.6450 -2.0016 0.9811
2.0588 3.8025 -2.0016 0.9811
1.7807 3.9404 -2.0016 0.9811
1.6381 4.0018 -2.0016 0.9811
1.4934 4.0580 -2.0016 0.9811
1.1985 4.1547 -2.0016 0.9811
0.4374 4.3019 -2.0016 0.9811
0.2827 4.3148 -2.0016 0.9811
-0.0276 4.3240 -2.0016 0.9811
-0.6461 4.2756 -2.0016 0.9811
-1.1020 4.1813 -2.0016 0.9811
-1.2513 4.1391 -2.0016 0.9811
-1.3991 4.0915 -2.0016 0.9811
-1.6890 3.9806 -2.0016 0.9811
-1.9702 3.8492 -2.0016 0.9811
-2.1071 3.7760 -2.0016 0.9811
-2.2413 3.6979 -2.0016 0.9811
-2.3726 3.6151 -2.0016 0.9811
-2.8655 3.2383 -2.0016 0.9811
-2.9799 3.1334 -2.0016 0.9811
-3.1970 2.9115 -2.0016 0.9811
-3.2995 2.7949 -2.0016 0.9811
-3.3977 2.6747 -2.0016 0.9811
-3.5808 2.4240 -2.0016 0.9811
-1.1560 0.4126 -0.6021 0.9945
-1.1586 0.3672 -0.5962 0.9946
-1.1588 0.3220 -0.5899 0.9947
-1.1738 0.2370 -0.5874 0.9947
-1.1826 0.1949 -0.5879 0.9947
-1.1893 0.1524 -0.5881 0.9947
-1.1938 0.1095 -0.5880 0.9947
-1.1961 0.0666 -0.5876 0.9947
-1.1963 0.0236 -0.5869 0.9947
-1.1962 -0.0194 -0.5868 0.9947
-1.1962 -0.0624 -0.5876 0.9947
-1.1898 -0.1482 -0.5881 0.9947
-1.1833 -0.1907 -0.5879 0.9947
-1.1747 -0.2329 -0.5874 0.9947
-1.1640 -0.2745 -0.5866 0.9947
-1.1587 -0.3176 -0.5893 0.9947
-1.1587 -0.3628 -0.5956 0.9946
-1.1516 -0.4536 -0.6071 0.9945
-1.1209 -0.5877 -0.6208 0.9944
-3.5435 -2.0233 -2.0016 0.9820
-3.3179 -2.2244 -1.9594 0.9824
-3.0951 -2.2402 -1.8742 0.9831
-2.9851 -2.3283 -1.8570 0.9833
-2.8996 -2.4339 -1.8570 0.9833
-2.7175 -2.6357 -1.8570 0.9833
-2.6211 -2.7315 -1.8570 0.9833
-2.5214 -2.8238 -1.8570 0.9833
-2.3123 -2.9975 -1.8570 0.9833
-2.0913 -3.1556 -1.8570 0.9833
-1.9767 -3.2287 -1.8570 0.9833
-1.7400 -3.3621 -1.8570 0.9833
-1.4943 -3.4783 -1.8570 0.9833
-1.2409 -3.5766 -1.8570 0.9833
-1.1117 -3.6188 -1.8570 0.9833
-0.8493 -3.6892 -1.8570 0.9833
-0.7163 -3.7173 -1.8570 0.9833
-0.5824 -3.7406 -1.8570 0.9833
-0.4478 -3.7591 -1.8570 0.9833
-0.1769 -3.7816 -1.8570 0.9833
0.2306 -3.7787 -1.8570 0.9833
0.3661 -3.7680 -1.8570 0.9833
0.9015 -3.6768 -1.8570 0.9833
1.1630 -3.6026 -1.8570 0.9833
1.4185 -3.5099 -1.8570 0.9833
1.5435 -3.4568 -1.8570 0.9833
2.0223 -3.2003 -1.8570 0.9833
2.1359 -3.1256 -1.8570 0.9833
2.2467 -3.0469 -1.8570 0.9833
2.3546 -2.9643 -1.8570 0.9833
2.4595 -2.8779 -1.8570 0.9833
2.5612 -2.7878 -1.8570 0.9833
2.6596 -2.6940 -1.8570 0.9833
2.9525 -2.5896 -1.9264 0.9827
3.1623 -2.5788 -2.0016 0.9820
3.2528 -2.4636 -2.0016 0.9820
3.3391 -2.3453 -2.0016 0.9820
3.4211 -2.2239 -2.0016 0.9820
3.5719 -1.9728 -2.0016 0.9820
3.9844 -0.8801 -2.0016 0.9820
4.0134 -0.7366 -2.0016 0.9820
4.0373 -0.5920 -2.0016 0.9820
4.0559 -0.4467 -2.0016 0.9820
4.0694 -0.3009 -2.0016 0.9820
4.0775 -0.1546 -2.0016 0.9820
4.0705 0.2846 -2.0016 0.9820
4.0396 0.5759 -2.0016 0.9820
4.0163 0.7205 -2.0016 0.9820
3.9318 1.0011 -1.9902 0.9821
3.7695 1.5623 -2.0016 0.9820
3.7110 1.6966 -2.0016 0.9820
3.6477 1.8287 -2.0016 0.9820
3.1725 2.5662 -2.0016 0.9820
2.9803 2.7871 -2.0016 0.9820
2.7726 2.9938 -2.0016 0.9820
2.5507 3.1850 -2.0016 0.9820
2.4348 3.2745 -2.0016 0.9820
1.9411 3.5892 -2.0016 0.9820
1.6786 3.7192 -2.0016 0.9820
1.5440 3.7771 -2.0016 0.9820
1.4074 3.8300 -2.0016 0.9820
1.2691 3.8781 -2.0016 0.9820
1.1290 3.9212 -2.0016 0.9820
0.9876 3.9592 -2.0016 0.9820
0.8448 3.9920 -2.0016 0.9820
0.5563 4.0424 -2.0016 0.9820
0.2648 4.0719 -2.0016 0.9820
0.1185 4.0787 -2.0016 0.9820
-0.1744 4.0767 -2.0016 0.9820
-0.4664 4.0537 -2.0016 0.9820
-0.6116 4.0344 -2.0016 0.9820
-1.4598 3.8104 -2.0016 0.9820
-1.5956 3.7555 -2.0016 0.9820
-1.7294 3.6958 -2.0016 0.9820
-1.8610 3.6314 -2.0016 0.9820
-1.9901 3.5622 -2.0016 0.9820
-2.2405 3.4103 -2.0016 0.9820
-2.4794 3.2408 -2.0016 0.9820
-2.7055 3.0545 -2.0016 0.9820
-2.9177 2.8526 -2.0016 0.9820
-3.3801 2.2858 -2.0016 0.9820
-3.4600 2.1630 -2.0016 0.9820
-1.1187 0.5922 -0.6209 0.9944
-1.1434 0.5039 -0.6129 0.9944
-1.1510 0.4586 -0.6077 0.9945
-1.1560 0.4132 -0.6022 0.9945
-1.1626 0.2791 -0.5865 0.9947
-1.1736 0.2375 -0.5874 0.9947
-1.1825 0.1954 -0.5879 0.9947
-1.1961 0.0672 -0.5876 0.9947
-1.1963 0.0242 -0.5869 0.9947
-1.1941 -0.1048 -0.5880 0.9947
-1.1899 -0.1476 -0.5881 0.9947
-1.1834 -0.1902 -0.5879 0.9947
-1.1749 -0.2323 -0.5875 0.9947
-1.1587 -0.3621 -0.5955 0.9946
-1.1445 -0.4983 -0.6123 0.9945
-1.1348 -0.5433 -0.6172 0.9944
-1.1211 -0.5871 -0.6208 0.9944
-3.3210 -2.2242 -1.9606 0.9823
-2.8116 -2.5351 -1.8570 0.9833
-2.7188 -2.6344 -1.8570 0.9833
-2.6225 -2.7303 -1.8570 0.9833
-2.4198 -2.9114 -1.8570 0.9833
-2.3138 -2.9964 -1.8570 0.9833
-2.2047 -3.0775 -1.8570 0.9833
-1.6198 -3.4217 -1.8570 0.9833
-1.4960 -3.4776 -1.8570 0.9833
-0.7181 -3.7170 -1.8570 0.9833
-0.4496 -3.7589 -1.8570 0.9833
-0.1787 -3.7815 -1.8570 0.9833
0.2288 -3.7788 -1.8570 0.9833
0.3643 -3.7681 -1.8570 0.9833
0.4993 -3.7526 -1.8570 0.9833
0.7672 -3.7072 -1.8570 0.9833
1.0312 -3.6426 -1.8570 0.9833
1.1613 -3.6032 -1.8570 0.9833
1.2899 -3.5592 -1.8570 0.9833
1.5419 -3.4575 -1.8570 0.9833
1.7859 -3.3380 -1.8570 0.9833
2.1344 -3.1266 -1.8570 0.9833
2.2453 -3.0480 -1.8570 0.9833
2.3532 -2.9655 -1.8570 0.9833
2.4581 -2.8791 -1.8570 0.9833
2.5599 -2.7890 -1.8570 0.9833
2.6584 -2.6953 -1.8570 0.9833
2.9420 -2.5830 -1.9204 0.9827
3.2516 -2.4652 -2.0016 0.9820
3.4201 -2.2256 -2.0016 0.9820
3.5709 -1.9745 -2.0016 0.9820
3.6395 -1.8451 -2.0016 0.9820
3.7625 -1.5792 -2.0016 0.9820
3.9104 -1.1656 -2.0016 0.9820
3.9498 -1.0245 -2.0016 0.9820
4.0131 -0.7385 -2.0016 0.9820
4.0370 -0.5940 -2.0016 0.9820
4.0557 -0.4487 -2.0016 0.9820
4.0692 -0.3028 -2.0016 0.9820
4.0775 -0.1566 -2.0016 0.9820
4.0805 -0.0101 -2.0016 0.9820
4.0707 0.2826 -2.0016 0.9820
4.0399 0.5740 -2.0016 0.9820
3.9696 0.8583 -1.9922 0.9821
3.8238 1.4242 -2.0016 0.9820
3.7703 1.5605 -2.0016 0.9820
3.6486 1.8270 -2.0016 0.9820
3.5081 2.0840 -2.0016 0.9820
3.4311 2.2086 -2.0016 0.9820
3.2638 2.4491 -2.0016 0.9820
3.0797 2.6769 -2.0016 0.9820
2.9816 2.7857 -2.0016 0.9820
2.8797 2.8909 -2.0016 0.9820
2.7741 2.9924 -2.0016 0.9820
2.5522 3.1837 -2.0016 0.9820
2.4363 3.2733 -2.0016 0.9820
2.3173 3.3586 -2.0016 0.9820
2.1952 3.4396 -2.0016 0.9820
2.0703 3.5162 -2.0016 0.9820
1.9428 3.5883 -2.0016 0.9820
1.8127 3.6557 -2.0016 0.9820
1.6804 3.7184 -2.0016 0.9820
1.2709 3.8775 -2.0016 0.9820
1.1309 3.9206 -2.0016 0.9820
0.9895 3.9587 -2.0016 0.9820
0.8467 3.9916 -2.0016 0.9820
0.5582 4.0421 -2.0016 0.9820
0.4128 4.0595 -2.0016 0.9820
0.2668 4.0717 -2.0016 0.9820
0.1205 4.0787 -2.0016 0.9820
-0.0260 4.0804 -2.0016 0.9820
-0.1725 4.0768 -2.0016 0.9820
-0.3187 4.0680 -2.0016 0.9820
-0.4645 4.0539 -2.0016 0.9820
-0.6097 4.0347 -2.0016 0.9820
-1.4580 3.8111 -2.0016 0.9820
-1.7277 3.6967 -2.0016 0.9820
-2.3599 3.3288 -2.0016 0.9820
-2.4779 3.2420 -2.0016 0.9820
-2.5926 3.1509 -2.0016 0.9820
-2.7041 3.0558 -2.0016 0.9820
-2.8120 2.9568 -2.0016 0.9820
