ply
format ascii 1.0
element vertex 1593
property float32 x
property float32 y
property float32 z
property float32 I
end_header
-0.1436 6.5059 -2.0016 0.9731
-1.0746 6.4181 -2.0016 0.9731
-1.5330 6.3243 -2.0016 0.9731
-2.6392 5.9483 -2.0016 0.9731
-2.8513 5.8495 -2.0016 0.9731
-3.6603 5.3804 -2.0016 0.9731
-4.0375 5.1035 -2.0016 0.9731
-4.3938 4.8002 -2.0016 0.9731
-4.7273 4.4721 -2.0016 0.9731
-5.0364 4.1209 -2.0016 0.9731
-5.3195 3.7483 -2.0016 0.9731
-5.5751 3.3564 -2.0016 0.9731
-5.9986 2.5227 -2.0016 0.9731
-6.2983 1.6368 -2.0016 0.9731
-6.3530 1.4093 -2.0016 0.9731
-6.3996 1.1800 -2.0016 0.9731
-6.4379 0.9492 -2.0016 0.9731
-6.5038 -0.2173 -2.0016 0.9731
-6.4714 -0.6841 -2.0016 0.9731
-6.4055 -1.1473 -2.0016 0.9731
-6.3065 -1.6046 -2.0016 0.9731
-6.2448 -1.8303 -2.0016 0.9731
-6.1749 -2.0536 -2.0016 0.9731
-5.3967 -2.7068 -1.8570 0.9751
-5.2959 -2.8990 -1.8570 0.9751
-5.0739 -3.2721 -1.8570 0.9751
-4.9530 -3.4523 -1.8570 0.9751
-4.5525 -3.9655 -1.8570 0.9751
-4.0991 -4.4326 -1.8570 0.9751
-3.9371 -4.5771 -1.8570 0.9751
-3.4214 -4.9744 -1.8570 0.9751
-3.2404 -5.0942 -1.8570 0.9751
-3.0551 -5.2074 -1.8570 0.9751
-2.8659 -5.3138 -1.8570 0.9751
-2.6731 -5.4134 -1.8570 0.9751
-2.2772 -5.5915 -1.8570 0.9751
-2.0151 -6.1876 -2.0016 0.9731
-1.3372 -6.3686 -2.0016 0.9731
-0.6437 -6.4756 -2.0016 0.9731
-0.4105 -6.4945 -2.0016 0.9731
-0.1768 -6.5051 -2.0016 0.9731
0.5246 -6.4863 -2.0016 0.9731
0.7574 -6.4632 -2.0016 0.9731
0.9893 -6.4318 -2.0016 0.9731
1.2199 -6.3921 -2.0016 0.9731
1.4489 -6.3441 -2.0016 0.9731
2.1235 -6.1513 -2.0016 0.9731
2.3751 -5.5506 -1.8570 0.9751
2.0741 -4.4025 -1.4969 0.9798
2.1121 -4.0946 -1.4171 0.9809
3.3911 -5.5541 -2.0016 0.9731
3.9694 -5.1567 -2.0016 0.9731
4.5015 -4.6993 -2.0016 0.9731
5.2693 -3.8186 -2.0016 0.9731
5.5300 -3.4301 -2.0016 0.9731
5.6498 -3.2291 -2.0016 0.9731
5.7622 -3.0239 -2.0016 0.9731
6.0543 -2.3860 -2.0016 0.9731
6.1362 -2.1668 -2.0016 0.9731
6.3338 -1.4935 -2.0016 0.9731
6.4578 -0.8029 -2.0016 0.9731
6.4825 -0.5703 -2.0016 0.9731
6.5067 -0.1030 -2.0016 0.9731
6.5062 0.1310 -2.0016 0.9731
6.4972 0.3648 -2.0016 0.9731
6.4542 0.8307 -2.0016 0.9731
6.4202 1.0622 -2.0016 0.9731
6.3779 1.2923 -2.0016 0.9731
6.2685 1.7473 -2.0016 0.9731
6.1268 2.1931 -2.0016 0.9731
5.8550 2.8400 -2.0016 0.9731
5.6358 3.2534 -2.0016 0.9731
5.5152 3.4539 -2.0016 0.9731
5.3875 3.6499 -2.0016 0.9731
4.9632 4.2088 -2.0016 0.9731
4.6480 4.5545 -2.0016 0.9731
4.4812 4.7187 -2.0016 0.9731
3.9472 5.1737 -2.0016 0.9731
3.7586 5.3123 -2.0016 0.9731
2.9584 5.7961 -2.0016 0.9731
2.7481 5.8988 -2.0016 0.9731
2.3171 6.0810 -2.0016 0.9731
2.0970 6.1603 -2.0016 0.9731
1.6490 6.2951 -2.0016 0.9731
0.7296 6.4664 -2.0016 0.9731
0.4967 6.4885 -2.0016 0.9731
0.2631 6.5022 -2.0016 0.9731
-1.1350 6.4077 -2.0016 0.9731
-1.5924 6.3096 -2.0016 0.9731
-1.8182 6.2483 -2.0016 0.9731
-2.0417 6.1789 -2.0016 0.9731
-2.4804 6.0162 -2.0016 0.9731
-2.9062 5.8225 -2.0016 0.9731
-3.1137 5.7142 -2.0016 0.9731
-3.5162 5.4757 -2.0016 0.9731
-4.0853 5.0653 -2.0016 0.9731
-4.6069 4.5960 -2.0016 0.9731
-4.7692 4.4274 -2.0016 0.9731
-5.0750 4.0733 -2.0016 0.9731
-5.4840 3.5032 -2.0016 0.9731
-5.7216 3.1001 -2.0016 0.9731
-5.8293 2.8924 -2.0016 0.9731
-6.0221 2.4661 -2.0016 0.9731
-6.1837 2.0270 -2.0016 0.9731
-6.2526 1.8034 -2.0016 0.9731
-6.3660 1.3495 -2.0016 0.9731
-6.4465 0.8886 -2.0016 0.9731
-6.4743 0.6562 -2.0016 0.9731
-6.4873 -0.5121 -2.0016 0.9731
-6.3945 -1.2075 -2.0016 0.9731
-6.2912 -1.6639 -2.0016 0.9731
-5.8171 -2.2324 -1.9164 0.9743
-5.5552 -2.3644 -1.8570 0.9751
-5.3710 -2.7574 -1.8570 0.9751
-4.7913 -3.6734 -1.8570 0.9751
-4.6561 -3.8433 -1.8570 0.9751
-4.5150 -4.0082 -1.8570 0.9751
-4.2153 -4.3222 -1.8570 0.9751
-4.0572 -4.4710 -1.8570 0.9751
-3.8938 -4.6140 -1.8570 0.9751
-3.7254 -4.7510 -1.8570 0.9751
-3.5522 -4.8818 -1.8570 0.9751
-3.3744 -5.0064 -1.8570 0.9751
-3.1923 -5.1244 -1.8570 0.9751
-3.0060 -5.2359 -1.8570 0.9751
-2.8158 -5.3406 -1.8570 0.9751
-2.1786 -6.1320 -2.0016 0.9731
-1.9568 -6.2063 -2.0016 0.9731
-1.5058 -6.3309 -2.0016 0.9731
-1.2772 -6.3809 -2.0016 0.9731
-0.8154 -6.4562 -2.0016 0.9731
-0.5828 -6.4813 -2.0016 0.9731
-0.1156 -6.5065 -2.0016 0.9731
0.3522 -6.4979 -2.0016 0.9731
1.0498 -6.4222 -2.0016 0.9731
1.2800 -6.3804 -2.0016 0.9731
1.5085 -6.3302 -2.0016 0.9731
1.7351 -6.2719 -2.0016 0.9731
1.9595 -6.2055 -2.0016 0.9731
2.2269 -5.6117 -1.8570 0.9751
3.6395 -5.3945 -2.0016 0.9731
3.8311 -5.2602 -2.0016 0.9731
4.1992 -4.9713 -2.0016 0.9731
5.0167 3.3303 -2.0016 0.9749
4.8937 3.5085 -2.0016 0.9749
4.7644 3.6821 -2.0016 0.9749
4.6290 3.8510 -2.0016 0.9749
4.4875 4.0150 -2.0016 0.9749
4.1874 4.3270 -2.0016 0.9749
4.0292 4.4748 -2.0016 0.9749
3.8657 4.6167 -2.0016 0.9749
3.6972 4.7527 -2.0016 0.9749
3.5240 4.8825 -2.0016 0.9749
3.3462 5.0061 -2.0016 0.9749
3.1641 5.1231 -2.0016 0.9749
2.5941 5.4340 -2.0016 0.9749
2.1969 5.6064 -2.0016 0.9749
1.9940 5.6817 -2.0016 0.9749
1.7884 5.7497 -2.0016 0.9749
1.3707 5.8634 -2.0016 0.9749
1.1590 5.9089 -2.0016 0.9749
0.5161 5.9993 -2.0016 0.9749
0.3001 6.0140 -2.0016 0.9749
-0.3492 6.0113 -2.0016 0.9749
-0.5650 5.9949 -2.0016 0.9749
-0.7802 5.9707 -2.0016 0.9749
-0.9943 5.9388 -2.0016 0.9749
-1.2072 5.8992 -2.0016 0.9749
-1.4185 5.8520 -2.0016 0.9749
-1.6280 5.7972 -2.0016 0.9749
-2.4421 5.5040 -2.0016 0.9749
-2.6384 5.4126 -2.0016 0.9749
-3.0205 5.2091 -2.0016 0.9749
-3.2058 5.0971 -2.0016 0.9749
-3.7359 4.7224 -2.0016 0.9749
-3.9033 4.5850 -2.0016 0.9749
-4.0656 4.4417 -2.0016 0.9749
-4.2226 4.2927 -2.0016 0.9749
-4.3742 4.1381 -2.0016 0.9749
-4.5202 3.9782 -2.0016 0.9749
-4.6603 3.8131 -2.0016 0.9749
-4.9222 3.4684 -2.0016 0.9749
-5.1587 3.1057 -2.0016 0.9749
-5.2670 2.9183 -2.0016 0.9749
-5.4631 2.5323 -2.0016 0.9749
-5.5506 2.3343 -2.0016 0.9749
-5.7040 1.9294 -2.0016 0.9749
-5.8785 1.3041 -2.0016 0.9749
-5.9570 0.8783 -2.0016 0.9749
-5.9848 0.6636 -2.0016 0.9749
-6.0048 0.4480 -2.0016 0.9749
-6.0214 0.0154 -2.0016 0.9749
-6.0070 -0.4173 -2.0016 0.9749
-5.9881 -0.6330 -2.0016 0.9749
-5.9615 -0.8479 -2.0016 0.9749
-5.9271 -1.0616 -2.0016 0.9749
-5.8355 -1.4848 -2.0016 0.9749
-5.6417 -2.1044 -2.0016 0.9749
-4.4652 -3.3572 -1.8570 0.9767
-4.3416 -3.5155 -1.8570 0.9767
-4.0778 -3.8184 -1.8570 0.9767
-3.7929 -4.1015 -1.8570 0.9767
-3.6430 -4.2352 -1.8570 0.9767
-3.4884 -4.3635 -1.8570 0.9767
-3.3293 -4.4861 -1.8570 0.9767
-2.8269 -4.8184 -1.8570 0.9767
-2.4734 -5.0091 -1.8570 0.9767
-2.2917 -5.0948 -1.8570 0.9767
-2.1071 -5.1739 -1.8570 0.9767
-1.7299 -5.3119 -1.8570 0.9767
-1.3437 -5.4225 -1.8570 0.9767
-1.1479 -5.4673 -1.8570 0.9767
-0.3524 -5.5754 -1.8570 0.9767
0.0491 -5.5863 -1.8570 0.9767
0.2499 -5.5809 -1.8570 0.9767
0.6503 -5.5485 -1.8570 0.9767
0.8493 -5.5216 -1.8570 0.9767
1.4388 -5.3980 -1.8570 0.9767
1.8230 -5.2807 -1.8570 0.9767
2.0116 -5.2117 -1.8570 0.9767
2.0598 -4.3721 -1.6065 0.9798
2.2866 -4.0669 -1.5509 0.9805
2.9112 -4.7680 -1.8570 0.9767
3.2463 -4.5465 -1.8570 0.9767
4.1653 -4.3483 -2.0016 0.9749
4.9996 -3.3558 -2.0016 0.9749
5.1170 -3.1739 -2.0016 0.9749
5.2278 -2.9879 -2.0016 0.9749
5.5191 -2.4077 -2.0016 0.9749
5.6021 -2.2078 -2.0016 0.9749
5.6779 -2.0049 -2.0016 0.9749
5.7463 -1.7995 -2.0016 0.9749
5.8607 -1.3820 -2.0016 0.9749
5.9066 -1.1704 -2.0016 0.9749
5.9754 -0.7430 -2.0016 0.9749
5.9983 -0.5277 -2.0016 0.9749
6.0134 -0.3117 -2.0016 0.9749
6.0207 -0.0953 -2.0016 0.9749
6.0120 0.3376 -2.0016 0.9749
5.9959 0.5535 -2.0016 0.9749
5.9722 0.7687 -2.0016 0.9749
5.9015 1.1958 -2.0016 0.9749
5.8547 1.4072 -2.0016 0.9749
5.8003 1.6168 -2.0016 0.9749
5.7385 1.8242 -2.0016 0.9749
5.5926 2.2318 -2.0016 0.9749
5.4177 2.6279 -2.0016 0.9749
5.3198 2.8210 -2.0016 0.9749
5.2149 3.0104 -2.0016 0.9749
4.7296 3.7268 -2.0016 0.9749
4.5925 3.8944 -2.0016 0.9749
4.3008 4.2143 -2.0016 0.9749
3.9869 4.5125 -2.0016 0.9749
3.8221 4.6529 -2.0016 0.9749
3.4779 4.9155 -2.0016 0.9749
3.2989 5.0373 -2.0016 0.9749
2.7374 5.3632 -2.0016 0.9749
2.5428 5.4582 -2.0016 0.9749
1.9404 5.7002 -2.0016 0.9749
1.5258 5.8249 -2.0016 0.9749
0.8898 5.9553 -2.0016 0.9749
0.4596 6.0039 -2.0016 0.9749
0.2435 6.0165 -2.0016 0.9749
0.0270 6.0214 -2.0016 0.9749
-0.1895 6.0185 -2.0016 0.9749
-0.4057 6.0078 -2.0016 0.9749
-1.2627 5.8876 -2.0016 0.9749
-1.4735 5.8384 -2.0016 0.9749
-1.8892 5.7174 -2.0016 0.9749
-2.2951 5.5669 -2.0016 0.9749
-2.8811 5.2874 -2.0016 0.9749
-3.2536 5.0667 -2.0016 0.9749
-3.4336 4.9465 -2.0016 0.9749
-3.7802 4.6870 -2.0016 0.9749
-3.9462 4.5481 -2.0016 0.9749
-4.4130 4.0968 -2.0016 0.9749
-5.2942 2.8686 -2.0016 0.9749
-5.3939 2.6764 -2.0016 0.9749
-5.4867 2.4808 -2.0016 0.9749
-5.6507 2.0801 -2.0016 0.9749
-5.7219 1.8756 -2.0016 0.9749
-5.8418 1.4597 -2.0016 0.9749
-5.9316 1.0361 -2.0016 0.9749
-5.9907 0.6072 -2.0016 0.9749
-6.0213 -0.0413 -2.0016 0.9749
-5.9819 -0.6893 -2.0016 0.9749
-5.9532 -0.9039 -2.0016 0.9749
-5.8729 -1.3293 -2.0016 0.9749
-5.8213 -1.5396 -2.0016 0.9749
-5.6956 -1.9539 -2.0016 0.9749
-5.6217 -2.1574 -2.0016 0.9749
-5.2533 -2.2359 -1.8978 0.9762
-5.0583 -2.3711 -1.8570 0.9767
-4.7736 -2.9020 -1.8570 0.9767
-4.5528 -3.2375 -1.8570 0.9767
-4.4334 -3.3991 -1.8570 0.9767
-4.3084 -3.5562 -1.8570 0.9767
-3.9005 -3.9994 -1.8570 0.9767
-3.7542 -4.1371 -1.8570 0.9767
-3.4472 -4.3961 -1.8570 0.9767
-2.9538 -4.7417 -1.8570 0.9767
-2.6055 -4.9417 -1.8570 0.9767
-2.4262 -5.0322 -1.8570 0.9767
-1.6798 -5.3280 -1.8570 0.9767
-1.2927 -5.4349 -1.8570 0.9767
-0.8988 -5.5137 -1.8570 0.9767
-0.5003 -5.5640 -1.8570 0.9767
-0.0992 -5.5856 -1.8570 0.9767
0.1017 -5.5856 -1.8570 0.9767
0.3024 -5.5783 -1.8570 0.9767
0.5027 -5.5638 -1.8570 0.9767
0.9012 -5.5133 -1.8570 0.9767
1.0988 -5.4774 -1.8570 0.9767
1.2950 -5.4343 -1.8570 0.9767
2.0606 -5.1926 -1.8570 0.9767
2.2459 -5.1151 -1.8570 0.9767
2.1478 -4.0693 -1.5295 0.9808
2.3367 -4.0660 -1.5589 0.9804
2.9559 -4.7404 -1.8570 0.9767
3.1244 -4.6311 -1.8570 0.9767
3.4491 -4.3946 -1.8570 0.9767
4.6455 -3.8311 -2.0016 0.9749
5.1467 -3.1256 -2.0016 0.9749
4.6631 3.0956 -2.0016 0.9765
4.5488 3.2612 -2.0016 0.9765
4.3028 3.5796 -2.0016 0.9765
4.0344 3.8796 -2.0016 0.9765
3.7452 4.1594 -2.0016 0.9765
3.5933 4.2914 -2.0016 0.9765
3.1104 4.6533 -2.0016 0.9765
2.9411 4.7621 -2.0016 0.9765
2.5913 4.9611 -2.0016 0.9765
2.2281 5.1345 -2.0016 0.9765
1.8534 5.2813 -2.0016 0.9765
1.4692 5.4008 -2.0016 0.9765
0.2789 5.5901 -2.0016 0.9765
-0.7252 5.5499 -2.0016 0.9765
-0.9243 5.5203 -2.0016 0.9765
-1.7060 5.3308 -2.0016 0.9765
-2.0846 5.1944 -2.0016 0.9765
-2.2700 5.1161 -2.0016 0.9765
-2.4524 5.0312 -2.0016 0.9765
-2.6317 4.9398 -2.0016 0.9765
-2.8076 4.8420 -2.0016 0.9765
-2.9799 4.7379 -2.0016 0.9765
-3.1483 4.6277 -2.0016 0.9765
-3.6282 4.2619 -2.0016 0.9765
-3.9251 3.9902 -2.0016 0.9765
-4.2016 3.6978 -2.0016 0.9765
-4.3318 3.5444 -2.0016 0.9765
-5.0781 2.3538 -2.0016 0.9765
-5.1594 2.1697 -2.0016 0.9765
-5.2341 1.9829 -2.0016 0.9765
-5.3020 1.7934 -2.0016 0.9765
-5.3630 1.6017 -2.0016 0.9765
-5.4171 1.4078 -2.0016 0.9765
-5.5043 1.0149 -2.0016 0.9765
-5.5816 0.4164 -2.0016 0.9765
-5.5971 0.0143 -2.0016 0.9765
-5.5940 -0.1869 -2.0016 0.9765
-5.5661 -0.5884 -2.0016 0.9765
-5.3711 -1.5742 -2.0016 0.9765
-5.2441 -1.9561 -2.0016 0.9765
-4.8803 -2.2319 -1.9191 0.9775
-4.2600 -2.9694 -1.8570 0.9782
-3.9156 -3.4108 -1.8570 0.9782
-3.6604 -3.6833 -1.8570 0.9782
-3.5256 -3.8125 -1.8570 0.9782
-3.3863 -3.9368 -1.8570 0.9782
-2.9427 -4.2785 -1.8570 0.9782
-2.4650 -4.5704 -1.8570 0.9782
-1.2490 -5.0403 -1.8570 0.9782
-0.8836 -5.1171 -1.8570 0.9782
-0.3276 -5.1825 -1.8570 0.9782
-0.1411 -5.1909 -1.8570 0.9782
0.0456 -5.1926 -1.8570 0.9782
0.4186 -5.1759 -1.8570 0.9782
0.7894 -5.1324 -1.8570 0.9782
0.9734 -5.1007 -1.8570 0.9782
1.5170 -4.9663 -1.8570 0.9782
2.0428 -4.7741 -1.8570 0.9782
2.0103 -4.2670 -1.6868 0.9802
2.1056 -4.0820 -1.6425 0.9807
2.2784 -4.0523 -1.6625 0.9804
2.4514 -4.0150 -1.6823 0.9802
3.0175 -4.2261 -1.8570 0.9782
3.1675 -4.1149 -1.8570 0.9782
3.3133 -3.9984 -1.8570 0.9782
3.8717 -4.0419 -2.0016 0.9765
4.4111 -3.4452 -2.0016 0.9765
4.8594 -2.7774 -2.0016 0.9765
4.9561 -2.6009 -2.0016 0.9765
5.1302 -2.2380 -2.0016 0.9765
5.2073 -2.0522 -2.0016 0.9765
5.2777 -1.8636 -2.0016 0.9765
5.3413 -1.6727 -2.0016 0.9765
5.3980 -1.4796 -2.0016 0.9765
5.4903 -1.0879 -2.0016 0.9765
5.5756 -0.4905 -2.0016 0.9765
5.5964 -0.0886 -2.0016 0.9765
5.4856 1.1115 -2.0016 0.9765
5.4421 1.3080 -2.0016 0.9765
5.3916 1.5028 -2.0016 0.9765
5.3341 1.6957 -2.0016 0.9765
5.2697 1.8863 -2.0016 0.9765
5.1984 2.0746 -2.0016 0.9765
5.1205 2.2601 -2.0016 0.9765
5.0359 2.4427 -2.0016 0.9765
4.9449 2.6222 -2.0016 0.9765
4.7437 2.9707 -2.0016 0.9765
4.6338 3.1393 -2.0016 0.9765
4.3963 3.4642 -2.0016 0.9765
4.2689 3.6200 -2.0016 0.9765
4.1360 3.7711 -2.0016 0.9765
3.9977 3.9173 -2.0016 0.9765
3.5527 4.3250 -2.0016 0.9765
3.3950 4.4499 -2.0016 0.9765
3.2328 4.5691 -2.0016 0.9765
3.0664 4.6823 -2.0016 0.9765
2.8961 4.7896 -2.0016 0.9765
2.5445 4.9853 -2.0016 0.9765
1.8037 5.2985 -2.0016 0.9765
1.4183 5.4144 -2.0016 0.9765
1.2227 5.4619 -2.0016 0.9765
0.6276 5.5618 -2.0016 0.9765
0.4272 5.5808 -2.0016 0.9765
0.0251 5.5970 -2.0016 0.9765
-0.1761 5.5943 -2.0016 0.9765
-0.5776 5.5672 -2.0016 0.9765
-0.7774 5.5428 -2.0016 0.9765
-0.9762 5.5113 -2.0016 0.9765
-1.1737 5.4727 -2.0016 0.9765
-1.3697 5.4269 -2.0016 0.9765
-1.5639 5.3742 -2.0016 0.9765
-1.7560 5.3145 -2.0016 0.9765
-2.3180 5.0945 -2.0016 0.9765
-2.4997 5.0079 -2.0016 0.9765
-2.6781 4.9148 -2.0016 0.9765
-2.8530 4.8153 -2.0016 0.9765
-3.0243 4.7097 -2.0016 0.9765
-3.6681 4.2275 -2.0016 0.9765
-3.9624 3.9530 -2.0016 0.9765
-4.3650 3.5035 -2.0016 0.9765
-4.6054 3.1808 -2.0016 0.9765
-5.1000 2.3059 -2.0016 0.9765
-5.1796 2.1211 -2.0016 0.9765
-5.2525 1.9335 -2.0016 0.9765
-5.3186 1.7435 -2.0016 0.9765
-5.3779 1.5511 -2.0016 0.9765
-5.4302 1.3568 -2.0016 0.9765
-5.5136 0.9631 -2.0016 0.9765
-5.5686 0.5644 -2.0016 0.9765
-5.5852 0.3639 -2.0016 0.9765
-5.5920 -0.2396 -2.0016 0.9765
-5.5797 -0.4404 -2.0016 0.9765
-5.5603 -0.6407 -2.0016 0.9765
-5.4999 -1.0386 -2.0016 0.9765
-5.4590 -1.2357 -2.0016 0.9765
-5.4110 -1.4311 -2.0016 0.9765
-4.7745 -2.2381 -1.8857 0.9778
-4.6196 -2.3717 -1.8570 0.9782
-4.4372 -2.6975 -1.8570 0.9782
-4.3374 -2.8552 -1.8570 0.9782
-4.2319 -3.0093 -1.8570 0.9782
-4.1210 -3.1595 -1.8570 0.9782
-3.6256 -3.7176 -1.8570 0.9782
-3.4896 -3.8455 -1.8570 0.9782
-3.2042 -4.0863 -1.8570 0.9782
-3.0553 -4.1989 -1.8570 0.9782
-2.9024 -4.3060 -1.8570 0.9782
-2.7457 -4.4075 -1.8570 0.9782
-2.5855 -4.5034 -1.8570 0.9782
-2.4219 -4.5934 -1.8570 0.9782
-2.2552 -4.6775 -1.8570 0.9782
-2.0856 -4.7556 -1.8570 0.9782
-1.9133 -4.8275 -1.8570 0.9782
-1.7385 -4.8931 -1.8570 0.9782
-1.3824 -5.0054 -1.8570 0.9782
-1.2016 -5.0519 -1.8570 0.9782
-1.0192 -5.0918 -1.8570 0.9782
-0.8355 -5.1251 -1.8570 0.9782
-0.6507 -5.1519 -1.8570 0.9782
-0.0922 -5.1920 -1.8570 0.9782
0.2811 -5.1852 -1.8570 0.9782
0.4673 -5.1717 -1.8570 0.9782
0.6529 -5.1516 -1.8570 0.9782
1.3846 -5.0048 -1.8570 0.9782
2.0877 -4.7547 -1.8570 0.9782
2.0449 -4.2365 -1.6823 0.9802
2.1402 -4.0549 -1.6396 0.9807
3.0571 -4.1975 -1.8570 0.9782
3.2061 -4.0849 -1.8570 0.9782
3.3508 -3.9670 -1.8570 0.9782
4.0511 -3.8622 -2.0016 0.9765
4.1873 -3.7140 -2.0016 0.9765
4.6764 -3.0755 -2.0016 0.9765
4.3515 2.8887 -2.0016 0.9779
4.2448 3.0433 -2.0016 0.9779
4.1327 3.1939 -2.0016 0.9779
4.0152 3.3404 -2.0016 0.9779
3.8925 3.4826 -2.0016 0.9779
3.7648 3.6203 -2.0016 0.9779
3.4949 3.8814 -2.0016 0.9779
3.2070 4.1225 -2.0016 0.9779
3.0567 4.2352 -2.0016 0.9779
2.7445 4.4438 -2.0016 0.9779
2.4181 4.6296 -2.0016 0.9779
2.0792 4.7913 -2.0016 0.9779
1.9056 4.8630 -2.0016 0.9779
1.5513 4.9873 -2.0016 0.9779
0.8204 5.1582 -2.0016 0.9779
0.4476 5.2038 -2.0016 0.9779
0.2603 5.2165 -2.0016 0.9779
0.0726 5.2225 -2.0016 0.9779
-0.1152 5.2218 -2.0016 0.9779
-0.3029 5.2142 -2.0016 0.9779
-0.4901 5.2000 -2.0016 0.9779
-1.0471 5.1170 -2.0016 0.9779
-1.4121 5.0285 -2.0016 0.9779
-1.7698 4.9141 -2.0016 0.9779
-1.9453 4.8473 -2.0016 0.9779
-2.1183 4.7742 -2.0016 0.9779
-2.2885 4.6950 -2.0016 0.9779
-2.4558 4.6097 -2.0016 0.9779
-2.6200 4.5184 -2.0016 0.9779
-2.7807 4.4213 -2.0016 0.9779
-3.2406 4.0962 -2.0016 0.9779
-3.5265 3.8528 -2.0016 0.9779
-3.6627 3.7235 -2.0016 0.9779
-3.7942 3.5894 -2.0016 0.9779
-4.0423 3.3075 -2.0016 0.9779
-4.2695 3.0085 -2.0016 0.9779
-4.3749 2.8531 -2.0016 0.9779
-4.4747 2.6939 -2.0016 0.9779
-4.5686 2.5313 -2.0016 0.9779
-4.7387 2.1965 -2.0016 0.9779
-4.8146 2.0247 -2.0016 0.9779
-4.8843 1.8503 -2.0016 0.9779
-4.9477 1.6736 -2.0016 0.9779
-5.0046 1.4946 -2.0016 0.9779
-5.0551 1.3137 -2.0016 0.9779
-5.0991 1.1312 -2.0016 0.9779
-5.1364 0.9471 -2.0016 0.9779
-5.1672 0.7618 -2.0016 0.9779
-5.1912 0.5756 -2.0016 0.9779
-5.2086 0.3886 -2.0016 0.9779
-5.2230 0.0133 -2.0016 0.9779
-5.2201 -0.1744 -2.0016 0.9779
-5.2105 -0.3620 -2.0016 0.9779
-5.1941 -0.5491 -2.0016 0.9779
-5.1710 -0.7354 -2.0016 0.9779
-5.1412 -0.9209 -2.0016 0.9779
-5.0618 -1.2879 -2.0016 0.9779
-5.0122 -1.4690 -2.0016 0.9779
-4.9561 -1.6483 -2.0016 0.9779
-4.8249 -2.0001 -2.0016 0.9779
-4.7499 -2.1723 -2.0016 0.9779
-4.4535 -2.2337 -1.9093 0.9789
-4.0724 -2.6262 -1.8570 0.9795
-3.8732 -2.9120 -1.8570 0.9795
-3.7660 -3.0494 -1.8570 0.9795
-3.5371 -3.3121 -1.8570 0.9795
-3.4158 -3.4371 -1.8570 0.9795
-3.2900 -3.5577 -1.8570 0.9795
-3.1600 -3.6737 -1.8570 0.9795
-2.7461 -3.9925 -1.8570 0.9795
-2.4521 -4.1795 -1.8570 0.9795
-2.1454 -4.3449 -1.8570 0.9795
-1.9879 -4.4192 -1.8570 0.9795
-1.6652 -4.5507 -1.8570 0.9795
-1.5005 -4.6076 -1.8570 0.9795
-1.3339 -4.6585 -1.8570 0.9795
-1.1656 -4.7035 -1.8570 0.9795
-0.9957 -4.7423 -1.8570 0.9795
-0.8246 -4.7751 -1.8570 0.9795
-0.6524 -4.8016 -1.8570 0.9795
-0.1316 -4.8440 -1.8570 0.9795
0.2168 -4.8409 -1.8570 0.9795
0.5640 -4.8128 -1.8570 0.9795
0.7367 -4.7894 -1.8570 0.9795
1.2481 -4.6823 -1.8570 0.9795
1.4156 -4.6344 -1.8570 0.9795
1.5813 -4.5805 -1.8570 0.9795
1.7449 -4.5207 -1.8570 0.9795
2.0639 -4.0011 -1.7253 0.9809
2.2492 -4.0004 -1.7587 0.9805
2.6722 -4.0423 -1.8570 0.9795
2.8158 -3.9437 -1.8570 0.9795
3.2241 -3.6176 -1.8570 0.9795
3.3520 -3.4993 -1.8570 0.9795
4.1163 -3.2150 -2.0016 0.9779
4.2292 -3.0649 -2.0016 0.9779
4.3367 -2.9109 -2.0016 0.9779
4.4385 -2.7531 -2.0016 0.9779
4.5346 -2.5918 -2.0016 0.9779
4.7091 -2.2592 -2.0016 0.9779
4.8593 -1.9150 -2.0016 0.9779
4.9250 -1.7391 -2.0016 0.9779
5.0372 -1.3807 -2.0016 0.9779
5.1831 -0.6444 -2.0016 0.9779
5.2029 -0.4577 -2.0016 0.9779
5.2160 -0.2704 -2.0016 0.9779
5.2224 -0.0827 -2.0016 0.9779
5.2148 0.2928 -2.0016 0.9779
5.1190 1.0372 -2.0016 0.9779
5.0784 1.2206 -2.0016 0.9779
4.9776 1.5823 -2.0016 0.9779
4.6994 2.2795 -2.0016 0.9779
4.6144 2.4469 -2.0016 0.9779
4.5234 2.6112 -2.0016 0.9779
4.4266 2.7722 -2.0016 0.9779
4.3241 2.9295 -2.0016 0.9779
4.2160 3.0831 -2.0016 0.9779
3.8596 3.5191 -2.0016 0.9779
3.7306 3.6555 -2.0016 0.9779
3.5967 3.7873 -2.0016 0.9779
3.3153 4.0359 -2.0016 0.9779
3.0167 4.2637 -2.0016 0.9779
2.7026 4.4695 -2.0016 0.9779
2.5402 4.5637 -2.0016 0.9779
2.3744 4.6521 -2.0016 0.9779
2.0340 4.8107 -2.0016 0.9779
1.5043 5.0017 -2.0016 0.9779
1.3235 5.0526 -2.0016 0.9779
1.1410 5.0969 -2.0016 0.9779
0.7718 5.1657 -2.0016 0.9779
0.2112 5.2188 -2.0016 0.9779
-0.1644 5.2204 -2.0016 0.9779
-0.5390 5.1951 -2.0016 0.9779
-1.6387 4.9593 -2.0016 0.9779
-1.8159 4.8972 -2.0016 0.9779
-1.9908 4.8287 -2.0016 0.9779
-2.3326 4.6732 -2.0016 0.9779
-2.4991 4.5863 -2.0016 0.9779
-2.6624 4.4935 -2.0016 0.9779
-2.9784 4.2906 -2.0016 0.9779
-3.1307 4.1808 -2.0016 0.9779
-3.4230 3.9450 -2.0016 0.9779
-3.5626 3.8194 -2.0016 0.9779
-3.6976 3.6889 -2.0016 0.9779
-3.8278 3.5536 -2.0016 0.9779
-3.9531 3.4136 -2.0016 0.9779
-4.1882 3.1208 -2.0016 0.9779
-4.4016 2.8118 -2.0016 0.9779
-4.4998 2.6517 -2.0016 0.9779
-4.6787 2.3215 -2.0016 0.9779
-4.7592 2.1518 -2.0016 0.9779
-4.8334 1.9794 -2.0016 0.9779
-4.9015 1.8043 -2.0016 0.9779
-4.9632 1.6269 -2.0016 0.9779
-5.0185 1.4475 -2.0016 0.9779
-5.0673 1.2661 -2.0016 0.9779
-5.1095 1.0831 -2.0016 0.9779
-5.1964 0.5267 -2.0016 0.9779
-5.2208 0.1520 -2.0016 0.9779
-5.2229 -0.0358 -2.0016 0.9779
-5.2068 -0.4110 -2.0016 0.9779
-5.1638 -0.7841 -2.0016 0.9779
-5.1323 -0.9692 -2.0016 0.9779
-5.0942 -1.1531 -2.0016 0.9779
-5.0494 -1.3355 -2.0016 0.9779
-4.9981 -1.5161 -2.0016 0.9779
-4.8763 -1.8713 -2.0016 0.9779
-4.8059 -2.0454 -2.0016 0.9779
-4.3618 -2.2393 -1.8790 0.9792
-4.2285 -2.3667 -1.8570 0.9795
-3.7371 -3.0847 -1.8570 0.9795
-3.2564 -3.5885 -1.8570 0.9795
-3.1253 -3.7033 -1.8570 0.9795
-2.8511 -3.9182 -1.8570 0.9795
-2.5622 -4.1130 -1.8570 0.9795
-2.2600 -4.2864 -1.8570 0.9795
-1.9462 -4.4378 -1.8570 0.9795
-1.1213 -4.7142 -1.8570 0.9795
-0.0861 -4.8450 -1.8570 0.9795
0.0882 -4.8450 -1.8570 0.9795
0.6093 -4.8073 -1.8570 0.9795
0.7817 -4.7823 -1.8570 0.9795
0.9531 -4.7511 -1.8570 0.9795
1.1233 -4.7138 -1.8570 0.9795
1.4591 -4.6209 -1.8570 0.9795
1.6243 -4.5654 -1.8570 0.9795
2.0013 -4.1462 -1.7643 0.9805
2.1112 -4.0000 -1.7333 0.9808
2.4949 -4.0011 -1.8070 0.9800
2.7101 -4.0170 -1.8570 0.9795
2.8528 -3.9170 -1.8570 0.9795
3.2579 -3.5871 -1.8570 0.9795
3.7803 -3.6040 -2.0016 0.9779
3.9075 -3.4658 -2.0016 0.9779
4.2579 -3.0250 -2.0016 0.9779
4.3639 -2.8699 -2.0016 0.9779
4.4642 -2.7112 -2.0016 0.9779
4.0745 2.7048 -2.0016 0.9791
3.9746 2.8495 -2.0016 0.9791
3.7596 3.1277 -2.0016 0.9791
3.6447 3.2609 -2.0016 0.9791
3.4010 3.5143 -2.0016 0.9791
3.2724 3.6343 -2.0016 0.9791
3.1397 3.7496 -2.0016 0.9791
2.8621 3.9655 -2.0016 0.9791
2.7177 4.0658 -2.0016 0.9791
2.1069 4.4134 -2.0016 0.9791
1.9468 4.4863 -2.0016 0.9791
1.7843 4.5534 -2.0016 0.9791
1.6195 4.6146 -2.0016 0.9791
1.4525 4.6698 -2.0016 0.9791
1.2837 4.7190 -2.0016 0.9791
1.1132 4.7621 -2.0016 0.9791
0.9413 4.7991 -2.0016 0.9791
0.5940 4.8543 -2.0016 0.9791
0.4191 4.8725 -2.0016 0.9791
-0.2836 4.8823 -2.0016 0.9791
-0.8076 4.8234 -2.0016 0.9791
-0.9805 4.7912 -2.0016 0.9791
-1.1521 4.7529 -2.0016 0.9791
-1.3222 4.7084 -2.0016 0.9791
-1.4906 4.6578 -2.0016 0.9791
-1.6571 4.6012 -2.0016 0.9791
-1.8214 4.5387 -2.0016 0.9791
-1.9834 4.4702 -2.0016 0.9791
-2.1428 4.3960 -2.0016 0.9791
-2.2995 4.3162 -2.0016 0.9791
-2.4532 4.2307 -2.0016 0.9791
-2.6037 4.1398 -2.0016 0.9791
-2.7508 4.0435 -2.0016 0.9791
-3.0342 3.8354 -2.0016 0.9791
-3.7850 3.0969 -2.0016 0.9791
-3.8939 2.9589 -2.0016 0.9791
-4.0964 2.6714 -2.0016 0.9791
-4.1898 2.5224 -2.0016 0.9791
-4.4370 2.0567 -2.0016 0.9791
-4.5733 1.7325 -2.0016 0.9791
-4.7333 1.2301 -2.0016 0.9791
-4.7744 1.0591 -2.0016 0.9791
-1.9430 0.2865 -0.8038 0.9915
-1.9537 0.1458 -0.8018 0.9916
-1.9005 0.0049 -0.7778 0.9918
-1.9572 -0.2069 -0.8055 0.9915
-1.9457 -0.2767 -0.8043 0.9915
-4.7798 -1.0347 -2.0016 0.9791
-4.7395 -1.2059 -2.0016 0.9791
-4.4475 -2.0340 -2.0016 0.9791
-4.3715 -2.1926 -2.0016 0.9791
-4.0821 -2.2346 -1.9046 0.9801
-3.6266 -2.7266 -1.8570 0.9806
-3.5262 -2.8553 -1.8570 0.9806
-3.3119 -3.1012 -1.8570 0.9806
-3.0805 -3.3312 -1.8570 0.9806
-2.9588 -3.4398 -1.8570 0.9806
-2.8332 -3.5439 -1.8570 0.9806
-2.5712 -3.7384 -1.8570 0.9806
-2.4352 -3.8284 -1.8570 0.9806
-1.8613 -4.1379 -1.8570 0.9806
-1.2490 -4.3620 -1.8570 0.9806
-0.9323 -4.4404 -1.8570 0.9806
-0.7721 -4.4711 -1.8570 0.9806
-0.6109 -4.4959 -1.8570 0.9806
-0.2862 -4.5282 -1.8570 0.9806
-0.1233 -4.5356 -1.8570 0.9806
0.2030 -4.5327 -1.8570 0.9806
0.3658 -4.5225 -1.8570 0.9806
0.5281 -4.5064 -1.8570 0.9806
0.6898 -4.4845 -1.8570 0.9806
0.8506 -4.4568 -1.8570 0.9806
1.3255 -4.3393 -1.8570 0.9806
1.4806 -4.2889 -1.8570 0.9806
1.6338 -4.2329 -1.8570 0.9806
1.7849 -4.1714 -1.8570 0.9806
2.3644 -3.8725 -1.8570 0.9806
2.6366 -3.6926 -1.8570 0.9806
3.0188 -3.3873 -1.8570 0.9806
3.1386 -3.2765 -1.8570 0.9806
3.7435 -3.1469 -2.0016 0.9791
3.8543 -3.0103 -2.0016 0.9791
3.9600 -2.8698 -2.0016 0.9791
4.0606 -2.7256 -2.0016 0.9791
4.1559 -2.5778 -2.0016 0.9791
4.3304 -2.2725 -2.0016 0.9791
4.4093 -2.1154 -2.0016 0.9791
4.5499 -1.7931 -2.0016 0.9791
4.6114 -1.6284 -2.0016 0.9791
4.6670 -1.4615 -2.0016 0.9791
4.7165 -1.2928 -2.0016 0.9791
4.8283 -0.7775 -2.0016 0.9791
4.8717 -0.4286 -2.0016 0.9791
4.8828 0.2742 -2.0016 0.9791
4.8698 0.4495 -2.0016 0.9791
4.8249 0.7983 -2.0016 0.9791
4.7551 1.1429 -2.0016 0.9791
4.6607 1.4816 -2.0016 0.9791
4.6044 1.6482 -2.0016 0.9791
4.5422 1.8127 -2.0016 0.9791
3.7300 3.1630 -2.0016 0.9791
3.4931 3.4228 -2.0016 0.9791
3.2381 3.6650 -2.0016 0.9791
3.1042 3.7790 -2.0016 0.9791
2.9664 3.8881 -2.0016 0.9791
2.8247 3.9923 -2.0016 0.9791
2.6793 4.0912 -2.0016 0.9791
2.5305 4.1849 -2.0016 0.9791
2.3784 4.2732 -2.0016 0.9791
1.9045 4.5044 -2.0016 0.9791
1.7414 4.5700 -2.0016 0.9791
1.4085 4.6833 -2.0016 0.9791
1.0684 4.7724 -2.0016 0.9791
0.8961 4.8077 -2.0016 0.9791
0.5483 4.8597 -2.0016 0.9791
0.3733 4.8762 -2.0016 0.9791
0.0219 4.8905 -2.0016 0.9791
-0.1539 4.8881 -2.0016 0.9791
-0.3295 4.8794 -2.0016 0.9791
-0.5047 4.8644 -2.0016 0.9791
-0.6793 4.8431 -2.0016 0.9791
-1.0255 4.7818 -2.0016 0.9791
-1.5344 4.6436 -2.0016 0.9791
-1.7003 4.5854 -2.0016 0.9791
-2.0254 4.4514 -2.0016 0.9791
-2.1841 4.3757 -2.0016 0.9791
-3.0702 3.8067 -2.0016 0.9791
-3.2051 3.6939 -2.0016 0.9791
-3.3358 3.5762 -2.0016 0.9791
-3.5841 3.3273 -2.0016 0.9791
-3.7014 3.1963 -2.0016 0.9791
-3.8140 3.0612 -2.0016 0.9791
-4.0241 2.7792 -2.0016 0.9791
-4.1214 2.6328 -2.0016 0.9791
-4.2133 2.4829 -2.0016 0.9791
-4.2999 2.3298 -2.0016 0.9791
-4.3809 2.1737 -2.0016 0.9791
-4.5894 1.6894 -2.0016 0.9791
-4.7842 1.0142 -2.0016 0.9791
-1.9576 0.1984 -0.8053 0.9915
-1.9255 0.0561 -0.7884 0.9917
-1.9049 -0.0131 -0.7797 0.9918
-1.9555 -0.2253 -0.8056 0.9915
-1.9731 -0.2996 -0.8168 0.9914
-2.2044 -0.4163 -0.9181 0.9904
-4.7698 -1.0797 -2.0016 0.9791
-4.7279 -1.2504 -2.0016 0.9791
-4.6259 -1.5869 -2.0016 0.9791
-4.5658 -1.7522 -2.0016 0.9791
-4.4999 -1.9152 -2.0016 0.9791
-4.4281 -2.0757 -2.0016 0.9791
-3.8770 -2.3569 -1.8570 0.9806
-3.7898 -2.4948 -1.8570 0.9806
-3.6977 -2.6294 -1.8570 0.9806
-3.6008 -2.7606 -1.8570 0.9806
-3.4992 -2.8883 -1.8570 0.9806
-3.3931 -3.0122 -1.8570 0.9806
-2.9263 -3.4675 -1.8570 0.9806
-2.5360 -3.7624 -1.8570 0.9806
-2.3991 -3.8511 -1.8570 0.9806
-1.9705 -4.0870 -1.8570 0.9806
-1.8223 -4.1552 -1.8570 0.9806
-1.0499 -4.4141 -1.8570 0.9806
-0.8905 -4.4490 -1.8570 0.9806
-0.7300 -4.4781 -1.8570 0.9806
-0.5685 -4.5015 -1.8570 0.9806
-0.4063 -4.5190 -1.8570 0.9806
-0.0806 -4.5365 -1.8570 0.9806
0.2456 -4.5306 -1.8570 0.9806
0.5705 -4.5012 -1.8570 0.9806
0.7320 -4.4778 -1.8570 0.9806
1.2098 -4.3730 -1.8570 0.9806
1.3662 -4.3267 -1.8570 0.9806
1.5209 -4.2748 -1.8570 0.9806
1.6736 -4.2173 -1.8570 0.9806
2.4007 -3.8501 -1.8570 0.9806
2.6712 -3.6676 -1.8570 0.9806
2.8013 -3.5692 -1.8570 0.9806
3.0505 -3.3587 -1.8570 0.9806
3.1693 -3.2469 -1.8570 0.9806
3.2840 -3.1308 -1.8570 0.9806
3.8824 -2.9739 -2.0016 0.9791
4.1800 -2.5386 -2.0016 0.9791
3.8263 2.5401 -2.0016 0.9802
3.7325 2.6760 -2.0016 0.9802
3.6339 2.8084 -2.0016 0.9802
3.3104 3.1833 -2.0016 0.9802
3.1938 3.3003 -2.0016 0.9802
3.0731 3.4130 -2.0016 0.9802
2.6878 3.7240 -2.0016 0.9802
2.5522 3.8182 -2.0016 0.9802
2.2713 3.9917 -2.0016 0.9802
1.6756 4.2761 -2.0016 0.9802
1.5208 4.3335 -2.0016 0.9802
1.2055 4.4316 -2.0016 0.9802
1.0454 4.4721 -2.0016 0.9802
0.8840 4.5068 -2.0016 0.9802
0.7214 4.5357 -2.0016 0.9802
0.3936 4.5758 -2.0016 0.9802
-1.0819 4.4634 -2.0016 0.9802
-1.7105 4.2623 -2.0016 0.9802
-2.0123 4.1283 -2.0016 0.9802
-2.1594 4.0533 -2.0016 0.9802
-2.3038 3.9731 -2.0016 0.9802
-2.4451 3.8877 -2.0016 0.9802
-2.5833 3.7973 -2.0016 0.9802
-2.7181 3.7019 -2.0016 0.9802
-2.9771 3.4971 -2.0016 0.9802
-3.1009 3.3878 -2.0016 0.9802
-3.3363 3.1562 -2.0016 0.9802
-3.4476 3.0342 -2.0016 0.9802
-3.5545 2.9083 -2.0016 0.9802
-3.7543 2.6454 -2.0016 0.9802
-4.0947 2.0800 -2.0016 0.9802
-4.1668 1.9314 -2.0016 0.9802
-4.2335 1.7804 -2.0016 0.9802
-4.2948 1.6270 -2.0016 0.9802
-1.5732 0.4698 -0.7155 0.9929
-1.5514 0.4032 -0.6986 0.9930
-1.5248 0.3382 -0.6807 0.9932
-1.5139 0.2232 -0.6669 0.9933
-1.5242 0.1690 -0.6683 0.9933
-1.5287 0.0589 -0.6667 0.9933
-1.5281 -0.0511 -0.6664 0.9934
-1.5294 -0.1063 -0.6681 0.9933
-1.5252 -0.1612 -0.6684 0.9933
-1.5156 -0.2156 -0.6672 0.9933
-1.5206 -0.3292 -0.6780 0.9932
-1.5480 -0.3939 -0.6961 0.9931
-1.5704 -0.4603 -0.7132 0.9929
-1.5984 -0.5962 -0.7435 0.9926
-4.2426 -1.7587 -2.0016 0.9802
-4.0286 -2.2053 -2.0016 0.9802
-3.7550 -2.2346 -1.9044 0.9811
-3.5809 -2.3093 -1.8570 0.9816
-3.4956 -2.4365 -1.8570 0.9816
-3.2129 -2.7987 -1.8570 0.9816
-3.1102 -2.9124 -1.8570 0.9816
-3.0035 -3.0223 -1.8570 0.9816
-2.7786 -3.2303 -1.8570 0.9816
-2.2869 -3.5952 -1.8570 0.9816
-2.0226 -3.7502 -1.8570 0.9816
-1.6071 -3.9462 -1.8570 0.9816
-1.3194 -4.0515 -1.8570 0.9816
-1.1729 -4.0963 -1.8570 0.9816
-0.4215 -4.2400 -1.8570 0.9816
0.1906 -4.2567 -1.8570 0.9816
0.3435 -4.2471 -1.8570 0.9816
0.4960 -4.2320 -1.8570 0.9816
0.6478 -4.2114 -1.8570 0.9816
0.7988 -4.1854 -1.8570 0.9816
0.9487 -4.1540 -1.8570 0.9816
1.0974 -4.1172 -1.8570 0.9816
1.3904 -4.0277 -1.8570 0.9816
1.5343 -3.9751 -1.8570 0.9816
1.6762 -3.9174 -1.8570 0.9816
2.2204 -3.6366 -1.8570 0.9816
2.5990 -3.3764 -1.8570 0.9816
2.8349 -3.1810 -1.8570 0.9816
3.0562 -2.9690 -1.8570 0.9816
3.5156 -2.9552 -2.0016 0.9802
3.7188 -2.6950 -2.0016 0.9802
3.8133 -2.5596 -2.0016 0.9802
3.9028 -2.4208 -2.0016 0.9802
3.9873 -2.2790 -2.0016 0.9802
4.0667 -2.1341 -2.0016 0.9802
4.2095 -1.8364 -2.0016 0.9802
4.2728 -1.6839 -2.0016 0.9802
4.3306 -1.5292 -2.0016 0.9802
4.3828 -1.3725 -2.0016 0.9802
4.4293 -1.2141 -2.0016 0.9802
4.4701 -1.0541 -2.0016 0.9802
4.5576 -0.5667 -2.0016 0.9802
4.5921 -0.0727 -2.0016 0.9802
4.5917 0.0924 -2.0016 0.9802
4.5551 0.5863 -2.0016 0.9802
4.5311 0.7497 -2.0016 0.9802
4.4655 1.0733 -2.0016 0.9802
4.4240 1.2331 -2.0016 0.9802
4.3768 1.3914 -2.0016 0.9802
4.2655 1.7023 -2.0016 0.9802
4.1322 2.0044 -2.0016 0.9802
3.6073 2.8425 -2.0016 0.9802
3.5028 2.9703 -2.0016 0.9802
3.0409 3.4417 -2.0016 0.9802
2.6527 3.7491 -2.0016 0.9802
2.5162 3.8421 -2.0016 0.9802
2.3764 3.9300 -2.0016 0.9802
2.2336 4.0129 -2.0016 0.9802
2.0879 4.0906 -2.0016 0.9802
1.6353 4.2917 -2.0016 0.9802
1.1638 4.4428 -2.0016 0.9802
1.0033 4.4817 -2.0016 0.9802
0.6787 4.5422 -2.0016 0.9802
0.5149 4.5637 -2.0016 0.9802
0.3505 4.5793 -2.0016 0.9802
0.0206 4.5926 -2.0016 0.9802
-0.3094 4.5822 -2.0016 0.9802
-0.6379 4.5481 -2.0016 0.9802
-0.8010 4.5223 -2.0016 0.9802
-0.9630 4.4906 -2.0016 0.9802
-1.2832 4.4098 -2.0016 0.9802
-2.0511 4.1092 -2.0016 0.9802
-2.3411 3.9512 -2.0016 0.9802
-2.6189 3.7728 -2.0016 0.9802
-2.8832 3.5749 -2.0016 0.9802
-3.0099 3.4689 -2.0016 0.9802
-3.3659 3.1247 -2.0016 0.9802
-3.4760 3.0017 -2.0016 0.9802
-3.5817 2.8747 -2.0016 0.9802
-3.6827 2.7441 -2.0016 0.9802
-3.7790 2.6100 -2.0016 0.9802
-3.9567 2.3317 -2.0016 0.9802
-4.0380 2.1879 -2.0016 0.9802
-4.1848 1.8921 -2.0016 0.9802
-4.2501 1.7405 -2.0016 0.9802
-1.5680 0.4522 -0.7112 0.9929
-1.5450 0.3860 -0.6940 0.9931
-1.5260 0.1547 -0.6685 0.9933
-1.5276 0.0445 -0.6661 0.9934
-1.5288 -0.1207 -0.6684 0.9933
-1.5123 -0.2296 -0.6666 0.9933
-1.5282 -0.3459 -0.6829 0.9932
-1.5754 -0.4779 -0.7175 0.9928
-1.5909 -0.5458 -0.7330 0.9927
-4.2878 -1.6455 -2.0016 0.9802
-4.2258 -1.7986 -2.0016 0.9802
-4.1585 -1.9493 -2.0016 0.9802
-3.9671 -2.2204 -1.9813 0.9804
-3.6837 -2.2394 -1.8788 0.9814
-3.5590 -2.3428 -1.8570 0.9816
-3.4725 -2.4693 -1.8570 0.9816
-2.7481 -3.2563 -1.8570 0.9816
-2.6292 -3.3530 -1.8570 0.9816
-2.5070 -3.4453 -1.8570 0.9816
-2.3815 -3.5332 -1.8570 0.9816
-2.1215 -3.6952 -1.8570 0.9816
-1.8505 -3.8381 -1.8570 0.9816
-1.7113 -3.9022 -1.8570 0.9816
-1.5699 -3.9612 -1.8570 0.9816
-1.4265 -4.0150 -1.8570 0.9816
-1.1343 -4.1072 -1.8570 0.9816
-0.9859 -4.1453 -1.8570 0.9816
-0.6855 -4.2054 -1.8570 0.9816
-0.5339 -4.2273 -1.8570 0.9816
-0.3816 -4.2438 -1.8570 0.9816
-0.0757 -4.2602 -1.8570 0.9816
0.0775 -4.2602 -1.8570 0.9816
0.2306 -4.2547 -1.8570 0.9816
0.3834 -4.2436 -1.8570 0.9816
0.5358 -4.2271 -1.8570 0.9816
0.9877 -4.1448 -1.8570 0.9816
1.5717 -3.9605 -1.8570 0.9816
1.7130 -3.9014 -1.8570 0.9816
1.8522 -3.8373 -1.8570 0.9816
2.2545 -3.6156 -1.8570 0.9816
2.3831 -3.5322 -1.8570 0.9816
2.5085 -3.4443 -1.8570 0.9816
2.6307 -3.3518 -1.8570 0.9816
2.9763 -3.0491 -1.8570 0.9816
3.4359 -3.0475 -2.0016 0.9802
3.6460 -2.7928 -2.0016 0.9802
3.7440 -2.6599 -2.0016 0.9802
3.6026 2.3915 -2.0016 0.9811
3.2226 2.8832 -2.0016 0.9811
3.0071 3.1073 -2.0016 0.9811
2.8934 3.2134 -2.0016 0.9811
2.6550 3.4130 -2.0016 0.9811
2.4030 3.5950 -2.0016 0.9811
1.7214 3.9667 -2.0016 0.9811
1.5776 4.0260 -2.0016 0.9811
1.2843 4.1290 -2.0016 0.9811
1.1350 4.1725 -2.0016 0.9811
0.9843 4.2106 -2.0016 0.9811
0.8323 4.2432 -2.0016 0.9811
0.2155 4.3187 -2.0016 0.9811
-0.0954 4.3230 -2.0016 0.9811
-1.0186 4.2024 -2.0016 0.9811
-1.6105 4.0130 -2.0016 0.9811
-1.8947 3.8869 -2.0016 0.9811
-2.1691 3.7407 -2.0016 0.9811
-2.3021 3.6603 -2.0016 0.9811
-2.5592 3.4855 -2.0016 0.9811
-2.6828 3.3912 -2.0016 0.9811
-2.9196 3.1897 -2.0016 0.9811
-3.0323 3.0826 -2.0016 0.9811
-3.1412 2.9716 -2.0016 0.9811
-3.2460 2.8568 -2.0016 0.9811
-3.4429 2.6162 -2.0016 0.9811
-3.5347 2.4907 -2.0016 0.9811
-3.6220 2.3620 -2.0016 0.9811
-3.7046 2.2303 -2.0016 0.9811
-3.7823 2.0957 -2.0016 0.9811
-3.8552 1.9583 -2.0016 0.9811
-1.3128 0.6085 -0.6698 0.9936
-1.3318 0.5045 -0.6592 0.9937
-1.3254 0.3958 -0.6403 0.9939
-1.2994 0.2882 -0.6161 0.9942
-1.3146 0.2424 -0.6188 0.9941
-1.3263 0.1955 -0.6206 0.9941
-1.3345 0.1480 -0.6215 0.9941
-1.3383 0.0999 -0.6212 0.9941
-1.3378 0.0515 -0.6197 0.9941
-1.3337 0.0034 -0.6174 0.9941
-1.3374 -0.0447 -0.6194 0.9941
-1.3385 -0.0930 -0.6210 0.9941
-1.3277 -0.1888 -0.6208 0.9941
-1.3017 -0.2818 -0.6165 0.9941
-1.3113 -0.3337 -0.6263 0.9941
-1.3239 -0.3880 -0.6386 0.9939
-1.3324 -0.4970 -0.6583 0.9938
-1.3262 -0.5498 -0.6645 0.9937
-1.3148 -0.6013 -0.6693 0.9936
-3.8652 -1.9386 -2.0016 0.9811
-3.7930 -2.0763 -2.0016 0.9811
-3.7159 -2.2113 -2.0016 0.9811
-3.4641 -2.2340 -1.9080 0.9820
-3.2912 -2.2940 -1.8570 0.9825
-3.2066 -2.4109 -1.8570 0.9825
-3.0250 -2.6350 -1.8570 0.9825
-2.8279 -2.8456 -1.8570 0.9825
-2.7238 -2.9454 -1.8570 0.9825
-2.6161 -3.0414 -1.8570 0.9825
-2.2734 -3.3054 -1.8570 0.9825
-2.1531 -3.3850 -1.8570 0.9825
-1.9044 -3.5309 -1.8570 0.9825
-1.5131 -3.7154 -1.8570 0.9825
-1.3786 -3.7674 -1.8570 0.9825
-0.9650 -3.8940 -1.8570 0.9825
-0.8243 -3.9261 -1.8570 0.9825
-0.6827 -3.9532 -1.8570 0.9825
-0.3969 -3.9921 -1.8570 0.9825
-0.2531 -4.0038 -1.8570 0.9825
-0.1090 -4.0103 -1.8570 0.9825
0.0353 -4.0116 -1.8570 0.9825
0.1795 -4.0077 -1.8570 0.9825
0.3234 -3.9987 -1.8570 0.9825
0.4670 -3.9845 -1.8570 0.9825
0.7521 -3.9406 -1.8570 0.9825
1.3091 -3.7921 -1.8570 0.9825
1.5782 -3.6883 -1.8570 0.9825
1.8391 -3.5653 -1.8570 0.9825
1.9661 -3.4969 -1.8570 0.9825
2.0906 -3.4240 -1.8570 0.9825
2.2123 -3.3466 -1.8570 0.9825
2.4471 -3.1790 -1.8570 0.9825
2.7751 -2.8971 -1.8570 0.9825
2.8775 -2.7954 -1.8570 0.9825
3.5903 -2.4099 -2.0016 0.9811
3.6746 -2.2793 -2.0016 0.9811
3.7542 -2.1457 -2.0016 0.9811
3.8987 -1.8704 -2.0016 0.9811
3.9634 -1.7290 -2.0016 0.9811
4.0230 -1.5854 -2.0016 0.9811
4.1703 -1.1431 -2.0016 0.9811
4.2087 -0.9924 -2.0016 0.9811
4.2416 -0.8405 -2.0016 0.9811
4.3075 -0.3789 -2.0016 0.9811
4.3232 0.0870 -2.0016 0.9811
4.3173 0.2424 -2.0016 0.9811
4.2380 0.8587 -2.0016 0.9811
4.1209 1.3100 -2.0016 0.9811
3.9559 1.7461 -2.0016 0.9811
3.8906 1.8871 -2.0016 0.9811
3.8202 2.0258 -2.0016 0.9811
3.6648 2.2951 -2.0016 0.9811
3.5799 2.4253 -2.0016 0.9811
3.3964 2.6763 -2.0016 0.9811
3.2980 2.7966 -2.0016 0.9811
2.7447 3.3413 -2.0016 0.9811
2.4975 3.5299 -2.0016 0.9811
2.2374 3.7002 -2.0016 0.9811
2.1030 3.7783 -2.0016 0.9811
1.6840 3.9827 -2.0016 0.9811
1.5397 4.0407 -2.0016 0.9811
1.3934 4.0934 -2.0016 0.9811
1.0957 4.1830 -2.0016 0.9811
0.6390 4.2766 -2.0016 0.9811
0.4848 4.2968 -2.0016 0.9811
0.3300 4.3115 -2.0016 0.9811
-0.1361 4.3220 -2.0016 0.9811
-0.6006 4.2822 -2.0016 0.9811
-0.9067 4.2280 -2.0016 0.9811
-1.0581 4.1926 -2.0016 0.9811
-1.7908 3.9358 -2.0016 0.9811
-1.9311 3.8689 -2.0016 0.9811
-2.0690 3.7970 -2.0016 0.9811
-2.3365 3.6385 -2.0016 0.9811
-2.4658 3.5522 -2.0016 0.9811
-2.7146 3.3658 -2.0016 0.9811
-2.9495 3.1621 -2.0016 0.9811
-3.1690 2.9420 -2.0016 0.9811
-3.2727 2.8261 -2.0016 0.9811
-3.4674 2.5837 -2.0016 0.9811
-3.5580 2.4573 -2.0016 0.9811
-3.7254 2.1953 -2.0016 0.9811
-3.8019 2.0600 -2.0016 0.9811
-1.3272 0.5435 -0.6639 0.9937
-1.3328 0.4906 -0.6574 0.9938
-1.3316 0.4365 -0.6486 0.9938
-1.3226 0.3815 -0.6372 0.9940
-1.3180 0.2302 -0.6193 0.9941
-1.3360 0.1354 -0.6216 0.9941
-1.3380 -0.0573 -0.6199 0.9941
-1.3382 -0.1056 -0.6213 0.9941
-1.3337 -0.1537 -0.6214 0.9941
-1.3150 -0.3478 -0.6296 0.9940
-1.3336 -0.4575 -0.6526 0.9938
-3.9153 -1.8353 -2.0016 0.9811
-3.8468 -1.9749 -2.0016 0.9811
-3.6532 -2.2208 -1.9789 0.9813
-3.4003 -2.2383 -1.8843 0.9822
-3.0939 -2.5538 -1.8570 0.9825
-3.0001 -2.6634 -1.8570 0.9825
-2.8010 -2.8721 -1.8570 0.9825
-2.3604 -3.2439 -1.8570 0.9825
-2.2423 -3.3266 -1.8570 0.9825
-1.3431 -3.7803 -1.8570 0.9825
-1.2063 -3.8261 -1.8570 0.9825
-0.9283 -3.9029 -1.8570 0.9825
-0.7874 -3.9337 -1.8570 0.9825
-0.6454 -3.9595 -1.8570 0.9825
-0.5027 -3.9801 -1.8570 0.9825
-0.3593 -3.9956 -1.8570 0.9825
0.0730 -4.0111 -1.8570 0.9825
0.2172 -4.0059 -1.8570 0.9825
0.3610 -3.9955 -1.8570 0.9825
0.5044 -3.9799 -1.8570 0.9825
1.3447 -3.7797 -1.8570 0.9825
1.6128 -3.6733 -1.8570 0.9825
2.3618 -3.2428 -1.8570 0.9825
2.4769 -3.1558 -1.8570 0.9825
2.8022 -2.8708 -1.8570 0.9825
3.0013 -2.6621 -1.8570 0.9825
3.4328 -2.6295 -2.0016 0.9811
3.5251 -2.5043 -2.0016 0.9811
3.6128 -2.3760 -2.0016 0.9811
3.3162 2.3775 -2.0016 0.9820
3.2286 2.4952 -2.0016 0.9820
3.1368 2.6097 -2.0016 0.9820
3.0410 2.7208 -2.0016 0.9820
2.9412 2.8283 -2.0016 0.9820
2.8376 2.9322 -2.0016 0.9820
2.6196 3.1285 -2.0016 0.9820
2.5054 3.2207 -2.0016 0.9820
2.3880 3.3087 -2.0016 0.9820
2.2676 3.3924 -2.0016 0.9820
1.8891 3.6168 -2.0016 0.9820
1.7579 3.6824 -2.0016 0.9820
1.6244 3.7432 -2.0016 0.9820
1.3512 3.8502 -2.0016 0.9820
1.0711 3.9374 -2.0016 0.9820
0.9288 3.9733 -2.0016 0.9820
0.6409 4.0298 -2.0016 0.9820
0.3497 4.0654 -2.0016 0.9820
-0.3829 4.0625 -2.0016 0.9820
-0.6738 4.0244 -2.0016 0.9820
-0.9612 3.9656 -2.0016 0.9820
-1.2437 3.8863 -2.0016 0.9820
-1.3826 3.8391 -2.0016 0.9820
-1.7879 3.6679 -2.0016 0.9820
-2.0468 3.5300 -2.0016 0.9820
-2.4150 3.2891 -2.0016 0.9820
-2.6451 3.1070 -2.0016 0.9820
-2.7551 3.0099 -2.0016 0.9820
-3.1580 2.5840 -2.0016 0.9820
-3.3356 2.3504 -2.0016 0.9820
-1.1076 0.6137 -0.6212 0.9944
-1.1271 0.5725 -0.6201 0.9944
-1.1385 0.5277 -0.6155 0.9944
-1.1536 0.4370 -0.6051 0.9945
-1.1575 0.3915 -0.5994 0.9946
-1.1590 0.3461 -0.5933 0.9946
-1.1682 0.2592 -0.5870 0.9947
-1.1917 0.1321 -0.5881 0.9947
-1.1965 0.0461 -0.5873 0.9947
-1.1956 0.0031 -0.5865 0.9947
-1.1955 -0.0831 -0.5878 0.9947
-1.1869 -0.1688 -0.5881 0.9947
-1.1794 -0.2112 -0.5877 0.9947
-1.1698 -0.2532 -0.5871 0.9947
-1.1578 -0.2946 -0.5860 0.9947
-1.1590 -0.3397 -0.5924 0.9946
-1.1543 -0.4306 -0.6043 0.9945
-1.1484 -0.4760 -0.6098 0.9945
-1.1399 -0.5213 -0.6148 0.9944
-3.4292 -2.2115 -2.0016 0.9820
-2.8546 -2.4866 -1.8570 0.9833
-2.5703 -2.7794 -1.8570 0.9833
-2.4687 -2.8700 -1.8570 0.9833
-2.3639 -2.9569 -1.8570 0.9833
-2.2561 -3.0400 -1.8570 0.9833
-2.1454 -3.1192 -1.8570 0.9833
-2.0318 -3.1943 -1.8570 0.9833
-1.9157 -3.2652 -1.8570 0.9833
-1.5530 -3.4525 -1.8570 0.9833
-1.3009 -3.5552 -1.8570 0.9833
-1.1723 -3.5996 -1.8570 0.9833
-1.0421 -3.6395 -1.8570 0.9833
-0.7779 -3.7049 -1.8570 0.9833
-0.5097 -3.7512 -1.8570 0.9833
0.3052 -3.7734 -1.8570 0.9833
0.7097 -3.7186 -1.8570 0.9833
0.8429 -3.6907 -1.8570 0.9833
0.9750 -3.6580 -1.8570 0.9833
1.2354 -3.5785 -1.8570 0.9833
1.3632 -3.5318 -1.8570 0.9833
2.0877 -3.1581 -1.8570 0.9833
2.3092 -2.9999 -1.8570 0.9833
2.5188 -2.8262 -1.8570 0.9833
2.8084 -2.5386 -1.8570 0.9833
3.4676 -2.1508 -2.0016 0.9820
3.5427 -2.0248 -2.0016 0.9820
3.6131 -1.8961 -2.0016 0.9820
3.7401 -1.6316 -2.0016 0.9820
4.0286 -0.6487 -2.0016 0.9820
4.0493 -0.5035 -2.0016 0.9820
4.0648 -0.3576 -2.0016 0.9820
4.0800 -0.0646 -2.0016 0.9820
4.0796 0.0821 -2.0016 0.9820
4.0740 0.2287 -2.0016 0.9820
4.0257 0.6660 -2.0016 0.9820
3.9161 1.0916 -1.9942 0.9821
3.8417 1.3752 -2.0016 0.9820
3.7898 1.5124 -2.0016 0.9820
3.6714 1.7808 -2.0016 0.9820
3.3782 2.2887 -2.0016 0.9820
3.2937 2.4086 -2.0016 0.9820
2.7017 3.0579 -2.0016 0.9820
2.5901 3.1531 -2.0016 0.9820
2.4750 3.2441 -2.0016 0.9820
2.1114 3.4917 -2.0016 0.9820
1.9845 3.5654 -2.0016 0.9820
1.8550 3.6344 -2.0016 0.9820
1.7232 3.6988 -2.0016 0.9820
1.3149 3.8628 -2.0016 0.9820
1.0340 3.9473 -2.0016 0.9820
0.7477 4.0114 -2.0016 0.9820
0.4575 4.0547 -2.0016 0.9820
0.3115 4.0686 -2.0016 0.9820
0.1650 4.0771 -2.0016 0.9820
0.0183 4.0804 -2.0016 0.9820
-0.2749 4.0712 -2.0016 0.9820
-0.4211 4.0587 -2.0016 0.9820
-0.5668 4.0409 -2.0016 0.9820
-0.8556 3.9897 -2.0016 0.9820
-0.9985 3.9564 -2.0016 0.9820
-1.1401 3.9179 -2.0016 0.9820
-1.4187 3.8259 -2.0016 0.9820
-1.6899 3.7141 -2.0016 0.9820
-1.9524 3.5830 -2.0016 0.9820
-2.8887 2.8819 -2.0016 0.9820
-2.9905 2.7762 -2.0016 0.9820
-3.0883 2.6669 -2.0016 0.9820
-3.1822 2.5541 -2.0016 0.9820
-3.3575 2.3189 -2.0016 0.9820
-3.4387 2.1967 -2.0016 0.9820
-3.5155 2.0716 -2.0016 0.9820
-1.1132 0.6032 -0.6210 0.9944
-1.1303 0.5609 -0.6190 0.9944
-1.1410 0.5159 -0.6143 0.9944
-1.1581 0.3796 -0.5978 0.9946
-1.1590 0.3343 -0.5917 0.9946
-1.1593 0.2897 -0.5862 0.9947
-1.1804 0.2062 -0.5878 0.9947
-1.1877 0.1637 -0.5881 0.9947
-1.1928 0.1209 -0.5881 0.9947
-1.1957 0.0779 -0.5878 0.9947
-1.1964 0.0348 -0.5871 0.9947
-1.1958 -0.0082 -0.5866 0.9947
-1.1948 -0.0943 -0.5879 0.9947
-1.1852 -0.1800 -0.5880 0.9947
-1.1669 -0.2641 -0.5869 0.9947
-1.1583 -0.3063 -0.5877 0.9947
-1.1572 -0.3970 -0.6001 0.9946
-3.1454 -2.2367 -1.8932 0.9830
-2.8311 -2.5133 -1.8570 0.9833
-2.6432 -2.7102 -1.8570 0.9833
-2.3360 -2.9791 -1.8570 0.9833
-2.2274 -3.0611 -1.8570 0.9833
-2.1159 -3.1392 -1.8570 0.9833
-2.0017 -3.2132 -1.8570 0.9833
-1.8849 -3.2831 -1.8570 0.9833
-1.7656 -3.3488 -1.8570 0.9833
-1.5205 -3.4670 -1.8570 0.9833
-1.3948 -3.5194 -1.8570 0.9833
-1.2674 -3.5673 -1.8570 0.9833
-1.1383 -3.6105 -1.8570 0.9833
-0.8760 -3.6830 -1.8570 0.9833
-0.7430 -3.7121 -1.8570 0.9833
-0.6091 -3.7364 -1.8570 0.9833
-0.4744 -3.7559 -1.8570 0.9833
0.4760 -3.7557 -1.8570 0.9833
0.7446 -3.7118 -1.8570 0.9833
0.8776 -3.6826 -1.8570 0.9833
1.0094 -3.6487 -1.8570 0.9833
1.3964 -3.5188 -1.8570 0.9833
1.5220 -3.4663 -1.8570 0.9833
2.6443 -2.7091 -1.8570 0.9833
2.7400 -2.6123 -1.8570 0.9833
3.3264 -2.3632 -2.0016 0.9820
3.2144 2.1339 -2.0016 0.9828
3.1356 2.2480 -2.0016 0.9828
3.0528 2.3593 -2.0016 0.9828
2.4769 2.9581 -2.0016 0.9828
2.2580 3.1285 -2.0016 0.9828
2.0274 3.2826 -2.0016 0.9828
1.9080 3.3534 -2.0016 0.9828
1.7862 3.4198 -2.0016 0.9828
1.6621 3.4818 -2.0016 0.9828
1.2776 3.6405 -2.0016 0.9828
1.1459 3.6841 -2.0016 0.9828
1.0127 3.7229 -2.0016 0.9828
0.8782 3.7569 -2.0016 0.9828
0.6060 3.8103 -2.0016 0.9828
0.4687 3.8296 -2.0016 0.9828
0.3307 3.8440 -2.0016 0.9828
-0.2237 3.8517 -2.0016 0.9828
-0.4999 3.8257 -2.0016 0.9828
-0.7735 3.7799 -2.0016 0.9828
-0.9089 3.7496 -2.0016 0.9828
-1.0431 3.7145 -2.0016 0.9828
-1.3073 3.6300 -2.0016 0.9828
-2.0541 3.2660 -2.0016 0.9828
-2.7056 2.7505 -2.0016 0.9828
-2.9860 2.4432 -2.0016 0.9828
-3.1539 2.2224 -2.0016 0.9828
-3.2317 2.1075 -2.0016 0.9828
-0.9879 0.5947 -0.5982 0.9948
-1.0415 0.4828 -0.5955 0.9948
-1.0503 0.4417 -0.5911 0.9949
-1.0569 0.4004 -0.5863 0.9949
-1.0613 0.3590 -0.5812 0.9950
-1.0689 0.2778 -0.5729 0.9950
-1.0802 0.2396 -0.5740 0.9950
-1.1020 0.1222 -0.5752 0.9950
-1.1066 0.0426 -0.5745 0.9950
-1.1026 -0.1166 -0.5752 0.9950
-1.0817 -0.2342 -0.5742 0.9950
-1.0706 -0.2724 -0.5731 0.9950
-1.0514 -0.4358 -0.5904 0.9949
-1.0429 -0.4769 -0.5949 0.9948
-1.0294 -0.5163 -0.5974 0.9948
-3.1652 -2.2062 -2.0016 0.9828
-2.6991 -2.3511 -1.8570 0.9840
-2.6128 -2.4466 -1.8570 0.9840
-2.4303 -2.6280 -1.8570 0.9840
-2.0285 -2.9493 -1.8570 0.9840
-1.8113 -3.0874 -1.8570 0.9840
-1.6992 -3.1505 -1.8570 0.9840
-1.5848 -3.2096 -1.8570 0.9840
-1.3501 -3.3151 -1.8570 0.9840
-1.2301 -3.3615 -1.8570 0.9840
-1.1084 -3.4036 -1.8570 0.9840
-0.9853 -3.4412 -1.8570 0.9840
-0.8610 -3.4744 -1.8570 0.9840
-0.6091 -3.5273 -1.8570 0.9840
-0.4819 -3.5469 -1.8570 0.9840
-0.3541 -3.5620 -1.8570 0.9840
0.0315 -3.5794 -1.8570 0.9840
0.2886 -3.5679 -1.8570 0.9840
0.6710 -3.5161 -1.8570 0.9840
0.7970 -3.4897 -1.8570 0.9840
1.0457 -3.4234 -1.8570 0.9840
1.1681 -3.3836 -1.8570 0.9840
1.5256 -3.2381 -1.8570 0.9840
1.6410 -3.1812 -1.8570 0.9840
1.7543 -3.1202 -1.8570 0.9840
1.9740 -2.9860 -1.8570 0.9840
2.0800 -2.9131 -1.8570 0.9840
2.1834 -2.8365 -1.8570 0.9840
2.4761 -2.5849 -1.8570 0.9840
2.5674 -2.4942 -1.8570 0.9840
2.7165 -2.4555 -1.8996 0.9836
3.1241 -2.2640 -2.0016 0.9828
3.2035 -2.1502 -2.0016 0.9828
3.3497 -1.9145 -2.0016 0.9828
3.5364 -1.5427 -2.0016 0.9828
3.6381 -1.2847 -2.0016 0.9828
3.7210 -1.0199 -2.0016 0.9828
3.7552 -0.8855 -2.0016 0.9828
3.7846 -0.7499 -2.0016 0.9828
3.8091 -0.6134 -2.0016 0.9828
3.8287 -0.4760 -2.0016 0.9828
3.8434 -0.3381 -2.0016 0.9828
3.8530 -0.1997 -2.0016 0.9828
3.8419 0.3546 -2.0016 0.9828
3.8065 0.6298 -2.0016 0.9828
3.7245 0.8952 -1.9872 0.9829
3.6560 1.1622 -1.9902 0.9829
3.5834 1.4300 -2.0016 0.9828
3.4714 1.6838 -2.0016 0.9828
3.4086 1.8075 -2.0016 0.9828
3.1942 2.1640 -2.0016 0.9828
2.7557 2.7003 -2.0016 0.9828
2.6569 2.7976 -2.0016 0.9828
2.5546 2.8913 -2.0016 0.9828
2.3402 3.0674 -2.0016 0.9828
1.9964 3.3016 -2.0016 0.9828
1.7540 3.4365 -2.0016 0.9828
1.5025 3.5536 -2.0016 0.9828
1.1112 3.6947 -2.0016 0.9828
0.7070 3.7929 -2.0016 0.9828
0.5701 3.8159 -2.0016 0.9828
0.4326 3.8339 -2.0016 0.9828
0.1560 3.8551 -2.0016 0.9828
0.0173 3.8582 -2.0016 0.9828
-0.1214 3.8563 -2.0016 0.9828
-0.6729 3.7991 -2.0016 0.9828
-1.0780 3.7046 -2.0016 0.9828
-1.3414 3.6175 -2.0016 0.9828
-1.4706 3.5670 -2.0016 0.9828
-1.5979 3.5118 -2.0016 0.9828
-2.0847 3.2465 -2.0016 0.9828
-2.3126 3.0883 -2.0016 0.9828
-2.5285 2.9142 -2.0016 0.9828
-2.6317 2.8214 -2.0016 0.9828
-2.7314 2.7249 -2.0016 0.9828
-2.8276 2.6250 -2.0016 0.9828
-3.0938 2.3053 -2.0016 0.9828
-3.1746 2.1926 -2.0016 0.9828
-1.0314 0.5118 -0.5973 0.9948
-1.0620 0.3481 -0.5798 0.9950
-1.0637 0.3068 -0.5743 0.9950
-1.0984 0.1514 -0.5752 0.9950
-1.1031 0.1118 -0.5752 0.9950
-1.1065 -0.0474 -0.5746 0.9950
-1.1015 -0.1269 -0.5752 0.9950
-1.0790 -0.2442 -0.5739 0.9950
-1.0674 -0.2823 -0.5728 0.9950
-1.0608 -0.3639 -0.5818 0.9950
-1.0562 -0.4053 -0.5869 0.9949
-1.0494 -0.4466 -0.5916 0.9949
-1.0403 -0.4876 -0.5960 0.9948
-2.7606 -2.2786 -1.8570 0.9840
-2.6769 -2.3764 -1.8570 0.9840
-2.4055 -2.6508 -1.8570 0.9840
-2.3086 -2.7356 -1.8570 0.9840
-2.1061 -2.8944 -1.8570 0.9840
-2.0007 -2.9682 -1.8570 0.9840
-1.5546 -3.2243 -1.8570 0.9840
-1.4376 -3.2781 -1.8570 0.9840
-1.3189 -3.3277 -1.8570 0.9840
-1.0763 -3.4139 -1.8570 0.9840
-0.9529 -3.4503 -1.8570 0.9840
-0.8283 -3.4824 -1.8570 0.9840
-0.5759 -3.5329 -1.8570 0.9840
-0.3206 -3.5651 -1.8570 0.9840
-0.1922 -3.5744 -1.8570 0.9840
0.0651 -3.5789 -1.8570 0.9840
0.4501 -3.5511 -1.8570 0.9840
0.7041 -3.5096 -1.8570 0.9840
0.9544 -3.4499 -1.8570 0.9840
1.4391 -3.2775 -1.8570 0.9840
1.5560 -3.2237 -1.8570 0.9840
1.6709 -3.1656 -1.8570 0.9840
1.7836 -3.1035 -1.8570 0.9840
2.1073 -2.8934 -1.8570 0.9840
2.2100 -2.8158 -1.8570 0.9840
2.4066 -2.6497 -1.8570 0.9840
2.5003 -2.5615 -1.8570 0.9840
2.8127 -2.4948 -1.9505 0.9832
2.9766 -2.4547 -2.0016 0.9828
3.1453 -2.2345 -2.0016 0.9828
2.9700 2.1293 -2.0016 0.9835
2.6342 2.5330 -2.0016 0.9835
2.4453 2.7158 -2.0016 0.9835
2.0308 3.0382 -2.0016 0.9835
1.9203 3.1093 -2.0016 0.9835
1.6919 3.2392 -2.0016 0.9835
1.4548 3.3524 -2.0016 0.9835
1.3333 3.4025 -2.0016 0.9835
1.2101 3.4483 -2.0016 0.9835
1.0854 3.4896 -2.0016 0.9835
0.8319 3.5585 -2.0016 0.9835
0.7034 3.5861 -2.0016 0.9835
0.5740 3.6091 -2.0016 0.9835
0.4439 3.6274 -2.0016 0.9835
0.1821 3.6499 -2.0016 0.9835
-0.4735 3.6237 -2.0016 0.9835
-0.6035 3.6043 -2.0016 0.9835
-0.8609 3.5516 -2.0016 0.9835
-0.9880 3.5184 -2.0016 0.9835
-1.2383 3.4383 -2.0016 0.9835
-1.3611 3.3915 -2.0016 0.9835
-1.4821 3.3404 -2.0016 0.9835
-1.6012 3.2850 -2.0016 0.9835
-2.0556 3.0215 -2.0016 0.9835
-2.2674 2.8660 -2.0016 0.9835
-2.4674 2.6957 -2.0016 0.9835
-2.7433 2.4144 -2.0016 0.9835
-0.8842 0.5766 -0.5781 0.9952
-0.9408 0.4779 -0.5779 0.9952
-0.9780 0.3308 -0.5655 0.9953
-0.9925 0.2579 -0.5616 0.9953
-1.0263 0.0766 -0.5637 0.9953
-1.0270 0.0026 -0.5625 0.9953
-1.0276 -0.0343 -0.5631 0.9953
-1.0042 -0.2174 -0.5627 0.9953
-0.9822 -0.2879 -0.5606 0.9953
