ply
format ascii 1.0
element vertex 1601
property float32 x
property float32 y
property float32 z
property float32 I
end_header
5.1352 6.7941 -2.0016 0.9656
4.8881 6.9740 -2.0016 0.9656
4.6347 7.1449 -2.0016 0.9656
3.5647 7.7345 -2.0016 0.9656
3.0008 7.9702 -2.0016 0.9656
2.4192 8.1573 -1.9997 0.9656
2.1224 8.2290 -1.9973 0.9657
1.5198 8.3218 -1.9882 0.9658
1.2069 8.2796 -1.9665 0.9662
0.6030 8.2503 -1.9442 0.9666
0.3057 8.2433 -1.9387 0.9667
0.0097 8.2435 -1.9374 0.9667
-0.5829 8.2426 -1.9420 0.9666
-1.1812 8.2400 -1.9564 0.9664
-1.7912 8.2354 -1.9808 0.9660
-2.0997 8.2210 -1.9941 0.9657
-2.3949 8.1456 -1.9954 0.9657
-2.9775 7.9650 -1.9985 0.9657
-3.5465 7.7429 -2.0016 0.9656
-4.6178 7.1558 -2.0016 0.9656
-5.1191 6.8062 -2.0016 0.9656
-6.0402 6.0038 -2.0016 0.9656
-6.2518 5.7832 -2.0016 0.9656
-6.4553 5.5551 -2.0016 0.9656
-6.6504 5.3199 -2.0016 0.9656
-6.8371 5.0778 -2.0016 0.9656
-7.0149 4.8292 -2.0016 0.9656
-7.9952 2.9337 -2.0016 0.9656
-8.0953 2.6449 -2.0016 0.9656
-8.3327 1.7596 -2.0016 0.9656
-8.5129 0.2440 -2.0016 0.9656
-8.5162 -0.0616 -2.0016 0.9656
-8.4603 -0.9764 -2.0016 0.9656
-8.4198 -1.2794 -2.0016 0.9656
-8.3064 -1.8800 -2.0016 0.9656
-7.5614 -2.2924 -1.8570 0.9681
-7.2713 -3.0917 -1.8570 0.9681
-6.8969 -3.8552 -1.8570 0.9681
-6.7541 -4.1002 -1.8570 0.9681
-6.6027 -4.3399 -1.8570 0.9681
-6.4427 -4.5741 -1.8570 0.9681
-5.7304 -6.3002 -2.0016 0.9656
-5.0201 -6.8795 -2.0016 0.9656
-4.7700 -7.0552 -2.0016 0.9656
-3.7116 -7.6651 -2.0016 0.9656
-2.8663 -8.0196 -2.0016 0.9656
-1.9879 -8.2812 -2.0016 0.9656
0.1332 -8.5154 -2.0016 0.9656
0.7436 -8.4839 -2.0016 0.9656
1.6510 -8.3549 -2.0016 0.9656
2.2460 -8.2149 -2.0016 0.9656
3.1158 -7.9260 -2.0016 0.9656
3.3982 -7.8091 -2.0016 0.9656
3.6762 -7.6821 -2.0016 0.9656
2.1910 -4.1856 -1.1103 0.9808
4.4805 -7.2426 -2.0016 0.9656
4.7375 -7.0771 -2.0016 0.9656
4.9884 -6.9026 -2.0016 0.9656
5.4706 -6.5270 -2.0016 0.9656
5.9247 -6.1179 -2.0016 0.9656
6.1404 -5.9013 -2.0016 0.9656
6.5478 -5.4457 -2.0016 0.9656
6.7390 -5.2073 -2.0016 0.9656
7.2596 -4.4529 -2.0016 0.9656
7.5603 -3.9208 -2.0016 0.9656
7.6961 -3.6469 -2.0016 0.9656
7.8220 -3.3684 -2.0016 0.9656
7.9378 -3.0856 -2.0016 0.9656
8.0434 -2.7988 -2.0016 0.9656
8.2235 -2.2147 -2.0016 0.9656
8.2976 -1.9182 -2.0016 0.9656
8.4138 -1.3181 -2.0016 0.9656
8.4557 -1.0154 -2.0016 0.9656
8.5158 -0.1008 -2.0016 0.9656
8.5140 0.2049 -2.0016 0.9656
8.5011 0.5102 -2.0016 0.9656
8.4427 1.1186 -2.0016 0.9656
8.3971 1.4209 -2.0016 0.9656
8.2736 2.0194 -2.0016 0.9656
8.1074 2.6076 -2.0016 0.9656
7.8995 3.1824 -2.0016 0.9656
7.5118 4.0129 -2.0016 0.9656
6.6749 5.2892 -2.0016 0.9656
6.4808 5.5254 -2.0016 0.9656
6.2783 5.7543 -2.0016 0.9656
5.3904 6.5934 -2.0016 0.9656
5.1504 6.7826 -2.0016 0.9656
4.3917 7.2968 -2.0016 0.9656
4.1270 7.4497 -2.0016 0.9656
3.8570 7.5930 -2.0016 0.9656
3.3025 7.8500 -2.0016 0.9656
2.7310 8.0667 -2.0016 0.9656
2.4377 8.1525 -1.9998 0.9656
1.8425 8.2875 -1.9953 0.9657
1.5396 8.3245 -1.9896 0.9658
0.9219 8.2641 -1.9543 0.9664
0.6217 8.2511 -1.9447 0.9666
-0.5643 8.2427 -1.9418 0.9666
-0.8623 8.2416 -1.9475 0.9665
-1.1624 8.2401 -1.9558 0.9664
-2.0812 8.2254 -1.9941 0.9657
-2.9594 7.9713 -1.9984 0.9657
6.8784 -3.5281 -2.0016 0.9686
7.3124 -2.5077 -2.0016 0.9686
7.3977 -2.2437 -2.0016 0.9686
7.4735 -1.9768 -2.0016 0.9686
7.5960 -1.4357 -2.0016 0.9686
7.7303 -0.0568 -2.0016 0.9686
7.7273 0.2206 -2.0016 0.9686
7.6589 1.0498 -2.0016 0.9686
7.6163 1.3239 -2.0016 0.9686
7.5017 1.8667 -2.0016 0.9686
7.4299 2.1347 -2.0016 0.9686
7.3485 2.4000 -2.0016 0.9686
7.2577 2.6621 -2.0016 0.9686
7.1575 2.9208 -2.0016 0.9686
6.8021 3.6731 -2.0016 0.9686
5.8601 5.0418 -2.0016 0.9686
5.6754 5.2488 -2.0016 0.9686
5.2844 5.6423 -2.0016 0.9686
5.0785 5.8283 -2.0016 0.9686
2.9658 7.1390 -2.0016 0.9686
2.7077 7.2408 -2.0016 0.9686
2.1814 7.4163 -2.0016 0.9686
1.9139 7.4898 -2.0016 0.9686
1.6439 7.5537 -2.0016 0.9686
1.3718 7.6078 -2.0016 0.9686
0.8226 7.6866 -2.0016 0.9686
0.5462 7.7112 -2.0016 0.9686
0.2692 7.7258 -2.0016 0.9686
-0.5626 7.7100 -2.0016 0.9686
-0.8389 7.6848 -2.0016 0.9686
-1.1141 7.6498 -2.0016 0.9686
-1.3879 7.6049 -2.0016 0.9686
-1.6599 7.5502 -2.0016 0.9686
-1.9298 7.4857 -2.0016 0.9686
-2.1972 7.4117 -2.0016 0.9686
-3.2349 7.0211 -2.0016 0.9686
-3.4848 6.9005 -2.0016 0.9686
-3.7302 6.7710 -2.0016 0.9686
-3.9707 6.6328 -2.0016 0.9686
-4.2062 6.4860 -2.0016 0.9686
-4.4362 6.3309 -2.0016 0.9686
-4.6605 6.1676 -2.0016 0.9686
-5.0909 5.8175 -2.0016 0.9686
-5.4950 5.4374 -2.0016 0.9686
-6.2164 4.5953 -2.0016 0.9686
-6.5300 4.1376 -2.0016 0.9686
-6.6742 3.9006 -2.0016 0.9686
-7.0548 3.1608 -2.0016 0.9686
-7.2633 2.6467 -2.0016 0.9686
-7.3536 2.3843 -2.0016 0.9686
-7.4344 2.1189 -2.0016 0.9686
-7.6191 1.3077 -2.0016 0.9686
-7.6611 1.0335 -2.0016 0.9686
-7.6933 0.7579 -2.0016 0.9686
-7.7278 0.2042 -2.0016 0.9686
-7.7225 -0.3506 -2.0016 0.9686
-7.5929 -1.4519 -2.0016 0.9686
-7.5359 -1.7234 -2.0016 0.9686
-7.4692 -1.9927 -2.0016 0.9686
-6.3746 -3.2868 -1.8570 0.9708
-5.8388 -4.1650 -1.8570 0.9708
-5.5250 -4.5731 -1.8570 0.9708
-4.6200 -5.4858 -1.8570 0.9708
-4.4202 -5.6481 -1.8570 0.9708
-3.8443 -6.7068 -2.0016 0.9686
-3.1013 -7.0811 -2.0016 0.9686
-2.8452 -7.1878 -2.0016 0.9686
-2.5855 -7.2853 -2.0016 0.9686
-2.3224 -7.3734 -2.0016 0.9686
-2.0563 -7.4520 -2.0016 0.9686
-1.5166 -7.5803 -2.0016 0.9686
0.1383 -7.7293 -2.0016 0.9686
0.4155 -7.7193 -2.0016 0.9686
0.9681 -7.6696 -2.0016 0.9686
1.7867 -7.5212 -2.0016 0.9686
2.3215 -7.3737 -2.0016 0.9686
2.5846 -7.2856 -2.0016 0.9686
2.8444 -7.1882 -2.0016 0.9686
2.1057 -4.3749 -1.2571 0.9801
2.1643 -4.1122 -1.2032 0.9810
2.3551 -4.1097 -1.2264 0.9806
4.3147 -6.4143 -2.0016 0.9686
5.1880 -5.7310 -2.0016 0.9686
5.3903 -5.5412 -2.0016 0.9686
5.5857 -5.3442 -2.0016 0.9686
6.1277 -4.7130 -2.0016 0.9686
6.2928 -4.4901 -2.0016 0.9686
6.5987 -4.0272 -2.0016 0.9686
6.7389 -3.7878 -2.0016 0.9686
6.8705 -3.5435 -2.0016 0.9686
7.1069 -3.0417 -2.0016 0.9686
7.3927 -2.2603 -2.0016 0.9686
7.5357 -1.7243 -2.0016 0.9686
7.6774 -0.9044 -2.0016 0.9686
7.7278 0.2033 -2.0016 0.9686
7.6192 1.3068 -2.0016 0.9686
7.4347 2.1181 -2.0016 0.9686
7.3539 2.3835 -2.0016 0.9686
7.0552 3.1600 -2.0016 0.9686
6.9372 3.4111 -2.0016 0.9686
6.6747 3.8998 -2.0016 0.9686
6.0481 4.8147 -2.0016 0.9686
5.6872 5.2361 -2.0016 0.9686
5.0916 5.8169 -2.0016 0.9686
4.8795 5.9959 -2.0016 0.9686
4.6613 6.1671 -2.0016 0.9686
4.2069 6.4855 -2.0016 0.9686
3.9715 6.6323 -2.0016 0.9686
3.4856 6.9001 -2.0016 0.9686
2.1980 7.4114 -2.0016 0.9686
1.9307 7.4855 -2.0016 0.9686
1.1150 7.6496 -2.0016 0.9686
0.8398 7.6847 -2.0016 0.9686
0.5635 7.7099 -2.0016 0.9686
0.0091 7.7305 -2.0016 0.9686
-0.2683 7.7258 -2.0016 0.9686
-0.5453 7.7112 -2.0016 0.9686
-0.8217 7.6867 -2.0016 0.9686
-1.0970 7.6523 -2.0016 0.9686
-1.3709 7.6080 -2.0016 0.9686
-2.1805 7.4166 -2.0016 0.9686
-2.7068 7.2411 -2.0016 0.9686
-2.9649 7.1393 -2.0016 0.9686
-3.2192 7.0283 -2.0016 0.9686
-3.4693 6.9083 -2.0016 0.9686
-3.9559 6.6417 -2.0016 0.9686
-4.1916 6.4954 -2.0016 0.9686
-4.8654 6.0074 -2.0016 0.9686
-5.2837 5.6429 -2.0016 0.9686
-5.4828 5.4497 -2.0016 0.9686
-5.8595 5.0424 -2.0016 0.9686
-6.0367 4.8289 -2.0016 0.9686
-6.2061 4.6092 -2.0016 0.9686
-6.3675 4.3836 -2.0016 0.9686
-6.6655 3.9156 -2.0016 0.9686
-6.8017 3.6739 -2.0016 0.9686
-6.9292 3.4274 -2.0016 0.9686
-7.0477 3.1766 -2.0016 0.9686
-7.1571 2.9217 -2.0016 0.9686
-7.2573 2.6630 -2.0016 0.9686
-7.3482 2.4008 -2.0016 0.9686
-7.5015 1.8676 -2.0016 0.9686
-7.6161 1.3248 -2.0016 0.9686
-7.6588 1.0507 -2.0016 0.9686
-7.7273 0.2215 -2.0016 0.9686
-7.7303 -0.0559 -2.0016 0.9686
-7.7233 -0.3333 -2.0016 0.9686
-7.7064 -0.6102 -2.0016 0.9686
-7.6428 -1.1613 -2.0016 0.9686
-7.5398 -1.7065 -2.0016 0.9686
-6.3820 -3.2725 -1.8570 0.9708
-5.8481 -4.1519 -1.8570 0.9708
-5.6953 -4.3591 -1.8570 0.9708
-5.5353 -4.5607 -1.8570 0.9708
-4.8258 -5.3057 -1.8570 0.9708
-4.6323 -5.4754 -1.8570 0.9708
-4.4329 -5.6381 -1.8570 0.9708
-3.8594 -6.6982 -2.0016 0.9686
-3.6165 -6.8324 -2.0016 0.9686
-3.1172 -7.0741 -2.0016 0.9686
-2.6018 -7.2795 -2.0016 0.9686
-2.0730 -7.4473 -2.0016 0.9686
-1.8044 -7.5169 -2.0016 0.9686
-1.5336 -7.5769 -2.0016 0.9686
-1.2607 -7.6270 -2.0016 0.9686
-0.7104 -7.6978 -2.0016 0.9686
-0.4337 -7.7183 -2.0016 0.9686
0.1209 -7.7295 -2.0016 0.9686
0.3982 -7.7202 -2.0016 0.9686
1.2256 -7.6327 -2.0016 0.9686
2.5683 -7.2914 -2.0016 0.9686
2.8283 -7.1945 -2.0016 0.9686
3.0846 -7.0884 -2.0016 0.9686
2.1540 -4.1150 -1.2026 0.9810
4.0670 -6.5742 -2.0016 0.9686
4.7500 -6.0990 -2.0016 0.9686
5.1752 -5.7427 -2.0016 0.9686
5.3779 -5.5533 -2.0016 0.9686
5.5737 -5.3567 -2.0016 0.9686
5.7623 -5.1532 -2.0016 0.9686
5.9435 -4.9432 -2.0016 0.9686
6.1171 -4.7267 -2.0016 0.9686
6.2828 -4.5042 -2.0016 0.9686
6.5896 -4.0419 -2.0016 0.9686
6.7304 -3.8029 -2.0016 0.9686
6.8625 -3.5589 -2.0016 0.9686
7.1001 -3.0576 -2.0016 0.9686
7.3011 -2.5405 -2.0016 0.9686
7.4645 -2.0103 -2.0016 0.9686
7.5895 -1.4698 -2.0016 0.9686
7.6373 -1.1965 -2.0016 0.9686
7.7217 -0.3688 -2.0016 0.9686
7.7300 -0.0915 -2.0016 0.9686
7.6950 0.7398 -2.0016 0.9686
7.6221 1.2897 -2.0016 0.9686
7.4394 2.1014 -2.0016 0.9686
7.3592 2.3670 -2.0016 0.9686
7.2695 2.6295 -2.0016 0.9686
7.1705 2.8887 -2.0016 0.9686
7.0622 3.1441 -2.0016 0.9686
6.8185 3.6425 -2.0016 0.9686
6.3876 4.3542 -2.0016 0.9686
6.0589 4.8011 -2.0016 0.9686
5.6989 5.2233 -2.0016 0.9686
5.3096 5.6186 -2.0016 0.9686
4.8930 5.9849 -2.0016 0.9686
4.6751 6.1566 -2.0016 0.9686
4.4511 6.3204 -2.0016 0.9686
3.9864 6.6234 -2.0016 0.9686
3.5011 6.8922 -2.0016 0.9686
2.4790 7.3222 -2.0016 0.9686
2.2146 7.4065 -2.0016 0.9686
1.9474 7.4812 -2.0016 0.9686
1.6777 7.5462 -2.0016 0.9686
1.4059 7.6016 -2.0016 0.9686
1.1322 7.6471 -2.0016 0.9686
0.8571 7.6828 -2.0016 0.9686
0.5808 7.7086 -2.0016 0.9686
0.3038 7.7245 -2.0016 0.9686
0.0265 7.7304 -2.0016 0.9686
-0.2510 7.7264 -2.0016 0.9686
-0.5280 7.7124 -2.0016 0.9686
-1.3538 7.6110 -2.0016 0.9686
-2.4288 7.3390 -2.0016 0.9686
-2.6906 7.2471 -2.0016 0.9686
-2.9489 7.1459 -2.0016 0.9686
6.1712 -3.4505 -2.0016 0.9710
6.2910 -3.2268 -2.0016 0.9710
6.5063 -2.7673 -2.0016 0.9710
6.8957 -1.5616 -2.0016 0.9710
7.0236 -0.8115 -2.0016 0.9710
7.0637 -0.3056 -2.0016 0.9710
7.0348 0.7081 -2.0016 0.9710
7.0048 0.9601 -2.0016 0.9710
6.9179 1.4600 -2.0016 0.9710
6.8611 1.7073 -2.0016 0.9710
6.7210 2.1950 -2.0016 0.9710
6.5462 2.6714 -2.0016 0.9710
6.4462 2.9046 -2.0016 0.9710
6.3378 3.1340 -2.0016 0.9710
6.2213 3.3594 -2.0016 0.9710
5.8242 4.0085 -2.0016 0.9710
5.6766 4.2149 -2.0016 0.9710
5.5217 4.4159 -2.0016 0.9710
5.1908 4.8006 -2.0016 0.9710
4.8331 5.1605 -2.0016 0.9710
4.6448 5.3306 -2.0016 0.9710
4.2505 5.6500 -2.0016 0.9710
4.0451 5.7989 -2.0016 0.9710
3.8344 5.9403 -2.0016 0.9710
3.6188 6.0741 -2.0016 0.9710
2.9450 6.4278 -2.0016 0.9710
2.7125 6.5293 -2.0016 0.9710
2.2372 6.7070 -2.0016 0.9710
1.9951 6.7830 -2.0016 0.9710
1.5035 6.9086 -2.0016 0.9710
1.2546 6.9581 -2.0016 0.9710
1.0041 6.9987 -2.0016 0.9710
0.2462 7.0660 -2.0016 0.9710
-0.0075 7.0703 -2.0016 0.9710
-0.5146 7.0516 -2.0016 0.9710
-0.7673 7.0286 -2.0016 0.9710
-1.2694 6.9554 -2.0016 0.9710
-1.7650 6.8465 -2.0016 0.9710
-2.0095 6.7787 -2.0016 0.9710
-3.1872 6.3112 -2.0016 0.9710
-3.8470 5.9321 -2.0016 0.9710
-4.2625 5.6410 -2.0016 0.9710
-4.4622 5.4844 -2.0016 0.9710
-4.6561 5.3207 -2.0016 0.9710
-4.8441 5.1502 -2.0016 0.9710
-5.0257 4.9731 -2.0016 0.9710
-5.5311 4.4042 -2.0016 0.9710
-5.8327 3.9961 -2.0016 0.9710
-5.9723 3.7843 -2.0016 0.9710
-6.1043 3.5675 -2.0016 0.9710
-6.2284 3.3462 -2.0016 0.9710
-6.3444 3.1205 -2.0016 0.9710
-6.4523 2.8909 -2.0016 0.9710
-6.5519 2.6575 -2.0016 0.9710
-6.6430 2.4207 -2.0016 0.9710
-6.8647 1.6927 -2.0016 0.9710
-6.9210 1.4453 -2.0016 0.9710
-7.0069 0.9452 -2.0016 0.9710
-7.0363 0.6932 -2.0016 0.9710
-7.0566 0.4403 -2.0016 0.9710
-7.0679 0.1868 -2.0016 0.9710
-7.0219 -0.8264 -2.0016 0.9710
-6.8924 -1.5762 -2.0016 0.9710
-6.8314 -1.8225 -2.0016 0.9710
-6.7616 -2.0665 -2.0016 0.9710
-6.4557 -2.2293 -1.9335 0.9720
-5.4734 -3.6153 -1.8570 0.9731
-5.2000 -3.9985 -1.8570 0.9731
-5.0532 -4.1825 -1.8570 0.9731
-4.7402 -4.5342 -1.8570 0.9731
-4.4028 -4.8625 -1.8570 0.9731
-4.2255 -5.0173 -1.8570 0.9731
-3.8548 -5.3075 -1.8570 0.9731
-3.2937 -6.2563 -2.0016 0.9710
-3.0671 -6.3705 -2.0016 0.9710
-2.3647 -6.6632 -2.0016 0.9710
-2.1241 -6.7437 -2.0016 0.9710
-1.8807 -6.8156 -2.0016 0.9710
-1.6349 -6.8787 -2.0016 0.9710
-1.3871 -6.9329 -2.0016 0.9710
-0.8862 -7.0146 -2.0016 0.9710
-0.6340 -7.0418 -2.0016 0.9710
-0.3809 -7.0601 -2.0016 0.9710
-0.1273 -7.0692 -2.0016 0.9710
0.3800 -7.0601 -2.0016 0.9710
0.6331 -7.0419 -2.0016 0.9710
0.8854 -7.0147 -2.0016 0.9710
1.3862 -6.9331 -2.0016 0.9710
1.8799 -6.8158 -2.0016 0.9710
2.1233 -6.7440 -2.0016 0.9710
2.3639 -6.6634 -2.0016 0.9710
2.6015 -6.5743 -2.0016 0.9710
2.8357 -6.4768 -2.0016 0.9710
2.0915 -4.3456 -1.3653 0.9802
2.3468 -4.0953 -1.3362 0.9806
3.9462 -5.8666 -2.0016 0.9710
4.1542 -5.7212 -2.0016 0.9710
4.9300 -5.0680 -2.0016 0.9710
5.2808 -4.7014 -2.0016 0.9710
5.7555 -4.1066 -2.0016 0.9710
6.1634 -3.4643 -2.0016 0.9710
6.3960 -3.0134 -2.0016 0.9710
6.5957 -2.5469 -2.0016 0.9710
6.8312 -1.8233 -2.0016 0.9710
6.8922 -1.5770 -2.0016 0.9710
6.9444 -1.3287 -2.0016 0.9710
7.0218 -0.8272 -2.0016 0.9710
7.0469 -0.5747 -2.0016 0.9710
7.0630 -0.3215 -2.0016 0.9710
7.0567 0.4394 -2.0016 0.9710
7.0070 0.9444 -2.0016 0.9710
6.9686 1.1952 -2.0016 0.9710
6.9212 1.4445 -2.0016 0.9710
6.8649 1.6919 -2.0016 0.9710
6.7998 1.9372 -2.0016 0.9710
6.7259 2.1799 -2.0016 0.9710
6.3448 3.1198 -2.0016 0.9710
6.2288 3.3455 -2.0016 0.9710
6.1047 3.5668 -2.0016 0.9710
5.8332 3.9955 -2.0016 0.9710
5.6860 4.2022 -2.0016 0.9710
5.3700 4.5992 -2.0016 0.9710
5.0263 4.9725 -2.0016 0.9710
4.2632 5.6405 -2.0016 0.9710
4.0581 5.7898 -2.0016 0.9710
3.8477 5.9317 -2.0016 0.9710
3.1879 6.3108 -2.0016 0.9710
2.9594 6.4212 -2.0016 0.9710
2.4913 6.6169 -2.0016 0.9710
2.2523 6.7020 -2.0016 0.9710
2.0103 6.7785 -2.0016 0.9710
1.2702 6.9553 -2.0016 0.9710
1.0198 6.9964 -2.0016 0.9710
0.5154 7.0515 -2.0016 0.9710
0.0083 7.0703 -2.0016 0.9710
-0.7515 7.0303 -2.0016 0.9710
-1.0033 6.9988 -2.0016 0.9710
-1.2538 6.9583 -2.0016 0.9710
-1.5027 6.9088 -2.0016 0.9710
-1.9943 6.7832 -2.0016 0.9710
-2.2364 6.7073 -2.0016 0.9710
-2.9443 6.4281 -2.0016 0.9710
-3.1731 6.3183 -2.0016 0.9710
-3.3977 6.2004 -2.0016 0.9710
-3.6180 6.0745 -2.0016 0.9710
-3.8337 5.9407 -2.0016 0.9710
-4.0444 5.7994 -2.0016 0.9710
-4.4499 5.4944 -2.0016 0.9710
-4.6442 5.3311 -2.0016 0.9710
-5.3591 4.6118 -2.0016 0.9710
-5.5212 4.4166 -2.0016 0.9710
-5.8237 4.0092 -2.0016 0.9710
-5.9638 3.7977 -2.0016 0.9710
-6.3374 3.1348 -2.0016 0.9710
-6.5459 2.6722 -2.0016 0.9710
-6.7952 1.9532 -2.0016 0.9710
-6.8609 1.7081 -2.0016 0.9710
-6.9178 1.4608 -2.0016 0.9710
-7.0347 0.7090 -2.0016 0.9710
-7.0638 -0.3048 -2.0016 0.9710
-7.0483 -0.5581 -2.0016 0.9710
-7.0237 -0.8106 -2.0016 0.9710
-6.9901 -1.0622 -2.0016 0.9710
-6.9475 -1.3123 -2.0016 0.9710
-6.7662 -2.0513 -2.0016 0.9710
-6.4971 -2.2272 -1.9443 0.9719
-6.1248 -2.3485 -1.8570 0.9731
-5.9406 -2.7817 -1.8570 0.9731
-5.7258 -3.2006 -1.8570 0.9731
-5.6073 -3.4040 -1.8570 0.9731
-4.9096 -4.3502 -1.8570 0.9731
-4.7504 -4.5236 -1.8570 0.9731
-3.6740 -5.4342 -1.8570 0.9731
-3.4767 -5.5625 -1.8570 0.9731
-3.3077 -6.2489 -2.0016 0.9710
-2.8510 -6.4700 -2.0016 0.9710
-2.6170 -6.5682 -2.0016 0.9710
-1.6504 -6.8750 -2.0016 0.9710
-0.9020 -7.0126 -2.0016 0.9710
-0.6498 -7.0404 -2.0016 0.9710
-0.1431 -7.0689 -2.0016 0.9710
0.1106 -7.0695 -2.0016 0.9710
0.6173 -7.0433 -2.0016 0.9710
1.1209 -6.9809 -2.0016 0.9710
1.8646 -6.8200 -2.0016 0.9710
2.1082 -6.7487 -2.0016 0.9710
2.5867 -6.5801 -2.0016 0.9710
2.0907 -4.3689 -1.3711 0.9801
2.1463 -4.1002 -1.3102 0.9809
2.3347 -4.0955 -1.3346 0.9806
3.7197 -6.0128 -2.0016 0.9710
4.1414 -5.7305 -2.0016 0.9710
4.7332 -5.2522 -2.0016 0.9710
4.9186 -5.0790 -2.0016 0.9710
5.0977 -4.8993 -2.0016 0.9710
5.5947 -4.3231 -2.0016 0.9710
5.8903 -3.9107 -2.0016 0.9710
6.4938 -2.7965 -2.0016 0.9710
6.6776 -2.3235 -2.0016 0.9710
6.9851 -1.0943 -2.0016 0.9710
7.0199 -0.8430 -2.0016 0.9710
7.0456 -0.5905 -2.0016 0.9710
7.0623 -0.3373 -2.0016 0.9710
7.0698 -0.0837 -2.0016 0.9710
7.0576 0.4236 -2.0016 0.9710
7.0091 0.9287 -2.0016 0.9710
6.9712 1.1796 -2.0016 0.9710
6.9244 1.4290 -2.0016 0.9710
6.8041 1.9219 -2.0016 0.9710
6.7308 2.1649 -2.0016 0.9710
6.4591 2.8756 -2.0016 0.9710
6.3518 3.1056 -2.0016 0.9710
6.2362 3.3315 -2.0016 0.9710
6.1127 3.5531 -2.0016 0.9710
5.9812 3.7702 -2.0016 0.9710
5.3803 4.5871 -2.0016 0.9710
5.0375 4.9612 -2.0016 0.9710
4.6687 5.3097 -2.0016 0.9710
4.4751 5.4738 -2.0016 0.9710
4.2758 5.6309 -2.0016 0.9710
3.8610 5.9230 -2.0016 0.9710
3.6460 6.0578 -2.0016 0.9710
3.2021 6.3037 -2.0016 0.9710
2.5061 6.6113 -2.0016 0.9710
2.0255 6.7740 -2.0016 0.9710
1.5345 6.9018 -2.0016 0.9710
1.2858 6.9524 -2.0016 0.9710
0.2779 7.0649 -2.0016 0.9710
-0.7358 7.0319 -2.0016 0.9710
-0.9876 7.0010 -2.0016 0.9710
-1.7343 6.8543 -2.0016 0.9710
-1.9791 6.7877 -2.0016 0.9710
-2.2214 6.7123 -2.0016 0.9710
-2.4608 6.6283 -2.0016 0.9710
-2.9299 6.4347 -2.0016 0.9710
5.8931 -2.7603 -2.0016 0.9731
6.1556 -2.1110 -2.0016 0.9731
6.2273 -1.8887 -2.0016 0.9731
6.2911 -1.6641 -2.0016 0.9731
6.3943 -1.2086 -2.0016 0.9731
6.4645 -0.7469 -2.0016 0.9731
6.4871 -0.5144 -2.0016 0.9731
6.5014 -0.2813 -2.0016 0.9731
6.4748 0.6518 -2.0016 0.9731
6.4472 0.8837 -2.0016 0.9731
6.3672 1.3438 -2.0016 0.9731
6.2544 1.7970 -2.0016 0.9731
6.1859 2.0203 -2.0016 0.9731
6.0251 2.4587 -2.0016 0.9731
5.9330 2.6733 -2.0016 0.9731
5.4895 3.4947 -2.0016 0.9731
5.3606 3.6894 -2.0016 0.9731
4.9330 4.2441 -2.0016 0.9731
4.4484 4.7497 -2.0016 0.9731
4.0963 5.0565 -2.0016 0.9731
3.5291 5.4674 -2.0016 0.9731
3.1279 5.7064 -2.0016 0.9731
2.9211 5.8150 -2.0016 0.9731
2.7106 5.9161 -2.0016 0.9731
2.2793 6.0952 -2.0016 0.9731
2.0591 6.1731 -2.0016 0.9731
1.6111 6.3049 -2.0016 0.9731
1.3838 6.3586 -2.0016 0.9731
1.1547 6.4042 -2.0016 0.9731
-0.0069 6.5075 -2.0016 0.9731
-0.2404 6.5030 -2.0016 0.9731
-0.4736 6.4902 -2.0016 0.9731
-0.7062 6.4690 -2.0016 0.9731
-1.1683 6.4017 -2.0016 0.9731
-1.3973 6.3557 -2.0016 0.9731
-2.0722 6.1687 -2.0016 0.9731
-2.2922 6.0904 -2.0016 0.9731
-2.5093 6.0042 -2.0016 0.9731
-3.1400 5.6998 -2.0016 0.9731
-3.5407 5.4599 -2.0016 0.9731
-4.1070 5.0478 -2.0016 0.9731
-4.6257 4.5772 -2.0016 0.9731
-4.7869 4.4082 -2.0016 0.9731
-4.9420 4.2336 -2.0016 0.9731
-5.0908 4.0536 -2.0016 0.9731
-5.4969 3.4830 -2.0016 0.9731
-5.9387 2.6607 -2.0016 0.9731
-6.0303 2.4459 -2.0016 0.9731
-6.1902 2.0071 -2.0016 0.9731
-6.3182 1.5580 -2.0016 0.9731
-6.4137 1.1008 -2.0016 0.9731
-6.4491 0.8700 -2.0016 0.9731
-6.4949 0.4052 -2.0016 0.9731
-6.5052 0.1719 -2.0016 0.9731
-6.5008 -0.2951 -2.0016 0.9731
-6.4860 -0.5282 -2.0016 0.9731
-6.4314 -0.9920 -2.0016 0.9731
-6.3917 -1.2222 -2.0016 0.9731
-6.3437 -1.4507 -2.0016 0.9731
-6.2876 -1.6774 -2.0016 0.9731
-6.1511 -2.1241 -2.0016 0.9731
-5.5507 -2.3748 -1.8570 0.9751
-5.4619 -2.5725 -1.8570 0.9751
-5.1538 -3.1446 -1.8570 0.9751
-5.0377 -3.3275 -1.8570 0.9751
-4.7861 -3.6802 -1.8570 0.9751
-4.6509 -3.8496 -1.8570 0.9751
-4.5098 -4.0140 -1.8570 0.9751
-4.3629 -4.1732 -1.8570 0.9751
-4.2103 -4.3271 -1.8570 0.9751
-4.0523 -4.4754 -1.8570 0.9751
-3.7209 -4.7545 -1.8570 0.9751
-3.3703 -5.0091 -1.8570 0.9751
-3.1884 -5.1268 -1.8570 0.9751
-3.0024 -5.2380 -1.8570 0.9751
-2.8125 -5.3423 -1.8570 0.9751
-2.6190 -5.4398 -1.8570 0.9751
-2.2221 -5.6136 -1.8570 0.9751
-1.7310 -6.2730 -2.0016 0.9731
-1.5048 -6.3311 -2.0016 0.9731
-1.2766 -6.3810 -2.0016 0.9731
-0.8157 -6.4562 -2.0016 0.9731
-0.5835 -6.4813 -2.0016 0.9731
-0.3506 -6.4980 -2.0016 0.9731
-0.1172 -6.5064 -2.0016 0.9731
0.1164 -6.5064 -2.0016 0.9731
0.3498 -6.4981 -2.0016 0.9731
0.5827 -6.4813 -2.0016 0.9731
0.8149 -6.4562 -2.0016 0.9731
1.7303 -6.2732 -2.0016 0.9731
2.4215 -5.5306 -1.8570 0.9751
2.1493 -4.0838 -1.4194 0.9809
2.3385 -4.0808 -1.4466 0.9805
3.4360 -5.5264 -2.0016 0.9731
4.0100 -5.1252 -2.0016 0.9731
4.1913 -4.9780 -2.0016 0.9731
4.3673 -4.8244 -2.0016 0.9731
4.5376 -4.6645 -2.0016 0.9731
4.7020 -4.4987 -2.0016 0.9731
5.0126 -4.1499 -2.0016 0.9731
5.4295 -3.5872 -2.0016 0.9731
5.5547 -3.3900 -2.0016 0.9731
5.6728 -3.1885 -2.0016 0.9731
5.9826 -2.5604 -2.0016 0.9731
6.0706 -2.3441 -2.0016 0.9731
6.1508 -2.1248 -2.0016 0.9731
6.2231 -1.9027 -2.0016 0.9731
6.4313 -0.9928 -2.0016 0.9731
6.5008 -0.2959 -2.0016 0.9731
6.4949 0.4044 -2.0016 0.9731
6.2585 1.7830 -2.0016 0.9731
6.1145 2.2272 -2.0016 0.9731
5.9390 2.6600 -2.0016 0.9731
5.7329 3.0791 -2.0016 0.9731
5.3688 3.6774 -2.0016 0.9731
5.2334 3.8677 -2.0016 0.9731
4.9425 4.2331 -2.0016 0.9731
4.7874 4.4077 -2.0016 0.9731
4.2860 4.8966 -2.0016 0.9731
4.1076 5.0473 -2.0016 0.9731
3.7350 5.3289 -2.0016 0.9731
3.3432 5.5830 -2.0016 0.9731
2.5100 6.0039 -2.0016 0.9731
2.2930 6.0901 -2.0016 0.9731
2.0730 6.1685 -2.0016 0.9731
1.3981 6.3555 -2.0016 0.9731
0.9386 6.4394 -2.0016 0.9731
0.7070 6.4690 -2.0016 0.9731
0.4744 6.4902 -2.0016 0.9731
0.2412 6.5030 -2.0016 0.9731
-0.4591 6.4913 -2.0016 0.9731
-1.1540 6.4043 -2.0016 0.9731
-1.3831 6.3588 -2.0016 0.9731
-1.8355 6.2432 -2.0016 0.9731
-2.9204 5.8153 -2.0016 0.9731
-3.1272 5.7068 -2.0016 0.9731
-3.3300 5.5909 -2.0016 0.9731
-3.7224 5.3377 -2.0016 0.9731
-4.2745 4.9067 -2.0016 0.9731
-4.4478 4.7502 -2.0016 0.9731
-5.0817 4.0650 -2.0016 0.9731
-5.4891 3.4953 -2.0016 0.9731
-5.6110 3.2961 -2.0016 0.9731
-5.8329 2.8852 -2.0016 0.9731
-5.9327 2.6740 -2.0016 0.9731
-6.0248 2.4594 -2.0016 0.9731
-6.1092 2.2417 -2.0016 0.9731
-6.2542 1.7977 -2.0016 0.9731
-6.4471 0.8844 -2.0016 0.9731
-6.4939 0.4198 -2.0016 0.9731
-6.5048 0.1865 -2.0016 0.9731
-6.5014 -0.2805 -2.0016 0.9731
-6.4872 -0.5137 -2.0016 0.9731
-6.4646 -0.7461 -2.0016 0.9731
-6.2913 -1.6633 -2.0016 0.9731
-6.2276 -1.8880 -2.0016 0.9731
-5.8215 -2.2322 -1.9177 0.9742
-5.5560 -2.3624 -1.8570 0.9751
-5.3723 -2.7548 -1.8570 0.9751
-5.2700 -2.9458 -1.8570 0.9751
-4.9229 -3.4951 -1.8570 0.9751
-4.7943 -3.6695 -1.8570 0.9751
-4.6596 -3.8391 -1.8570 0.9751
-4.3722 -4.1634 -1.8570 0.9751
-4.0623 -4.4663 -1.8570 0.9751
-3.8995 -4.6092 -1.8570 0.9751
-3.7315 -4.7462 -1.8570 0.9751
-3.5588 -4.8770 -1.8570 0.9751
-3.0141 -5.2312 -1.8570 0.9751
-2.4345 -5.5248 -1.8570 0.9751
-2.2347 -5.6086 -1.8570 0.9751
-1.9689 -6.2025 -2.0016 0.9731
-1.7451 -6.2691 -2.0016 0.9731
-1.5190 -6.3277 -2.0016 0.9731
0.1018 -6.5067 -2.0016 0.9731
0.8004 -6.4581 -2.0016 0.9731
1.0317 -6.4252 -2.0016 0.9731
1.2616 -6.3840 -2.0016 0.9731
1.7162 -6.2771 -2.0016 0.9731
1.9403 -6.2115 -2.0016 0.9731
2.2088 -5.6188 -1.8570 0.9751
2.4090 -5.5360 -1.8570 0.9751
3.6200 -5.4077 -2.0016 0.9731
3.9985 -5.1341 -2.0016 0.9731
4.1802 -4.9873 -2.0016 0.9731
4.3564 -4.8341 -2.0016 0.9731
4.5271 -4.6747 -2.0016 0.9731
4.6919 -4.5092 -2.0016 0.9731
4.8507 -4.3380 -2.0016 0.9731
5.2888 -3.7916 -2.0016 0.9731
5.7768 -2.9959 -2.0016 0.9731
6.0653 -2.3577 -2.0016 0.9731
6.1460 -2.1386 -2.0016 0.9731
6.2836 -1.6923 -2.0016 0.9731
6.3403 -1.4657 -2.0016 0.9731
6.3888 -1.2372 -2.0016 0.9731
6.4291 -1.0072 -2.0016 0.9731
6.4611 -0.7758 -2.0016 0.9731
6.4847 -0.5435 -2.0016 0.9731
6.5001 -0.3105 -2.0016 0.9731
6.5070 -0.0770 -2.0016 0.9731
6.5056 0.1565 -2.0016 0.9731
6.4958 0.3899 -2.0016 0.9731
6.3219 1.5431 -2.0016 0.9731
6.1949 1.9925 -2.0016 0.9731
6.1194 2.2135 -2.0016 0.9731
6.0361 2.4317 -2.0016 0.9731
5.9449 2.6467 -2.0016 0.9731
5.5051 3.4700 -2.0016 0.9731
5.3770 3.6653 -2.0016 0.9731
5.2420 3.8559 -2.0016 0.9731
5.1003 4.0415 -2.0016 0.9731
4.6365 4.5662 -2.0016 0.9731
4.4696 4.7297 -2.0016 0.9731
4.2970 4.8870 -2.0016 0.9731
4.1189 5.0381 -2.0016 0.9731
3.9354 5.1826 -2.0016 0.9731
3.7469 5.3205 -2.0016 0.9731
3.5536 5.4515 -2.0016 0.9731
2.9472 5.8018 -2.0016 0.9731
2.3066 6.0850 -2.0016 0.9731
2.0868 6.1638 -2.0016 0.9731
1.8643 6.2347 -2.0016 0.9731
1.6393 6.2976 -2.0016 0.9731
0.9531 6.4373 -2.0016 0.9731
0.2558 6.5025 -2.0016 0.9731
0.0223 6.5074 -2.0016 0.9731
-0.4445 6.4923 -2.0016 0.9731
-0.6772 6.4721 -2.0016 0.9731
-0.9090 6.4437 -2.0016 0.9731
-1.1396 6.4069 -2.0016 0.9731
-1.8215 6.2473 -2.0016 0.9731
-2.0446 6.1780 -2.0016 0.9731
-2.2649 6.1006 -2.0016 0.9731
-2.4824 6.0154 -2.0016 0.9731
5.2557 -2.9386 -2.0016 0.9749
5.3578 -2.7481 -2.0016 0.9749
5.5411 -2.3568 -2.0016 0.9749
5.6221 -2.1564 -2.0016 0.9749
5.8212 -1.5398 -2.0016 0.9749
5.9167 -1.1183 -2.0016 0.9749
5.9530 -0.9053 -2.0016 0.9749
6.0026 -0.4760 -2.0016 0.9749
6.0158 -0.2603 -2.0016 0.9749
6.0190 0.1718 -2.0016 0.9749
6.0089 0.3877 -2.0016 0.9749
5.9657 0.8177 -2.0016 0.9749
5.8917 1.2434 -2.0016 0.9749
5.8432 1.4540 -2.0016 0.9749
5.5751 2.2751 -2.0016 0.9749
5.1922 3.0493 -2.0016 0.9749
5.0795 3.2337 -2.0016 0.9749
3.7903 4.6788 -2.0016 0.9749
3.6200 4.8118 -2.0016 0.9749
3.4450 4.9386 -2.0016 0.9749
2.8943 5.2802 -2.0016 0.9749
2.5081 5.4742 -2.0016 0.9749
2.3101 5.5607 -2.0016 0.9749
2.1091 5.6400 -2.0016 0.9749
1.9053 5.7120 -2.0016 0.9749
0.8552 5.9604 -2.0016 0.9749
0.4255 6.0064 -2.0016 0.9749
-0.0064 6.0214 -2.0016 0.9749
-0.6535 5.9859 -2.0016 0.9749
-1.0811 5.9236 -2.0016 0.9749
-1.2929 5.8810 -2.0016 0.9749
-1.5031 5.8308 -2.0016 0.9749
-2.1210 5.6355 -2.0016 0.9749
-2.3219 5.5558 -2.0016 0.9749
-2.7144 5.3749 -2.0016 0.9749
-2.9055 5.2741 -2.0016 0.9749
-3.4555 4.9313 -2.0016 0.9749
-3.8002 4.6708 -2.0016 0.9749
-3.9654 4.5314 -2.0016 0.9749
-4.1254 4.3862 -2.0016 0.9749
-4.4294 4.0790 -2.0016 0.9749
-4.7105 3.7508 -2.0016 0.9749
-4.8421 3.5794 -2.0016 0.9749
-5.0863 3.2229 -2.0016 0.9749
-5.4032 2.6576 -2.0016 0.9749
-5.6575 2.0616 -2.0016 0.9749
-5.7279 1.8572 -2.0016 0.9749
-5.7908 1.6505 -2.0016 0.9749
-5.8463 1.4416 -2.0016 0.9749
-5.9347 1.0186 -2.0016 0.9749
-5.9674 0.8050 -2.0016 0.9749
-6.0098 0.3749 -2.0016 0.9749
-6.0212 -0.0571 -2.0016 0.9749
-6.0016 -0.4887 -2.0016 0.9749
-5.9802 -0.7038 -2.0016 0.9749
-5.9143 -1.1309 -2.0016 0.9749
-5.8180 -1.5521 -2.0016 0.9749
-5.7585 -1.7599 -2.0016 0.9749
-5.2290 -2.2372 -1.8906 0.9763
-4.9653 -2.5602 -1.8570 0.9767
-4.6614 -3.0790 -1.8570 0.9767
-4.3036 -3.5621 -1.8570 0.9767
-4.0370 -3.8615 -1.8570 0.9767
-3.7496 -4.1411 -1.8570 0.9767
-3.5986 -4.2730 -1.8570 0.9767
-3.4430 -4.3994 -1.8570 0.9767
-3.2829 -4.5201 -1.8570 0.9767
-3.1186 -4.6350 -1.8570 0.9767
-2.9503 -4.7439 -1.8570 0.9767
-2.7781 -4.8467 -1.8570 0.9767
-2.0561 -5.1943 -1.8570 0.9767
-1.6783 -5.3284 -1.8570 0.9767
-1.4860 -5.3852 -1.8570 0.9767
-0.8987 -5.5137 -1.8570 0.9767
-0.7006 -5.5454 -1.8580 0.9767
-0.1006 -5.5856 -1.8570 0.9767
0.5003 -5.5640 -1.8570 0.9767
0.7000 -5.5454 -1.8580 0.9767
0.8980 -5.5138 -1.8570 0.9767
1.0953 -5.4781 -1.8570 0.9767
1.2912 -5.4352 -1.8570 0.9767
1.4854 -5.3854 -1.8570 0.9767
1.6777 -5.3286 -1.8570 0.9767
2.0555 -5.1946 -1.8570 0.9767
2.2406 -5.1175 -1.8570 0.9767
2.1418 -4.0695 -1.5286 0.9808
2.3301 -4.0661 -1.5578 0.9804
2.9497 -4.7443 -1.8570 0.9767
3.1181 -4.6354 -1.8570 0.9767
3.2824 -4.5205 -1.8570 0.9767
3.4425 -4.3998 -1.8570 0.9767
4.0411 -4.4640 -2.0016 0.9749
4.7730 -3.6710 -2.0016 0.9749
4.9016 -3.4974 -2.0016 0.9749
5.0240 -3.3193 -2.0016 0.9749
5.2491 -2.9504 -2.0016 0.9749
5.4472 -2.5663 -2.0016 0.9749
5.6914 -1.9661 -2.0016 0.9749
5.7583 -1.7606 -2.0016 0.9749
5.9142 -1.1316 -2.0016 0.9749
6.0194 0.1583 -2.0016 0.9749
6.0098 0.3742 -2.0016 0.9749
5.8465 1.4409 -2.0016 0.9749
5.7910 1.6498 -2.0016 0.9749
5.6578 2.0609 -2.0016 0.9749
5.5802 2.2626 -2.0016 0.9749
5.0867 3.2223 -2.0016 0.9749
4.8425 3.5788 -2.0016 0.9749
4.7110 3.7503 -2.0016 0.9749
4.4299 4.0785 -2.0016 0.9749
4.1260 4.3857 -2.0016 0.9749
3.9659 4.5309 -2.0016 0.9749
3.8008 4.6703 -2.0016 0.9749
3.6307 4.8037 -2.0016 0.9749
3.4560 4.9309 -2.0016 0.9749
2.7150 5.3746 -2.0016 0.9749
1.9181 5.7078 -2.0016 0.9749
1.5038 5.8306 -2.0016 0.9749
1.2936 5.8808 -2.0016 0.9749
0.0071 6.0214 -2.0016 0.9749
-0.2090 6.0178 -2.0016 0.9749
-0.8545 5.9605 -2.0016 0.9749
-1.4901 5.8342 -2.0016 0.9749
-1.6985 5.7769 -2.0016 0.9749
-1.9047 5.7123 -2.0016 0.9749
-2.5075 5.4745 -2.0016 0.9749
-3.0813 5.1733 -2.0016 0.9749
-4.1156 4.3954 -2.0016 0.9749
-4.2707 4.2449 -2.0016 0.9749
-4.4202 4.0889 -2.0016 0.9749
-4.7021 3.7614 -2.0016 0.9749
-4.8341 3.5902 -2.0016 0.9749
-5.0791 3.2343 -2.0016 0.9749
-5.3973 2.6697 -2.0016 0.9749
-5.5748 2.2757 -2.0016 0.9749
-5.7871 1.6635 -2.0016 0.9749
-5.8915 1.2441 -2.0016 0.9749
-5.9656 0.8184 -2.0016 0.9749
-5.9911 0.6038 -2.0016 0.9749
-6.0089 0.3884 -2.0016 0.9749
-6.0190 0.1725 -2.0016 0.9749
-6.0158 -0.2596 -2.0016 0.9749
-5.9531 -0.9046 -2.0016 0.9749
-5.9168 -1.1176 -2.0016 0.9749
-5.8729 -1.3292 -2.0016 0.9749
-5.7624 -1.7470 -2.0016 0.9749
-5.6223 -2.1558 -2.0016 0.9749
-5.0593 -2.3690 -1.8570 0.9767
-4.9710 -2.5490 -1.8570 0.9767
-4.8764 -2.7258 -1.8570 0.9767
-4.6683 -3.0685 -1.8570 0.9767
-4.5552 -3.2340 -1.8570 0.9767
-4.4362 -3.3954 -1.8570 0.9767
-4.3115 -3.5524 -1.8570 0.9767
-4.0456 -3.8525 -1.8570 0.9767
-3.7589 -4.1327 -1.8570 0.9767
-3.1290 -4.6280 -1.8570 0.9767
-2.9609 -4.7373 -1.8570 0.9767
-2.6135 -4.9374 -1.8570 0.9767
-2.2527 -5.1122 -1.8570 0.9767
-1.4981 -5.3819 -1.8570 0.9767
-0.3134 -5.5777 -1.8570 0.9767
0.0874 -5.5858 -1.8570 0.9767
0.4878 -5.5652 -1.8570 0.9767
0.8857 -5.5158 -1.8570 0.9767
1.0830 -5.4805 -1.8570 0.9767
1.4733 -5.3887 -1.8570 0.9767
2.0439 -5.1992 -1.8570 0.9767
2.3181 -4.0664 -1.5559 0.9805
2.9391 -4.7509 -1.8570 0.9767
3.1077 -4.6423 -1.8570 0.9767
3.2722 -4.5278 -1.8570 0.9767
3.4326 -4.4075 -1.8570 0.9767
3.8679 -4.6148 -2.0016 0.9749
4.1890 -4.3255 -2.0016 0.9749
4.3415 -4.1724 -2.0016 0.9749
4.6295 -3.8503 -2.0016 0.9749
5.2425 -2.9621 -2.0016 0.9749
5.4414 -2.5785 -2.0016 0.9749
5.6870 -1.9788 -2.0016 0.9749
5.9116 -1.1448 -2.0016 0.9749
5.9785 -0.7179 -2.0016 0.9749
6.0004 -0.5029 -2.0016 0.9749
6.0146 -0.2873 -2.0016 0.9749
6.0210 -0.0713 -2.0016 0.9749
6.0197 0.1448 -2.0016 0.9749
6.0106 0.3608 -2.0016 0.9749
5.9693 0.7909 -2.0016 0.9749
5.9370 1.0046 -2.0016 0.9749
5.8972 1.2170 -2.0016 0.9749
5.8497 1.4278 -2.0016 0.9749
5.5853 2.2501 -2.0016 0.9749
5.5009 2.4490 -2.0016 0.9749
5.3111 2.8373 -2.0016 0.9749
5.2059 3.0260 -2.0016 0.9749
4.9754 3.3916 -2.0016 0.9749
4.8505 3.5679 -2.0016 0.9749
4.7194 3.7397 -2.0016 0.9749
4.4390 4.0685 -2.0016 0.9749
4.2902 4.2252 -2.0016 0.9749
4.1358 4.3764 -2.0016 0.9749
3.6415 4.7955 -2.0016 0.9749
3.2882 5.0444 -2.0016 0.9749
3.1051 5.1591 -2.0016 0.9749
2.3350 5.5503 -2.0016 0.9749
1.9309 5.7034 -2.0016 0.9749
1.7250 5.7691 -2.0016 0.9749
1.5169 5.8272 -2.0016 0.9749
1.3068 5.8779 -2.0016 0.9749
1.0951 5.9210 -2.0016 0.9749
0.8819 5.9565 -2.0016 0.9749
-0.1955 6.0183 -2.0016 0.9749
-1.6855 5.7807 -2.0016 0.9749
-1.8918 5.7165 -2.0016 0.9749
-2.0958 5.6450 -2.0016 0.9749
-2.2970 5.5661 -2.0016 0.9749
4.8853 -2.7315 -2.0016 0.9765
4.9802 -2.5545 -2.0016 0.9765
5.2259 -2.0045 -2.0016 0.9765
5.2944 -1.8157 -2.0016 0.9765
5.3562 -1.6245 -2.0016 0.9765
5.4589 -1.2362 -2.0016 0.9765
5.5796 -0.4424 -2.0016 0.9765
5.5452 0.7600 -2.0016 0.9765
5.5144 0.9585 -2.0016 0.9765
5.1822 2.1147 -2.0016 0.9765
4.9249 2.6594 -2.0016 0.9765
4.8263 2.8344 -2.0016 0.9765
4.6106 3.1733 -2.0016 0.9765
4.4938 3.3367 -2.0016 0.9765
3.9702 3.9453 -2.0016 0.9765
3.6770 4.2199 -2.0016 0.9765
3.5232 4.3491 -2.0016 0.9765
3.3649 4.4727 -2.0016 0.9765
3.2022 4.5906 -2.0016 0.9765
3.0354 4.7025 -2.0016 0.9765
2.8647 4.8084 -2.0016 0.9765
2.5125 5.0015 -2.0016 0.9765
2.3314 5.0884 -2.0016 0.9765
2.1473 5.1688 -2.0016 0.9765
1.9604 5.2425 -2.0016 0.9765
1.7711 5.3095 -2.0016 0.9765
1.1902 5.4691 -2.0016 0.9765
0.5956 5.5653 -2.0016 0.9765
0.3955 5.5831 -2.0016 0.9765
-0.0059 5.5971 -2.0016 0.9765
-0.2068 5.5933 -2.0016 0.9765
-0.8067 5.5387 -2.0016 0.9765
-1.2018 5.4665 -2.0016 0.9765
-1.5908 5.3663 -2.0016 0.9765
-1.9716 5.2384 -2.0016 0.9765
-2.1583 5.1642 -2.0016 0.9765
-2.3422 5.0835 -2.0016 0.9765
-2.5231 4.9961 -2.0016 0.9765
-2.7007 4.9024 -2.0016 0.9765
-3.0454 4.6961 -2.0016 0.9765
-3.2119 4.5838 -2.0016 0.9765
-3.5324 4.3416 -2.0016 0.9765
-3.8347 4.0771 -2.0016 0.9765
-4.2506 3.6414 -2.0016 0.9765
-4.9306 2.6489 -2.0016 0.9765
-5.0224 2.4703 -2.0016 0.9765
-5.1867 2.1037 -2.0016 0.9765
-5.2588 1.9163 -2.0016 0.9765
-5.4789 1.1442 -2.0016 0.9765
-5.5164 0.9468 -2.0016 0.9765
-5.5469 0.7483 -2.0016 0.9765
-5.5701 0.5487 -2.0016 0.9765
-5.5968 -0.0530 -2.0016 0.9765
-5.5786 -0.4543 -2.0016 0.9765
-5.5317 -0.8532 -2.0016 0.9765
-5.4975 -1.0512 -2.0016 0.9765
-5.4562 -1.2478 -2.0016 0.9765
-5.4079 -1.4428 -2.0016 0.9765
-5.2216 -2.0156 -2.0016 0.9765
-4.7544 -2.2393 -1.8794 0.9779
-4.6154 -2.3798 -1.8570 0.9782
-4.5270 -2.5438 -1.8570 0.9782
-4.4328 -2.7046 -1.8570 0.9782
-4.3329 -2.8620 -1.8570 0.9782
-4.1165 -3.1654 -1.8570 0.9782
-3.8789 -3.4524 -1.8570 0.9782
-3.6213 -3.7218 -1.8570 0.9782
-2.8988 -4.3084 -1.8570 0.9782
-2.5824 -4.5052 -1.8570 0.9782
-2.4190 -4.5949 -1.8570 0.9782
-1.9112 -4.8283 -1.8570 0.9782
-1.0187 -5.0919 -1.8570 0.9782
-0.8354 -5.1252 -1.8570 0.9782
-0.4656 -5.1719 -1.8570 0.9782
0.0929 -5.1920 -1.8570 0.9782
1.3807 -5.0059 -1.8570 0.9782
1.7362 -4.8940 -1.8570 0.9782
2.0827 -4.7568 -1.8570 0.9782
2.0402 -4.2388 -1.6823 0.9802
2.4928 -4.0094 -1.6883 0.9801
2.8983 -4.3087 -1.8570 0.9782
3.4850 -3.8497 -1.8570 0.9782
4.0442 -3.8693 -2.0016 0.9765
4.5562 -3.2509 -2.0016 0.9765
4.6699 -3.0853 -2.0016 0.9765
4.7776 -2.9158 -2.0016 0.9765
4.9744 -2.5656 -2.0016 0.9765
5.0633 -2.3855 -2.0016 0.9765
5.4078 -1.4434 -2.0016 0.9765
5.5587 -0.6548 -2.0016 0.9765
5.5786 -0.4550 -2.0016 0.9765
5.5968 -0.0537 -2.0016 0.9765
5.5952 0.1472 -2.0016 0.9765
5.5863 0.3479 -2.0016 0.9765
5.5469 0.7476 -2.0016 0.9765
5.5165 0.9462 -2.0016 0.9765
5.4790 1.1435 -2.0016 0.9765
5.4345 1.3394 -2.0016 0.9765
5.3244 1.7257 -2.0016 0.9765
5.0227 2.4697 -2.0016 0.9765
4.8327 2.8236 -2.0016 0.9765
4.6177 3.1629 -2.0016 0.9765
4.2511 3.6409 -2.0016 0.9765
4.1177 3.7911 -2.0016 0.9765
3.8352 4.0766 -2.0016 0.9765
3.5329 4.3412 -2.0016 0.9765
3.2125 4.5834 -2.0016 0.9765
3.0460 4.6957 -2.0016 0.9765
2.7013 4.9021 -2.0016 0.9765
1.5914 5.3661 -2.0016 0.9765
1.0055 5.5060 -2.0016 0.9765
0.8073 5.5386 -2.0016 0.9765
0.6081 5.5640 -2.0016 0.9765
0.4080 5.5822 -2.0016 0.9765
0.2074 5.5932 -2.0016 0.9765
-0.1942 5.5937 -2.0016 0.9765
-0.5949 5.5654 -2.0016 0.9765
-0.7942 5.5405 -2.0016 0.9765
-1.3851 5.4230 -2.0016 0.9765
-1.5788 5.3698 -2.0016 0.9765
-2.1467 5.1691 -2.0016 0.9765
-2.8642 4.8087 -2.0016 0.9765
-3.0349 4.7029 -2.0016 0.9765
-3.2017 4.5909 -2.0016 0.9765
-3.3643 4.4731 -2.0016 0.9765
-3.5227 4.3495 -2.0016 0.9765
-3.6765 4.2203 -2.0016 0.9765
-4.2425 3.6509 -2.0016 0.9765
-4.3707 3.4963 -2.0016 0.9765
-4.8260 2.8350 -2.0016 0.9765
-4.9246 2.6600 -2.0016 0.9765
-5.0169 2.4816 -2.0016 0.9765
-5.1027 2.2999 -2.0016 0.9765
-5.3793 1.5462 -2.0016 0.9765
-5.4313 1.3522 -2.0016 0.9765
-5.5143 0.9592 -2.0016 0.9765
-5.5452 0.7607 -2.0016 0.9765
-5.5689 0.5612 -2.0016 0.9765
-5.5948 0.1604 -2.0016 0.9765
-5.5969 -0.0405 -2.0016 0.9765
-5.5796 -0.4418 -2.0016 0.9765
-5.4998 -1.0389 -2.0016 0.9765
-5.4590 -1.2355 -2.0016 0.9765
-5.4112 -1.4306 -2.0016 0.9765
-5.2946 -1.8150 -2.0016 0.9765
-5.2261 -2.0039 -2.0016 0.9765
-4.7792 -2.2378 -1.8871 0.9778
-4.2342 -3.0061 -1.8570 0.9782
-4.1236 -3.1561 -1.8570 0.9782
-4.0077 -3.3021 -1.8570 0.9782
-3.8866 -3.4437 -1.8570 0.9782
-3.7605 -3.5810 -1.8570 0.9782
-3.6296 -3.7136 -1.8570 0.9782
-3.2095 -4.0822 -1.8570 0.9782
-3.0610 -4.1947 -1.8570 0.9782
-2.9085 -4.3018 -1.8570 0.9782
-2.7522 -4.4034 -1.8570 0.9782
-2.5925 -4.4994 -1.8570 0.9782
-2.0939 -4.7519 -1.8570 0.9782
-1.9220 -4.8240 -1.8570 0.9782
-1.7477 -4.8898 -1.8570 0.9782
-1.5711 -4.9494 -1.8570 0.9782
-1.2121 -5.0493 -1.8570 0.9782
-0.8468 -5.1233 -1.8570 0.9782
-0.6625 -5.1504 -1.8570 0.9782
-0.4772 -5.1708 -1.8570 0.9782
-0.2914 -5.1846 -1.8570 0.9782
-0.1051 -5.1917 -1.8570 0.9782
0.0812 -5.1922 -1.8570 0.9782
0.4534 -5.1730 -1.8570 0.9782
0.6387 -5.1534 -1.8570 0.9782
0.8233 -5.1271 -1.8570 0.9782
1.3695 -5.0090 -1.8570 0.9782
1.5483 -4.9566 -1.8570 0.9782
1.7252 -4.8978 -1.8570 0.9782
2.1235 -4.0568 -1.6375 0.9807
2.8886 -4.3152 -1.8570 0.9782
3.0416 -4.2087 -1.8570 0.9782
3.3356 -3.9798 -1.8570 0.9782
3.4763 -3.8575 -1.8570 0.9782
3.8937 -4.0207 -2.0016 0.9765
4.0355 -3.8784 -2.0016 0.9765
4.3033 -3.5790 -2.0016 0.9765
4.4289 -3.4223 -2.0016 0.9765
4.5489 -3.2611 -2.0016 0.9765
4.9687 -2.5768 -2.0016 0.9765
5.0579 -2.3968 -2.0016 0.9765
5.1407 -2.2138 -2.0016 0.9765
5.2168 -2.0279 -2.0016 0.9765
5.2862 -1.8394 -2.0016 0.9765
5.3488 -1.6485 -2.0016 0.9765
5.4045 -1.4555 -2.0016 0.9765
5.4533 -1.2606 -2.0016 0.9765
5.4950 -1.0641 -2.0016 0.9765
5.5572 -0.6673 -2.0016 0.9765
5.5775 -0.4675 -2.0016 0.9765
5.5967 -0.0662 -2.0016 0.9765
5.5870 0.3353 -2.0016 0.9765
5.5186 0.9338 -2.0016 0.9765
5.3863 1.5215 -2.0016 0.9765
5.3283 1.7138 -2.0016 0.9765
5.2633 1.9039 -2.0016 0.9765
5.1132 2.2764 -2.0016 0.9765
5.0283 2.4585 -2.0016 0.9765
4.9368 2.6373 -2.0016 0.9765
4.5087 3.3165 -2.0016 0.9765
4.2592 3.6313 -2.0016 0.9765
4.1262 3.7818 -2.0016 0.9765
3.8443 4.0680 -2.0016 0.9765
3.6959 4.2033 -2.0016 0.9765
3.3849 4.4576 -2.0016 0.9765
2.8863 4.7955 -2.0016 0.9765
2.3542 5.0779 -2.0016 0.9765
2.1704 5.1591 -2.0016 0.9765
1.7948 5.3015 -2.0016 0.9765
1.6035 5.3625 -2.0016 0.9765
1.4100 5.4166 -2.0016 0.9765
1.2147 5.4637 -2.0016 0.9765
0.8197 5.5367 -2.0016 0.9765
0.6205 5.5626 -2.0016 0.9765
0.2200 5.5928 -2.0016 0.9765
-0.1817 5.5941 -2.0016 0.9765
-0.9802 5.5106 -2.0016 0.9765
-1.5667 5.3733 -2.0016 0.9765
-1.7585 5.3137 -2.0016 0.9765
-1.9481 5.2471 -2.0016 0.9765
4.9982 -1.5159 -2.0016 0.9779
5.0941 -1.1536 -2.0016 0.9779
5.1322 -0.9700 -2.0016 0.9779
5.1885 -0.5994 -2.0016 0.9779
5.2067 -0.4129 -2.0016 0.9779
5.2182 -0.2258 -2.0016 0.9779
5.2122 0.3363 -2.0016 0.9779
5.1968 0.5231 -2.0016 0.9779
5.1747 0.7093 -2.0016 0.9779
5.1459 0.8945 -2.0016 0.9779
5.0685 1.2612 -2.0016 0.9779
4.9650 1.6215 -2.0016 0.9779
4.9036 1.7986 -2.0016 0.9779
4.6819 2.3152 -2.0016 0.9779
4.5958 2.4817 -2.0016 0.9779
3.8346 3.5463 -2.0016 0.9779
3.7048 3.6816 -2.0016 0.9779
3.4312 3.9378 -2.0016 0.9779
3.2877 4.0584 -2.0016 0.9779
2.9882 4.2838 -2.0016 0.9779
2.8326 4.3882 -2.0016 0.9779
2.1756 4.7484 -2.0016 0.9779
1.8294 4.8922 -2.0016 0.9779
1.6527 4.9547 -2.0016 0.9779
1.4738 5.0108 -2.0016 0.9779
1.2931 5.0604 -2.0016 0.9779
1.1107 5.1036 -2.0016 0.9779
0.9268 5.1401 -2.0016 0.9779
0.5558 5.1934 -2.0016 0.9779
-0.0055 5.2230 -2.0016 0.9779
-0.1930 5.2195 -2.0016 0.9779
-0.5668 5.1922 -2.0016 0.9779
-0.7528 5.1685 -2.0016 0.9779
-0.9377 5.1382 -2.0016 0.9779
-1.1215 5.1012 -2.0016 0.9779
-1.3038 5.0577 -2.0016 0.9779
-1.6632 4.9511 -2.0016 0.9779
-1.8398 4.8883 -2.0016 0.9779
-2.1857 4.7437 -2.0016 0.9779
-2.3545 4.6622 -2.0016 0.9779
-2.6828 4.4814 -2.0016 0.9779
-2.8419 4.3822 -2.0016 0.9779
-2.9973 4.2774 -2.0016 0.9779
-3.1488 4.1671 -2.0016 0.9779
-3.4396 3.9305 -2.0016 0.9779
-3.5784 3.8046 -2.0016 0.9779
-3.7126 3.6737 -2.0016 0.9779
-3.8421 3.5381 -2.0016 0.9779
-4.3088 2.9521 -2.0016 0.9779
-4.5094 2.6354 -2.0016 0.9779
-4.8401 1.9631 -2.0016 0.9779
-5.0711 1.2505 -2.0016 0.9779
-5.1127 1.0677 -2.0016 0.9779
-5.1478 0.8836 -2.0016 0.9779
-5.1979 0.5121 -2.0016 0.9779
-5.2129 0.3252 -2.0016 0.9779
-5.2212 0.1380 -2.0016 0.9779
-5.2228 -0.0495 -2.0016 0.9779
-5.2058 -0.4239 -2.0016 0.9779
-5.1872 -0.6105 -2.0016 0.9779
-5.1620 -0.7962 -2.0016 0.9779
-5.0916 -1.1644 -2.0016 0.9779
-5.0465 -1.3463 -2.0016 0.9779
-4.9950 -1.5266 -2.0016 0.9779
-4.9370 -1.7048 -2.0016 0.9779
-4.8726 -1.8809 -2.0016 0.9779
-4.8020 -2.0545 -2.0016 0.9779
-4.7091 -2.2179 -1.9947 0.9779
-4.3451 -2.2404 -1.8734 0.9793
-4.2245 -2.3738 -1.8570 0.9795
-4.1366 -2.5239 -1.8570 0.9795
-3.6197 -3.2217 -1.8570 0.9795
-3.2525 -3.5920 -1.8570 0.9795
-2.9865 -3.8161 -1.8570 0.9795
-2.8476 -3.9208 -1.8570 0.9795
-2.4098 -4.2041 -1.8570 0.9795
-2.2574 -4.2878 -1.8570 0.9795
-1.9440 -4.4387 -1.8570 0.9795
-1.7835 -4.5056 -1.8570 0.9795
-1.2890 -4.6712 -1.8570 0.9795
-0.9506 -4.7516 -1.8570 0.9795
-0.6074 -4.8075 -1.8570 0.9795
0.0867 -4.8450 -1.8570 0.9795
0.9501 -4.7517 -1.8570 0.9795
1.1200 -4.7145 -1.8570 0.9795
1.4552 -4.6221 -1.8570 0.9795
2.0012 -4.1579 -1.7683 0.9804
2.7046 -4.0207 -1.8570 0.9795
2.8471 -3.9211 -1.8570 0.9795
3.1210 -3.7068 -1.8570 0.9795
3.3789 -3.4734 -1.8570 0.9795
3.9011 -3.4730 -2.0016 0.9779
4.0232 -3.3308 -2.0016 0.9779
4.2517 -3.0337 -2.0016 0.9779
4.3578 -2.8791 -2.0016 0.9779
4.6420 -2.3942 -2.0016 0.9779
4.8724 -1.8814 -2.0016 0.9779
4.9368 -1.7054 -2.0016 0.9779
4.9948 -1.5271 -2.0016 0.9779
5.0464 -1.3469 -2.0016 0.9779
5.1300 -0.9815 -2.0016 0.9779
5.1619 -0.7968 -2.0016 0.9779
5.1872 -0.6111 -2.0016 0.9779
5.2176 -0.2375 -2.0016 0.9779
5.2228 -0.0501 -2.0016 0.9779
5.2212 0.1373 -2.0016 0.9779
5.1979 0.5115 -2.0016 0.9779
5.1479 0.8829 -2.0016 0.9779
5.0232 1.4310 -2.0016 0.9779
4.9686 1.6104 -2.0016 0.9779
4.9076 1.7876 -2.0016 0.9779
4.7667 2.1350 -2.0016 0.9779
4.6013 2.4714 -2.0016 0.9779
4.5097 2.6349 -2.0016 0.9779
4.0863 3.2530 -2.0016 0.9779
3.7131 3.6733 -2.0016 0.9779
3.5789 3.8042 -2.0016 0.9779
3.4401 3.9301 -2.0016 0.9779
2.9978 4.2771 -2.0016 0.9779
2.5208 4.5745 -2.0016 0.9779
2.3550 4.6620 -2.0016 0.9779
2.1862 4.7435 -2.0016 0.9779
2.0146 4.8189 -2.0016 0.9779
1.8404 4.8881 -2.0016 0.9779
1.3044 5.0575 -2.0016 0.9779
1.1221 5.1011 -2.0016 0.9779
0.9383 5.1381 -2.0016 0.9779
0.5674 5.1921 -2.0016 0.9779
0.0062 5.2230 -2.0016 0.9779
-0.1813 5.2199 -2.0016 0.9779
-0.3685 5.2100 -2.0016 0.9779
-0.5552 5.1934 -2.0016 0.9779
-0.7412 5.1702 -2.0016 0.9779
-1.1101 5.1037 -2.0016 0.9779
-1.2925 5.0606 -2.0016 0.9779
-2.0032 4.8236 -2.0016 0.9779
-2.6727 4.4874 -2.0016 0.9779
-2.8320 4.3886 -2.0016 0.9779
-3.1395 4.1742 -2.0016 0.9779
-3.4308 3.9382 -2.0016 0.9779
-3.5699 3.8126 -2.0016 0.9779
-3.8341 3.5468 -2.0016 0.9779
-3.9589 3.4069 -2.0016 0.9779
-4.0786 3.2626 -2.0016 0.9779
-4.5035 2.6455 -2.0016 0.9779
-4.6816 2.3157 -2.0016 0.9779
-4.7617 2.1462 -2.0016 0.9779
-4.8356 1.9740 -2.0016 0.9779
-4.9034 1.7992 -2.0016 0.9779
-5.0198 1.4429 -2.0016 0.9779
-5.0683 1.2618 -2.0016 0.9779
-5.1103 1.0792 -2.0016 0.9779
-5.1746 0.7099 -2.0016 0.9779
-5.2209 0.1497 -2.0016 0.9779
-5.2182 -0.2252 -2.0016 0.9779
-5.2067 -0.4123 -2.0016 0.9779
-5.1886 -0.5988 -2.0016 0.9779
-5.0495 -1.3350 -2.0016 0.9779
-4.9984 -1.5154 -2.0016 0.9779
-4.9408 -1.6937 -2.0016 0.9779
-4.8768 -1.8699 -2.0016 0.9779
-4.8066 -2.0437 -2.0016 0.9779
-4.3665 -2.2391 -1.8805 0.9792
-4.1422 -2.5146 -1.8570 0.9795
-3.8480 -2.9452 -1.8570 0.9795
-3.6269 -3.2136 -1.8570 0.9795
-3.5092 -3.3417 -1.8570 0.9795
-3.3870 -3.4654 -1.8570 0.9795
-2.9950 -3.8094 -1.8570 0.9795
-2.7141 -4.0144 -1.8570 0.9795
-2.4192 -4.1987 -1.8570 0.9795
-1.7936 -4.5016 -1.8570 0.9795
-1.6309 -4.5631 -1.8570 0.9795
-1.4661 -4.6186 -1.8570 0.9795
-1.2994 -4.6683 -1.8570 0.9795
-1.1311 -4.7119 -1.8570 0.9795
-0.4453 -4.8252 -1.8570 0.9795
-0.2719 -4.8381 -1.8570 0.9795
-0.0981 -4.8448 -1.8570 0.9795
0.0758 -4.8452 -1.8570 0.9795
0.4231 -4.8272 -1.8570 0.9795
0.7682 -4.7845 -1.8570 0.9795
1.1094 -4.7171 -1.8570 0.9795
1.4449 -4.6253 -1.8570 0.9795
1.7729 -4.5098 -1.8570 0.9795
2.2805 -4.0005 -1.7647 0.9805
2.4752 -4.0010 -1.8029 0.9800
2.6956 -4.0268 -1.8570 0.9795
2.8384 -3.9275 -1.8570 0.9795
2.9775 -3.8231 -1.8570 0.9795
3.2440 -3.5997 -1.8570 0.9795
3.3711 -3.4810 -1.8570 0.9795
3.7658 -3.6192 -2.0016 0.9779
3.8933 -3.4817 -2.0016 0.9779
4.0157 -3.3398 -2.0016 0.9779
4.3514 -2.8889 -2.0016 0.9779
4.5473 -2.5694 -2.0016 0.9779
4.6366 -2.4046 -2.0016 0.9779
4.7199 -2.2366 -2.0016 0.9779
4.7971 -2.0658 -2.0016 0.9779
5.0433 -1.3582 -2.0016 0.9779
5.0888 -1.1764 -2.0016 0.9779
5.1278 -0.9930 -2.0016 0.9779
5.1601 -0.8084 -2.0016 0.9779
5.2171 -0.2492 -2.0016 0.9779
5.2137 0.3129 -2.0016 0.9779
5.1991 0.4998 -2.0016 0.9779
5.1778 0.6860 -2.0016 0.9779
5.1498 0.8714 -2.0016 0.9779
5.1152 1.0556 -2.0016 0.9779
5.0264 1.4198 -2.0016 0.9779
4.9722 1.5992 -2.0016 0.9779
4.6922 2.2942 -2.0016 0.9779
4.6069 2.4610 -2.0016 0.9779
4.5156 2.6248 -2.0016 0.9779
4.4185 2.7851 -2.0016 0.9779
4.3157 2.9419 -2.0016 0.9779
4.0936 3.2438 -2.0016 0.9779
3.9746 3.3886 -2.0016 0.9779
3.4489 3.9224 -2.0016 0.9779
3.0074 4.2703 -2.0016 0.9779
2.8522 4.3755 -2.0016 0.9779
2.6934 4.4750 -2.0016 0.9779
2.3655 4.6567 -2.0016 0.9779
2.1969 4.7386 -2.0016 0.9779
2.0254 4.8143 -2.0016 0.9779
1.8513 4.8839 -2.0016 0.9779
0.9499 5.1359 -2.0016 0.9779
0.5791 5.1908 -2.0016 0.9779
-0.5435 5.1947 -2.0016 0.9779
-0.7296 5.1718 -2.0016 0.9779
-0.9147 5.1423 -2.0016 0.9779
-1.2811 5.0635 -2.0016 0.9779
-1.4620 5.0142 -2.0016 0.9779
-1.6410 4.9585 -2.0016 0.9779
-1.8179 4.8965 -2.0016 0.9779
4.6260 -1.5864 -2.0016 0.9791
4.6800 -1.4194 -2.0016 0.9791
4.7279 -1.2506 -2.0016 0.9791
4.7697 -1.0801 -2.0016 0.9791
4.8885 0.1396 -2.0016 0.9791
4.8804 0.3149 -2.0016 0.9791
4.8452 0.6641 -2.0016 0.9791
4.8183 0.8375 -2.0016 0.9791
4.7003 1.3505 -2.0016 0.9791
4.6489 1.5183 -2.0016 0.9791
4.5914 1.6841 -2.0016 0.9791
4.5280 1.8478 -2.0016 0.9791
4.4588 2.0091 -2.0016 0.9791
4.3838 2.1678 -2.0016 0.9791
4.2170 2.4766 -2.0016 0.9791
4.1255 2.6263 -2.0016 0.9791
4.0286 2.7727 -2.0016 0.9791
3.5904 3.3205 -2.0016 0.9791
3.4690 3.4472 -2.0016 0.9791
1.7130 4.5807 -2.0016 0.9791
1.5475 4.6392 -2.0016 0.9791
1.3800 4.6918 -2.0016 0.9791
1.2108 4.7383 -2.0016 0.9791
0.8678 4.8129 -2.0016 0.9791
0.6946 4.8409 -2.0016 0.9791
0.5204 4.8627 -2.0016 0.9791
0.3456 4.8783 -2.0016 0.9791
0.1703 4.8875 -2.0016 0.9791
-0.0052 4.8905 -2.0016 0.9791
-0.1807 4.8872 -2.0016 0.9791
-0.3559 4.8775 -2.0016 0.9791
-0.5307 4.8616 -2.0016 0.9791
-1.0501 4.7764 -2.0016 0.9791
-1.5573 4.6359 -2.0016 0.9791
-1.7227 4.5771 -2.0016 0.9791
-1.8858 4.5123 -2.0016 0.9791
-2.0465 4.4417 -2.0016 0.9791
-2.3598 4.2835 -2.0016 0.9791
-2.5120 4.1961 -2.0016 0.9791
-2.8065 4.0051 -2.0016 0.9791
-2.9484 3.9018 -2.0016 0.9791
-3.0865 3.7935 -2.0016 0.9791
-3.2206 3.6803 -2.0016 0.9791
-3.3506 3.5624 -2.0016 0.9791
-3.4763 3.4398 -2.0016 0.9791
-3.5975 3.3129 -2.0016 0.9791
-4.1310 2.6176 -2.0016 0.9791
-4.2223 2.4676 -2.0016 0.9791
-4.3081 2.3145 -2.0016 0.9791
-4.3884 2.1585 -2.0016 0.9791
-4.4630 1.9996 -2.0016 0.9791
-4.7483 1.1709 -2.0016 0.9791
-2.1352 0.3665 -0.8866 0.9907
-1.9491 0.2629 -0.8049 0.9915
-1.9481 0.1215 -0.7988 0.9916
-1.9076 -0.0181 -0.7808 0.9918
-1.9378 -0.0880 -0.7939 0.9917
-1.9563 -0.1593 -0.8033 0.9916
-1.9549 -0.2301 -0.8056 0.9915
-4.7674 -1.0902 -2.0016 0.9791
-4.6770 -1.4294 -2.0016 0.9791
-4.6227 -1.5963 -2.0016 0.9791
-4.4963 -1.9237 -2.0016 0.9791
-4.4243 -2.0838 -2.0016 0.9791
-4.3058 -2.2201 -1.9827 0.9793
-3.8732 -2.3632 -1.8570 0.9806
-3.6938 -2.6349 -1.8570 0.9806
-3.2788 -3.1363 -1.8570 0.9806
-3.0454 -3.3634 -1.8570 0.9806
-2.7963 -3.5731 -1.8570 0.9806
-2.5329 -3.7645 -1.8570 0.9806
-2.3962 -3.8529 -1.8570 0.9806
-1.9682 -4.0881 -1.8570 0.9806
-1.8203 -4.1561 -1.8570 0.9806
-1.3631 -4.3277 -1.8570 0.9806
-1.0492 -4.4143 -1.8570 0.9806
-0.5687 -4.5015 -1.8570 0.9806
-0.4068 -4.5190 -1.8570 0.9806
-0.0817 -4.5365 -1.8570 0.9806
0.0812 -4.5365 -1.8570 0.9806
0.2439 -4.5307 -1.8570 0.9806
0.8896 -4.4492 -1.8570 0.9806
1.0487 -4.4144 -1.8570 0.9806
1.5170 -4.2761 -1.8570 0.9806
1.8198 -4.1563 -1.8570 0.9806
1.9677 -4.0883 -1.8570 0.9806
2.1052 -4.0000 -1.8500 0.9807
2.3957 -3.8532 -1.8570 0.9806
2.7959 -3.5734 -1.8570 0.9806
2.9223 -3.4708 -1.8570 0.9806
3.1637 -3.2523 -1.8570 0.9806
3.2784 -3.1367 -1.8570 0.9806
3.6527 -3.2519 -2.0016 0.9791
3.8765 -2.9815 -2.0016 0.9791
4.4241 -2.0843 -2.0016 0.9791
4.4960 -1.9242 -2.0016 0.9791
4.6225 -1.5968 -2.0016 0.9791
4.7673 -1.0908 -2.0016 0.9791
4.8034 -0.9190 -2.0016 0.9791
4.8333 -0.7461 -2.0016 0.9791
4.8743 -0.3975 -2.0016 0.9791
4.8854 -0.2224 -2.0016 0.9791
4.8670 0.4789 -2.0016 0.9791
4.8467 0.6532 -2.0016 0.9791
4.8201 0.8267 -2.0016 0.9791
4.7873 0.9992 -2.0016 0.9791
4.7034 1.3399 -2.0016 0.9791
4.5951 1.6738 -2.0016 0.9791
4.5321 1.8376 -2.0016 0.9791
4.4633 1.9991 -2.0016 0.9791
4.3084 2.3140 -2.0016 0.9791
4.1313 2.6171 -2.0016 0.9791
4.0348 2.7636 -2.0016 0.9791
3.9330 2.9066 -2.0016 0.9791
3.8262 3.0459 -2.0016 0.9791
3.7144 3.1812 -2.0016 0.9791
3.4767 3.4394 -2.0016 0.9791
3.2211 3.6799 -2.0016 0.9791
3.0869 3.7931 -2.0016 0.9791
2.8069 4.0048 -2.0016 0.9791
2.5125 4.1958 -2.0016 0.9791
2.0470 4.4415 -2.0016 0.9791
1.3905 4.6887 -2.0016 0.9791
1.0507 4.7763 -2.0016 0.9791
0.8786 4.8109 -2.0016 0.9791
