ply
format ascii 1.0
element vertex 1597
property float32 x
property float32 y
property float32 z
property float32 I
end_header
-6.0728 7.2652 -2.0016 0.9620
-6.3296 7.0426 -2.0016 0.9620
-6.5783 6.8109 -2.0016 0.9620
-6.8185 6.5704 -2.0016 0.9620
-7.0499 6.3215 -2.0016 0.9620
-7.2722 6.0644 -2.0016 0.9620
-8.0651 4.9614 -2.0016 0.9620
-8.2380 4.6688 -2.0016 0.9620
-8.6921 3.7563 -2.0016 0.9620
-8.9391 3.1232 -2.0016 0.9620
-9.0455 2.8004 -2.0016 0.9620
-9.1401 2.4739 -2.0016 0.9620
-9.4349 0.8025 -2.0016 0.9620
-9.4682 0.1237 -2.0016 0.9620
-9.4665 -0.2162 -2.0016 0.9620
-9.4527 -0.5558 -2.0016 0.9620
-9.3885 -1.2324 -2.0016 0.9620
-9.2759 -1.9027 -2.0016 0.9620
-9.1392 -2.2192 -1.9880 0.9623
-8.4571 -2.3780 -1.8570 0.9647
-8.3663 -2.6800 -1.8570 0.9647
-8.2647 -2.9785 -1.8570 0.9647
-8.1525 -3.2732 -1.8570 0.9647
-8.0298 -3.5636 -1.8570 0.9647
-7.7535 -4.1304 -1.8570 0.9647
-7.6003 -4.4060 -1.8570 0.9647
-7.2646 -4.9398 -1.8570 0.9647
-7.0827 -5.1974 -1.8570 0.9647
-6.8916 -5.4482 -1.8570 0.9647
-7.2126 -6.1352 -2.0016 0.9620
-6.9878 -6.3901 -2.0016 0.9620
-6.7540 -6.6367 -2.0016 0.9620
-6.5114 -6.8749 -2.0016 0.9620
-6.0015 -7.3242 -2.0016 0.9620
-5.7348 -7.5349 -2.0016 0.9620
-5.1796 -7.9268 -2.0016 0.9620
-4.8917 -8.1076 -2.0016 0.9620
-3.9920 -8.5864 -2.0016 0.9620
-3.0460 -8.9657 -2.0016 0.9620
-2.7223 -9.0693 -2.0016 0.9620
-2.3951 -9.1611 -2.0016 0.9620
-0.3819 -9.4613 -2.0016 0.9620
0.2977 -9.4643 -2.0016 0.9620
0.9759 -9.4186 -2.0016 0.9620
1.3132 -9.3775 -2.0016 0.9620
2.6416 -9.0931 -2.0016 0.9620
2.9662 -8.9924 -2.0016 0.9620
3.6036 -8.7565 -2.0016 0.9620
3.9155 -8.6215 -2.0016 0.9620
2.2758 -4.1848 -1.0069 0.9807
4.8195 -8.1508 -2.0016 0.9620
5.1089 -7.9726 -2.0016 0.9620
5.3917 -7.7841 -2.0016 0.9620
5.6676 -7.5856 -2.0016 0.9620
7.5840 -5.6697 -2.0016 0.9620
7.9712 -5.1111 -2.0016 0.9620
8.1494 -4.8217 -2.0016 0.9620
8.4743 -4.2247 -2.0016 0.9620
8.6205 -3.9179 -2.0016 0.9620
8.7555 -3.6060 -2.0016 0.9620
9.1814 -2.3160 -2.0016 0.9620
9.4183 -0.9784 -2.0016 0.9620
9.4474 -0.6398 -2.0016 0.9620
9.4643 -0.3003 -2.0016 0.9620
9.4689 0.0395 -2.0016 0.9620
9.4614 0.3793 -2.0016 0.9620
9.4417 0.7186 -2.0016 0.9620
9.3658 1.3940 -2.0016 0.9620
8.9666 3.0436 -2.0016 0.9620
8.8515 3.3634 -2.0016 0.9620
8.5875 3.9897 -2.0016 0.9620
8.2792 4.5954 -2.0016 0.9620
7.7373 5.4586 -2.0016 0.9620
7.3259 5.9995 -2.0016 0.9620
7.1058 6.2586 -2.0016 0.9620
6.8766 6.5095 -2.0016 0.9620
6.6386 6.7521 -2.0016 0.9620
6.3920 6.9860 -2.0016 0.9620
5.0422 8.0149 -2.0016 0.9620
4.4543 8.3559 -2.0016 0.9620
3.5208 8.7624 -1.9961 0.9621
3.1578 8.7549 -1.9673 0.9627
2.7655 8.6253 -1.9146 0.9636
2.3997 8.5252 -1.8721 0.9644
2.0668 8.5014 -1.8494 0.9649
1.4516 8.6277 -1.8494 0.9649
1.1411 8.6743 -1.8494 0.9649
0.8290 8.7096 -1.8494 0.9649
0.5159 8.7338 -1.8494 0.9649
-0.7391 8.7177 -1.8494 0.9649
-1.0498 8.6714 -1.8463 0.9649
-1.6718 8.5878 -1.8494 0.9649
-1.9789 8.5223 -1.8494 0.9649
-2.8851 8.2649 -1.8504 0.9648
-3.9172 8.2449 -1.9295 0.9634
-4.6497 8.2096 -1.9943 0.9622
-4.9481 8.0484 -1.9971 0.9621
-5.2414 7.8771 -2.0000 0.9621
-5.7975 7.4868 -2.0016 0.9620
-6.0624 7.2739 -2.0016 0.9620
-6.3196 7.0516 -2.0016 0.9620
-6.5686 6.8203 -2.0016 0.9620
-6.8091 6.5802 -2.0016 0.9620
-7.2635 6.0748 -2.0016 0.9620
-7.4769 5.8102 -2.0016 0.9620
-8.0580 4.9729 -2.0016 0.9620
-8.2313 4.6806 -2.0016 0.9620
-8.3940 4.3821 -2.0016 0.9620
-8.5459 4.0781 -2.0016 0.9620
-8.8164 3.4546 -2.0016 0.9620
-9.3510 1.4906 -2.0016 0.9620
-9.3984 1.1540 -2.0016 0.9620
-9.4570 0.4769 -2.0016 0.9620
-9.4668 -0.2027 -2.0016 0.9620
-9.4279 -0.8812 -2.0016 0.9620
-9.3902 -1.2190 -2.0016 0.9620
-9.3404 -1.5552 -2.0016 0.9620
-9.2786 -1.8894 -2.0016 0.9620
-9.1887 -2.2173 -1.9981 0.9621
-8.3701 -2.6680 -1.8570 0.9647
-8.1572 -3.2615 -1.8570 0.9647
-8.0349 -3.5521 -1.8570 0.9647
-7.9022 -3.8382 -1.8570 0.9647
-7.7594 -4.1193 -1.8570 0.9647
-7.4439 -4.6653 -1.8570 0.9647
-6.6998 -5.6824 -1.8570 0.9647
-6.7634 -6.6271 -2.0016 0.9620
-6.2707 -7.0952 -2.0016 0.9620
-5.4718 -7.7280 -2.0016 0.9620
-5.1909 -7.9194 -2.0016 0.9620
-4.9033 -8.1006 -2.0016 0.9620
-4.6095 -8.2713 -2.0016 0.9620
-3.6938 -8.7189 -2.0016 0.9620
-3.3785 -8.8458 -2.0016 0.9620
-3.0588 -8.9614 -2.0016 0.9620
-2.4082 -9.1577 -2.0016 0.9620
-1.7451 -9.3068 -2.0016 0.9620
-0.0556 -9.4689 -2.0016 0.9620
0.2842 -9.4647 -2.0016 0.9620
0.9624 -9.4200 -2.0016 0.9620
1.6356 -9.3267 -2.0016 0.9620
2.3004 -9.1853 -2.0016 0.9620
2.6286 -9.0969 -2.0016 0.9620
3.5911 -8.7617 -2.0016 0.9620
3.9032 -8.6271 -2.0016 0.9620
2.2688 -4.1861 -1.0065 0.9807
5.3806 -7.7918 -2.0016 0.9620
5.6567 -7.5937 -2.0016 0.9620
5.9256 -7.3858 -2.0016 0.9620
6.4401 -6.9417 -2.0016 0.9620
7.1489 -6.2093 -2.0016 0.9620
7.5759 -5.6805 -2.0016 0.9620
7.9638 -5.1225 -2.0016 0.9620
8.4683 -4.2368 -2.0016 0.9620
8.7504 -3.6185 -2.0016 0.9620
8.8746 -3.3021 -2.0016 0.9620
8.9874 -2.9815 -2.0016 0.9620
9.0886 -2.6571 -2.0016 0.9620
9.3215 -1.6648 -2.0016 0.9620
9.4169 -0.9919 -2.0016 0.9620
9.4465 -0.6533 -2.0016 0.9620
9.4638 -0.3139 -2.0016 0.9620
9.4690 0.0260 -2.0016 0.9620
9.4427 0.7051 -2.0016 0.9620
9.4113 1.0435 -2.0016 0.9620
9.3123 1.7159 -2.0016 0.9620
9.1652 2.3795 -2.0016 0.9620
9.0739 2.7069 -2.0016 0.9620
8.8563 3.3507 -2.0016 0.9620
8.5932 3.9774 -2.0016 0.9620
8.2857 4.5835 -2.0016 0.9620
7.9356 5.1661 -2.0016 0.9620
7.7451 5.4475 -2.0016 0.9620
7.5446 5.7220 -2.0016 0.9620
7.1148 6.2484 -2.0016 0.9620
6.8859 6.4997 -2.0016 0.9620
6.6482 6.7426 -2.0016 0.9620
6.4020 6.9769 -2.0016 0.9620
5.8850 7.4181 -2.0016 0.9620
5.6150 7.6246 -2.0016 0.9620
4.7630 8.1839 -2.0016 0.9620
3.8535 8.6432 -2.0003 0.9620
3.1739 8.7602 -1.9695 0.9626
4.5246 7.2151 -2.0016 0.9656
3.9955 7.5210 -2.0016 0.9656
3.1640 7.9069 -2.0016 0.9656
2.8782 8.0154 -2.0016 0.9656
2.5881 8.1118 -2.0011 0.9656
2.2925 8.1892 -1.9986 0.9657
1.6956 8.3152 -1.9945 0.9657
1.0759 8.2706 -1.9602 0.9663
0.4752 8.2446 -1.9409 0.9666
-0.1172 8.2434 -1.9376 0.9667
-0.4134 8.2430 -1.9397 0.9667
-1.9244 8.2342 -1.9874 0.9659
-2.2269 8.1898 -1.9947 0.9657
-2.5210 8.1101 -1.9960 0.9657
-3.1012 7.9211 -1.9992 0.9657
-3.6657 7.6872 -2.0016 0.9656
-4.2077 7.4044 -2.0016 0.9656
-5.2239 6.7262 -2.0016 0.9656
-5.4619 6.5343 -2.0016 0.9656
-5.6929 6.3341 -2.0016 0.9656
-5.9165 6.1257 -2.0016 0.9656
-6.1326 5.9095 -2.0016 0.9656
-6.7322 5.2161 -2.0016 0.9656
-6.9150 4.9711 -2.0016 0.9656
-7.0890 4.7198 -2.0016 0.9656
-7.2538 4.4623 -2.0016 0.9656
-7.6914 3.6568 -2.0016 0.9656
-7.8177 3.3784 -2.0016 0.9656
-7.9339 3.0957 -2.0016 0.9656
-8.3591 1.6297 -2.0016 0.9656
-8.4858 0.7218 -2.0016 0.9656
-8.5157 0.1112 -2.0016 0.9656
-8.4783 -0.8047 -2.0016 0.9656
-8.4440 -1.1084 -2.0016 0.9656
-8.3988 -1.4107 -2.0016 0.9656
-8.3427 -1.7113 -2.0016 0.9656
-8.2760 -2.0096 -2.0016 0.9656
-7.9270 -2.2289 -1.9353 0.9667
-7.4333 -2.6788 -1.8570 0.9681
-7.3324 -2.9439 -1.8570 0.9681
-7.2220 -3.2051 -1.8570 0.9681
-7.1023 -3.4622 -1.8570 0.9681
-6.6891 -4.2055 -1.8570 0.9681
-6.5338 -4.4429 -1.8570 0.9681
-6.1983 -4.9001 -1.8570 0.9681
-5.8564 -6.1832 -2.0016 0.9656
-5.1579 -6.7769 -2.0016 0.9656
-4.9114 -6.9576 -2.0016 0.9656
-4.6585 -7.1294 -2.0016 0.9656
-4.3996 -7.2920 -2.0016 0.9656
-4.1351 -7.4452 -2.0016 0.9656
-3.8653 -7.5888 -2.0016 0.9656
-3.5904 -7.7226 -2.0016 0.9656
-3.0272 -7.9603 -2.0016 0.9656
-2.7396 -8.0638 -2.0016 0.9656
-2.4484 -8.1569 -2.0016 0.9656
-1.8571 -8.3115 -2.0016 0.9656
-0.9530 -8.4630 -2.0016 0.9656
-0.6486 -8.4917 -2.0016 0.9656
-0.0379 -8.5164 -2.0016 0.9656
0.2678 -8.5122 -2.0016 0.9656
0.5731 -8.4971 -2.0016 0.9656
0.8777 -8.4711 -2.0016 0.9656
1.4831 -8.3863 -2.0016 0.9656
2.0808 -8.2583 -2.0016 0.9656
2.3758 -8.1783 -2.0016 0.9656
2.6678 -8.0878 -2.0016 0.9656
3.2411 -7.8756 -2.0016 0.9656
2.1475 -4.3105 -1.1318 0.9804
2.2587 -4.1533 -1.1111 0.9808
4.8493 -7.0010 -2.0016 0.9656
5.0974 -6.8225 -2.0016 0.9656
5.3390 -6.6351 -2.0016 0.9656
5.8012 -6.2351 -2.0016 0.9656
6.0212 -6.0229 -2.0016 0.9656
6.2335 -5.8029 -2.0016 0.9656
6.4377 -5.5755 -2.0016 0.9656
7.1693 -4.5969 -2.0016 0.9656
7.4805 -4.0708 -2.0016 0.9656
7.7533 -3.5237 -2.0016 0.9656
7.8747 -3.2432 -2.0016 0.9656
7.9860 -2.9585 -2.0016 0.9656
8.1777 -2.3781 -2.0016 0.9656
8.2578 -2.0831 -2.0016 0.9656
8.3272 -1.7854 -2.0016 0.9656
8.3859 -1.4854 -2.0016 0.9656
8.4338 -1.1835 -2.0016 0.9656
8.4709 -0.8800 -2.0016 0.9656
8.4970 -0.5754 -2.0016 0.9656
8.5122 -0.2701 -2.0016 0.9656
8.5164 0.0355 -2.0016 0.9656
8.4632 0.9507 -2.0016 0.9656
8.4237 1.2538 -2.0016 0.9656
8.3120 1.8548 -2.0016 0.9656
8.0645 2.7374 -2.0016 0.9656
7.7236 3.5883 -2.0016 0.9656
7.4463 4.1331 -2.0016 0.9656
7.2932 4.3976 -2.0016 0.9656
7.1307 4.6565 -2.0016 0.9656
6.7783 5.1560 -2.0016 0.9656
6.3910 5.6290 -2.0016 0.9656
6.1849 5.8547 -2.0016 0.9656
5.9708 6.0729 -2.0016 0.9656
5.2835 6.6794 -2.0016 0.9656
4.2733 7.3667 -2.0016 0.9656
3.7339 7.6543 -2.0016 0.9656
3.4568 7.7833 -2.0016 0.9656
3.1752 7.9024 -2.0016 0.9656
2.5998 8.1085 -2.0012 0.9656
2.3043 8.1863 -1.9987 0.9657
0.4871 8.2451 -1.9412 0.9666
-0.1054 8.2434 -1.9376 0.9667
-0.6988 8.2422 -1.9441 0.9666
-0.9977 8.2410 -1.9510 0.9665
-1.6035 8.2370 -1.9722 0.9661
-1.9121 8.2343 -1.9867 0.9659
-2.2151 8.1928 -1.9946 0.9657
-2.8011 8.0242 -1.9975 0.9657
-3.0898 7.9252 -1.9992 0.9657
-3.6547 7.6924 -2.0016 0.9656
-4.9692 6.9164 -2.0016 0.9656
-5.2142 6.7336 -2.0016 0.9656
-5.6838 6.3422 -2.0016 0.9656
-5.9078 6.1342 -2.0016 0.9656
-6.1241 5.9182 -2.0016 0.9656
-6.7247 5.2257 -2.0016 0.9656
-7.2474 4.4727 -2.0016 0.9656
-7.4033 4.2097 -2.0016 0.9656
-7.5496 3.9413 -2.0016 0.9656
-7.6862 3.6678 -2.0016 0.9656
-7.8128 3.3896 -2.0016 0.9656
-7.9294 3.1070 -2.0016 0.9656
-8.0358 2.8205 -2.0016 0.9656
-8.1319 2.5303 -2.0016 0.9656
-8.2924 1.9405 -2.0016 0.9656
-8.3567 1.6416 -2.0016 0.9656
-8.4103 1.3406 -2.0016 0.9656
-8.4530 1.0379 -2.0016 0.9656
-8.4848 0.7339 -2.0016 0.9656
-8.5145 -0.1823 -2.0016 0.9656
-8.5025 -0.4877 -2.0016 0.9656
-8.4795 -0.7926 -2.0016 0.9656
-8.4456 -1.0964 -2.0016 0.9656
-8.3452 -1.6993 -2.0016 0.9656
-7.9650 -2.2273 -1.9438 0.9666
-7.5281 -2.3996 -1.8570 0.9681
-7.4371 -2.6682 -1.8570 0.9681
-7.2266 -3.1948 -1.8570 0.9681
-6.8413 -3.9530 -1.8570 0.9681
-6.0258 -5.1108 -1.8570 0.9681
-5.8385 -5.3238 -1.8570 0.9681
-5.6436 -5.5299 -1.8570 0.9681
-4.9213 -6.9506 -2.0016 0.9656
-4.6687 -7.1227 -2.0016 0.9656
-4.4101 -7.2857 -2.0016 0.9656
-3.8761 -7.5833 -2.0016 0.9656
-3.6015 -7.7175 -2.0016 0.9656
-2.7511 -8.0598 -2.0016 0.9656
-2.4601 -8.1534 -2.0016 0.9656
-0.0500 -8.5163 -2.0016 0.9656
0.5610 -8.4980 -2.0016 0.9656
0.8656 -8.4723 -2.0016 0.9656
1.4711 -8.3884 -2.0016 0.9656
1.7712 -8.3302 -2.0016 0.9656
2.0690 -8.2613 -2.0016 0.9656
2.3641 -8.1817 -2.0016 0.9656
3.2298 -7.8802 -2.0016 0.9656
3.5105 -7.7593 -2.0016 0.9656
2.2518 -4.1548 -1.1107 0.9808
4.3242 -7.3370 -2.0016 0.9656
5.3295 -6.6428 -2.0016 0.9656
5.5645 -6.4472 -2.0016 0.9656
5.7923 -6.2434 -2.0016 0.9656
6.8138 -5.1090 -2.0016 0.9656
6.9927 -4.8612 -2.0016 0.9656
7.1627 -4.6071 -2.0016 0.9656
7.4747 -4.0815 -2.0016 0.9656
7.6164 -3.8106 -2.0016 0.9656
7.7482 -3.5348 -2.0016 0.9656
8.0833 -2.6816 -2.0016 0.9656
8.1743 -2.3898 -2.0016 0.9656
8.2548 -2.0949 -2.0016 0.9656
8.3246 -1.7973 -2.0016 0.9656
8.3838 -1.4973 -2.0016 0.9656
8.4696 -0.8921 -2.0016 0.9656
8.4928 0.6342 -2.0016 0.9656
8.3754 1.5433 -2.0016 0.9656
8.3147 1.8429 -2.0016 0.9656
8.0684 2.7259 -2.0016 0.9656
7.9654 3.0137 -2.0016 0.9656
7.5954 3.8523 -2.0016 0.9656
7.4522 4.1224 -2.0016 0.9656
7.2995 4.3872 -2.0016 0.9656
6.9660 4.8995 -2.0016 0.9656
6.7857 5.1463 -2.0016 0.9656
6.1932 5.8458 -2.0016 0.9656
5.5290 6.4776 -2.0016 0.9656
4.8008 7.0344 -2.0016 0.9656
4.5453 7.2021 -2.0016 0.9656
4.0169 7.5096 -2.0016 0.9656
3.4679 7.7784 -2.0016 0.9656
3.1865 7.8978 -2.0016 0.9656
2.9011 8.0071 -2.0016 0.9656
4.3395 6.3976 -2.0016 0.9686
3.8694 6.6924 -2.0016 0.9686
3.6267 6.8270 -2.0016 0.9686
3.3794 6.9527 -2.0016 0.9686
3.1277 7.0695 -2.0016 0.9686
2.8720 7.1772 -2.0016 0.9686
2.0839 7.4443 -2.0016 0.9686
1.5446 7.5746 -2.0016 0.9686
1.2717 7.6252 -2.0016 0.9686
0.4448 7.7177 -2.0016 0.9686
-0.1099 7.7297 -2.0016 0.9686
-0.3872 7.7208 -2.0016 0.9686
-0.6641 7.7019 -2.0016 0.9686
-1.4880 7.5859 -2.0016 0.9686
-1.7593 7.5276 -2.0016 0.9686
-2.0283 7.4596 -2.0016 0.9686
-2.5582 7.2949 -2.0016 0.9686
-2.8183 7.1984 -2.0016 0.9686
-3.5757 6.8538 -2.0016 0.9686
-3.8194 6.7211 -2.0016 0.9686
-4.9578 5.9313 -2.0016 0.9686
-5.1675 5.7496 -2.0016 0.9686
-5.3705 5.5604 -2.0016 0.9686
-6.2769 4.5124 -2.0016 0.9686
-6.4348 4.2842 -2.0016 0.9686
-6.9816 3.3194 -2.0016 0.9686
-7.0962 3.0667 -2.0016 0.9686
-7.3847 2.2862 -2.0016 0.9686
-7.4620 2.0197 -2.0016 0.9686
-7.5876 1.4793 -2.0016 0.9686
-7.6742 0.9312 -2.0016 0.9686
-7.7027 0.6552 -2.0016 0.9686
-7.7285 -0.1765 -2.0016 0.9686
-7.7172 -0.4537 -2.0016 0.9686
-7.6959 -0.7304 -2.0016 0.9686
-7.5728 -1.5533 -2.0016 0.9686
-7.5122 -1.8241 -2.0016 0.9686
-7.4419 -2.0925 -2.0016 0.9686
-6.9800 -2.2359 -1.8977 0.9702
-6.6557 -2.6722 -1.8570 0.9708
-6.5555 -2.9093 -1.8570 0.9708
-5.9308 -4.0329 -1.8570 0.9708
-5.6263 -4.4479 -1.8570 0.9708
-5.2927 -4.8400 -1.8570 0.9708
-5.1156 -5.0268 -1.8570 0.9708
-4.9319 -5.2072 -1.8570 0.9708
-4.7419 -5.3808 -1.8570 0.9708
-4.5457 -5.5475 -1.8570 0.9708
-4.4581 -6.3155 -2.0016 0.9686
-3.9936 -6.6190 -2.0016 0.9686
-3.7535 -6.7581 -2.0016 0.9686
-3.5085 -6.8884 -2.0016 0.9686
-3.2591 -7.0099 -2.0016 0.9686
-2.2225 -7.4041 -2.0016 0.9686
-1.6857 -7.5445 -2.0016 0.9686
-1.1402 -7.6459 -2.0016 0.9686
-0.5888 -7.7080 -2.0016 0.9686
-0.0344 -7.7304 -2.0016 0.9686
0.5202 -7.7130 -2.0016 0.9686
1.0721 -7.6558 -2.0016 0.9686
1.3462 -7.6124 -2.0016 0.9686
1.8888 -7.4962 -2.0016 0.9686
2.4216 -7.3414 -2.0016 0.9686
2.6835 -7.2498 -2.0016 0.9686
2.1102 -4.2358 -1.2253 0.9806
2.4402 -4.1268 -1.2413 0.9804
4.1709 -6.5088 -2.0016 0.9686
4.4018 -6.3549 -2.0016 0.9686
4.6270 -6.1928 -2.0016 0.9686
5.0593 -5.8450 -2.0016 0.9686
6.0215 -4.8479 -2.0016 0.9686
6.1916 -4.6287 -2.0016 0.9686
6.6532 -3.9364 -2.0016 0.9686
6.7902 -3.6951 -2.0016 0.9686
7.0377 -3.1985 -2.0016 0.9686
7.1480 -2.9439 -2.0016 0.9686
7.2490 -2.6855 -2.0016 0.9686
7.5587 -1.6206 -2.0016 0.9686
7.6120 -1.3483 -2.0016 0.9686
7.6891 -0.7988 -2.0016 0.9686
7.7266 -0.2452 -2.0016 0.9686
7.7243 0.3097 -2.0016 0.9686
7.7082 0.5867 -2.0016 0.9686
7.6005 1.4117 -2.0016 0.9686
7.4796 1.9533 -2.0016 0.9686
7.4047 2.2205 -2.0016 0.9686
7.3203 2.4848 -2.0016 0.9686
7.2264 2.7459 -2.0016 0.9686
6.8894 3.5067 -2.0016 0.9686
6.4726 4.2268 -2.0016 0.9686
6.3167 4.4564 -2.0016 0.9686
6.1527 4.6802 -2.0016 0.9686
5.9808 4.8980 -2.0016 0.9686
5.8012 5.1095 -2.0016 0.9686
5.4197 5.5124 -2.0016 0.9686
5.2184 5.7034 -2.0016 0.9686
4.7959 6.0630 -2.0016 0.9686
4.3486 6.3914 -2.0016 0.9686
4.1164 6.5433 -2.0016 0.9686
3.6365 6.8218 -2.0016 0.9686
3.3893 6.9479 -2.0016 0.9686
2.3603 7.3614 -2.0016 0.9686
1.8262 7.5117 -2.0016 0.9686
1.2827 7.6233 -2.0016 0.9686
-0.6531 7.7029 -2.0016 0.9686
-1.4772 7.5880 -2.0016 0.9686
-2.0177 7.4625 -2.0016 0.9686
-2.5477 7.2986 -2.0016 0.9686
-2.8080 7.2025 -2.0016 0.9686
-4.0487 6.5855 -2.0016 0.9686
-4.2824 6.4359 -2.0016 0.9686
-4.5106 6.2781 -2.0016 0.9686
-4.7330 6.1122 -2.0016 0.9686
-4.9493 5.9384 -2.0016 0.9686
-5.1593 5.7569 -2.0016 0.9686
-5.3626 5.5681 -2.0016 0.9686
-5.5589 5.3720 -2.0016 0.9686
-5.7481 5.1691 -2.0016 0.9686
-5.9299 4.9595 -2.0016 0.9686
-6.1041 4.7434 -2.0016 0.9686
-6.5786 4.0599 -2.0016 0.9686
-6.8528 3.5776 -2.0016 0.9686
-7.0918 3.0768 -2.0016 0.9686
-7.1977 2.8203 -2.0016 0.9686
-7.3814 2.2968 -2.0016 0.9686
-7.7017 0.6662 -2.0016 0.9686
-7.7287 -0.1655 -2.0016 0.9686
-7.6255 -1.2697 -2.0016 0.9686
-7.5750 -1.5425 -2.0016 0.9686
-6.7508 -2.4220 -1.8570 0.9708
-6.4513 -3.1335 -1.8570 0.9708
-6.2100 -3.5882 -1.8570 0.9708
-6.0772 -3.8087 -1.8570 0.9708
-5.9366 -4.0244 -1.8570 0.9708
-5.7883 -4.2348 -1.8570 0.9708
-5.6326 -4.4399 -1.8570 0.9708
-5.4697 -4.6391 -1.8570 0.9708
-5.2996 -4.8324 -1.8570 0.9708
-5.1228 -5.0195 -1.8570 0.9708
-4.9394 -5.2001 -1.8570 0.9708
-4.5570 -5.5451 -1.8583 0.9708
-4.4671 -6.3091 -2.0016 0.9686
-4.0031 -6.6133 -2.0016 0.9686
-3.2691 -7.0052 -2.0016 0.9686
-2.7582 -7.2217 -2.0016 0.9686
-1.9660 -7.4763 -2.0016 0.9686
-1.4247 -7.5981 -2.0016 0.9686
-0.0454 -7.7304 -2.0016 0.9686
0.5092 -7.7137 -2.0016 0.9686
0.7857 -7.6905 -2.0016 0.9686
1.8780 -7.4989 -2.0016 0.9686
2.1459 -7.4267 -2.0016 0.9686
2.6731 -7.2536 -2.0016 0.9686
3.1866 -7.0432 -2.0016 0.9686
2.1098 -4.2501 -1.2285 0.9806
4.3927 -6.3612 -2.0016 0.9686
4.6181 -6.1994 -2.0016 0.9686
5.0509 -5.8522 -2.0016 0.9686
5.4577 -5.4748 -2.0016 0.9686
5.6507 -5.2754 -2.0016 0.9686
6.0145 -4.8565 -2.0016 0.9686
6.1849 -4.6375 -2.0016 0.9686
6.5017 -4.1820 -2.0016 0.9686
7.0332 -3.2086 -2.0016 0.9686
7.5564 -1.6314 -2.0016 0.9686
7.6101 -1.3592 -2.0016 0.9686
7.7262 -0.2563 -2.0016 0.9686
7.7090 0.5756 -2.0016 0.9686
7.6834 0.8519 -2.0016 0.9686
7.6479 1.1271 -2.0016 0.9686
7.6025 1.4009 -2.0016 0.9686
7.5473 1.6728 -2.0016 0.9686
7.3238 2.4743 -2.0016 0.9686
7.1275 2.9933 -2.0016 0.9686
6.6258 3.9823 -2.0016 0.9686
6.3231 4.4473 -2.0016 0.9686
5.6217 5.3063 -2.0016 0.9686
5.4276 5.5047 -2.0016 0.9686
4.5841 6.2247 -2.0016 0.9686
4.3577 6.3852 -2.0016 0.9686
3.8885 6.6813 -2.0016 0.9686
3.6462 6.8166 -2.0016 0.9686
3.3992 6.9430 -2.0016 0.9686
3.1479 7.0605 -2.0016 0.9686
2.8925 7.1690 -2.0016 0.9686
2.6333 7.2682 -2.0016 0.9686
3.9689 5.8513 -2.0016 0.9710
3.7564 5.9899 -2.0016 0.9710
3.5390 6.1209 -2.0016 0.9710
3.3170 6.2440 -2.0016 0.9710
2.8606 6.4658 -2.0016 0.9710
2.6267 6.5643 -2.0016 0.9710
2.3894 6.6543 -2.0016 0.9710
2.1491 6.7358 -2.0016 0.9710
1.6604 6.8726 -2.0016 0.9710
1.4127 6.9278 -2.0016 0.9710
1.1631 6.9740 -2.0016 0.9710
0.9121 7.0112 -2.0016 0.9710
0.6599 7.0395 -2.0016 0.9710
-0.1005 7.0696 -2.0016 0.9710
-1.3609 6.9381 -2.0016 0.9710
-1.6091 6.8848 -2.0016 0.9710
-1.8551 6.8226 -2.0016 0.9710
-2.0988 6.7517 -2.0016 0.9710
-2.3397 6.6720 -2.0016 0.9710
-2.5777 6.5837 -2.0016 0.9710
-3.0433 6.3819 -2.0016 0.9710
-3.2703 6.2685 -2.0016 0.9710
-3.4932 6.1471 -2.0016 0.9710
-4.3368 5.5840 -2.0016 0.9710
-4.9119 5.0855 -2.0016 0.9710
-5.7408 4.1270 -2.0016 0.9710
-5.8852 3.9183 -2.0016 0.9710
-6.0221 3.7046 -2.0016 0.9710
-6.1512 3.4861 -2.0016 0.9710
-6.3854 3.0359 -2.0016 0.9710
-6.5867 2.5700 -2.0016 0.9710
-6.6747 2.3320 -2.0016 0.9710
-6.7541 2.0910 -2.0016 0.9710
-6.8248 1.8472 -2.0016 0.9710
-7.0449 0.5992 -2.0016 0.9710
-7.0619 0.3460 -2.0016 0.9710
-7.0697 0.0924 -2.0016 0.9710
-7.0387 -0.6680 -2.0016 0.9710
-7.0102 -0.9202 -2.0016 0.9710
-6.9726 -1.1712 -2.0016 0.9710
-6.8707 -1.6683 -2.0016 0.9710
-6.0873 -2.4440 -1.8570 0.9731
-5.4244 -3.6885 -1.8570 0.9731
-5.1458 -4.0681 -1.8570 0.9731
-4.8408 -4.4267 -1.8570 0.9731
-4.5108 -4.7625 -1.8570 0.9731
-4.3369 -4.9213 -1.8570 0.9731
-4.1575 -5.0738 -1.8570 0.9731
-3.9728 -5.2197 -1.8570 0.9731
-3.5881 -5.4913 -1.8570 0.9731
-3.4329 -6.1810 -2.0016 0.9710
-3.2089 -6.3002 -2.0016 0.9710
-2.7487 -6.5141 -2.0016 0.9710
-2.5132 -6.6086 -2.0016 0.9710
-2.2744 -6.6945 -2.0016 0.9710
-2.0327 -6.7718 -2.0016 0.9710
-1.7884 -6.8404 -2.0016 0.9710
-1.5417 -6.9002 -2.0016 0.9710
-1.2931 -6.9511 -2.0016 0.9710
-0.5385 -7.0498 -2.0016 0.9710
-0.0314 -7.0703 -2.0016 0.9710
0.2223 -7.0668 -2.0016 0.9710
0.4758 -7.0543 -2.0016 0.9710
0.9806 -7.0020 -2.0016 0.9710
1.2312 -6.9623 -2.0016 0.9710
1.4803 -6.9136 -2.0016 0.9710
1.7275 -6.8561 -2.0016 0.9710
1.9724 -6.7896 -2.0016 0.9710
2.4543 -6.6307 -2.0016 0.9710
2.6907 -6.5383 -2.0016 0.9710
2.9236 -6.4375 -2.0016 0.9710
2.0964 -4.2081 -1.3309 0.9806
2.2281 -4.0970 -1.3203 0.9808
2.4224 -4.0968 -1.3473 0.9804
3.8147 -5.9529 -2.0016 0.9710
4.6273 -5.3459 -2.0016 0.9710
4.9988 -5.0002 -2.0016 0.9710
5.1750 -4.8175 -2.0016 0.9710
5.6628 -4.2334 -2.0016 0.9710
5.8111 -4.0275 -2.0016 0.9710
6.2103 -3.3796 -2.0016 0.9710
6.3276 -3.1545 -2.0016 0.9710
6.5376 -2.6925 -2.0016 0.9710
6.6300 -2.4562 -2.0016 0.9710
6.7139 -2.2166 -2.0016 0.9710
6.7891 -1.9743 -2.0016 0.9710
6.8556 -1.7293 -2.0016 0.9710
6.9132 -1.4822 -2.0016 0.9710
6.9620 -1.2331 -2.0016 0.9710
7.0668 -0.2243 -2.0016 0.9710
7.0500 0.5366 -2.0016 0.9710
7.0261 0.7892 -2.0016 0.9710
6.9514 1.2912 -2.0016 0.9710
6.9006 1.5398 -2.0016 0.9710
6.8409 1.7865 -2.0016 0.9710
6.6952 2.2726 -2.0016 0.9710
6.6093 2.5114 -2.0016 0.9710
6.4121 2.9790 -2.0016 0.9710
5.7773 4.0758 -2.0016 0.9710
5.6273 4.2805 -2.0016 0.9710
4.9569 5.0417 -2.0016 0.9710
4.7728 5.2163 -2.0016 0.9710
3.9773 5.8456 -2.0016 0.9710
3.7649 5.9846 -2.0016 0.9710
3.5477 6.1158 -2.0016 0.9710
3.3259 6.2392 -2.0016 0.9710
2.6361 6.5605 -2.0016 0.9710
2.3989 6.6509 -2.0016 0.9710
2.1587 6.7327 -2.0016 0.9710
1.9157 6.8059 -2.0016 0.9710
1.6702 6.8702 -2.0016 0.9710
1.1731 6.9723 -2.0016 0.9710
0.9221 7.0099 -2.0016 0.9710
0.6700 7.0385 -2.0016 0.9710
-0.0904 7.0698 -2.0016 0.9710
-1.1011 6.9841 -2.0016 0.9710
-1.5992 6.8871 -2.0016 0.9710
-2.0891 6.7546 -2.0016 0.9710
-2.5682 6.5874 -2.0016 0.9710
-3.0341 6.3862 -2.0016 0.9710
-3.2614 6.2732 -2.0016 0.9710
-3.9167 5.8863 -2.0016 0.9710
-4.3288 5.5902 -2.0016 0.9710
-4.9046 5.0926 -2.0016 0.9710
-5.0842 4.9133 -2.0016 0.9710
-5.2573 4.7277 -2.0016 0.9710
-5.8796 3.9267 -2.0016 0.9710
-6.2676 3.2721 -2.0016 0.9710
-6.3810 3.0450 -2.0016 0.9710
-6.5830 2.5795 -2.0016 0.9710
-6.6713 2.3416 -2.0016 0.9710
-6.7511 2.1006 -2.0016 0.9710
-6.8221 1.8570 -2.0016 0.9710
-6.9377 1.3629 -2.0016 0.9710
-6.9822 1.1130 -2.0016 0.9710
-7.0176 0.8617 -2.0016 0.9710
-7.0440 0.6093 -2.0016 0.9710
-7.0614 0.3561 -2.0016 0.9710
-7.0397 -0.6580 -2.0016 0.9710
-7.0115 -0.9102 -2.0016 0.9710
-6.9743 -1.1612 -2.0016 0.9710
-6.9282 -1.4108 -2.0016 0.9710
-6.8731 -1.6585 -2.0016 0.9710
-6.2425 -2.2396 -1.8775 0.9728
-6.0908 -2.4353 -1.8570 0.9731
-5.9995 -2.6523 -1.8570 0.9731
-5.6797 -3.2818 -1.8570 0.9731
-5.5582 -3.4835 -1.8570 0.9731
-5.2940 -3.8732 -1.8570 0.9731
-5.1516 -4.0607 -1.8570 0.9731
-4.3440 -4.9151 -1.8570 0.9731
-4.1648 -5.0679 -1.8570 0.9731
-3.7905 -5.3535 -1.8570 0.9731
-3.5960 -5.4861 -1.8570 0.9731
-3.4418 -6.1761 -2.0016 0.9710
-2.9899 -6.4070 -2.0016 0.9710
-2.0424 -6.7689 -2.0016 0.9710
-0.8012 -7.0248 -2.0016 0.9710
-0.5486 -7.0490 -2.0016 0.9710
-0.2952 -7.0642 -2.0016 0.9710
-0.0415 -7.0702 -2.0016 0.9710
0.7186 -7.0337 -2.0016 0.9710
1.4704 -6.9157 -2.0016 0.9710
1.7177 -6.8585 -2.0016 0.9710
1.9627 -6.7925 -2.0016 0.9710
2.2052 -6.7176 -2.0016 0.9710
2.4132 -4.0946 -1.3455 0.9804
3.8062 -5.9584 -2.0016 0.9710
4.2238 -5.6700 -2.0016 0.9710
4.6196 -5.3525 -2.0016 0.9710
5.1681 -4.8249 -2.0016 0.9710
5.5009 -4.4418 -2.0016 0.9710
5.8053 -4.0358 -2.0016 0.9710
5.9464 -3.8248 -2.0016 0.9710
6.0799 -3.6090 -2.0016 0.9710
6.2055 -3.3884 -2.0016 0.9710
6.5337 -2.7019 -2.0016 0.9710
6.7863 -1.9840 -2.0016 0.9710
6.9602 -1.2431 -2.0016 0.9710
7.0314 -0.7406 -2.0016 0.9710
7.0535 -0.4878 -2.0016 0.9710
7.0665 -0.2344 -2.0016 0.9710
7.0651 0.2731 -2.0016 0.9710
7.0507 0.5265 -2.0016 0.9710
6.9948 1.0309 -2.0016 0.9710
6.9533 1.2812 -2.0016 0.9710
6.7753 2.0212 -2.0016 0.9710
6.6984 2.2630 -2.0016 0.9710
6.5188 2.7376 -2.0016 0.9710
6.1868 3.4224 -2.0016 0.9710
6.0600 3.6423 -2.0016 0.9710
5.4765 4.4719 -2.0016 0.9710
5.3125 4.6656 -2.0016 0.9710
5.1416 4.8532 -2.0016 0.9710
4.7802 5.2095 -2.0016 0.9710
4.1926 5.6931 -2.0016 0.9710
3.9856 5.8399 -2.0016 0.9710
3.3348 6.2344 -2.0016 0.9710
2.6455 6.5568 -2.0016 0.9710
2.4084 6.6475 -2.0016 0.9710
3.4573 5.5131 -2.0016 0.9731
3.2572 5.6336 -2.0016 0.9731
3.0530 5.7469 -2.0016 0.9731
2.6329 5.9511 -2.0016 0.9731
2.4176 6.0417 -2.0016 0.9731
1.7542 6.2666 -2.0016 0.9731
1.5282 6.3255 -2.0016 0.9731
1.3002 6.3763 -2.0016 0.9731
1.0706 6.4188 -2.0016 0.9731
0.6074 6.4791 -2.0016 0.9731
0.3745 6.4967 -2.0016 0.9731
0.1411 6.5060 -2.0016 0.9731
-1.0226 6.4266 -2.0016 0.9731
-1.4810 6.3367 -2.0016 0.9731
-1.7074 6.2795 -2.0016 0.9731
-2.1535 6.1408 -2.0016 0.9731
-3.4161 5.5387 -2.0016 0.9731
-3.6127 5.4126 -2.0016 0.9731
-4.5209 4.6807 -2.0016 0.9731
-4.9977 4.1677 -2.0016 0.9731
-5.1441 3.9857 -2.0016 0.9731
-5.7730 3.0033 -2.0016 0.9731
-5.8770 2.7942 -2.0016 0.9731
-5.9735 2.5815 -2.0016 0.9731
-6.0623 2.3655 -2.0016 0.9731
-6.3384 1.4737 -2.0016 0.9731
-6.3872 1.2452 -2.0016 0.9731
-6.4601 0.7839 -2.0016 0.9731
-6.4841 0.5515 -2.0016 0.9731
-6.4997 0.3185 -2.0016 0.9731
-6.5069 0.0850 -2.0016 0.9731
-6.3748 -1.3076 -2.0016 0.9731
-6.3237 -1.5355 -2.0016 0.9731
-6.1973 -1.9852 -2.0016 0.9731
-5.5184 -2.4491 -1.8570 0.9751
-5.1112 -3.2135 -1.8570 0.9751
-4.8675 -3.5718 -1.8570 0.9751
-4.7362 -3.7442 -1.8570 0.9751
-4.5987 -3.9118 -1.8570 0.9751
-4.3063 -4.2316 -1.8570 0.9751
-3.9917 -4.5296 -1.8570 0.9751
-3.8266 -4.6699 -1.8570 0.9751
-3.6565 -4.8042 -1.8570 0.9751
-3.4817 -4.9323 -1.8570 0.9751
-3.3025 -5.0541 -1.8570 0.9751
-2.7401 -5.3798 -1.8570 0.9751
-0.0289 -6.5074 -2.0016 0.9731
0.4379 -6.4927 -2.0016 0.9731
1.1332 -6.4080 -2.0016 0.9731
1.5900 -6.3103 -2.0016 0.9731
1.8154 -6.2491 -2.0016 0.9731
2.2590 -6.1028 -2.0016 0.9731
2.2976 -5.5831 -1.8570 0.9751
2.0826 -4.1804 -1.4365 0.9806
2.2203 -4.0827 -1.4294 0.9807
2.4122 -4.0795 -1.4577 0.9804
3.5110 -5.4791 -2.0016 0.9731
3.7054 -5.3495 -2.0016 0.9731
3.8950 -5.2131 -2.0016 0.9731
4.2589 -4.9203 -2.0016 0.9731
4.7630 -4.4340 -2.0016 0.9731
4.9191 -4.2602 -2.0016 0.9731
5.0688 -4.0810 -2.0016 0.9731
5.2120 -3.8964 -2.0016 0.9731
5.3485 -3.7069 -2.0016 0.9731
5.4781 -3.5125 -2.0016 0.9731
5.9243 -2.6925 -2.0016 0.9731
6.2486 -1.8171 -2.0016 0.9731
6.3098 -1.5917 -2.0016 0.9731
6.4077 -1.1350 -2.0016 0.9731
6.4443 -0.9043 -2.0016 0.9731
6.4726 -0.6724 -2.0016 0.9731
6.4887 0.4939 -2.0016 0.9731
6.4668 0.7264 -2.0016 0.9731
6.3980 1.1884 -2.0016 0.9731
6.2963 1.6443 -2.0016 0.9731
6.2333 1.8692 -2.0016 0.9731
6.0831 2.3115 -2.0016 0.9731
5.9017 2.7418 -2.0016 0.9731
5.7995 2.9519 -2.0016 0.9731
5.6898 3.1581 -2.0016 0.9731
5.5728 3.3603 -2.0016 0.9731
5.3174 3.7513 -2.0016 0.9731
5.0346 4.1231 -2.0016 0.9731
4.7259 4.4736 -2.0016 0.9731
4.5623 4.6403 -2.0016 0.9731
4.3928 4.8011 -2.0016 0.9731
4.2177 4.9556 -2.0016 0.9731
4.0371 5.1038 -2.0016 0.9731
3.8514 5.2454 -2.0016 0.9731
3.2653 5.6290 -2.0016 0.9731
3.0612 5.7425 -2.0016 0.9731
2.6414 5.9473 -2.0016 0.9731
2.4262 6.0383 -2.0016 0.9731
2.2080 6.1215 -2.0016 0.9731
1.9869 6.1967 -2.0016 0.9731
1.5373 6.3233 -2.0016 0.9731
1.0797 6.4173 -2.0016 0.9731
0.8487 6.4519 -2.0016 0.9731
0.6166 6.4782 -2.0016 0.9731
0.1504 6.5057 -2.0016 0.9731
-0.0832 6.5069 -2.0016 0.9731
-0.5497 6.4842 -2.0016 0.9731
-1.4719 6.3388 -2.0016 0.9731
-1.6985 6.2819 -2.0016 0.9731
-1.9228 6.2169 -2.0016 0.9731
-2.1447 6.1439 -2.0016 0.9731
-2.3638 6.0630 -2.0016 0.9731
-2.5798 5.9742 -2.0016 0.9731
-2.7926 5.8778 -2.0016 0.9731
-3.0017 5.7738 -2.0016 0.9731
-3.2070 5.6624 -2.0016 0.9731
-3.4082 5.5436 -2.0016 0.9731
-3.7970 5.2849 -2.0016 0.9731
-3.9842 5.1452 -2.0016 0.9731
-4.5142 4.6872 -2.0016 0.9731
-4.8387 4.3513 -2.0016 0.9731
-5.2784 3.8060 -2.0016 0.9731
-5.6569 3.2167 -2.0016 0.9731
-5.8730 2.8026 -2.0016 0.9731
-6.0589 2.3741 -2.0016 0.9731
-6.1402 2.1551 -2.0016 0.9731
-6.2790 1.7092 -2.0016 0.9731
-6.3363 1.4827 -2.0016 0.9731
-6.4263 1.0244 -2.0016 0.9731
-6.4590 0.7931 -2.0016 0.9731
-6.4833 0.5608 -2.0016 0.9731
-6.4533 -0.8377 -2.0016 0.9731
-6.4191 -1.0688 -2.0016 0.9731
-6.3259 -1.5265 -2.0016 0.9731
-6.2671 -1.7525 -2.0016 0.9731
-5.2275 -3.0205 -1.8570 0.9751
-4.7415 -3.7374 -1.8570 0.9751
-4.6043 -3.9052 -1.8570 0.9751
-3.9982 -4.5238 -1.8570 0.9751
-3.6634 -4.7990 -1.8570 0.9751
-3.4888 -4.9274 -1.8570 0.9751
-3.1264 -5.1649 -1.8570 0.9751
-2.9390 -5.2738 -1.8570 0.9751
-2.5531 -5.4710 -1.8570 0.9751
-2.3551 -5.5591 -1.8570 0.9751
-2.1541 -5.6401 -1.8570 0.9751
-2.1022 -6.1586 -2.0016 0.9731
-1.8798 -6.2301 -2.0016 0.9731
-1.4281 -6.3489 -2.0016 0.9731
-1.1993 -6.3960 -2.0016 0.9731
-0.9690 -6.4349 -2.0016 0.9731
-0.7374 -6.4656 -2.0016 0.9731
-0.5049 -6.4879 -2.0016 0.9731
-0.2717 -6.5018 -2.0016 0.9731
0.4286 -6.4933 -2.0016 0.9731
1.1241 -6.4097 -2.0016 0.9731
1.8065 -6.2517 -2.0016 0.9731
2.2502 -6.1060 -2.0016 0.9731
2.2897 -5.5864 -1.8570 0.9751
2.0821 -4.1944 -1.4403 0.9806
2.2128 -4.0828 -1.4284 0.9808
2.4044 -4.0796 -1.4565 0.9804
4.2519 -4.9264 -2.0016 0.9731
4.4259 -4.7706 -2.0016 0.9731
4.5943 -4.6087 -2.0016 0.9731
4.9130 -4.2673 -2.0016 0.9731
5.0630 -4.0882 -2.0016 0.9731
5.2064 -3.9039 -2.0016 0.9731
5.3432 -3.7145 -2.0016 0.9731
5.4731 -3.5204 -2.0016 0.9731
5.5959 -3.3217 -2.0016 0.9731
5.9205 -2.7010 -2.0016 0.9731
6.0136 -2.4868 -2.0016 0.9731
6.3075 -1.6007 -2.0016 0.9731
6.3609 -1.3733 -2.0016 0.9731
6.4061 -1.1441 -2.0016 0.9731
6.4430 -0.9135 -2.0016 0.9731
6.5039 -0.2157 -2.0016 0.9731
6.5075 0.0178 -2.0016 0.9731
6.5026 0.2514 -2.0016 0.9731
6.4379 0.9488 -2.0016 0.9731
6.3997 1.1792 -2.0016 0.9731
6.3533 1.4082 -2.0016 0.9731
6.2987 1.6353 -2.0016 0.9731
6.1651 2.0829 -2.0016 0.9731
5.9999 2.5197 -2.0016 0.9731
5.9056 2.7334 -2.0016 0.9731
5.5776 3.3523 -2.0016 0.9731
5.0405 4.1159 -2.0016 0.9731
4.8895 4.2941 -2.0016 0.9731
4.5689 4.6338 -2.0016 0.9731
4.2248 4.9496 -2.0016 0.9731
4.0444 5.0980 -2.0016 0.9731
3.6683 5.3750 -2.0016 0.9731
3.0694 5.7381 -2.0016 0.9731
2.4349 6.0348 -2.0016 0.9731
3.3801 4.9832 -2.0016 0.9749
3.0140 5.2129 -2.0016 0.9749
2.8249 5.3177 -2.0016 0.9749
2.6323 5.4156 -2.0016 0.9749
2.0350 5.6672 -2.0016 0.9749
1.8303 5.7365 -2.0016 0.9749
1.6232 5.7985 -2.0016 0.9749
0.7768 5.9711 -2.0016 0.9749
0.3465 6.0115 -2.0016 0.9749
0.1305 6.0200 -2.0016 0.9749
-0.0856 6.0208 -2.0016 0.9749
-0.3016 6.0139 -2.0016 0.9749
-0.5173 5.9992 -2.0016 0.9749
-0.7322 5.9768 -2.0016 0.9749
-0.9462 5.9466 -2.0016 0.9749
-1.1590 5.9088 -2.0016 0.9749
-1.3704 5.8634 -2.0016 0.9749
-1.5799 5.8105 -2.0016 0.9749
-1.9926 5.6822 -2.0016 0.9749
-2.3951 5.5246 -2.0016 0.9749
-2.5918 5.4351 -2.0016 0.9749
-2.9750 5.2352 -2.0016 0.9749
-3.1609 5.1251 -2.0016 0.9749
-3.3428 5.0083 -2.0016 0.9749
-3.5204 4.8851 -2.0016 0.9749
-3.6935 4.7556 -2.0016 0.9749
-3.8618 4.6200 -2.0016 0.9749
-4.0251 4.4785 -2.0016 0.9749
-4.1832 4.3311 -2.0016 0.9749
-4.3359 4.1782 -2.0016 0.9749
-4.4831 4.0199 -2.0016 0.9749
-4.6245 3.8564 -2.0016 0.9749
-4.7599 3.6880 -2.0016 0.9749
-5.0122 3.3371 -2.0016 0.9749
-5.1287 3.1550 -2.0016 0.9749
-5.2386 2.9689 -2.0016 0.9749
-5.3418 2.7790 -2.0016 0.9749
-5.6095 2.1888 -2.0016 0.9749
-5.8123 1.5732 -2.0016 0.9749
-5.8650 1.3636 -2.0016 0.9749
-5.9102 1.1522 -2.0016 0.9749
-5.9477 0.9394 -2.0016 0.9749
-6.0142 0.2947 -2.0016 0.9749
-6.0209 0.0787 -2.0016 0.9749
-6.0111 -0.3534 -2.0016 0.9749
-5.9945 -0.5689 -2.0016 0.9749
-5.8986 -1.2099 -2.0016 0.9749
-5.8514 -1.4208 -2.0016 0.9749
-5.7344 -1.8369 -2.0016 0.9749
-5.6648 -2.0415 -2.0016 0.9749
-5.5305 -2.2204 -1.9810 0.9752
-4.9305 -2.6266 -1.8570 0.9767
-4.8331 -2.8018 -1.8570 0.9767
-4.7294 -2.9735 -1.8570 0.9767
-4.5039 -3.3051 -1.8570 0.9767
-4.3824 -3.4646 -1.8570 0.9767
-4.1226 -3.7700 -1.8570 0.9767
-3.9847 -3.9155 -1.8570 0.9767
-3.8416 -4.0560 -1.8570 0.9767
-3.5408 -4.3211 -1.8570 0.9767
-3.3834 -4.4454 -1.8570 0.9767
-3.2217 -4.5639 -1.8570 0.9767
-3.0558 -4.6766 -1.8570 0.9767
-2.8860 -4.7833 -1.8570 0.9767
-2.5355 -4.9780 -1.8570 0.9767
-2.3552 -5.0658 -1.8570 0.9767
-2.1719 -5.1470 -1.8570 0.9767
-1.9858 -5.2217 -1.8570 0.9767
-1.7971 -5.2896 -1.8570 0.9767
-1.4130 -5.4048 -1.8570 0.9767
-1.2182 -5.4521 -1.8570 0.9767
-1.0217 -5.4923 -1.8570 0.9767
-0.8239 -5.5254 -1.8570 0.9767
-0.2253 -5.5819 -1.8570 0.9767
-0.0248 -5.5864 -1.8570 0.9767
0.7762 -5.5429 -1.8605 0.9767
0.9728 -5.5011 -1.8570 0.9767
1.1696 -5.4627 -1.8570 0.9767
1.9393 -5.2391 -1.8570 0.9767
2.0433 -4.4991 -1.6425 0.9794
2.2124 -4.0682 -1.5393 0.9807
2.4035 -4.0648 -1.5697 0.9803
3.1810 -4.5924 -1.8570 0.9767
3.3437 -4.4753 -1.8570 0.9767
3.9408 -4.5528 -2.0016 0.9749
4.1017 -4.4084 -2.0016 0.9749
4.2572 -4.2584 -2.0016 0.9749
4.5517 -3.9420 -2.0016 0.9749
5.1823 -3.0662 -2.0016 0.9749
5.2890 -2.8782 -2.0016 0.9749
5.3889 -2.6865 -2.0016 0.9749
5.5677 -2.2931 -2.0016 0.9749
5.7179 -1.8878 -2.0016 0.9749
5.9892 -0.6222 -2.0016 0.9749
6.0077 -0.4069 -2.0016 0.9749
6.0214 0.0251 -2.0016 0.9749
6.0166 0.2412 -2.0016 0.9749
5.9838 0.6721 -2.0016 0.9749
5.9202 1.0996 -2.0016 0.9749
5.8261 1.5215 -2.0016 0.9749
5.7677 1.7296 -2.0016 0.9749
5.6288 2.1388 -2.0016 0.9749
4.5187 3.9799 -2.0016 0.9749
4.3729 4.1395 -2.0016 0.9749
4.0647 4.4425 -2.0016 0.9749
3.9027 4.5855 -2.0016 0.9749
3.7356 4.7226 -2.0016 0.9749
3.0214 5.2085 -2.0016 0.9749
2.4441 5.5031 -2.0016 0.9749
2.2450 5.5873 -2.0016 0.9749
1.8385 5.7339 -2.0016 0.9749
1.6315 5.7962 -2.0016 0.9749
1.4224 5.8510 -2.0016 0.9749
1.2115 5.8983 -2.0016 0.9749
0.9991 5.9380 -2.0016 0.9749
-0.2930 6.0143 -2.0016 0.9749
-0.7237 5.9778 -2.0016 0.9749
-2.3872 5.5280 -2.0016 0.9749
-2.5840 5.4388 -2.0016 0.9749
-2.7775 5.3426 -2.0016 0.9749
-2.9675 5.2394 -2.0016 0.9749
-3.1536 5.1296 -2.0016 0.9749
-3.5134 4.8901 -2.0016 0.9749
-3.8551 4.6255 -2.0016 0.9749
-4.1770 4.3371 -2.0016 0.9749
-4.3300 4.1844 -2.0016 0.9749
-4.6190 3.8630 -2.0016 0.9749
-4.7546 3.6948 -2.0016 0.9749
-5.0074 3.3442 -2.0016 0.9749
-5.2344 2.9764 -2.0016 0.9749
-5.6064 2.1968 -2.0016 0.9749
-5.6816 1.9942 -2.0016 0.9749
-5.7495 1.7890 -2.0016 0.9749
-5.8100 1.5815 -2.0016 0.9749
-5.8631 1.3720 -2.0016 0.9749
-5.9464 0.9479 -2.0016 0.9749
-5.9990 0.5189 -2.0016 0.9749
-6.0138 0.3033 -2.0016 0.9749
-6.0201 -0.1289 -2.0016 0.9749
-6.0116 -0.3448 -2.0016 0.9749
-5.9713 -0.7752 -2.0016 0.9749
-5.9004 -1.2015 -2.0016 0.9749
-5.7990 -1.6216 -2.0016 0.9749
-5.6677 -2.0334 -2.0016 0.9749
-5.5506 -2.2193 -1.9871 0.9751
-5.1094 -2.2588 -1.8570 0.9767
-4.9343 -2.6195 -1.8570 0.9767
-4.5087 -3.2986 -1.8570 0.9767
-4.3874 -3.4583 -1.8570 0.9767
-3.9903 -3.9098 -1.8570 0.9767
-3.8474 -4.0505 -1.8570 0.9767
-3.6995 -4.1860 -1.8570 0.9767
-3.5469 -4.3160 -1.8570 0.9767
-3.0625 -4.6723 -1.8570 0.9767
-2.8929 -4.7791 -1.8570 0.9767
-2.7195 -4.8799 -1.8570 0.9767
-2.3624 -5.0624 -1.8570 0.9767
-2.1792 -5.1439 -1.8570 0.9767
-1.6137 -5.3483 -1.8570 0.9767
-1.4208 -5.4028 -1.8570 0.9767
-0.6330 -5.5505 -1.8570 0.9767
-0.4334 -5.5696 -1.8570 0.9767
-0.2333 -5.5816 -1.8570 0.9767
-0.0328 -5.5864 -1.8570 0.9767
0.1677 -5.5840 -1.8570 0.9767
0.3680 -5.5744 -1.8570 0.9767
0.5678 -5.5576 -1.8570 0.9767
0.7682 -5.5432 -1.8602 0.9767
1.3572 -5.4191 -1.8570 0.9767
1.7424 -5.3078 -1.8570 0.9767
2.1186 -5.1692 -1.8570 0.9767
3.1744 -4.5970 -1.8570 0.9767
3.4960 -4.3574 -1.8570 0.9767
4.0954 -4.4143 -2.0016 0.9749
4.2511 -4.2645 -2.0016 0.9749
4.5461 -3.9485 -2.0016 0.9749
4.6848 -3.7829 -2.0016 0.9749
4.9441 -3.4371 -2.0016 0.9749
5.2849 -2.8858 -2.0016 0.9749
5.3851 -2.6942 -2.0016 0.9749
5.4783 -2.4992 -2.0016 0.9749
5.5644 -2.3010 -2.0016 0.9749
5.6434 -2.0999 -2.0016 0.9749
5.7152 -1.8960 -2.0016 0.9749
6.0071 -0.4154 -2.0016 0.9749
5.9848 0.6636 -2.0016 0.9749
5.9571 0.8779 -2.0016 0.9749
5.9217 1.0912 -2.0016 0.9749
5.6318 2.1308 -2.0016 0.9749
5.4645 2.5292 -2.0016 0.9749
5.3702 2.7237 -2.0016 0.9749
5.1610 3.1019 -2.0016 0.9749
5.0463 3.2851 -2.0016 0.9749
4.7977 3.6387 -2.0016 0.9749
4.2277 4.2877 -2.0016 0.9749
4.0711 4.4367 -2.0016 0.9749
3.9092 4.5799 -2.0016 0.9749
3.5706 4.8485 -2.0016 0.9749
3.3943 4.9735 -2.0016 0.9749
3.2137 5.0922 -2.0016 0.9749
3.0289 5.2042 -2.0016 0.9749
2.8401 5.3096 -2.0016 0.9749
2.4519 5.4996 -2.0016 0.9749
2.2530 5.5841 -2.0016 0.9749
3.1419 4.6321 -2.0016 0.9765
2.8016 4.8455 -2.0016 0.9765
2.0794 5.1965 -2.0016 0.9765
1.7013 5.3323 -2.0016 0.9765
1.5088 5.3899 -2.0016 0.9765
1.3144 5.4406 -2.0016 0.9765
0.7221 5.5503 -2.0016 0.9765
0.3221 5.5878 -2.0016 0.9765
-0.0796 5.5965 -2.0016 0.9765
-0.4808 5.5764 -2.0016 0.9765
-0.6806 5.5556 -2.0016 0.9765
-1.0774 5.4924 -2.0016 0.9765
-1.2738 5.4502 -2.0016 0.9765
-1.6614 5.3448 -2.0016 0.9765
-2.2263 5.1353 -2.0016 0.9765
-2.7653 4.8663 -2.0016 0.9765
-2.9382 4.7639 -2.0016 0.9765
-3.1072 4.6554 -2.0016 0.9765
-3.4332 4.4205 -2.0016 0.9765
-3.5896 4.2944 -2.0016 0.9765
-3.7414 4.1628 -2.0016 0.9765
-3.8884 4.0259 -2.0016 0.9765
-4.1672 3.7366 -2.0016 0.9765
-4.5446 3.2671 -2.0016 0.9765
-4.7673 2.9327 -2.0016 0.9765
-4.8694 2.7597 -2.0016 0.9765
-4.9654 2.5832 -2.0016 0.9765
-5.0549 2.4033 -2.0016 0.9765
-5.3467 1.6553 -2.0016 0.9765
-5.4027 1.4623 -2.0016 0.9765
-5.4517 1.2675 -2.0016 0.9765
-5.4937 1.0710 -2.0016 0.9765
-5.5286 0.8732 -2.0016 0.9765
-5.5563 0.6742 -2.0016 0.9765
-5.5966 0.0731 -2.0016 0.9765
-5.5956 -0.1278 -2.0016 0.9765
-5.5874 -0.3285 -2.0016 0.9765
-5.5721 -0.5288 -2.0016 0.9765
-5.3303 -1.7074 -2.0016 0.9765
-5.2656 -1.8976 -2.0016 0.9765
-5.1941 -2.0854 -2.0016 0.9765
-4.6677 -2.2754 -1.8570 0.9782
-4.5830 -2.4415 -1.8570 0.9782
-3.8321 -3.5043 -1.8570 0.9782
-3.4333 -3.8959 -1.8570 0.9782
-3.1450 -4.1321 -1.8570 0.9782
-2.9946 -4.2423 -1.8570 0.9782
-2.8405 -4.3471 -1.8570 0.9782
-2.0188 -4.7843 -1.8570 0.9782
-1.6704 -4.9168 -1.8570 0.9782
-1.3135 -5.0239 -1.8570 0.9782
-1.1323 -5.0678 -1.8570 0.9782
-0.7659 -5.1360 -1.8570 0.9782
-0.5811 -5.1602 -1.8570 0.9782
-0.2094 -5.1886 -1.8570 0.9782
0.5352 -5.1651 -1.8570 0.9782
1.0872 -5.0777 -1.8570 0.9782
1.2687 -5.0354 -1.8570 0.9782
1.6267 -4.9314 -1.8570 0.9782
1.8026 -4.8699 -1.8570 0.9782
2.2045 -4.0537 -1.6501 0.9806
2.3924 -4.0461 -1.6809 0.9802
2.9568 -4.2688 -1.8570 0.9782
3.1081 -4.1599 -1.8570 0.9782
3.2554 -4.0457 -1.8570 0.9782
3.8126 -4.0977 -2.0016 0.9765
3.9572 -3.9583 -2.0016 0.9765
4.0967 -3.8137 -2.0016 0.9765
4.4829 -3.3513 -2.0016 0.9765
4.8171 -2.8501 -2.0016 0.9765
4.9163 -2.6754 -2.0016 0.9765
5.0955 -2.3158 -2.0016 0.9765
5.1753 -2.1315 -2.0016 0.9765
5.2485 -1.9444 -2.0016 0.9765
5.3149 -1.7548 -2.0016 0.9765
5.4271 -1.3690 -2.0016 0.9765
5.4727 -1.1734 -2.0016 0.9765
5.5428 -0.7778 -2.0016 0.9765
5.5671 -0.5784 -2.0016 0.9765
5.5843 -0.3782 -2.0016 0.9765
5.5943 -0.1775 -2.0016 0.9765
5.5970 0.0233 -2.0016 0.9765
5.5926 0.2242 -2.0016 0.9765
5.5810 0.4248 -2.0016 0.9765
5.5361 0.8240 -2.0016 0.9765
5.5030 1.0221 -2.0016 0.9765
5.4627 1.2190 -2.0016 0.9765
5.4155 1.4142 -2.0016 0.9765
5.3001 1.7990 -2.0016 0.9765
5.1574 2.1746 -2.0016 0.9765
4.8938 2.7163 -2.0016 0.9765
4.7932 2.8902 -2.0016 0.9765
4.6863 3.0603 -2.0016 0.9765
4.5735 3.2265 -2.0016 0.9765
4.4548 3.3886 -2.0016 0.9765
4.3303 3.5463 -2.0016 0.9765
3.9240 3.9912 -2.0016 0.9765
3.6276 4.2624 -2.0016 0.9765
3.4723 4.3898 -2.0016 0.9765
3.1485 4.6276 -2.0016 0.9765
2.8085 4.8415 -2.0016 0.9765
2.6329 4.9391 -2.0016 0.9765
2.2718 5.1153 -2.0016 0.9765
1.7089 5.3298 -2.0016 0.9765
1.5165 5.3877 -2.0016 0.9765
1.3222 5.4387 -2.0016 0.9765
1.1262 5.4826 -2.0016 0.9765
0.9287 5.5195 -2.0016 0.9765
0.5304 5.5719 -2.0016 0.9765
0.3301 5.5874 -2.0016 0.9765
-0.2724 5.5905 -2.0016 0.9765
-0.4728 5.5771 -2.0016 0.9765
-0.6727 5.5565 -2.0016 0.9765
-0.8717 5.5288 -2.0016 0.9765
-1.0695 5.4940 -2.0016 0.9765
-1.2660 5.4520 -2.0016 0.9765
-2.0331 5.2148 -2.0016 0.9765
-2.7584 4.8702 -2.0016 0.9765
-3.1006 4.6598 -2.0016 0.9765
-3.2658 4.5455 -2.0016 0.9765
-3.5835 4.2996 -2.0016 0.9765
-3.7355 4.1682 -2.0016 0.9765
-3.8826 4.0314 -2.0016 0.9765
-4.0248 3.8895 -2.0016 0.9765
-4.1618 3.7426 -2.0016 0.9765
-4.2934 3.5908 -2.0016 0.9765
-4.5400 3.2736 -2.0016 0.9765
-4.6545 3.1085 -2.0016 0.9765
-4.7631 2.9395 -2.0016 0.9765
-4.8655 2.7667 -2.0016 0.9765
-5.3444 1.6629 -2.0016 0.9765
-5.4006 1.4701 -2.0016 0.9765
-5.4499 1.2753 -2.0016 0.9765
-5.5763 0.4823 -2.0016 0.9765
-5.5965 0.0811 -2.0016 0.9765
-5.5879 -0.3205 -2.0016 0.9765
-5.5728 -0.5209 -2.0016 0.9765
-5.5505 -0.7205 -2.0016 0.9765
-5.5211 -0.9193 -2.0016 0.9765
-5.3327 -1.6998 -2.0016 0.9765
-5.1971 -2.0780 -2.0016 0.9765
-4.5865 -2.4349 -1.8570 0.9782
-4.4001 -2.7576 -1.8570 0.9782
-4.2983 -2.9138 -1.8570 0.9782
-4.1909 -3.0662 -1.8570 0.9782
-4.0782 -3.2146 -1.8570 0.9782
-3.8371 -3.4988 -1.8570 0.9782
-3.7091 -3.6343 -1.8570 0.9782
-3.4388 -3.8910 -1.8570 0.9782
-3.0007 -4.2380 -1.8570 0.9782
-2.8467 -4.3430 -1.8570 0.9782
-1.8527 -4.8510 -1.8570 0.9782
-1.3206 -5.0221 -1.8570 0.9782
-1.1396 -5.0662 -1.8570 0.9782
-0.9570 -5.1038 -1.8570 0.9782
-0.5884 -5.1593 -1.8570 0.9782
-0.4029 -5.1771 -1.8570 0.9782
-0.2169 -5.1883 -1.8570 0.9782
0.3420 -5.1815 -1.8570 0.9782
0.5278 -5.1659 -1.8570 0.9782
0.8970 -5.1147 -1.8570 0.9782
1.0799 -5.0793 -1.8570 0.9782
1.7956 -4.8725 -1.8570 0.9782
2.0005 -4.4216 -1.7355 0.9796
2.0544 -4.1386 -1.6523 0.9806
2.3846 -4.0461 -1.6795 0.9802
2.7955 -4.3761 -1.8570 0.9782
2.9507 -4.2730 -1.8570 0.9782
3.1021 -4.1643 -1.8570 0.9782
4.0912 -3.8196 -2.0016 0.9765
4.2257 -3.6703 -2.0016 0.9765
4.3547 -3.5163 -2.0016 0.9765
4.4781 -3.3577 -2.0016 0.9765
4.5957 -3.1949 -2.0016 0.9765
4.7074 -3.0279 -2.0016 0.9765
4.9124 -2.6824 -2.0016 0.9765
5.0922 -2.3231 -2.0016 0.9765
5.1723 -2.1389 -2.0016 0.9765
5.2457 -1.9519 -2.0016 0.9765
5.3124 -1.7624 -2.0016 0.9765
5.4251 -1.3768 -2.0016 0.9765
5.5663 -0.5863 -2.0016 0.9765
5.5838 -0.3862 -2.0016 0.9765
5.5940 -0.1855 -2.0016 0.9765
5.5816 0.4168 -2.0016 0.9765
5.5630 0.6168 -2.0016 0.9765
5.4645 1.2112 -2.0016 0.9765
5.4175 1.4065 -2.0016 0.9765
5.3027 1.7915 -2.0016 0.9765
4.8977 2.7093 -2.0016 0.9765
4.7973 2.8833 -2.0016 0.9765
4.4596 3.3822 -2.0016 0.9765
4.0702 3.8420 -2.0016 0.9765
3.7842 4.1240 -2.0016 0.9765
3.4786 4.3848 -2.0016 0.9765
3.3190 4.5068 -2.0016 0.9765
3.1551 4.6230 -2.0016 0.9765
2.9872 4.7333 -2.0016 0.9765
2.8154 4.8375 -2.0016 0.9765
2.4611 5.0269 -2.0016 0.9765
2.2792 5.1120 -2.0016 0.9765
2.0942 5.1905 -2.0016 0.9765
1.9066 5.2624 -2.0016 0.9765
2.9319 4.3225 -2.0016 0.9779
2.7749 4.4249 -2.0016 0.9779
2.2833 4.6975 -2.0016 0.9779
1.7651 4.9157 -2.0016 0.9779
1.0436 5.1177 -2.0016 0.9779
0.4875 5.2002 -2.0016 0.9779
0.3006 5.2144 -2.0016 0.9779
0.1132 5.2218 -2.0016 0.9779
-0.2616 5.2165 -2.0016 0.9779
-0.4487 5.2037 -2.0016 0.9779
-1.0054 5.1254 -2.0016 0.9779
-1.1887 5.0860 -2.0016 0.9779
-2.0775 4.7921 -2.0016 0.9779
-2.4159 4.6307 -2.0016 0.9779
-2.5805 4.5410 -2.0016 0.9779
-2.7418 4.4455 -2.0016 0.9779
-3.0536 4.2374 -2.0016 0.9779
-3.3497 4.0074 -2.0016 0.9779
-4.1288 3.1990 -2.0016 0.9779
-4.2409 3.0487 -2.0016 0.9779
-4.4487 2.7367 -2.0016 0.9779
-4.5440 2.5753 -2.0016 0.9779
-4.7945 2.0720 -2.0016 0.9779
-4.8658 1.8986 -2.0016 0.9779
-4.9307 1.7227 -2.0016 0.9779
-5.0416 1.3646 -2.0016 0.9779
-5.0873 1.1828 -2.0016 0.9779
-5.1591 0.8148 -2.0016 0.9779
-5.1850 0.6291 -2.0016 0.9779
-5.2042 0.4427 -2.0016 0.9779
-5.2226 0.0682 -2.0016 0.9779
-5.1997 -0.4935 -2.0016 0.9779
-5.0280 -1.4138 -2.0016 0.9779
-4.9137 -1.7708 -2.0016 0.9779
-4.8470 -1.9460 -2.0016 0.9779
-4.5677 -2.2267 -1.9473 0.9785
-4.2768 -2.2783 -1.8570 0.9795
-4.1922 -2.4303 -1.8570 0.9795
-4.1023 -2.5792 -1.8570 0.9795
-3.8013 -3.0052 -1.8570 0.9795
-3.6910 -3.1397 -1.8570 0.9795
-3.5760 -3.2701 -1.8570 0.9795
-3.2038 -3.6355 -1.8570 0.9795
-2.3528 -4.2362 -1.8570 0.9795
-2.1993 -4.3179 -1.8570 0.9795
-2.0429 -4.3941 -1.8570 0.9795
-1.8839 -4.4646 -1.8570 0.9795
-1.7225 -4.5293 -1.8570 0.9795
-1.3931 -4.6412 -1.8570 0.9795
-1.2257 -4.6882 -1.8570 0.9795
-0.5422 -4.8153 -1.8570 0.9795
-0.3691 -4.8317 -1.8570 0.9795
-0.1954 -4.8418 -1.8570 0.9795
-0.0215 -4.8457 -1.8570 0.9795
0.1524 -4.8434 -1.8570 0.9795
0.3261 -4.8348 -1.8570 0.9795
0.4994 -4.8200 -1.8570 0.9795
0.6721 -4.7989 -1.8570 0.9795
0.8438 -4.7717 -1.8570 0.9795
1.1839 -4.6989 -1.8570 0.9795
1.3518 -4.6534 -1.8570 0.9795
2.3656 -4.0007 -1.7811 0.9803
2.6145 -4.0799 -1.8570 0.9795
2.7592 -3.9835 -1.8570 0.9795
2.9004 -3.8819 -1.8570 0.9795
3.1714 -3.6639 -1.8570 0.9795
3.4260 -3.4269 -1.8570 0.9795
3.8229 -3.5588 -2.0016 0.9779
3.9482 -3.4194 -2.0016 0.9779
4.0683 -3.2755 -2.0016 0.9779
4.4952 -2.6596 -2.0016 0.9779
4.5877 -2.4966 -2.0016 0.9779
4.6744 -2.3303 -2.0016 0.9779
4.7550 -2.1611 -2.0016 0.9779
4.8977 -1.8144 -2.0016 0.9779
5.1070 -1.0949 -2.0016 0.9779
5.2188 0.2092 -2.0016 0.9779
5.1904 0.5830 -2.0016 0.9779
5.1661 0.7689 -2.0016 0.9779
5.1352 0.9538 -2.0016 0.9779
5.0977 1.1375 -2.0016 0.9779
5.0536 1.3197 -2.0016 0.9779
5.0029 1.5002 -2.0016 0.9779
4.9459 1.6788 -2.0016 0.9779
4.6548 2.3692 -2.0016 0.9779
4.4728 2.6970 -2.0016 0.9779
4.1570 3.1621 -2.0016 0.9779
4.0409 3.3093 -2.0016 0.9779
3.9195 3.4522 -2.0016 0.9779
3.3852 3.9775 -2.0016 0.9779
3.0912 4.2101 -2.0016 0.9779
2.9381 4.3183 -2.0016 0.9779
2.7812 4.4209 -2.0016 0.9779
2.4570 4.6091 -2.0016 0.9779
2.1200 4.7734 -2.0016 0.9779
1.9473 4.8464 -2.0016 0.9779
1.7722 4.9132 -2.0016 0.9779
1.5947 4.9736 -2.0016 0.9779
1.2338 5.0752 -2.0016 0.9779
0.8666 5.1506 -2.0016 0.9779
0.6812 5.1784 -2.0016 0.9779
0.4949 5.1995 -2.0016 0.9779
0.3080 5.2139 -2.0016 0.9779
0.1207 5.2216 -2.0016 0.9779
-0.6277 5.1852 -2.0016 0.9779
-0.8134 5.1593 -2.0016 0.9779
-1.1814 5.0877 -2.0016 0.9779
-1.3632 5.0420 -2.0016 0.9779
-1.5433 4.9898 -2.0016 0.9779
-2.0706 4.7951 -2.0016 0.9779
-2.2414 4.7177 -2.0016 0.9779
-2.4093 4.6342 -2.0016 0.9779
-2.5740 4.5447 -2.0016 0.9779
-2.7355 4.4494 -2.0016 0.9779
-3.0476 4.2417 -2.0016 0.9779
-3.4858 3.8896 -2.0016 0.9779
-3.7558 3.6296 -2.0016 0.9779
-4.1242 3.2049 -2.0016 0.9779
-4.5403 2.5818 -2.0016 0.9779
-4.6301 2.4172 -2.0016 0.9779
-4.7138 2.2494 -2.0016 0.9779
-4.7915 2.0788 -2.0016 0.9779
-4.8630 1.9055 -2.0016 0.9779
-4.9872 1.5518 -2.0016 0.9779
-5.0857 1.1901 -2.0016 0.9779
-5.1841 0.6366 -2.0016 0.9779
-5.2036 0.4501 -2.0016 0.9779
-5.2164 0.2631 -2.0016 0.9779
-5.2225 0.0757 -2.0016 0.9779
-5.2004 -0.4861 -2.0016 0.9779
-5.1796 -0.6724 -2.0016 0.9779
-5.1521 -0.8578 -2.0016 0.9779
-5.1180 -1.0422 -2.0016 0.9779
-4.9763 -1.5862 -2.0016 0.9779
-4.8497 -1.9391 -2.0016 0.9779
-4.7770 -2.1119 -2.0016 0.9779
-3.9108 -2.8612 -1.8570 0.9795
-3.8056 -2.9997 -1.8570 0.9795
-3.4612 -3.3914 -1.8570 0.9795
-3.0766 -3.7438 -1.8570 0.9795
-2.9403 -3.8518 -1.8570 0.9795
-2.8002 -3.9548 -1.8570 0.9795
-2.6564 -4.0527 -1.8570 0.9795
-2.5093 -4.1455 -1.8570 0.9795
-2.0492 -4.3911 -1.8570 0.9795
-1.7289 -4.5268 -1.8570 0.9795
-1.5654 -4.5860 -1.8570 0.9795
-1.3998 -4.6392 -1.8570 0.9795
-1.0634 -4.7276 -1.8570 0.9795
-0.8930 -4.7628 -1.8570 0.9795
-0.5491 -4.8145 -1.8570 0.9795
0.3192 -4.8352 -1.8570 0.9795
0.6652 -4.7999 -1.8570 0.9795
0.8370 -4.7729 -1.8570 0.9795
1.0078 -4.7398 -1.8570 0.9795
1.6756 -4.5468 -1.8570 0.9795
1.9975 -4.4149 -1.8570 0.9795
2.1680 -4.0001 -1.7436 0.9807
2.7535 -3.9874 -1.8570 0.9795
3.0324 -3.7796 -1.8570 0.9795
3.2957 -3.5524 -1.8570 0.9795
3.4211 -3.4318 -1.8570 0.9795
4.1788 -3.1333 -2.0016 0.9779
4.2886 -2.9813 -2.0016 0.9779
4.3928 -2.8255 -2.0016 0.9779
4.4914 -2.6660 -2.0016 0.9779
4.5841 -2.5031 -2.0016 0.9779
4.6710 -2.3370 -2.0016 0.9779
4.7519 -2.1679 -2.0016 0.9779
4.8266 -1.9959 -2.0016 0.9779
4.8951 -1.8214 -2.0016 0.9779
5.1054 -1.1022 -2.0016 0.9779
5.1713 -0.7332 -2.0016 0.9779
5.2202 -0.1731 -2.0016 0.9779
5.2085 0.3889 -2.0016 0.9779
5.1912 0.5756 -2.0016 0.9779
5.1672 0.7615 -2.0016 0.9779
5.1366 0.9465 -2.0016 0.9779
5.0993 1.1302 -2.0016 0.9779
5.0051 1.4931 -2.0016 0.9779
4.8851 1.8482 -2.0016 0.9779
4.8156 2.0224 -2.0016 0.9779
4.7399 2.1939 -2.0016 0.9779
4.6581 2.3626 -2.0016 0.9779
4.5703 2.5282 -2.0016 0.9779
4.4767 2.6906 -2.0016 0.9779
4.3772 2.8496 -2.0016 0.9779
4.2721 3.0048 -2.0016 0.9779
4.0456 3.3035 -2.0016 0.9779
3.7982 3.5852 -2.0016 0.9779
3.5313 3.8484 -2.0016 0.9779
3.2461 4.0918 -2.0016 0.9779
2.6272 4.5142 -2.0016 0.9779
2.4635 4.6055 -2.0016 0.9779
2.1268 4.7704 -2.0016 0.9779
1.9543 4.8436 -2.0016 0.9779
1.7792 4.9107 -2.0016 0.9779
2.5983 4.1432 -2.0016 0.9791
2.1379 4.3985 -2.0016 0.9791
1.8169 4.5405 -2.0016 0.9791
1.3183 4.7095 -2.0016 0.9791
0.8045 4.8239 -2.0016 0.9791
0.6309 4.8496 -2.0016 0.9791
0.2814 4.8824 -2.0016 0.9791
-0.2450 4.8844 -2.0016 0.9791
-0.5947 4.8542 -2.0016 0.9791
-0.9414 4.7991 -2.0016 0.9791
-1.1130 4.7622 -2.0016 0.9791
-1.2832 4.7192 -2.0016 0.9791
-1.6184 4.6150 -2.0016 0.9791
-1.7829 4.5539 -2.0016 0.9791
-2.2621 4.3359 -2.0016 0.9791
-3.3975 3.5177 -2.0016 0.9791
-3.7559 3.1321 -2.0016 0.9791
-3.8659 2.9953 -2.0016 0.9791
-3.9709 2.8546 -2.0016 0.9791
-4.2547 2.4113 -2.0016 0.9791
-4.3385 2.2571 -2.0016 0.9791
-4.4167 2.0999 -2.0016 0.9791
-4.4892 1.9400 -2.0016 0.9791
-4.5560 1.7777 -2.0016 0.9791
-4.6168 1.6130 -2.0016 0.9791
-4.6717 1.4463 -2.0016 0.9791
-1.9539 0.2371 -0.8056 0.9915
-1.9402 0.0951 -0.7950 0.9916
-1.9461 -0.1144 -0.7979 0.9916
