ply
format ascii 1.0
element vertex 1539
property float32 x
property float32 y
property float32 z
property float32 I
end_header
44.8319 13.3173 -0.2633 0.8294
35.9796 16.6029 -0.2231 0.8534
35.1894 22.8507 -0.2362 0.8455
35.1945 24.6938 -0.2421 0.8420
4.3691 15.3724 -0.0900 0.9381
1.7282 12.8850 -0.0732 0.9493
1.2523 12.8127 -0.0725 0.9498
-0.5702 12.3437 -0.0696 0.9518
-1.8777 12.1083 -0.0690 0.9522
-2.7306 11.8951 -0.0687 0.9524
-3.7369 12.1908 -0.0718 0.9503
-4.1072 11.8615 -0.0707 0.9510
-4.6282 11.9597 -0.0722 0.9500
-5.1523 12.0140 -0.0736 0.9491
-5.7706 12.2248 -0.0761 0.9474
-6.1397 11.8821 -0.0753 0.9479
-6.7465 11.9814 -0.0774 0.9465
-7.3508 12.0238 -0.0793 0.9452
-10.6234 11.9136 -0.0899 0.9381
-11.6323 12.1384 -0.0947 0.9350
-12.2773 11.9237 -0.0964 0.9338
-13.1023 11.8414 -0.0994 0.9318
-15.2620 11.9208 -0.1090 0.9255
-16.5016 11.9609 -0.1147 0.9217
-24.9414 11.9777 -0.1558 0.8952
-24.8296 -22.5314 -0.1888 0.8745
-21.3465 -22.3654 -0.1741 0.8837
-17.0575 -19.2071 -0.1446 0.9023
-16.0518 -22.5558 -0.1559 0.8952
-13.3132 -21.8758 -0.1442 0.9026
-11.6036 -22.5681 -0.1429 0.9035
-10.5164 -22.3955 -0.1393 0.9058
-6.8706 -22.5763 -0.1329 0.9099
-5.0873 -22.3683 -0.1291 0.9123
-3.4290 -22.4102 -0.1276 0.9133
-0.9901 -22.4170 -0.1263 0.9142
0.6251 -22.5971 -0.1273 0.9135
1.4270 -22.4237 -0.1265 0.9140
2.2575 -4.1886 -0.0268 0.9811
32.8843 -33.1413 -0.2629 0.8296
34.5051 -3.7145 -0.1954 0.8704
39.8320 13.3563 -0.2365 0.8453
36.0111 15.0273 -0.2197 0.8555
36.0006 16.5641 -0.2231 0.8534
35.1843 21.0388 -0.2308 0.8488
35.1892 22.7950 -0.2361 0.8456
35.1943 24.6353 -0.2419 0.8421
35.1997 26.5712 -0.2483 0.8383
4.3831 15.3564 -0.0899 0.9381
2.8512 13.6284 -0.0784 0.9458
2.2205 12.9097 -0.0738 0.9490
1.7419 12.8789 -0.0732 0.9493
1.2518 12.6618 -0.0716 0.9504
0.7878 12.5594 -0.0709 0.9509
0.3301 12.3377 -0.0695 0.9518
-0.5573 12.3632 -0.0697 0.9517
4.2847 15.1392 -0.4430 0.9390
2.7728 13.4025 -0.3854 0.9467
1.1989 12.4094 -0.3510 0.9513
0.7588 12.5437 -0.3538 0.9510
0.2959 12.0656 -0.3398 0.9529
-0.5728 12.1070 -0.3413 0.9527
-1.4060 11.7523 -0.3333 0.9537
-3.2380 12.0432 -0.3512 0.9513
-3.6813 11.9619 -0.3524 0.9512
-4.6119 11.8783 -0.3588 0.9503
-6.1819 11.9314 -0.3784 0.9476
-7.3234 11.9491 -0.3946 0.9455
-7.8496 11.8324 -0.3998 0.9448
-9.0820 11.7619 -0.4184 0.9423
-10.5723 11.8298 -0.4467 0.9385
-14.0942 11.8204 -0.5180 0.9290
-15.3824 11.9873 -0.5491 0.9249
-16.4300 11.8811 -0.5709 0.9221
-17.7917 11.9174 -0.6030 0.9179
-21.0694 12.0186 -0.6830 0.9075
-22.7154 11.8980 -0.7220 0.9025
-22.8178 -16.6484 -0.7953 0.8931
-21.1895 -22.2505 -0.8652 0.8843
-18.0140 -21.8627 -0.7977 0.8928
-14.5622 -22.1546 -0.7465 0.8993
-13.2799 -21.8759 -0.7206 0.9027
-10.4184 -22.2512 -0.6918 0.9064
-9.4705 -22.2754 -0.6816 0.9077
-8.5485 -22.2971 -0.6724 0.9089
-5.9062 -22.3448 -0.6508 0.9117
-5.0588 -22.3583 -0.6455 0.9124
-4.2506 -22.5123 -0.6451 0.9124
-3.3989 -22.3798 -0.6374 0.9134
-0.9644 -22.3993 -0.6313 0.9142
0.6447 -22.4042 -0.6311 0.9142
1.4508 -22.4042 -0.6322 0.9141
32.5983 -37.8628 -1.4068 0.8188
32.8301 -30.7247 -1.2661 0.8353
32.6269 -26.4104 -1.1820 0.8454
33.8514 -25.4462 -1.1925 0.8441
37.1341 -25.8815 -1.2745 0.8343
39.4808 -25.4618 -1.3228 0.8286
34.5411 -3.6795 -0.9781 0.8702
44.2888 13.1560 -1.3009 0.8312
39.1216 13.1665 -1.1623 0.8477
35.0947 13.2315 -1.0561 0.8606
35.9796 16.6029 -1.1158 0.8534
35.0480 17.7254 -1.1059 0.8546
33.4605 18.4595 -1.0760 0.8582
34.9785 26.4653 -1.2351 0.8390
34.3373 34.7460 -1.3755 0.8224
4.3039 15.1427 -0.4433 0.9389
3.3307 13.5507 -0.3929 0.9457
2.7097 13.0244 -0.3746 0.9482
1.7212 12.8333 -0.3646 0.9495
1.2120 12.4007 -0.3508 0.9514
0.7727 12.5420 -0.3538 0.9510
0.3097 12.0800 -0.3403 0.9528
-0.1242 12.1055 -0.3409 0.9527
-0.5579 12.0775 -0.3404 0.9528
-0.9878 12.0111 -0.3393 0.9529
-1.8415 11.8746 -0.3384 0.9531
-2.2843 11.8938 -0.3410 0.9527
-2.7742 12.0849 -0.3491 0.9516
-3.2238 12.0435 -0.3511 0.9513
-3.6688 11.9687 -0.3525 0.9511
-4.6010 11.8894 -0.3590 0.9503
-6.1753 11.9511 -0.3788 0.9476
-7.3201 11.9735 -0.3952 0.9454
-8.4401 11.8093 -0.4087 0.9436
-9.0703 11.7737 -0.4185 0.9423
-10.5638 11.8467 -0.4469 0.9385
-11.4868 11.9865 -0.4675 0.9357
-21.0624 12.0457 -0.6832 0.9075
-22.7004 11.9223 -0.7220 0.9025
-24.5607 -22.2874 -0.9339 0.8757
-22.8360 -22.2681 -0.8981 0.8802
-21.2373 -22.2510 -0.8661 0.8842
-17.0575 -19.2071 -0.7233 0.9023
-18.0548 -21.8626 -0.7984 0.8927
-16.0518 -22.5558 -0.7795 0.8951
-12.4537 -22.2222 -0.7173 0.9031
-11.4271 -22.2250 -0.7037 0.9048
-8.5767 -22.2965 -0.6727 0.9088
-6.7953 -22.3288 -0.6572 0.9108
-5.9327 -22.3443 -0.6510 0.9116
-5.0849 -22.3579 -0.6456 0.9123
-0.1846 -22.4025 -0.6308 0.9143
0.6198 -22.4042 -0.6311 0.9142
2.2575 -4.1886 -0.1340 0.9811
33.2204 -35.9753 -1.3788 0.8221
33.7729 -25.4459 -1.1907 0.8443
37.1367 -25.9447 -1.2756 0.8342
39.3840 -25.4616 -1.3206 0.8289
44.4682 13.1555 -1.3058 0.8306
39.2648 13.1661 -1.1661 0.8473
35.2126 13.2312 -1.0592 0.8603
33.4604 18.4109 -1.0754 0.8583
33.6617 21.8055 -1.1293 0.8517
34.9783 26.4040 -1.2340 0.8391
4.3231 15.1461 -0.4435 0.9389
3.3458 13.5470 -0.3929 0.9457
2.2377 13.0095 -0.3717 0.9485
0.3235 12.0915 -0.3406 0.9528
2.7406 13.2468 -0.6860 0.9473
2.1877 12.8906 -0.6631 0.9490
1.6724 12.5754 -0.6434 0.9505
0.7486 12.3749 -0.6287 0.9516
-1.4168 11.8425 -0.6049 0.9534
-1.8873 12.0810 -0.6201 0.9522
-2.3073 11.9417 -0.6168 0.9525
-3.2111 11.9430 -0.6272 0.9517
-4.1904 12.0585 -0.6474 0.9502
-5.6338 11.9005 -0.6677 0.9486
-7.3415 11.9787 -0.7125 0.9453
-7.8939 11.8991 -0.7242 0.9444
-8.5357 11.9151 -0.7433 0.9430
-9.1743 11.8813 -0.7613 0.9417
-9.8944 11.9050 -0.7851 0.9399
-10.5532 11.8084 -0.8032 0.9385
-11.4402 11.9113 -0.8376 0.9360
-13.0891 11.8030 -0.8938 0.9318
-14.1870 11.8982 -0.9390 0.9285
-15.2247 11.8644 -0.9789 0.9256
-17.8404 11.9500 -1.0890 0.9176
-21.0455 12.0050 -1.2287 0.9075
-24.1560 11.5674 -1.3583 0.8983
-33.4338 14.5592 -1.8494 0.8641
-36.7276 14.4485 -2.0016 0.8538
-37.2225 13.1211 -2.0016 0.8538
-37.6694 11.7767 -2.0016 0.8538
-38.7170 7.6596 -2.0016 0.8538
-39.1667 4.8626 -2.0016 0.8538
-39.3160 3.4537 -2.0016 0.8538
-39.4625 0.6246 -2.0016 0.8538
-39.3010 -3.6207 -2.0016 0.8538
-30.0968 -3.8664 -1.5389 0.8856
-38.9400 -6.4305 -2.0016 0.8538
-38.0232 -10.5787 -2.0016 0.8538
-37.6191 -11.9366 -2.0016 0.8538
-37.1664 -13.2790 -2.0016 0.8538
-35.5238 -17.1969 -2.0016 0.8538
-34.8838 -18.4608 -2.0016 0.8538
-34.1987 -19.7009 -2.0016 0.8538
-30.2111 -20.4225 -1.8494 0.8641
-22.7228 -16.5790 -1.4265 0.8935
-28.6683 -22.5371 -1.8494 0.8641
-26.4222 -22.3513 -1.7551 0.8706
-22.8805 -22.3612 -1.6225 0.8797
-21.2991 -22.3656 -1.5663 0.8836
-17.0691 -19.2633 -1.3053 0.9021
-16.9229 -22.1099 -1.4120 0.8945
-16.0140 -22.5559 -1.4029 0.8951
-12.5151 -22.3900 -1.3008 0.9024
-11.4820 -22.3928 -1.2762 0.9041
-10.4860 -22.3956 -1.2541 0.9057
-8.5882 -22.4009 -1.2167 0.9084
-7.6772 -22.3984 -1.2008 0.9095
-6.7900 -22.4009 -1.1871 0.9105
-4.2506 -22.5123 -1.1619 0.9123
-0.9651 -22.4171 -1.1379 0.9141
0.6199 -21.5406 -1.0929 0.9173
4.9608 -36.1273 -1.8494 0.8641
6.2542 -35.9259 -1.8494 0.8641
6.7961 -27.2800 -1.4258 0.8935
10.9090 -37.9298 -2.0016 0.8538
14.9226 -36.5375 -2.0016 0.8538
17.5052 -35.3729 -2.0016 0.8538
2.2629 -4.1875 -0.2414 0.9811
19.9975 -34.0261 -2.0016 0.8538
22.3868 -32.5039 -2.0016 0.8538
24.6607 -30.8144 -2.0016 0.8538
25.7508 -29.9094 -2.0016 0.8538
26.7500 -28.9036 -1.9973 0.8541
26.9656 -27.1161 -1.9394 0.8580
26.9880 -25.2572 -1.8746 0.8624
28.3440 -22.9435 -1.8494 0.8641
30.6459 -19.7641 -1.8494 0.8641
32.8908 -16.5052 -1.8663 0.8630
36.4539 -15.1256 -2.0016 0.8538
36.9733 -13.8076 -2.0016 0.8538
37.8685 -11.1198 -2.0016 0.8538
38.2432 -9.7535 -2.0016 0.8538
38.5686 -8.3747 -2.0016 0.8538
36.2479 -5.1829 -1.8570 0.8636
36.5263 -2.5694 -1.8570 0.8636
39.4442 -1.3547 -2.0016 0.8538
39.4674 0.0618 -2.0016 0.8538
39.4397 1.4783 -2.0016 0.8538
39.0523 5.7089 -2.0016 0.8538
37.3949 8.2426 -1.9420 0.8578
35.3068 9.1226 -1.8494 0.8641
34.9566 10.3839 -1.8494 0.8641
34.5614 11.6317 -1.8494 0.8641
34.1217 12.8647 -1.8494 0.8641
33.1110 15.2792 -1.8494 0.8641
32.5413 16.4577 -1.8494 0.8641
29.6404 17.7686 -1.7526 0.8707
30.5838 19.8600 -1.8494 0.8641
29.8513 20.9449 -1.8494 0.8641
29.0804 22.0027 -1.8494 0.8641
27.4270 24.0319 -1.8493 0.8641
27.2683 25.6802 -1.8996 0.8607
25.6569 29.9900 -2.0016 0.8538
23.4395 31.7532 -2.0016 0.8538
21.1014 33.3528 -2.0016 0.8538
19.8908 34.0886 -2.0016 0.8538
17.3942 35.4276 -2.0016 0.8538
14.8080 36.5841 -2.0016 0.8538
12.1456 37.5521 -2.0016 0.8538
4.0588 14.2803 -0.7529 0.9423
2.2002 12.8773 -0.6625 0.9490
1.7263 12.8712 -0.6586 0.9493
-0.1221 11.8969 -0.6034 0.9535
-0.9805 11.9216 -0.6066 0.9532
-1.4079 11.8804 -0.6067 0.9532
-1.8740 12.0842 -0.6202 0.9522
-2.3069 12.0110 -0.6203 0.9522
-2.7534 11.9943 -0.6241 0.9519
-3.1979 11.9470 -0.6272 0.9517
-4.1829 12.0802 -0.6483 0.9501
-4.5589 11.7805 -0.6406 0.9507
-5.6239 11.9138 -0.6681 0.9486
-9.1270 11.8474 -0.7585 0.9419
-10.5467 11.8276 -0.8037 0.9385
-15.2182 11.8866 -0.9793 0.9256
-16.3797 11.8725 -1.0259 0.9222
-19.0664 11.8319 -1.1380 0.9140
-20.7268 11.8538 -1.2109 0.9088
-36.7115 14.4894 -2.0016 0.8538
-38.0562 10.4595 -2.0016 0.8538
-38.7085 7.7027 -2.0016 0.8538
-39.3121 3.4975 -2.0016 0.8538
-39.4123 2.0843 -2.0016 0.8538
-39.4617 0.6684 -2.0016 0.8538
-39.3050 -3.5769 -2.0016 0.8538
-38.9471 -6.3872 -2.0016 0.8538
-38.6928 -7.7809 -2.0016 0.8538
-38.3886 -9.1646 -2.0016 0.8538
-38.0350 -10.5364 -2.0016 0.8538
-37.1812 -13.2376 -2.0016 0.8538
-36.6821 -14.5636 -2.0016 0.8538
-36.1358 -15.8707 -2.0016 0.8538
-34.2206 -19.6628 -2.0016 0.8538
-30.2338 -20.3889 -1.8494 0.8641
-22.9313 -22.3610 -1.6243 0.8796
-17.0575 -19.2071 -1.3027 0.9022
-18.0548 -21.8626 -1.4380 0.8926
-16.9228 -22.0588 -1.4100 0.8946
-14.5975 -22.1545 -1.3455 0.8992
-12.5477 -22.3899 -1.3016 0.9023
-11.5134 -22.3928 -1.2769 0.9041
-10.5164 -22.3955 -1.2548 0.9057
-9.5522 -22.3982 -1.2349 0.9071
-8.6168 -22.4008 -1.2172 0.9083
-7.7050 -22.3983 -1.2012 0.9095
-6.8172 -22.4008 -1.1875 0.9105
-3.4290 -22.4102 -1.1497 0.9132
-2.6101 -22.4125 -1.1443 0.9136
-1.7979 -22.4148 -1.1404 0.9139
-0.1848 -22.4193 -1.1370 0.9141
0.5960 -21.5454 -1.0931 0.9173
6.2142 -35.9329 -1.8494 0.8641
7.4998 -35.6867 -1.8494 0.8641
10.8668 -37.9419 -2.0016 0.8538
13.5605 -37.0647 -2.0016 0.8538
16.1843 -35.9964 -2.0016 0.8538
17.4658 -35.3924 -2.0016 0.8538
19.9596 -34.0483 -2.0016 0.8538
24.6264 -30.8418 -2.0016 0.8538
25.7175 -29.9381 -2.0016 0.8538
26.9874 -25.3130 -1.8765 0.8623
27.4757 -23.9766 -1.8494 0.8641
29.1248 -21.9439 -1.8494 0.8641
30.6239 -19.7982 -1.8494 0.8641
31.3147 -18.6863 -1.8494 0.8641
31.9652 -17.5504 -1.8494 0.8641
32.8331 -16.5220 -1.8640 0.8631
36.4371 -15.1662 -2.0016 0.8538
36.9579 -13.8487 -2.0016 0.8538
37.8561 -11.1619 -2.0016 0.8538
34.0703 -3.6677 -1.7378 0.8718
36.5234 -2.6100 -1.8570 0.8636
39.4426 -1.3986 -2.0016 0.8538
39.4413 1.4344 -2.0016 0.8538
39.3644 2.8490 -2.0016 0.8538
39.2368 4.2600 -2.0016 0.8538
35.3169 9.0833 -1.8494 0.8641
34.9681 10.3450 -1.8494 0.8641
32.5596 16.4215 -1.8494 0.8641
29.8746 20.9116 -1.8494 0.8641
29.1049 21.9704 -1.8494 0.8641
27.8572 22.6428 -1.8206 0.8661
27.2665 27.5297 -1.9650 0.8563
24.5984 30.8641 -2.0016 0.8538
21.1385 33.3293 -2.0016 0.8538
18.6932 34.7598 -2.0016 0.8538
14.8488 36.5676 -2.0016 0.8538
12.1874 37.5386 -2.0016 0.8538
4.2518 14.8966 -0.7856 0.9398
2.7652 13.2172 -0.6848 0.9474
2.2127 12.8640 -0.6620 0.9491
1.7401 12.8655 -0.6584 0.9493
1.2275 12.4157 -0.6327 0.9513
0.3298 12.3288 -0.6255 0.9518
-0.1086 11.8698 -0.6020 0.9536
7.7352 24.0070 -1.8494 0.9038
3.9810 14.0663 -1.0719 0.9431
3.2962 13.4748 -1.0171 0.9459
2.2089 13.0154 -0.9680 0.9484
-0.1376 12.0967 -0.8870 0.9526
-0.9977 11.9688 -0.8806 0.9530
-1.8454 11.8130 -0.8767 0.9532
-3.6669 11.9152 -0.9141 0.9512
-4.1145 11.8401 -0.9191 0.9510
-4.6587 11.9987 -0.9438 0.9497
-5.1054 11.8682 -0.9473 0.9495
-5.5916 11.8115 -0.9582 0.9489
-6.6895 11.8494 -0.9977 0.9469
-7.2935 11.9003 -1.0234 0.9456
-7.8677 11.8597 -1.0435 0.9445
-8.4977 11.8621 -1.0699 0.9432
-9.8839 11.8923 -1.1338 0.9399
-10.6946 11.9665 -1.1768 0.9377
-12.4002 12.0162 -1.2661 0.9331
-15.9216 11.5134 -1.4407 0.9242
-17.2012 11.5218 -1.5180 0.9203
-22.0580 11.5537 -1.8258 0.9050
-23.1250 10.0700 -1.8494 0.9038
-23.4715 9.2336 -1.8494 0.9038
-23.7877 8.3853 -1.8494 0.9038
-25.9798 8.1222 -1.9958 0.8966
-26.7792 5.2979 -2.0016 0.8963
-27.0902 3.3633 -2.0016 0.8963
-27.2948 0.4320 -2.0016 0.8963
-25.1199 -3.2271 -1.8570 0.9034
-24.9879 -4.1265 -1.8570 0.9034
-25.7067 -9.1846 -2.0016 0.8963
-25.3605 -10.1013 -2.0016 0.8963
-24.9816 -11.0050 -2.0016 0.8963
-19.2566 -16.2897 -1.8494 0.9038
-18.6595 -16.9703 -1.8494 0.9038
-18.0385 -17.6291 -1.8494 0.9038
-17.3941 -18.2651 -1.8494 0.9038
-16.7274 -18.8776 -1.8494 0.9038
-15.3301 -20.0289 -1.8494 0.9038
-12.3063 -22.0165 -1.8494 0.9038
-8.5882 -22.4009 -1.7591 0.9083
-6.7900 -22.4009 -1.7163 0.9104
-5.9217 -22.4033 -1.6991 0.9112
-5.0695 -22.4057 -1.6844 0.9120
-4.1677 -22.0730 -1.6470 0.9138
-3.4035 -22.4103 -1.6620 0.9131
-0.9651 -22.4171 -1.6452 0.9139
-0.1598 -22.4193 -1.6439 0.9140
1.4521 -22.4238 -1.6476 0.9138
2.5322 -25.0950 -1.8494 0.9038
3.4313 -24.9879 -1.8494 0.9038
4.3259 -24.8487 -1.8494 0.9038
5.2151 -24.6774 -1.8494 0.9038
8.4798 -25.9400 -2.0010 0.8963
9.4078 -25.6258 -2.0016 0.8963
12.1078 -24.4662 -2.0016 0.8963
2.2629 -4.1875 -0.3490 0.9811
13.8315 -23.5346 -2.0016 0.8963
14.6673 -23.0230 -2.0016 0.8963
16.2810 -21.9116 -2.0016 0.8963
17.0569 -21.3132 -2.0016 0.8963
19.2490 -19.3563 -2.0016 0.8963
21.2180 -17.1752 -2.0016 0.8963
22.9411 -14.7951 -2.0016 0.8963
25.2139 -10.4619 -2.0016 0.8963
25.8994 -8.6262 -2.0016 0.8963
26.1923 -7.6912 -2.0016 0.8963
26.4515 -6.7462 -2.0016 0.8963
26.6765 -5.7925 -2.0016 0.8963
26.8672 -4.8313 -2.0016 0.8963
27.0233 -3.8640 -2.0016 0.8963
27.1446 -2.8916 -2.0016 0.8963
27.2821 -0.9370 -2.0016 0.8963
27.2790 1.0225 -2.0016 0.8963
27.0111 3.9486 -2.0016 0.8963
26.8520 4.9155 -2.0016 0.8963
26.6583 5.8760 -2.0016 0.8963
25.1810 10.5408 -2.0016 0.8963
24.3600 12.3200 -2.0016 0.8963
23.4135 14.0357 -2.0016 0.8963
22.8946 14.8669 -2.0016 0.8963
22.3463 15.6790 -2.0016 0.8963
21.1640 17.2416 -2.0016 0.8963
20.5316 17.9901 -2.0016 0.8963
18.4790 20.0927 -2.0016 0.8963
17.7460 20.7428 -2.0016 0.8963
16.9901 21.3665 -2.0016 0.8963
15.4136 22.5302 -2.0016 0.8963
14.5951 23.0689 -2.0016 0.8963
13.7577 23.5778 -2.0016 0.8963
12.0310 24.5040 -2.0016 0.8963
7.4939 16.7581 -1.3460 0.9290
10.2422 25.3039 -2.0016 0.8963
9.3275 25.6552 -2.0016 0.8963
4.1165 14.4833 -1.1040 0.9414
3.3092 13.4630 -1.0165 0.9459
2.2101 12.9351 -0.9622 0.9487
-0.9836 11.9597 -0.8799 0.9530
-1.8597 11.9921 -0.8898 0.9525
-2.7689 12.0618 -0.9074 0.9516
-3.1900 11.9172 -0.9046 0.9517
-4.6557 12.0306 -0.9459 0.9496
-5.1020 11.8967 -0.9491 0.9494
-7.2170 11.8050 -1.0145 0.9460
-7.8564 11.8714 -1.0438 0.9445
-9.2271 11.9773 -1.1086 0.9412
-10.6823 11.9796 -1.1769 0.9377
-11.4529 11.9511 -1.2137 0.9358
-13.7284 11.5397 -1.3150 0.9306
-14.7305 11.5056 -1.3705 0.9278
-15.8840 11.5132 -1.4384 0.9243
-21.9977 11.5533 -1.8218 0.9051
-23.1137 10.0957 -1.8494 0.9038
-23.4612 9.2597 -1.8494 0.9038
-25.9648 8.1492 -1.9954 0.8966
-26.3221 7.2345 -2.0016 0.8963
-26.9472 4.3633 -2.0016 0.8963
-27.0864 3.3934 -2.0016 0.8963
-27.2571 -1.4967 -2.0016 0.8963
-25.6923 -2.3381 -1.8916 0.9017
-25.1235 -3.1991 -1.8570 0.9034
-24.9925 -4.0987 -1.8570 0.9034
-26.5520 -6.3388 -2.0016 0.8963
-25.3717 -10.0731 -2.0016 0.8963
-24.1420 -12.7418 -2.0016 0.8963
-23.1658 -14.4408 -2.0016 0.8963
-22.6326 -15.2629 -2.0016 0.8963
-22.0129 -16.0236 -1.9964 0.8965
-20.6283 -16.1795 -1.9222 0.9002
-18.6784 -16.9495 -1.8494 0.9038
-17.4145 -18.2457 -1.8494 0.9038
-16.0607 -19.4479 -1.8494 0.9038
-14.6243 -20.5499 -1.8494 0.9038
-12.3308 -22.0028 -1.8494 0.9038
-11.5134 -22.3928 -1.8462 0.9039
-10.5164 -22.3955 -1.8141 0.9055
-9.5522 -22.3982 -1.7854 0.9070
-6.8172 -22.4008 -1.7169 0.9104
-5.9483 -22.4032 -1.6996 0.9112
-4.1931 -22.0730 -1.6474 0.9138
-3.4290 -22.4102 -1.6623 0.9131
-2.6101 -22.4125 -1.6544 0.9135
-1.7979 -22.4148 -1.6488 0.9138
-0.9901 -22.4170 -1.6453 0.9139
1.4270 -22.4237 -1.6475 0.9138
2.5043 -25.0978 -1.8494 0.9038
3.4034 -24.9917 -1.8494 0.9038
4.2983 -24.8535 -1.8494 0.9038
5.1874 -24.6832 -1.8494 0.9038
6.0699 -24.4811 -1.8494 0.9038
6.9446 -24.2475 -1.8494 0.9038
9.3793 -25.6363 -2.0016 0.8963
12.0805 -24.4796 -2.0016 0.8963
16.2566 -21.9297 -2.0016 0.8963
17.0332 -21.3321 -2.0016 0.8963
18.5196 -20.0553 -2.0016 0.8963
19.2274 -19.3777 -2.0016 0.8963
19.9105 -18.6752 -2.0016 0.8963
21.8025 -16.4269 -2.0016 0.8963
22.3779 -15.6339 -2.0016 0.8963
22.9246 -14.8207 -2.0016 0.8963
23.4418 -13.9883 -2.0016 0.8963
23.9287 -13.1380 -2.0016 0.8963
24.8095 -11.3877 -2.0016 0.8963
25.2022 -10.4899 -2.0016 0.8963
25.5625 -9.5787 -2.0016 0.8963
26.6701 -5.8222 -2.0016 0.8963
27.1414 -2.9218 -2.0016 0.8963
27.2287 -1.9458 -2.0016 0.8963
27.2801 0.9921 -2.0016 0.8963
26.6648 5.8464 -2.0016 0.8963
26.4378 6.7996 -2.0016 0.8963
25.5538 9.6019 -2.0016 0.8963
24.7991 11.4102 -2.0016 0.8963
24.3737 12.2929 -2.0016 0.8963
23.4291 14.0096 -2.0016 0.8963
21.1832 17.2181 -2.0016 0.8963
20.5516 17.9673 -2.0016 0.8963
19.8935 18.6933 -2.0016 0.8963
19.2098 19.3952 -2.0016 0.8963
16.2367 21.9445 -2.0016 0.8963
14.6207 23.0526 -2.0016 0.8963
12.9294 24.0421 -2.0016 0.8963
12.0582 24.4906 -2.0016 0.8963
7.4795 16.6762 -1.3401 0.9293
10.2704 25.2925 -2.0016 0.8963
9.3560 25.6448 -2.0016 0.8963
7.7886 23.9897 -1.8494 0.9038
2.7628 13.2060 -0.9893 0.9473
2.2289 12.9582 -0.9641 0.9486
1.2241 12.3823 -0.9123 0.9513
0.7764 12.3773 -0.9093 0.9515
-0.1093 11.9437 -0.8758 0.9532
5.9076 18.3349 -1.8494 0.9255
2.7416 13.2516 -1.2992 0.9471
2.1930 12.9218 -1.2583 0.9487
1.6895 12.7042 -1.2304 0.9498
0.7532 12.4508 -1.1975 0.9511
-0.5699 12.0463 -1.1578 0.9527
-1.4320 11.9699 -1.1574 0.9527
-1.8696 11.9676 -1.1629 0.9525
-2.3075 11.9428 -1.1678 0.9523
-2.7617 11.9693 -1.1793 0.9518
-3.1832 11.8391 -1.1770 0.9519
-3.6788 11.9537 -1.2007 0.9510
-4.1771 12.0202 -1.2217 0.9502
-5.1577 11.9896 -1.2531 0.9489
-5.6112 11.8529 -1.2590 0.9487
-7.1573 11.6781 -1.3150 0.9464
-7.6018 11.4589 -1.3202 0.9462
-8.8544 11.4671 -1.3909 0.9434
-10.2565 11.4763 -1.4777 0.9400
-11.0272 11.4814 -1.5283 0.9380
-11.8538 11.4868 -1.5847 0.9358
-12.7449 11.4926 -1.6476 0.9334
-13.7110 11.4990 -1.7180 0.9306
-14.7646 11.5059 -1.7971 0.9275
-16.7323 9.5446 -1.8494 0.9255
-17.3739 8.3197 -1.8494 0.9255
-18.9121 8.2355 -1.9803 0.9205
-20.1092 5.5028 -2.0016 0.9196
-20.5841 3.3095 -2.0016 0.9196
-20.8443 -0.4184 -2.0016 0.9196
-20.7606 -1.9126 -2.0016 0.9196
-20.4347 -4.1330 -2.0016 0.9196
-20.2732 -4.8637 -2.0016 0.9196
-19.8721 -6.3054 -2.0016 0.9196
-19.6330 -7.0146 -2.0016 0.9196
-19.0793 -8.4049 -2.0016 0.9196
-18.7653 -9.0842 -2.0016 0.9196
-18.4272 -9.7518 -2.0016 0.9196
-18.0653 -10.4069 -2.0016 0.9196
-17.6802 -11.0486 -2.0016 0.9196
-15.9172 -13.4648 -2.0016 0.9196
-15.4237 -14.0274 -2.0016 0.9196
-14.3777 -15.0977 -2.0016 0.9196
-11.4892 -16.1826 -1.9054 0.9233
-10.6424 -16.1910 -1.8601 0.9251
-9.3987 -16.8147 -1.8494 0.9255
-8.7892 -17.1412 -1.8494 0.9255
-8.1683 -17.4456 -1.8494 0.9255
-7.5369 -17.7275 -1.8494 0.9255
-6.8958 -17.9866 -1.8494 0.9255
-4.2510 -18.7882 -1.8494 0.9255
-3.5740 -18.9287 -1.8494 0.9255
-2.8924 -19.0448 -1.8494 0.9255
-2.2070 -19.1363 -1.8494 0.9255
-1.5187 -19.2032 -1.8494 0.9255
0.4947 -17.1916 -1.6512 0.9332
1.2448 -19.2229 -1.8494 0.9255
3.9827 -18.8469 -1.8494 0.9255
4.6566 -18.6919 -1.8494 0.9255
5.5647 -19.3481 -1.9328 0.9223
6.4758 -19.8099 -2.0009 0.9197
7.8828 -19.3008 -2.0016 0.9196
9.2470 -18.6856 -2.0016 0.9196
2.2629 -4.1874 -0.4570 0.9811
13.0269 -16.2776 -2.0016 0.9196
13.6027 -15.7995 -2.0016 0.9196
15.7236 -13.6904 -2.0016 0.9196
16.6652 -12.5272 -2.0016 0.9196
17.5209 -11.2995 -2.0016 0.9196
17.9151 -10.6634 -2.0016 0.9196
18.2863 -10.0136 -2.0016 0.9196
19.2566 -7.9901 -2.0016 0.9196
20.0039 -5.8740 -2.0016 0.9196
20.5194 -3.6898 -2.0016 0.9196
20.7312 -2.2084 -2.0016 0.9196
20.7971 -1.4630 -2.0016 0.9196
20.8362 -0.7156 -2.0016 0.9196
20.8485 0.0327 -2.0016 0.9196
20.8339 0.7809 -2.0016 0.9196
20.7924 1.5281 -2.0016 0.9196
20.7242 2.2734 -2.0016 0.9196
20.6292 3.0157 -2.0016 0.9196
20.5077 3.7541 -2.0016 0.9196
20.3598 4.4877 -2.0016 0.9196
19.5081 7.3550 -2.0016 0.9196
18.6045 9.4092 -2.0016 0.9196
18.2548 10.0708 -2.0016 0.9196
17.0666 11.9746 -2.0016 0.9196
16.6258 12.5794 -2.0016 0.9196
15.6806 13.7396 -2.0016 0.9196
15.1774 14.2935 -2.0016 0.9196
14.6547 14.8291 -2.0016 0.9196
14.1130 15.3455 -2.0016 0.9196
13.5532 15.8421 -2.0016 0.9196
12.9759 16.3183 -2.0016 0.9196
10.5072 18.0072 -2.0016 0.9196
9.8542 18.3727 -2.0016 0.9196
9.1884 18.7145 -2.0016 0.9196
7.2275 17.8559 -1.8494 0.9255
6.5820 18.1038 -1.8494 0.9255
5.9280 18.3283 -1.8494 0.9255
3.8248 13.4571 -1.3431 0.9453
2.7487 13.2116 -1.2955 0.9472
2.2055 12.9080 -1.2572 0.9487
0.7662 12.4358 -1.1962 0.9512
0.3064 11.9516 -1.1478 0.9531
-0.1221 11.8929 -1.1418 0.9533
-1.4177 11.9633 -1.1566 0.9527
-2.2988 11.9688 -1.1701 0.9522
-2.7494 11.9770 -1.1798 0.9518
-3.6620 11.9463 -1.1996 0.9510
-4.1701 12.0433 -1.2236 0.9501
-4.5935 11.8699 -1.2219 0.9501
-5.1669 12.0479 -1.2585 0.9487
-5.6034 11.8704 -1.2602 0.9486
-7.5834 11.4588 -1.3192 0.9463
-8.1924 11.4628 -1.3527 0.9450
-10.2334 11.4762 -1.4762 0.9401
-11.8273 11.4866 -1.5829 0.9359
-14.7305 11.5056 -1.7945 0.9276
-17.3646 8.3390 -1.8494 0.9255
-19.3927 7.6540 -2.0016 0.9196
-19.6549 6.9530 -2.0016 0.9196
-19.8918 6.2431 -2.0016 0.9196
-20.4476 4.0689 -2.0016 0.9196
-20.5805 3.3324 -2.0016 0.9196
-20.7665 1.8475 -2.0016 0.9196
-20.8194 1.1010 -2.0016 0.9196
-20.8455 0.3531 -2.0016 0.9196
-20.8448 -0.3953 -2.0016 0.9196
-20.7627 -1.8895 -2.0016 0.9196
-20.6815 -2.6335 -2.0016 0.9196
-20.4393 -4.1102 -2.0016 0.9196
-20.2786 -4.8411 -2.0016 0.9196
-20.0918 -5.5658 -2.0016 0.9196
-19.8791 -6.2833 -2.0016 0.9196
-19.6408 -6.9927 -2.0016 0.9196
-19.3772 -7.6931 -2.0016 0.9196
-19.0886 -8.3836 -2.0016 0.9196
-18.7754 -9.0633 -2.0016 0.9196
-18.4381 -9.7313 -2.0016 0.9196
-17.6925 -11.0289 -2.0016 0.9196
-16.4045 -12.8667 -2.0016 0.9196
-15.4393 -14.0103 -2.0016 0.9196
-14.3946 -15.0817 -2.0016 0.9196
-12.4074 -16.1731 -1.9570 0.9214
-11.5162 -16.1824 -1.9068 0.9233
-10.6680 -16.1908 -1.8615 0.9250
-10.0145 -16.4554 -1.8494 0.9255
-8.1877 -17.4365 -1.8494 0.9255
-7.5567 -17.7191 -1.8494 0.9255
-6.9159 -17.9789 -1.8494 0.9255
-6.2661 -18.2155 -1.8494 0.9255
-5.6084 -18.4287 -1.8494 0.9255
-4.2720 -18.7835 -1.8494 0.9255
-3.5951 -18.9247 -1.8494 0.9255
-2.9135 -19.0415 -1.8494 0.9255
-2.2283 -19.1339 -1.8494 0.9255
-0.1588 -19.2625 -1.8494 0.9255
1.2234 -19.2243 -1.8494 0.9255
2.5993 -19.0870 -1.8494 0.9255
7.1633 -19.5793 -2.0016 0.9196
7.8613 -19.3096 -2.0016 0.9196
8.5493 -19.0150 -2.0016 0.9196
9.2262 -18.6959 -2.0016 0.9196
2.2574 -4.1885 -0.4568 0.9811
10.5436 -17.9859 -2.0016 0.9196
12.4157 -16.7484 -2.0016 0.9196
13.0088 -16.2920 -2.0016 0.9196
14.1440 -15.3169 -2.0016 0.9196
15.7084 -13.7079 -2.0016 0.9196
16.1902 -13.1353 -2.0016 0.9196
17.0908 -11.9401 -2.0016 0.9196
17.5083 -11.3190 -2.0016 0.9196
18.9478 -8.6971 -2.0016 0.9196
19.2478 -8.0115 -2.0016 0.9196
19.5229 -7.3155 -2.0016 0.9196
20.1961 -5.1747 -2.0016 0.9196
20.5153 -3.7127 -2.0016 0.9196
20.7955 -1.4861 -2.0016 0.9196
20.8354 -0.7388 -2.0016 0.9196
20.8347 0.7577 -2.0016 0.9196
20.7267 2.2503 -2.0016 0.9196
20.5119 3.7313 -2.0016 0.9196
19.9920 5.9144 -2.0016 0.9196
19.5162 7.3333 -2.0016 0.9196
18.6149 9.3885 -2.0016 0.9196
18.2660 10.0505 -2.0016 0.9196
17.8935 10.6996 -2.0016 0.9196
17.0799 11.9556 -2.0016 0.9196
15.6959 13.7222 -2.0016 0.9196
14.6711 14.8127 -2.0016 0.9196
13.5708 15.8270 -2.0016 0.9196
12.4005 16.7597 -2.0016 0.9196
11.7890 17.1940 -2.0016 0.9196
11.1663 17.6061 -2.0016 0.9196
10.5273 17.9955 -2.0016 0.9196
9.8746 18.3617 -2.0016 0.9196
9.2092 18.7043 -2.0016 0.9196
7.2474 17.8478 -1.8494 0.9255
6.6021 18.0964 -1.8494 0.9255
5.9484 18.3217 -1.8494 0.9255
0.7791 12.4208 -1.1948 0.9512
0.3194 11.9371 -1.1464 0.9531
-0.1084 11.8471 -1.1374 0.9535
-0.5418 12.0199 -1.1551 0.9528
3.2257 13.1869 -1.6126 0.9468
2.6770 12.9394 -1.5696 0.9482
2.1561 12.7044 -1.5307 0.9494
1.1851 12.2664 -1.4639 0.9516
0.7296 12.0610 -1.4353 0.9525
0.2909 11.8631 -1.4096 0.9533
-0.5399 11.4126 -1.3572 0.9550
-1.3660 11.4180 -1.3660 0.9547
-1.7841 11.4208 -1.3731 0.9545
-2.6364 11.4264 -1.3930 0.9539
-3.0730 11.4292 -1.4058 0.9534
-3.5183 11.4322 -1.4208 0.9530
-3.9738 11.4351 -1.4380 0.9524
-4.9218 11.4414 -1.4795 0.9511
-6.4649 11.4515 -1.5621 0.9484
-8.8544 11.4671 -1.7209 0.9433
-9.5342 11.4716 -1.7719 0.9417
-10.2565 11.4763 -1.8283 0.9399
-10.7845 11.2287 -1.8494 0.9392
-11.9290 10.0045 -1.8494 0.9392
-12.2803 9.5699 -1.8494 0.9392
-12.6159 9.1230 -1.8494 0.9392
-14.4393 8.2366 -1.9746 0.9352
-14.9224 7.8161 -2.0010 0.9344
-15.8917 5.6019 -2.0016 0.9344
-16.0825 5.0279 -2.0016 0.9344
-16.2526 4.4475 -2.0016 0.9344
-16.4018 3.8613 -2.0016 0.9344
-16.7855 1.4745 -2.0016 0.9344
-16.8276 0.8712 -2.0016 0.9344
-16.8480 0.2667 -2.0016 0.9344
-16.8468 -0.3382 -2.0016 0.9344
-16.8238 -0.9426 -2.0016 0.9344
-16.7791 -1.5458 -2.0016 0.9344
-16.7128 -2.1470 -2.0016 0.9344
-16.6250 -2.7454 -2.0016 0.9344
-16.5157 -3.3403 -2.0016 0.9344
-16.0610 -5.0962 -2.0016 0.9344
-15.8678 -5.6693 -2.0016 0.9344
-15.4202 -6.7930 -2.0016 0.9344
-15.1665 -7.3420 -2.0016 0.9344
-14.8932 -7.8816 -2.0016 0.9344
-13.9598 -9.4367 -2.0016 0.9344
-12.0508 -11.7773 -2.0016 0.9344
-11.6204 -12.2022 -2.0016 0.9344
-10.2415 -13.3806 -2.0016 0.9344
-8.7440 -14.4038 -2.0016 0.9344
-7.6882 -14.9940 -2.0016 0.9344
-7.1451 -15.2602 -2.0016 0.9344
-6.0313 -15.7315 -2.0013 0.9344
-3.6588 -16.1708 -1.9694 0.9354
-3.0538 -16.1734 -1.9551 0.9359
-2.4566 -16.1756 -1.9435 0.9362
-1.8657 -16.1773 -1.9344 0.9365
-1.2798 -16.1823 -1.9282 0.9367
-0.1160 -16.2732 -1.9331 0.9366
1.6852 -16.7012 -1.9939 0.9346
2.8899 -16.6005 -2.0016 0.9344
3.4838 -16.4861 -2.0016 0.9344
5.2357 -16.0161 -2.0016 0.9344
5.8071 -15.8179 -2.0016 0.9344
6.3710 -15.5993 -2.0016 0.9344
6.9268 -15.3606 -2.0016 0.9344
7.4736 -15.1021 -2.0016 0.9344
9.0536 -14.2113 -2.0016 0.9344
9.5578 -13.8772 -2.0016 0.9344
10.5286 -13.1558 -2.0016 0.9344
10.9940 -12.7695 -2.0016 0.9344
11.4452 -12.3667 -2.0016 0.9344
11.8817 -11.9479 -2.0016 0.9344
12.3028 -11.5138 -2.0016 0.9344
12.7081 -11.0649 -2.0016 0.9344
13.4691 -10.1248 -2.0016 0.9344
13.8238 -9.6348 -2.0016 0.9344
14.1607 -9.1325 -2.0016 0.9344
14.7793 -8.0932 -2.0016 0.9344
15.0603 -7.5575 -2.0016 0.9344
15.7853 -5.8950 -2.0016 0.9344
15.9867 -5.3247 -2.0016 0.9344
16.3275 -4.1642 -2.0016 0.9344
16.5842 -2.9822 -2.0016 0.9344
16.7554 -1.7849 -2.0016 0.9344
16.8402 -0.5784 -2.0016 0.9344
16.7497 1.8374 -2.0016 0.9344
16.5747 3.0342 -2.0016 0.9344
16.1526 4.7981 -2.0016 0.9344
15.7668 5.9444 -2.0016 0.9344
15.0365 7.6047 -2.0016 0.9344
14.7539 8.1394 -2.0016 0.9344
14.4523 8.6637 -2.0016 0.9344
14.1320 9.1768 -2.0016 0.9344
13.7935 9.6781 -2.0016 0.9344
13.4373 10.1669 -2.0016 0.9344
12.6734 11.1046 -2.0016 0.9344
12.2667 11.5523 -2.0016 0.9344
11.8442 11.9851 -2.0016 0.9344
10.9539 12.8039 -2.0016 0.9344
10.0072 13.5567 -2.0016 0.9344
9.5143 13.9071 -2.0016 0.9344
8.4909 14.5515 -2.0013 0.9344
7.3587 13.7200 -1.8494 0.9392
6.8615 13.9753 -1.8494 0.9392
5.8414 14.4315 -1.8494 0.9392
5.3197 14.6318 -1.8494 0.9392
3.2432 13.1948 -1.6140 0.9467
2.1719 12.7115 -1.5318 0.9494
0.7434 12.0672 -1.4361 0.9525
0.3043 11.8691 -1.4103 0.9533
-0.1199 11.6778 -1.3872 0.9540
-0.9388 11.4153 -1.3605 0.9549
-1.7711 11.4207 -1.3728 0.9545
-2.6230 11.4263 -1.3926 0.9539
-3.0593 11.4291 -1.4054 0.9535
-3.5043 11.4321 -1.4203 0.9530
-3.9595 11.4350 -1.4374 0.9524
-4.4264 11.4381 -1.4569 0.9518
-5.4023 11.4445 -1.5033 0.9503
-6.4480 11.4514 -1.5611 0.9484
-7.0031 11.4550 -1.5948 0.9474
-7.5834 11.4588 -1.6322 0.9462
-9.5125 11.4714 -1.7702 0.9417
-10.7720 11.2407 -1.8494 0.9392
-11.9178 10.0177 -1.8494 0.9392
-12.2697 9.5835 -1.8494 0.9392
-12.6057 9.1370 -1.8494 0.9392
-13.3069 8.2578 -1.8603 0.9389
-15.1894 7.2944 -2.0016 0.9344
-16.2477 4.4656 -2.0016 0.9344
-16.3975 3.8796 -2.0016 0.9344
-16.5261 3.2886 -2.0016 0.9344
-16.6335 2.6933 -2.0016 0.9344
-16.7195 2.0946 -2.0016 0.9344
-16.8477 0.2854 -2.0016 0.9344
-16.8248 -0.9239 -2.0016 0.9344
-16.7152 -2.1284 -2.0016 0.9344
-16.5194 -3.3220 -2.0016 0.9344
-16.2386 -4.4984 -2.0016 0.9344
-16.0667 -5.0783 -2.0016 0.9344
-15.6610 -6.2177 -2.0016 0.9344
-15.4278 -6.7758 -2.0016 0.9344
-15.1746 -7.3251 -2.0016 0.9344
-13.9703 -9.4212 -2.0016 0.9344
-13.2585 -10.3991 -2.0016 0.9344
-11.6340 -12.1893 -2.0016 0.9344
-10.2564 -13.3692 -2.0016 0.9344
-9.7700 -13.7286 -2.0016 0.9344
-9.2709 -14.0704 -2.0016 0.9344
-8.7600 -14.3941 -2.0016 0.9344
-8.2377 -14.6992 -2.0016 0.9344
-6.0491 -15.7256 -2.0014 0.9344
-5.4723 -15.9079 -1.9983 0.9345
-3.6777 -16.1707 -1.9699 0.9354
-1.2979 -16.1818 -1.9283 0.9367
-0.1341 -16.2707 -1.9328 0.9366
1.0505 -16.5077 -1.9649 0.9355
1.6657 -16.6941 -1.9929 0.9347
2.2697 -16.6668 -1.9981 0.9345
2.8714 -16.6037 -2.0016 0.9344
3.4655 -16.4899 -2.0016 0.9344
5.2178 -16.0219 -2.0016 0.9344
5.7895 -15.8243 -2.0016 0.9344
6.3537 -15.6064 -2.0016 0.9344
6.9097 -15.3683 -2.0016 0.9344
7.4568 -15.1104 -2.0016 0.9344
2.2574 -4.1885 -0.5652 0.9810
8.5215 -14.5365 -2.0016 0.9344
10.9798 -12.7817 -2.0016 0.9344
12.6958 -11.0790 -2.0016 0.9344
13.0853 -10.6162 -2.0016 0.9344
13.4578 -10.1397 -2.0016 0.9344
13.8131 -9.6502 -2.0016 0.9344
14.4698 -8.6345 -2.0016 0.9344
14.7703 -8.1096 -2.0016 0.9344
15.0518 -7.5743 -2.0016 0.9344
15.5564 -6.4750 -2.0016 0.9344
15.7788 -5.9125 -2.0016 0.9344
15.9808 -5.3424 -2.0016 0.9344
16.1622 -4.7655 -2.0016 0.9344
16.4625 -3.5938 -2.0016 0.9344
16.8073 -1.2011 -2.0016 0.9344
16.8502 0.0076 -2.0016 0.9344
16.8390 0.6124 -2.0016 0.9344
16.7517 1.8187 -2.0016 0.9344
16.5781 3.0157 -2.0016 0.9344
16.4592 3.6088 -2.0016 0.9344
16.1579 4.7801 -2.0016 0.9344
15.9759 5.3570 -2.0016 0.9344
15.7734 5.9269 -2.0016 0.9344
15.3076 7.0431 -2.0016 0.9344
15.0450 7.5879 -2.0016 0.9344
14.1422 9.1611 -2.0016 0.9344
13.8043 9.6628 -2.0016 0.9344
13.4486 10.1520 -2.0016 0.9344
12.2795 11.5387 -2.0016 0.9344
11.8575 11.9719 -2.0016 0.9344
10.9682 12.7917 -2.0016 0.9344
10.0223 13.5455 -2.0016 0.9344
9.5297 13.8965 -2.0016 0.9344
9.0248 14.2296 -2.0016 0.9344
8.5083 14.5443 -2.0016 0.9344
6.8771 13.9676 -1.8494 0.9392
6.3714 14.2054 -1.8494 0.9392
5.8575 14.4250 -1.8494 0.9392
3.8433 13.4655 -1.6634 0.9452
2.7101 12.9543 -1.5721 0.9481
0.7573 12.0735 -1.4370 0.9524
0.3177 11.8752 -1.4111 0.9533
-0.1069 11.6836 -1.3879 0.9540
-0.5183 11.4981 -1.3672 0.9547
3.5544 12.5589 -1.8494 0.9486
2.1561 12.7044 -1.8258 0.9493
1.6598 12.4806 -1.7839 0.9504
1.1851 12.2664 -1.7461 0.9514
0.2909 11.8631 -1.6814 0.9532
-1.3660 11.4180 -1.6294 0.9546
-2.2072 11.4236 -1.6485 0.9541
-2.6364 11.4264 -1.6615 0.9537
-3.0730 11.4292 -1.6769 0.9533
-3.9738 11.4351 -1.7153 0.9523
-4.4411 11.4382 -1.7385 0.9516
-5.4179 11.4446 -1.7941 0.9501
-6.4166 11.3661 -1.8494 0.9486
-6.8204 11.1284 -1.8494 0.9486
-7.9771 10.3309 -1.8494 0.9486
-8.3427 10.0379 -1.8494 0.9486
-8.6976 9.7320 -1.8494 0.9486
-9.0413 9.4136 -1.8494 0.9486
-9.3733 9.0831 -1.8494 0.9486
-10.5867 8.2501 -1.9017 0.9472
-11.7294 7.8567 -2.0003 0.9446
-12.0113 7.4353 -2.0016 0.9445
-12.5137 6.5545 -2.0016 0.9445
-12.9517 5.6400 -2.0016 0.9445
-13.4829 4.2152 -2.0016 0.9445
-13.8578 2.7416 -2.0016 0.9445
-13.9473 2.2424 -2.0016 0.9445
-14.0188 1.7404 -2.0016 0.9445
-14.1075 0.7303 -2.0016 0.9445
-14.1246 0.2236 -2.0016 0.9445
-13.8460 -2.8004 -2.0016 0.9445
-12.6264 -3.5129 -1.8570 0.9484
-12.1757 -4.8497 -1.8570 0.9484
-11.9938 -5.2835 -1.8570 0.9484
-12.7149 -6.1552 -2.0016 0.9445
-11.4118 -8.3263 -2.0016 0.9445
-8.5860 -11.2177 -2.0016 0.9445
-8.1779 -11.5186 -2.0016 0.9445
-6.8924 -12.3308 -2.0016 0.9445
-5.9901 -12.7935 -2.0016 0.9445
-5.0570 -13.1902 -2.0016 0.9445
-3.6099 -13.6574 -2.0016 0.9445
-2.6210 -13.8811 -2.0016 0.9445
-1.6185 -14.0334 -2.0016 0.9445
-0.1007 -14.1260 -2.0016 0.9445
2.4228 -13.9171 -2.0016 0.9445
2.9207 -13.8212 -2.0016 0.9445
3.9046 -13.5761 -2.0016 0.9445
4.3893 -13.4272 -2.0016 0.9445
4.8684 -13.2610 -2.0016 0.9445
5.3412 -13.0777 -2.0016 0.9445
2.2628 -4.1874 -0.6744 0.9810
7.1576 -12.1788 -2.0016 0.9445
7.5901 -11.9141 -2.0016 0.9445
8.0128 -11.6340 -2.0016 0.9445
8.8267 -11.0293 -2.0016 0.9445
10.3141 -9.6527 -2.0016 0.9445
10.6539 -9.2763 -2.0016 0.9445
11.5893 -8.0774 -2.0016 0.9445
12.6258 -6.3359 -2.0016 0.9445
12.8451 -5.8786 -2.0016 0.9445
13.2337 -4.9421 -2.0016 0.9445
13.4026 -4.4639 -2.0016 0.9445
13.5541 -3.9801 -2.0016 0.9445
13.6882 -3.4910 -2.0016 0.9445
13.8047 -2.9975 -2.0016 0.9445
13.9034 -2.5001 -2.0016 0.9445
13.9842 -1.9995 -2.0016 0.9445
14.0469 -1.4964 -2.0016 0.9445
14.0916 -0.9913 -2.0016 0.9445
14.1181 -0.4849 -2.0016 0.9445
14.1264 0.0221 -2.0016 0.9445
14.1165 0.5291 -2.0016 0.9445
13.9778 2.0434 -2.0016 0.9445
13.8955 2.5437 -2.0016 0.9445
13.5416 4.0225 -2.0016 0.9445
13.2182 4.9835 -2.0016 0.9445
12.6059 6.3754 -2.0016 0.9445
11.8476 7.6934 -2.0016 0.9445
11.5639 8.1137 -2.0016 0.9445
11.2652 8.5235 -2.0016 0.9445
9.9296 10.0478 -2.0016 0.9445
8.7921 11.0569 -2.0016 0.9445
7.9763 11.6591 -2.0016 0.9445
7.5527 11.9378 -2.0016 0.9445
7.0934 12.1566 -1.9942 0.9447
4.4598 12.2667 -1.8494 0.9486
3.5684 12.5550 -1.8494 0.9486
3.1155 12.6750 -1.8494 0.9486
2.1719 12.7115 -1.8272 0.9492
1.1995 12.2729 -1.7472 0.9514
0.7434 12.0672 -1.7130 0.9523
-0.5272 11.4126 -1.6188 0.9549
-0.9388 11.4153 -1.6229 0.9548
-1.3531 11.4180 -1.6291 0.9546
-1.3582 8.7581 -1.2558 0.9648
-3.0593 11.4291 -1.6764 0.9533
-5.4023 11.4445 -1.7931 0.9502
-5.9153 11.4479 -1.8258 0.9493
-6.4040 11.3732 -1.8494 0.9486
-7.2033 10.8845 -1.8494 0.9486
-9.0308 9.4237 -1.8494 0.9486
-9.3632 9.0935 -1.8494 0.9486
-9.6835 8.7516 -1.8494 0.9486
-9.9914 8.3984 -1.8494 0.9486
-10.5631 8.2506 -1.8991 0.9473
-11.7195 7.8689 -2.0001 0.9446
-12.2626 7.0130 -2.0016 0.9445
-12.5064 6.5684 -2.0016 0.9445
-12.7341 6.1153 -2.0016 0.9445
-12.9454 5.6544 -2.0016 0.9445
-13.3176 4.7112 -2.0016 0.9445
-13.4782 4.2302 -2.0016 0.9445
-13.6213 3.7437 -2.0016 0.9445
-13.8548 2.7570 -2.0016 0.9445
-13.9448 2.2580 -2.0016 0.9445
-14.1067 0.7460 -2.0016 0.9445
-14.1244 0.2393 -2.0016 0.9445
-14.0133 -1.7844 -2.0016 0.9445
-12.4966 -3.9499 -1.8570 0.9484
-12.3468 -4.3958 -1.8570 0.9484
-12.7217 -6.1411 -2.0016 0.9445
-11.9880 -7.4729 -2.0016 0.9445
-11.7120 -7.8983 -2.0016 0.9445
-11.1153 -8.7181 -2.0016 0.9445
-10.7952 -9.1114 -2.0016 0.9445
-10.4613 -9.4930 -2.0016 0.9445
-9.7534 -10.2190 -2.0016 0.9445
-9.3803 -10.5624 -2.0016 0.9445
-8.9952 -10.8923 -2.0016 0.9445
-6.9061 -12.3232 -2.0016 0.9445
-6.4594 -12.5631 -2.0016 0.9445
-6.0044 -12.7868 -2.0016 0.9445
-5.5416 -12.9941 -2.0016 0.9445
-5.0717 -13.1846 -2.0016 0.9445
-4.5952 -13.3581 -2.0016 0.9445
-3.6251 -13.6533 -2.0016 0.9445
-3.1328 -13.7746 -2.0016 0.9445
-2.1366 -13.9639 -2.0016 0.9445
-1.1294 -14.0812 -2.0016 0.9445
0.3906 -14.1210 -2.0016 0.9445
0.8972 -14.0979 -2.0016 0.9445
2.4073 -13.9198 -2.0016 0.9445
2.9053 -13.8244 -2.0016 0.9445
4.3744 -13.4321 -2.0016 0.9445
4.8537 -13.2664 -2.0016 0.9445
5.7928 -12.8841 -2.0016 0.9445
6.2514 -12.6679 -2.0016 0.9445
7.1441 -12.1868 -2.0016 0.9445
7.5769 -11.9225 -2.0016 0.9445
7.9999 -11.6429 -2.0016 0.9445
9.9499 -10.0277 -2.0016 0.9445
10.3034 -9.6641 -2.0016 0.9445
10.9701 -8.9001 -2.0016 0.9445
12.3828 -6.7987 -2.0016 0.9445
12.6188 -6.3499 -2.0016 0.9445
12.8385 -5.8929 -2.0016 0.9445
13.2282 -4.9568 -2.0016 0.9445
13.6843 -3.5063 -2.0016 0.9445
13.8014 -3.0129 -2.0016 0.9445
13.9006 -2.5156 -2.0016 0.9445
14.0453 -1.5120 -2.0016 0.9445
14.0905 -1.0069 -2.0016 0.9445
14.1175 -0.5006 -2.0016 0.9445
14.0439 1.5247 -2.0016 0.9445
13.9801 2.0278 -2.0016 0.9445
13.6812 3.5187 -2.0016 0.9445
13.3935 4.4910 -2.0016 0.9445
13.2237 4.9688 -2.0016 0.9445
12.8332 5.9046 -2.0016 0.9445
12.3766 6.8100 -2.0016 0.9445
12.1242 7.2498 -2.0016 0.9445
11.2747 8.5109 -2.0016 0.9445
10.9620 8.9101 -2.0016 0.9445
10.6351 9.2978 -2.0016 0.9445
9.1952 10.7240 -2.0016 0.9445
8.8044 11.0471 -2.0016 0.9445
7.9893 11.6502 -2.0016 0.9445
7.1079 12.1503 -1.9945 0.9447
6.1820 11.4954 -1.8494 0.9486
5.7655 11.7098 -1.8494 0.9486
4.0305 12.4143 -1.8494 0.9486
3.5823 12.5510 -1.8494 0.9486
3.1296 12.6715 -1.8494 0.9486
2.1876 12.7187 -1.8286 0.9492
1.2139 12.2795 -1.7483 0.9514
0.3177 11.8752 -1.6832 0.9531
-0.1069 11.6836 -1.6555 0.9539
2.6674 10.9045 -1.8494 0.9555
2.2744 10.9932 -1.8494 0.9555
1.8783 11.0677 -1.8494 0.9555
0.2753 11.2226 -1.8494 0.9555
-0.5305 11.2134 -1.8494 0.9555
-0.9326 11.1872 -1.8494 0.9555
-1.0679 8.9267 -1.4811 0.9642
-1.3622 8.7196 -1.4539 0.9649
-2.1296 11.0222 -1.8494 0.9555
-3.3020 10.7294 -1.8494 0.9555
-4.0632 10.4649 -1.8494 0.9555
-4.8034 10.1464 -1.8494 0.9555
-5.8661 9.5714 -1.8494 0.9555
-6.2059 9.3547 -1.8494 0.9555
-7.1754 8.6334 -1.8494 0.9555
-7.4806 8.3704 -1.8494 0.9555
-7.9267 8.2532 -1.8851 0.9547
-8.5043 8.2410 -1.9509 0.9531
-8.9979 8.1138 -1.9960 0.9521
-9.3075 7.8059 -2.0012 0.9519
-9.5835 7.4683 -2.0016 0.9519
-10.3307 6.3950 -2.0016 0.9519
-10.7628 5.6374 -2.0016 0.9519
-10.9582 5.2475 -2.0016 0.9519
-11.1395 4.8508 -2.0016 0.9519
-11.4588 4.0393 -2.0016 0.9519
-11.5964 3.6254 -2.0016 0.9519
-11.8266 2.7842 -2.0016 0.9519
-11.9958 1.9287 -2.0016 0.9519
-12.0573 1.4969 -2.0016 0.9519
-12.1483 0.1923 -2.0016 0.9519
-12.0508 -1.5481 -2.0016 0.9519
-11.0891 -2.2428 -1.8638 0.9552
-10.9612 -2.6297 -1.8570 0.9553
-10.8598 -3.0214 -1.8570 0.9553
-10.6151 -3.7926 -1.8570 0.9553
-10.4721 -4.1711 -1.8570 0.9553
-10.3157 -4.5443 -1.8570 0.9553
-9.9631 -5.2726 -1.8570 0.9553
-9.7675 -5.6267 -1.8570 0.9553
-9.8151 -7.1613 -2.0016 0.9519
-9.2761 -7.8469 -2.0016 0.9519
-8.0578 -9.0935 -2.0016 0.9519
-7.3847 -9.6481 -2.0016 0.9519
-7.0337 -9.9069 -2.0016 0.9519
-6.6736 -10.1530 -2.0016 0.9519
-5.1520 -11.0035 -2.0016 0.9519
-4.7538 -11.1813 -2.0016 0.9519
-3.5244 -11.6275 -2.0016 0.9519
-3.1048 -11.7465 -2.0016 0.9519
-1.8243 -12.0121 -2.0016 0.9519
0.3495 -12.1448 -2.0016 0.9519
1.2198 -12.0885 -2.0016 0.9519
3.3583 -11.6765 -2.0016 0.9519
6.1561 -10.4748 -2.0016 0.9519
6.8917 -10.0062 -2.0016 0.9519
7.5917 -9.4861 -2.0016 0.9519
7.9273 -9.2075 -2.0016 0.9519
8.5673 -8.6151 -2.0016 0.9519
8.8710 -8.3021 -2.0016 0.9519
9.7120 -7.3005 -2.0016 0.9519
9.9677 -6.9472 -2.0016 0.9519
10.4404 -6.2143 -2.0016 0.9519
10.6567 -5.8356 -2.0016 0.9519
10.8593 -5.4494 -2.0016 0.9519
11.2222 -4.6564 -2.0016 0.9519
11.3821 -4.2506 -2.0016 0.9519
11.6577 -3.4232 -2.0016 0.9519
11.7730 -3.0026 -2.0016 0.9519
11.8732 -2.5781 -2.0016 0.9519
11.9581 -2.1503 -2.0016 0.9519
12.0275 -1.7198 -2.0016 0.9519
12.1199 -0.8526 -2.0016 0.9519
12.1427 -0.4170 -2.0016 0.9519
12.0774 1.3249 -2.0016 0.9519
11.8651 2.6153 -2.0016 0.9519
11.6469 3.4597 -2.0016 0.9519
11.5152 3.8755 -2.0016 0.9519
11.3687 4.2863 -2.0016 0.9519
11.2075 4.6915 -2.0016 0.9519
11.0320 5.0907 -2.0016 0.9519
10.8421 5.4834 -2.0016 0.9519
10.4209 6.2470 -2.0016 0.9519
9.9459 6.9784 -2.0016 0.9519
9.6890 7.3309 -2.0016 0.9519
9.4197 7.6739 -2.0016 0.9519
9.1382 8.0070 -2.0016 0.9519
8.8449 8.3298 -2.0016 0.9519
8.5403 8.6419 -2.0016 0.9519
7.5619 9.5098 -2.0016 0.9519
7.2158 9.7751 -2.0016 0.9519
6.8603 10.0278 -2.0016 0.9519
6.1121 10.4749 -1.9979 0.9520
5.4724 10.2030 -1.9073 0.9541
4.9476 10.0769 -1.8494 0.9555
4.2120 10.4059 -1.8494 0.9555
3.4547 10.6812 -1.8494 0.9555
2.2866 10.9906 -1.8494 0.9555
1.8907 11.0656 -1.8494 0.9555
1.0920 11.1728 -1.8494 0.9555
0.6903 11.2047 -1.8494 0.9555
0.2877 11.2223 -1.8494 0.9555
-0.1152 11.2254 -1.8494 0.9555
-0.5180 11.2140 -1.8494 0.9555
-0.9202 11.1882 -1.8494 0.9555
-2.1174 11.0245 -1.8494 0.9555
-2.5117 10.9414 -1.8494 0.9555
-2.9028 10.8442 -1.8494 0.9555
-4.4246 10.3172 -1.8494 0.9555
-4.7921 10.1518 -1.8494 0.9555
-5.5080 9.7819 -1.8494 0.9555
-6.1955 9.3616 -1.8494 0.9555
-6.8510 8.8930 -1.8494 0.9555
-7.9094 8.2535 -1.8832 0.9547
-8.4858 8.2414 -1.9487 0.9532
-8.9881 8.1231 -1.9958 0.9521
-9.5752 7.4790 -2.0016 0.9519
-9.8375 7.1305 -2.0016 0.9519
-10.3236 6.4064 -2.0016 0.9519
-10.5469 6.0318 -2.0016 0.9519
-10.7566 5.6494 -2.0016 0.9519
-10.9524 5.2597 -2.0016 0.9519
-11.4543 4.0520 -2.0016 0.9519
-11.7154 3.2199 -2.0016 0.9519
-11.8235 2.7974 -2.0016 0.9519
-12.0556 1.5103 -2.0016 0.9519
-12.1316 -0.6662 -2.0016 0.9519
-12.0526 -1.5347 -2.0016 0.9519
-11.9897 -1.9663 -2.0016 0.9519
-10.4767 -4.1595 -1.8570 0.9553
-10.3207 -4.5328 -1.8570 0.9553
-10.1514 -4.9003 -1.8570 0.9553
-9.9690 -5.2615 -1.8570 0.9553
-9.7737 -5.6159 -1.8570 0.9553
-10.3106 -6.4273 -2.0016 0.9519
-10.0733 -6.7932 -2.0016 0.9519
-9.8230 -7.1504 -2.0016 0.9519
-9.5601 -7.4983 -2.0016 0.9519
-8.9976 -8.1648 -2.0016 0.9519
-8.6987 -8.4824 -2.0016 0.9519
-8.3887 -8.7891 -2.0016 0.9519
-8.0679 -9.0846 -2.0016 0.9519
-7.3954 -9.6399 -2.0016 0.9519
-7.0447 -9.8991 -2.0016 0.9519
-6.6849 -10.1456 -2.0016 0.9519
-5.5556 -10.8053 -2.0016 0.9519
-5.1643 -10.9977 -2.0016 0.9519
-3.5374 -11.6235 -2.0016 0.9519
-3.1179 -11.7430 -2.0016 0.9519
-2.6945 -11.8473 -2.0016 0.9519
-2.2675 -11.9364 -2.0016 0.9519
-1.4054 -12.0683 -2.0016 0.9519
-0.9714 -12.1110 -2.0016 0.9519
-0.5361 -12.1380 -2.0016 0.9519
0.3360 -12.1452 -2.0016 0.9519
0.7716 -12.1253 -2.0016 0.9519
2.0705 -11.9722 -2.0016 0.9519
2.4988 -11.8901 -2.0016 0.9519
2.9239 -11.7928 -2.0016 0.9519
3.3453 -11.6803 -2.0016 0.9519
3.7623 -11.5527 -2.0016 0.9519
4.1745 -11.4102 -2.0016 0.9519
4.5814 -11.2530 -2.0016 0.9519
4.9823 -11.0814 -2.0016 0.9519
2.2574 -4.1884 -0.7838 0.9809
6.1445 -10.4816 -2.0016 0.9519
6.8805 -10.0139 -2.0016 0.9519
7.2355 -9.7605 -2.0016 0.9519
7.5811 -9.4945 -2.0016 0.9519
9.4352 -7.6549 -2.0016 0.9519
10.6502 -5.8475 -2.0016 0.9519
10.8532 -5.4615 -2.0016 0.9519
11.0422 -5.0684 -2.0016 0.9519
11.2170 -4.6688 -2.0016 0.9519
11.7697 -3.0157 -2.0016 0.9519
12.0801 -1.3004 -2.0016 0.9519
12.1190 -0.8660 -2.0016 0.9519
12.1499 0.0055 -2.0016 0.9519
12.1419 0.4416 -2.0016 0.9519
12.1182 0.8771 -2.0016 0.9519
11.9537 2.1745 -2.0016 0.9519
11.7669 3.0264 -2.0016 0.9519
11.5195 3.8627 -2.0016 0.9519
11.2128 4.6790 -2.0016 0.9519
10.6449 5.8571 -2.0016 0.9519
9.1471 7.9969 -2.0016 0.9519
8.5499 8.6324 -2.0016 0.9519
7.5725 9.5014 -2.0016 0.9519
7.2266 9.7670 -2.0016 0.9519
6.1244 10.4692 -1.9981 0.9520
4.9588 10.0714 -1.8494 0.9555
4.5941 10.2429 -1.8494 0.9555
3.8475 10.5461 -1.8494 0.9555
2.2988 10.9881 -1.8494 0.9555
1.1044 11.1715 -1.8494 0.9555
0.7028 11.2040 -1.8494 0.9555
-0.5055 11.2146 -1.8494 0.9555
3.0174 9.3649 -1.8494 0.9607
2.3379 9.5573 -1.8494 0.9607
1.9934 9.6350 -1.8494 0.9607
1.6463 9.7004 -1.8494 0.9607
0.9462 9.7935 -1.8494 0.9607
0.5941 9.8211 -1.8494 0.9607
-0.4650 9.8281 -1.8494 0.9607
-0.8174 9.8051 -1.8494 0.9607
-1.0428 8.7166 -1.6501 0.9649
-1.3571 8.6875 -1.6527 0.9648
-2.2120 9.5872 -1.8494 0.9607
-2.8941 9.4038 -1.8494 0.9607
-3.2297 9.2939 -1.8494 0.9607
-5.1414 8.3889 -1.8494 0.9607
-5.4779 8.2573 -1.8625 0.9605
-5.9094 8.2491 -1.9073 0.9595
-6.3625 8.2399 -1.9568 0.9585
-6.7846 8.1632 -1.9951 0.9577
-7.0872 7.9301 -1.9991 0.9576
-7.9083 7.1313 -2.0016 0.9576
-8.6290 6.2400 -2.0016 0.9576
-9.2497 5.2763 -2.0016 0.9576
-9.4331 4.9409 -2.0016 0.9576
-9.9096 3.8984 -2.0016 0.9576
-10.3654 2.4403 -2.0016 0.9576
-10.5677 1.3120 -2.0016 0.9576
-10.6346 0.5505 -2.0016 0.9576
-10.6467 -0.2137 -2.0016 0.9576
-10.6321 -0.5957 -2.0016 0.9576
-10.6039 -0.9769 -2.0016 0.9576
-10.5620 -1.3568 -2.0016 0.9576
-10.5065 -1.7350 -2.0016 0.9576
-10.4375 -2.1110 -2.0016 0.9576
-9.6070 -2.3048 -1.8570 0.9606
-9.4169 -2.9880 -1.8570 0.9606
-9.1783 -3.6558 -1.8570 0.9606
-9.0412 -3.9829 -1.8570 0.9606
-8.8925 -4.3048 -1.8570 0.9606
-8.3782 -5.2356 -1.8570 0.9606
-8.1849 -5.5330 -1.8570 0.9606
-8.6025 -6.2765 -2.0016 0.9576
-8.1301 -6.8775 -2.0016 0.9576
-7.8780 -7.1648 -2.0016 0.9576
-7.0622 -7.9701 -2.0016 0.9576
-6.7716 -8.2184 -2.0016 0.9576
-6.1647 -8.6830 -2.0016 0.9576
-4.8587 -9.4758 -2.0016 0.9576
-4.5155 -9.6440 -2.0016 0.9576
-3.4528 -10.0735 -2.0016 0.9576
-3.0890 -10.1909 -2.0016 0.9576
-2.7213 -10.2952 -2.0016 0.9576
-1.5989 -10.5281 -2.0016 0.9576
-1.2200 -10.5787 -2.0016 0.9576
-0.4580 -10.6390 -2.0016 0.9576
1.0691 -10.5950 -2.0016 0.9576
2.2017 -10.4187 -2.0016 0.9576
2.5742 -10.3330 -2.0016 0.9576
2.9434 -10.2339 -2.0016 0.9576
4.3775 -9.7074 -2.0016 0.9576
2.2628 -4.1873 -0.8946 0.9808
5.7216 -8.9811 -2.0016 0.9576
6.0403 -8.7700 -2.0016 0.9576
6.9479 -8.0699 -2.0016 0.9576
7.2331 -7.8154 -2.0016 0.9576
7.5089 -7.5508 -2.0016 0.9576
7.7750 -7.2764 -2.0016 0.9576
8.0312 -6.9927 -2.0016 0.9576
8.5121 -6.3986 -2.0016 0.9576
8.9492 -5.7715 -2.0016 0.9576
9.3401 -5.1146 -2.0016 0.9576
9.5177 -4.7761 -2.0016 0.9576
9.6829 -4.4315 -2.0016 0.9576
9.8358 -4.0811 -2.0016 0.9576
9.9759 -3.7255 -2.0016 0.9576
10.1032 -3.3650 -2.0016 0.9576
10.2174 -3.0003 -2.0016 0.9576
10.3185 -2.6316 -2.0016 0.9576
10.5889 -1.1280 -2.0016 0.9576
10.6425 -0.3655 -2.0016 0.9576
10.6202 0.7805 -2.0016 0.9576
10.5853 1.1612 -2.0016 0.9576
10.5368 1.5403 -2.0016 0.9576
10.3102 2.6640 -2.0016 0.9576
9.9642 3.7567 -2.0016 0.9576
9.8229 4.1119 -2.0016 0.9576
9.6690 4.4618 -2.0016 0.9576
9.5027 4.8059 -2.0016 0.9576
8.9310 5.7995 -2.0016 0.9576
8.0092 7.0178 -2.0016 0.9576
7.7522 7.3007 -2.0016 0.9576
7.2085 7.8380 -2.0016 0.9576
6.6277 8.3349 -2.0016 0.9576
6.3243 8.5674 -2.0016 0.9576
6.0127 8.7889 -2.0016 0.9576
5.3668 9.1975 -2.0016 0.9576
5.0289 9.3762 -1.9998 0.9576
4.6761 9.5240 -1.9943 0.9577
3.6916 9.1203 -1.8494 0.9607
2.3485 9.5547 -1.8494 0.9607
2.0041 9.6328 -1.8494 0.9607
0.2522 9.8358 -1.8494 0.9607
-0.4540 9.8286 -1.8494 0.9607
-0.8065 9.8060 -1.8494 0.9607
-1.0347 8.7312 -1.6526 0.9648
-1.3469 8.6855 -1.6520 0.9649
-2.2014 9.5896 -1.8494 0.9607
-2.5441 9.5045 -1.8494 0.9607
-3.2194 9.2975 -1.8494 0.9607
-3.5510 9.1759 -1.8494 0.9607
-4.5167 8.7411 -1.8494 0.9607
-5.1321 8.3946 -1.8494 0.9607
-5.4649 8.2576 -1.8612 0.9605
-6.7751 8.1703 -1.9950 0.9577
-7.0779 7.9375 -1.9989 0.9576
-7.6391 7.4190 -2.0016 0.9576
-7.9004 7.1401 -2.0016 0.9576
-8.1516 6.8519 -2.0016 0.9576
-8.3922 6.5550 -2.0016 0.9576
-8.8408 5.9361 -2.0016 0.9576
-9.2439 5.2866 -2.0016 0.9576
-10.2680 2.8221 -2.0016 0.9576
-10.3627 2.4518 -2.0016 0.9576
-10.6340 0.5624 -2.0016 0.9576
-10.6469 -0.2019 -2.0016 0.9576
-10.6328 -0.5839 -2.0016 0.9576
-10.6050 -0.9651 -2.0016 0.9576
-10.5635 -1.3451 -2.0016 0.9576
-10.5084 -1.7234 -2.0016 0.9576
-10.4398 -2.0994 -2.0016 0.9576
-9.5210 -2.6375 -1.8570 0.9606
-9.3073 -3.3137 -1.8570 0.9606
-9.1824 -3.6456 -1.8570 0.9606
-9.0456 -3.9728 -1.8570 0.9606
-8.8972 -4.2949 -1.8570 0.9606
-8.7374 -4.6114 -1.8570 0.9606
-8.1911 -5.5239 -1.8570 0.9606
-8.6094 -6.2670 -2.0016 0.9576
-8.1377 -6.8684 -2.0016 0.9576
-7.8860 -7.1560 -2.0016 0.9576
-6.7808 -8.2109 -2.0016 0.9576
-6.4817 -8.4489 -2.0016 0.9576
-6.1743 -8.6761 -2.0016 0.9576
-5.2060 -9.2895 -2.0016 0.9576
-4.8693 -9.4704 -2.0016 0.9576
-3.8231 -9.9389 -2.0016 0.9576
-3.4640 -10.0697 -2.0016 0.9576
-3.1003 -10.1875 -2.0016 0.9576
-2.7327 -10.2922 -2.0016 0.9576
-2.3616 -10.3837 -2.0016 0.9576
-1.2318 -10.5773 -2.0016 0.9576
-0.0878 -10.6485 -2.0016 0.9576
0.2945 -10.6447 -2.0016 0.9576
0.6763 -10.6273 -2.0016 0.9576
1.4369 -10.5514 -2.0016 0.9576
1.8147 -10.4931 -2.0016 0.9576
2.1901 -10.4212 -2.0016 0.9576
2.5627 -10.3359 -2.0016 0.9576
3.6588 -10.0005 -2.0016 0.9576
4.0154 -9.8628 -2.0016 0.9576
5.3854 -9.1867 -2.0016 0.9576
5.7116 -8.9875 -2.0016 0.9576
6.0305 -8.7767 -2.0016 0.9576
6.3416 -8.5546 -2.0016 0.9576
6.6445 -8.3215 -2.0016 0.9576
7.2243 -7.8234 -2.0016 0.9576
7.7669 -7.2850 -2.0016 0.9576
8.7295 -6.0987 -2.0016 0.9576
8.9427 -5.7814 -2.0016 0.9576
9.1445 -5.4567 -2.0016 0.9576
9.3344 -5.1250 -2.0016 0.9576
9.6780 -4.4422 -2.0016 0.9576
9.8312 -4.0920 -2.0016 0.9576
9.9717 -3.7366 -2.0016 0.9576
10.0994 -3.3763 -2.0016 0.9576
10.2141 -3.0116 -2.0016 0.9576
10.3156 -2.6431 -2.0016 0.9576
10.4038 -2.2712 -2.0016 0.9576
10.5876 -1.1398 -2.0016 0.9576
10.6421 -0.3774 -2.0016 0.9576
10.6488 0.0048 -2.0016 0.9576
10.6210 0.7687 -2.0016 0.9576
10.5866 1.1494 -2.0016 0.9576
9.9683 3.7456 -2.0016 0.9576
