ply
format ascii 1.0
element vertex 1579
property float32 x
property float32 y
property float32 z
property float32 I
end_header
-12.1907 -4.8118 -1.8570 0.9484
-12.0103 -5.2460 -1.8570 0.9484
-12.5066 -6.5681 -2.0016 0.9445
-12.2630 -7.0125 -2.0016 0.9445
-12.0035 -7.4479 -2.0016 0.9445
-11.7286 -7.8737 -2.0016 0.9445
-11.1339 -8.6944 -2.0016 0.9445
-10.1354 -9.8402 -2.0016 0.9445
-9.0195 -10.8721 -2.0016 0.9445
-8.6237 -11.1887 -2.0016 0.9445
-7.3718 -12.0504 -2.0016 0.9445
-6.9347 -12.3071 -2.0016 0.9445
-6.0345 -12.7726 -2.0016 0.9445
-5.1031 -13.1724 -2.0016 0.9445
-4.6273 -13.3470 -2.0016 0.9445
-4.1456 -13.5044 -2.0016 0.9445
-3.6584 -13.6445 -2.0016 0.9445
-3.1666 -13.7669 -2.0016 0.9445
-2.6707 -13.8716 -2.0016 0.9445
-1.6692 -14.0275 -2.0016 0.9445
-0.6592 -14.1110 -2.0016 0.9445
0.3542 -14.1220 -2.0016 0.9445
1.8694 -14.0022 -2.0016 0.9445
2.8685 -13.8321 -2.0016 0.9445
3.3629 -13.7203 -2.0016 0.9445
5.2907 -13.0982 -2.0016 0.9445
7.5431 -11.9439 -2.0016 0.9445
7.9667 -11.6657 -2.0016 0.9445
8.3800 -11.3724 -2.0016 0.9445
9.1738 -10.7422 -2.0016 0.9445
9.5533 -10.4062 -2.0016 0.9445
9.9204 -10.0568 -2.0016 0.9445
10.2748 -9.6945 -2.0016 0.9445
10.6160 -9.3197 -2.0016 0.9445
10.9435 -8.9328 -2.0016 0.9445
11.8398 -7.7054 -2.0016 0.9445
12.1086 -7.2758 -2.0016 0.9445
12.3618 -6.8367 -2.0016 0.9445
12.8202 -5.9328 -2.0016 0.9445
13.0248 -5.4690 -2.0016 0.9445
13.2126 -4.9983 -2.0016 0.9445
13.5369 -4.0381 -2.0016 0.9445
13.7916 -3.0571 -2.0016 0.9445
13.8924 -2.5604 -2.0016 0.9445
14.0403 -1.5577 -2.0016 0.9445
14.0871 -1.0531 -2.0016 0.9445
14.1158 -0.5470 -2.0016 0.9445
14.1263 -0.0403 -2.0016 0.9445
14.0489 1.4776 -2.0016 0.9445
13.9869 1.9806 -2.0016 0.9445
13.9068 2.4811 -2.0016 0.9445
13.8089 2.9783 -2.0016 0.9445
13.6931 3.4718 -2.0016 0.9445
13.5598 3.9608 -2.0016 0.9445
13.0558 5.3946 -2.0016 0.9445
12.8539 5.8595 -2.0016 0.9445
12.6354 6.3168 -2.0016 0.9445
12.1499 7.2065 -2.0016 0.9445
11.6020 8.0591 -2.0016 0.9445
11.3054 8.4701 -2.0016 0.9445
10.9943 8.8702 -2.0016 0.9445
10.6690 9.2589 -2.0016 0.9445
9.9777 10.0001 -2.0016 0.9445
8.8456 11.0141 -2.0016 0.9445
8.4448 11.3243 -2.0016 0.9445
8.0332 11.6200 -2.0016 0.9445
7.6111 11.9007 -2.0016 0.9445
5.8103 11.6876 -1.8494 0.9486
5.3873 11.8885 -1.8494 0.9486
4.9574 12.0741 -1.8494 0.9486
4.5211 12.2442 -1.8494 0.9486
3.1795 12.6590 -1.8494 0.9486
2.7233 12.7650 -1.8494 0.9486
2.2442 12.7442 -1.8335 0.9491
1.7441 12.5186 -1.7909 0.9502
0.8076 12.0962 -1.7177 0.9522
-0.0596 11.7050 -1.6585 0.9538
-0.4723 11.5189 -1.6335 0.9545
-1.3073 8.7316 -1.2510 0.9650
-2.1317 11.4231 -1.6465 0.9541
-2.9945 11.4287 -1.6740 0.9534
-3.4380 11.4316 -1.6914 0.9529
-6.7475 11.1728 -1.8494 0.9486
-7.1440 10.9235 -1.8494 0.9486
-7.5313 10.6602 -1.8494 0.9486
-7.9088 10.3832 -1.8494 0.9486
-8.2762 10.0928 -1.8494 0.9486
-8.9785 9.4735 -1.8494 0.9486
-9.6347 8.8053 -1.8494 0.9486
-9.9444 8.4540 -1.8494 0.9486
-11.2306 8.2368 -1.9734 0.9453
-11.9608 7.5163 -2.0016 0.9445
-12.4689 6.6394 -2.0016 0.9445
-12.9129 5.7283 -2.0016 0.9445
-13.4535 4.3078 -2.0016 0.9445
-13.5994 3.8225 -2.0016 0.9445
-13.8385 2.8375 -2.0016 0.9445
-13.9314 2.3393 -2.0016 0.9445
-14.0632 1.3344 -2.0016 0.9445
-14.1021 0.8291 -2.0016 0.9445
-14.1227 0.3226 -2.0016 0.9445
-14.1095 -0.6908 -2.0016 0.9445
-14.0756 -1.1965 -2.0016 0.9445
-12.7659 -2.9665 -1.8570 0.9484
-12.6512 -3.4225 -1.8570 0.9484
-12.3733 -4.3208 -1.8570 0.9484
-12.5334 -6.5168 -2.0016 0.9445
-12.0339 -7.3987 -2.0016 0.9445
-11.4724 -8.2425 -2.0016 0.9445
-10.8519 -9.0438 -2.0016 0.9445
-10.5205 -9.4273 -2.0016 0.9445
-10.1756 -9.7986 -2.0016 0.9445
-9.8175 -10.1574 -2.0016 0.9445
-9.4468 -10.5030 -2.0016 0.9445
-7.8474 -11.7462 -2.0016 0.9445
-7.4210 -12.0201 -2.0016 0.9445
-6.9850 -12.2786 -2.0016 0.9445
-6.0867 -12.7479 -2.0016 0.9445
-5.6255 -12.9580 -2.0016 0.9445
-5.1570 -13.1514 -2.0016 0.9445
-4.6819 -13.3280 -2.0016 0.9445
-3.7143 -13.6294 -2.0016 0.9445
-2.7275 -13.8606 -2.0016 0.9445
-2.2285 -13.9495 -2.0016 0.9445
-0.7170 -14.1082 -2.0016 0.9445
-0.2104 -14.1248 -2.0016 0.9445
0.2964 -14.1233 -2.0016 0.9445
1.3083 -14.0657 -2.0016 0.9445
2.3134 -13.9357 -2.0016 0.9445
2.8119 -13.8437 -2.0016 0.9445
4.7630 -13.2992 -2.0016 0.9445
2.2275 -4.2021 -0.6739 0.9810
7.4941 -11.9747 -2.0016 0.9445
9.1298 -10.7797 -2.0016 0.9445
9.5106 -10.4453 -2.0016 0.9445
9.8792 -10.0974 -2.0016 0.9445
10.5778 -9.3630 -2.0016 0.9445
10.9068 -8.9775 -2.0016 0.9445
11.8082 -7.7538 -2.0016 0.9445
12.0787 -7.3253 -2.0016 0.9445
12.3337 -6.8872 -2.0016 0.9445
12.7958 -5.9852 -2.0016 0.9445
13.0023 -5.5223 -2.0016 0.9445
13.1920 -5.0523 -2.0016 0.9445
13.5203 -4.0935 -2.0016 0.9445
13.7790 -3.1136 -2.0016 0.9445
14.0338 -1.6152 -2.0016 0.9445
14.0827 -1.1107 -2.0016 0.9445
14.1261 -0.0981 -2.0016 0.9445
14.0548 1.4201 -2.0016 0.9445
13.9169 2.4241 -2.0016 0.9445
13.8209 2.9218 -2.0016 0.9445
13.7072 3.4157 -2.0016 0.9445
13.4270 4.3897 -2.0016 0.9445
13.2609 4.8686 -2.0016 0.9445
13.0777 5.3411 -2.0016 0.9445
-1.3406 8.7104 -1.4518 0.9649
-2.4988 10.9444 -1.8494 0.9555
-4.0384 10.4744 -1.8494 0.9555
-4.4116 10.3228 -1.8494 0.9555
-5.1404 9.9799 -1.8494 0.9555
-5.4951 9.7891 -1.8494 0.9555
-5.8427 9.5857 -1.8494 0.9555
-7.8872 8.2540 -1.8807 0.9548
-9.2854 7.8286 -2.0008 0.9520
-9.5640 7.4933 -2.0016 0.9519
-9.8266 7.1454 -2.0016 0.9519
-10.7476 5.6665 -2.0016 0.9519
-11.1262 4.8813 -2.0016 0.9519
-11.2942 4.4790 -2.0016 0.9519
-11.4476 4.0710 -2.0016 0.9519
-11.5862 3.6577 -2.0016 0.9519
-11.8187 2.8176 -2.0016 0.9519
-11.9903 1.9629 -2.0016 0.9519
-12.1317 0.6634 -2.0016 0.9519
-12.1481 -0.2081 -2.0016 0.9519
-12.1328 -0.6438 -2.0016 0.9519
-11.9934 -1.9436 -2.0016 0.9519
-10.9692 -2.5963 -1.8570 0.9553
-10.4850 -4.1386 -1.8570 0.9553
-10.3298 -4.5120 -1.8570 0.9553
-9.9797 -5.2410 -1.8570 0.9553
-9.7853 -5.5957 -1.8570 0.9553
-10.3240 -6.4058 -2.0016 0.9519
-9.5760 -7.4779 -2.0016 0.9519
-8.7172 -8.4634 -2.0016 0.9519
-8.0880 -9.0666 -2.0016 0.9519
-7.7575 -9.3509 -2.0016 0.9519
-7.4171 -9.6232 -2.0016 0.9519
-7.0671 -9.8831 -2.0016 0.9519
-6.7080 -10.1302 -2.0016 0.9519
-6.3403 -10.3644 -2.0016 0.9519
-5.9644 -10.5851 -2.0016 0.9519
-5.5809 -10.7923 -2.0016 0.9519
-5.1901 -10.9855 -2.0016 0.9519
-3.5655 -11.6149 -2.0016 0.9519
-3.1466 -11.7354 -2.0016 0.9519
-2.2970 -11.9308 -2.0016 0.9519
-1.8676 -12.0055 -2.0016 0.9519
-1.4357 -12.0647 -2.0016 0.9519
-1.0020 -12.1085 -2.0016 0.9519
-0.1312 -12.1492 -2.0016 0.9519
0.3047 -12.1461 -2.0016 0.9519
1.1748 -12.0929 -2.0016 0.9519
2.4672 -11.8967 -2.0016 0.9519
2.8923 -11.8006 -2.0016 0.9519
4.1434 -11.4216 -2.0016 0.9519
4.5504 -11.2656 -2.0016 0.9519
4.9516 -11.0951 -2.0016 0.9519
5.3464 -10.9103 -2.0016 0.9519
2.2438 -4.1913 -0.7832 0.9809
6.4877 -10.2728 -2.0016 0.9519
7.2075 -9.7812 -2.0016 0.9519
7.5537 -9.5161 -2.0016 0.9519
8.2166 -8.9502 -2.0016 0.9519
8.5324 -8.6497 -2.0016 0.9519
8.8372 -8.3381 -2.0016 0.9519
9.4123 -7.6830 -2.0016 0.9519
9.6818 -7.3404 -2.0016 0.9519
10.1832 -6.6273 -2.0016 0.9519
10.8363 -5.4949 -2.0016 0.9519
11.5108 -3.8885 -2.0016 0.9519
11.6429 -3.4731 -2.0016 0.9519
12.0200 -1.7721 -2.0016 0.9519
12.0758 -1.3398 -2.0016 0.9519
12.1433 0.4012 -2.0016 0.9519
12.0832 1.2708 -2.0016 0.9519
12.0299 1.7035 -2.0016 0.9519
11.6625 3.4066 -2.0016 0.9519
11.3883 4.2340 -2.0016 0.9519
11.0554 5.0396 -2.0016 0.9519
10.6656 5.8193 -2.0016 0.9519
10.4500 6.1982 -2.0016 0.9519
10.2209 6.5691 -2.0016 0.9519
9.1762 7.9634 -2.0016 0.9519
8.8847 8.2875 -2.0016 0.9519
8.5816 8.6009 -2.0016 0.9519
7.6079 9.4731 -2.0016 0.9519
7.2632 9.7399 -2.0016 0.9519
6.9092 9.9941 -2.0016 0.9519
5.5932 10.3060 -1.9317 0.9536
4.9974 10.0523 -1.8494 0.9555
4.6336 10.2251 -1.8494 0.9555
4.2638 10.3848 -1.8494 0.9555
3.8885 10.5310 -1.8494 0.9555
3.1234 10.7827 -1.8494 0.9555
2.7346 10.8878 -1.8494 0.9555
1.5490 11.1186 -1.8494 0.9555
1.1492 11.1670 -1.8494 0.9555
-0.0572 11.2258 -1.8494 0.9555
-0.4598 11.2166 -1.8494 0.9555
-0.8619 11.1929 -1.8494 0.9555
-1.3046 8.7134 -1.4514 0.9649
-2.0594 11.0355 -1.8494 0.9555
-2.4540 10.9545 -1.8494 0.9555
-3.2331 10.7504 -1.8494 0.9555
-3.6167 10.6274 -1.8494 0.9555
-3.9956 10.4909 -1.8494 0.9555
-4.3693 10.3408 -1.8494 0.9555
-4.7375 10.1774 -1.8494 0.9555
-6.1444 9.3952 -1.8494 0.9555
-6.4775 9.1687 -1.8494 0.9555
-7.1182 8.6807 -1.8494 0.9555
-7.4250 8.4197 -1.8494 0.9555
-8.3942 8.2433 -1.9382 0.9534
-8.9393 8.1698 -1.9950 0.9521
-9.2505 7.8642 -2.0002 0.9520
-9.7973 7.1856 -2.0016 0.9519
-10.2873 6.4646 -2.0016 0.9519
-10.7243 5.7104 -2.0016 0.9519
-11.6966 3.2876 -2.0016 0.9519
-12.1353 -0.5941 -2.0016 0.9519
-12.1062 -1.0291 -2.0016 0.9519
-12.0013 -1.8944 -2.0016 0.9519
-10.6420 -3.7162 -1.8570 0.9553
-10.3482 -4.4697 -1.8570 0.9553
-10.0011 -5.2002 -1.8570 0.9553
-10.3501 -6.3635 -2.0016 0.9519
-10.1152 -6.7307 -2.0016 0.9519
-9.8672 -7.0892 -2.0016 0.9519
-9.3336 -7.7785 -2.0016 0.9519
-8.1250 -9.0335 -2.0016 0.9519
-7.7957 -9.3191 -2.0016 0.9519
-7.4564 -9.5928 -2.0016 0.9519
-6.0077 -10.5606 -2.0016 0.9519
-5.6250 -10.7693 -2.0016 0.9519
-4.8384 -11.1449 -2.0016 0.9519
-3.6130 -11.6002 -2.0016 0.9519
-2.7720 -11.8294 -2.0016 0.9519
-2.3458 -11.9213 -2.0016 0.9519
-1.0515 -12.1043 -2.0016 0.9519
-0.6166 -12.1342 -2.0016 0.9519
0.2550 -12.1472 -2.0016 0.9519
0.6906 -12.1302 -2.0016 0.9519
1.1253 -12.0976 -2.0016 0.9519
3.6837 -11.5780 -2.0016 0.9519
4.0966 -11.4384 -2.0016 0.9519
4.9062 -11.1153 -2.0016 0.9519
5.3018 -10.9321 -2.0016 0.9519
6.0719 -10.5238 -2.0016 0.9519
6.8109 -10.0614 -2.0016 0.9519
7.5147 -9.5471 -2.0016 0.9519
8.4969 -8.6846 -2.0016 0.9519
8.8030 -8.3742 -2.0016 0.9519
9.0977 -8.0530 -2.0016 0.9519
9.3808 -7.7214 -2.0016 0.9519
9.9102 -7.0290 -2.0016 0.9519
10.1560 -6.6689 -2.0016 0.9519
10.3887 -6.3003 -2.0016 0.9519
10.6080 -5.9236 -2.0016 0.9519
11.0055 -5.1477 -2.0016 0.9519
11.3462 -4.3454 -2.0016 0.9519
11.7474 -3.1013 -2.0016 0.9519
11.8511 -2.6779 -2.0016 0.9519
12.0126 -1.8213 -2.0016 0.9519
12.0702 -1.3892 -2.0016 0.9519
12.1387 -0.5202 -2.0016 0.9519
12.1496 -0.0844 -2.0016 0.9519
12.0367 1.6542 -2.0016 0.9519
11.9696 2.0849 -2.0016 0.9519
11.8872 2.5130 -2.0016 0.9519
11.7894 2.9378 -2.0016 0.9519
11.6764 3.3588 -2.0016 0.9519
11.5484 3.7755 -2.0016 0.9519
-0.7956 9.8069 -1.8494 0.9607
-1.0483 8.9324 -1.6905 0.9641
-1.3370 8.6870 -1.6520 0.9649
-1.8446 9.6646 -1.8494 0.9607
-2.5328 9.5075 -1.8494 0.9607
-3.2079 9.3014 -1.8494 0.9607
-3.8666 9.0475 -1.8494 0.9607
-5.1209 8.4014 -1.8494 0.9607
-5.4490 8.2579 -1.8596 0.9605
-5.8790 8.2497 -1.9041 0.9596
-6.3302 8.2406 -1.9532 0.9586
-7.3568 7.6990 -2.0016 0.9576
-7.8899 7.1517 -2.0016 0.9576
-8.3824 6.5676 -2.0016 0.9576
-8.6126 6.2626 -2.0016 0.9576
-8.8317 5.9497 -2.0016 0.9576
-9.0394 5.6290 -2.0016 0.9576
-9.4198 4.9664 -2.0016 0.9576
-9.5919 4.6253 -2.0016 0.9576
-9.7516 4.2782 -2.0016 0.9576
-9.8988 3.9257 -2.0016 0.9576
-10.0333 3.5680 -2.0016 0.9576
-10.2633 2.8395 -2.0016 0.9576
-10.3585 2.4695 -2.0016 0.9576
-10.4404 2.0963 -2.0016 0.9576
-10.5089 1.7204 -2.0016 0.9576
-10.6469 0.1996 -2.0016 0.9576
-10.6473 -0.1824 -2.0016 0.9576
-10.4438 -2.0794 -2.0016 0.9576
-9.4261 -2.9590 -1.8570 0.9606
-9.3139 -3.2953 -1.8570 0.9606
-8.9059 -4.2768 -1.8570 0.9606
-8.7468 -4.5935 -1.8570 0.9606
-8.3949 -5.2089 -1.8570 0.9606
-8.2026 -5.5067 -1.8570 0.9606
-8.1525 -6.8509 -2.0016 0.9576
-7.9015 -7.1389 -2.0016 0.9576
-5.8793 -8.8787 -2.0016 0.9576
-5.2275 -9.2774 -2.0016 0.9576
-4.8914 -9.4589 -2.0016 0.9576
-4.5489 -9.6283 -2.0016 0.9576
-4.2006 -9.7853 -2.0016 0.9576
-3.4882 -10.0613 -2.0016 0.9576
-2.7578 -10.2855 -2.0016 0.9576
-2.0133 -10.4568 -2.0016 0.9576
-1.2583 -10.5742 -2.0016 0.9576
-0.8782 -10.6125 -2.0016 0.9576
-0.4969 -10.6372 -2.0016 0.9576
1.0296 -10.5989 -2.0016 0.9576
3.2700 -10.1343 -2.0016 0.9576
3.6315 -10.0105 -2.0016 0.9576
3.9883 -9.8738 -2.0016 0.9576
4.3399 -9.7243 -2.0016 0.9576
5.3595 -9.2018 -2.0016 0.9576
6.6205 -8.3406 -2.0016 0.9576
7.2015 -7.8445 -2.0016 0.9576
8.2494 -6.7338 -2.0016 0.9576
8.7110 -6.1250 -2.0016 0.9576
8.9251 -5.8085 -2.0016 0.9576
9.3186 -5.1537 -2.0016 0.9576
9.4975 -4.8161 -2.0016 0.9576
9.6642 -4.4723 -2.0016 0.9576
9.8184 -4.1227 -2.0016 0.9576
9.9600 -3.7678 -2.0016 0.9576
10.0887 -3.4081 -2.0016 0.9576
10.4724 -1.9301 -2.0016 0.9576
10.6488 -0.0304 -2.0016 0.9576
10.6430 0.3516 -2.0016 0.9576
10.6235 0.7332 -2.0016 0.9576
10.5904 1.1138 -2.0016 0.9576
10.5436 1.4930 -2.0016 0.9576
10.4833 1.8703 -2.0016 0.9576
10.4094 2.2451 -2.0016 0.9576
9.9813 3.7109 -2.0016 0.9576
9.5249 4.7618 -2.0016 0.9576
9.3479 5.1004 -2.0016 0.9576
9.1589 5.4325 -2.0016 0.9576
8.9581 5.7575 -2.0016 0.9576
7.2462 7.8032 -2.0016 0.9576
6.9616 8.0582 -2.0016 0.9576
6.3659 8.5366 -2.0016 0.9576
6.0556 8.7594 -2.0016 0.9576
5.4119 9.1711 -2.0016 0.9576
5.0770 9.3549 -2.0006 0.9576
4.2012 9.2711 -1.9132 0.9594
3.7370 9.1018 -1.8494 0.9607
3.4081 9.2300 -1.8494 0.9607
3.0748 9.3463 -1.8494 0.9607
2.3967 9.5427 -1.8494 0.9607
1.7064 9.6900 -1.8494 0.9607
0.6555 9.8172 -1.8494 0.9607
-1.1069 9.7766 -1.8494 0.9607
-1.3023 8.6985 -1.6532 0.9648
-2.1508 9.6011 -1.8494 0.9607
-2.8337 9.4222 -1.8494 0.9607
-3.1698 9.3145 -1.8494 0.9607
-4.1522 8.9200 -1.8494 0.9607
-4.4695 8.7653 -1.8494 0.9607
-5.0865 8.4223 -1.8494 0.9607
-7.3252 7.7290 -2.0016 0.9576
-7.5978 7.4613 -2.0016 0.9576
-7.8606 7.1839 -2.0016 0.9576
-8.1132 6.8973 -2.0016 0.9576
-8.8073 5.9858 -2.0016 0.9576
-9.5729 4.6645 -2.0016 0.9576
-9.8827 3.9661 -2.0016 0.9576
-10.0186 3.6091 -2.0016 0.9576
-10.2516 2.8815 -2.0016 0.9576
-10.4318 2.1390 -2.0016 0.9576
-10.5583 1.3855 -2.0016 0.9576
-10.6012 1.0059 -2.0016 0.9576
-10.6106 -0.9020 -2.0016 0.9576
-10.5714 -1.2820 -2.0016 0.9576
-9.6548 -2.2435 -1.8631 0.9605
-9.4381 -2.9204 -1.8570 0.9606
-9.3273 -3.2571 -1.8570 0.9606
-9.2044 -3.5896 -1.8570 0.9606
-9.0697 -3.9175 -1.8570 0.9606
-8.9234 -4.2403 -1.8570 0.9606
-8.7655 -4.5577 -1.8570 0.9606
-8.5964 -4.8692 -1.8570 0.9606
-8.2251 -5.4730 -1.8570 0.9606
-8.6482 -6.2134 -2.0016 0.9576
-8.4197 -6.5196 -2.0016 0.9576
-8.1804 -6.8175 -2.0016 0.9576
-7.9306 -7.1065 -2.0016 0.9576
-7.6706 -7.3864 -2.0016 0.9576
-7.4007 -7.6569 -2.0016 0.9576
-7.1212 -7.9174 -2.0016 0.9576
-6.8326 -8.1678 -2.0016 0.9576
-6.5352 -8.4076 -2.0016 0.9576
-6.2294 -8.6367 -2.0016 0.9576
-5.9156 -8.8546 -2.0016 0.9576
-5.5941 -9.0611 -2.0016 0.9576
-5.2655 -9.2559 -2.0016 0.9576
-4.5883 -9.6096 -2.0016 0.9576
-4.2406 -9.7680 -2.0016 0.9576
-3.1667 -10.1671 -2.0016 0.9576
-1.6799 -10.5155 -2.0016 0.9576
-0.5405 -10.6351 -2.0016 0.9576
0.2235 -10.6465 -2.0016 0.9576
1.7439 -10.5050 -2.0016 0.9576
4.3000 -9.7420 -2.0016 0.9576
4.6467 -9.5815 -2.0016 0.9576
5.9694 -8.8183 -2.0016 0.9576
6.2819 -8.5985 -2.0016 0.9576
7.4472 -7.6116 -2.0016 0.9576
7.7154 -7.3396 -2.0016 0.9576
7.9738 -7.0581 -2.0016 0.9576
8.6859 -6.1606 -2.0016 0.9576
8.9013 -5.8450 -2.0016 0.9576
9.2975 -5.1918 -2.0016 0.9576
9.4777 -4.8549 -2.0016 0.9576
10.2961 -2.7182 -2.0016 0.9576
10.3869 -2.3471 -2.0016 0.9576
10.5285 -1.5963 -2.0016 0.9576
10.5790 -1.2176 -2.0016 0.9576
10.6486 -0.0740 -2.0016 0.9576
10.6444 0.3081 -2.0016 0.9576
10.6265 0.6897 -2.0016 0.9576
10.5949 1.0705 -2.0016 0.9576
10.5497 1.4499 -2.0016 0.9576
10.4909 1.8274 -2.0016 0.9576
10.1216 3.3091 -2.0016 0.9576
9.9964 3.6700 -2.0016 0.9576
-0.7074 8.7203 -1.8494 0.9649
-2.5540 8.3679 -1.8494 0.9649
-2.8525 8.2709 -1.8494 0.9649
-3.1831 8.2559 -1.8703 0.9645
-3.5262 8.2510 -1.8967 0.9640
-3.8793 8.2456 -1.9262 0.9634
-4.2439 8.2395 -1.9591 0.9628
-4.6177 8.2261 -1.9941 0.9622
-5.2102 7.8959 -1.9997 0.9621
-5.4953 7.7113 -2.0016 0.9620
-5.7684 7.5092 -2.0016 0.9620
-6.2920 7.0763 -2.0016 0.9620
-6.5418 6.8460 -2.0016 0.9620
-6.7831 6.6069 -2.0016 0.9620
-7.6584 5.5688 -2.0016 0.9620
-8.0379 5.0054 -2.0016 0.9620
-8.2123 4.7138 -2.0016 0.9620
-8.9217 3.1727 -2.0016 0.9620
-9.0297 2.8506 -2.0016 0.9620
-9.1262 2.5249 -2.0016 0.9620
-9.2109 2.1959 -2.0016 0.9620
-9.3446 1.5298 -2.0016 0.9620
-9.3935 1.1936 -2.0016 0.9620
-9.4673 0.1775 -2.0016 0.9620
-9.4557 -0.5017 -2.0016 0.9620
-9.4316 -0.8406 -2.0016 0.9620
-9.3954 -1.1784 -2.0016 0.9620
-9.2144 -2.1810 -2.0016 0.9620
-7.7777 -4.0846 -1.8570 0.9647
-6.5528 -6.8354 -2.0016 0.9620
-5.7805 -7.4999 -2.0016 0.9620
-4.9413 -8.0775 -2.0016 0.9620
-4.3495 -8.4110 -2.0016 0.9620
-4.0449 -8.5616 -2.0016 0.9620
-3.7352 -8.7012 -2.0016 0.9620
-3.4207 -8.8296 -2.0016 0.9620
-3.1017 -8.9466 -2.0016 0.9620
-2.4523 -9.1460 -2.0016 0.9620
-1.4555 -9.3565 -2.0016 0.9620
-1.1189 -9.4027 -2.0016 0.9620
-0.4419 -9.4587 -2.0016 0.9620
-0.1023 -9.4685 -2.0016 0.9620
0.5769 -9.4514 -2.0016 0.9620
0.9155 -9.4247 -2.0016 0.9620
1.5889 -9.3348 -2.0016 0.9620
2.2542 -9.1968 -2.0016 0.9620
2.5826 -9.1100 -2.0016 0.9620
3.5464 -8.7798 -2.0016 0.9620
3.8591 -8.6470 -2.0016 0.9620
4.1668 -8.5030 -2.0016 0.9620
4.7657 -8.1823 -2.0016 0.9620
5.0562 -8.0061 -2.0016 0.9620
5.3401 -7.8196 -2.0016 0.9620
6.6497 -6.7412 -2.0016 0.9620
7.5456 -5.7207 -2.0016 0.9620
8.2862 -4.5827 -2.0016 0.9620
8.4453 -4.2825 -2.0016 0.9620
8.5935 -3.9768 -2.0016 0.9620
8.9710 -3.0305 -2.0016 0.9620
9.3678 -1.3811 -2.0016 0.9620
9.4113 -1.0442 -2.0016 0.9620
9.4427 -0.7059 -2.0016 0.9620
9.4639 0.3127 -2.0016 0.9620
9.4466 0.6520 -2.0016 0.9620
9.3755 1.3276 -2.0016 0.9620
9.3218 1.6631 -2.0016 0.9620
9.1786 2.3272 -2.0016 0.9620
8.8755 3.2998 -2.0016 0.9620
8.7514 3.6161 -2.0016 0.9620
8.6160 3.9277 -2.0016 0.9620
8.3122 4.5353 -2.0016 0.9620
8.1442 4.8306 -2.0016 0.9620
7.7769 5.4021 -2.0016 0.9620
7.5781 5.6776 -2.0016 0.9620
7.3695 5.9458 -2.0016 0.9620
7.1515 6.2063 -2.0016 0.9620
6.1903 7.1654 -2.0016 0.9620
5.9293 7.3828 -2.0016 0.9620
5.6606 7.5908 -2.0016 0.9620
3.9074 8.6226 -2.0011 0.9620
3.5882 8.7393 -1.9970 0.9621
3.2431 8.7830 -1.9791 0.9624
2.8464 8.6521 -1.9253 0.9634
2.1312 8.4854 -1.8494 0.9649
1.2073 8.6653 -1.8494 0.9649
0.8956 8.7030 -1.8494 0.9649
-0.0446 8.7489 -1.8494 0.9649
-0.6717 8.7232 -1.8494 0.9649
-0.9842 8.6935 -1.8494 0.9649
-1.6050 8.6005 -1.8494 0.9649
-2.2175 8.4633 -1.8494 0.9649
-3.1445 8.2564 -1.8675 0.9645
-4.2017 8.2402 -1.9552 0.9629
-4.5776 8.2335 -1.9913 0.9622
-4.8826 8.0849 -1.9965 0.9621
-5.7376 7.5327 -2.0016 0.9620
-6.5137 6.8727 -2.0016 0.9620
-7.6355 5.6001 -2.0016 0.9620
-8.6556 3.8397 -2.0016 0.9620
-8.7877 3.5267 -2.0016 0.9620
-8.9086 3.2092 -2.0016 0.9620
-9.0180 2.8876 -2.0016 0.9620
-9.1158 2.5622 -2.0016 0.9620
-9.2760 1.9020 -2.0016 0.9620
-9.4665 0.2163 -2.0016 0.9620
-9.4577 -0.4630 -2.0016 0.9620
-9.4350 -0.8020 -2.0016 0.9620
-9.4002 -1.1400 -2.0016 0.9620
-9.3532 -1.4764 -2.0016 0.9620
-9.2942 -1.8110 -2.0016 0.9620
-8.4802 -2.2941 -1.8570 0.9647
-8.3924 -2.5969 -1.8570 0.9647
-8.2939 -2.8963 -1.8570 0.9647
-7.9347 -3.7705 -1.8570 0.9647
-7.7944 -4.0527 -1.8570 0.9647
-7.6440 -4.3297 -1.8570 0.9647
-7.4837 -4.6012 -1.8570 0.9647
-6.7487 -5.6243 -1.8570 0.9647
-6.8207 -6.5681 -2.0016 0.9620
-6.3323 -7.0402 -2.0016 0.9620
-6.0756 -7.2629 -2.0016 0.9620
-5.8112 -7.4761 -2.0016 0.9620
-5.5392 -7.6798 -2.0016 0.9620
-4.6821 -8.2304 -2.0016 0.9620
-4.3838 -8.3931 -2.0016 0.9620
-3.1383 -8.9338 -2.0016 0.9620
-2.8158 -9.0407 -2.0016 0.9620
-2.1604 -9.2193 -2.0016 0.9620
-1.8282 -9.2908 -2.0016 0.9620
-1.1574 -9.3980 -2.0016 0.9620
0.5382 -9.4537 -2.0016 0.9620
0.8770 -9.4283 -2.0016 0.9620
1.2146 -9.3908 -2.0016 0.9620
1.5507 -9.3412 -2.0016 0.9620
2.5453 -9.1205 -2.0016 0.9620
2.8709 -9.0233 -2.0016 0.9620
3.5104 -8.7943 -2.0016 0.9620
3.8236 -8.6627 -2.0016 0.9620
4.1319 -8.5199 -2.0016 0.9620
5.0233 -8.0267 -2.0016 0.9620
5.3081 -7.8414 -2.0016 0.9620
5.8566 -7.4406 -2.0016 0.9620
6.3750 -7.0015 -2.0016 0.9620
6.6221 -6.7683 -2.0016 0.9620
6.8606 -6.5264 -2.0016 0.9620
7.0903 -6.2761 -2.0016 0.9620
7.3109 -6.0177 -2.0016 0.9620
7.5221 -5.7516 -2.0016 0.9620
7.7236 -5.4780 -2.0016 0.9620
7.9151 -5.1975 -2.0016 0.9620
8.0965 -4.9102 -2.0016 0.9620
8.2674 -4.6166 -2.0016 0.9620
8.4277 -4.3170 -2.0016 0.9620
8.5771 -4.0119 -2.0016 0.9620
8.7155 -3.7016 -2.0016 0.9620
9.0628 -2.7439 -2.0016 0.9620
9.1553 -2.4170 -2.0016 0.9620
9.2362 -2.0870 -2.0016 0.9620
9.3051 -1.7543 -2.0016 0.9620
9.3620 -1.4194 -2.0016 0.9620
9.4069 -1.0827 -2.0016 0.9620
9.4603 -0.4054 -2.0016 0.9620
9.4688 -0.0658 -2.0016 0.9620
9.4651 0.2739 -2.0016 0.9620
9.0002 2.9425 -2.0016 0.9620
-0.6687 8.2423 -1.9435 0.9666
-0.9672 8.2411 -1.9501 0.9665
-1.2681 8.2394 -1.9593 0.9663
-2.1846 8.2004 -1.9945 0.9657
-3.3455 7.8283 -2.0008 0.9656
-4.1688 7.4264 -2.0016 0.9656
-4.4325 7.2721 -2.0016 0.9656
-4.6905 7.1084 -2.0016 0.9656
-5.6590 6.3644 -2.0016 0.9656
-5.8837 6.1573 -2.0016 0.9656
-6.1008 5.9423 -2.0016 0.9656
-6.7038 5.2524 -2.0016 0.9656
-6.8879 5.0086 -2.0016 0.9656
-7.0632 4.7583 -2.0016 0.9656
-7.2293 4.5018 -2.0016 0.9656
-7.5335 3.9719 -2.0016 0.9656
-7.6711 3.6991 -2.0016 0.9656
-7.7989 3.4215 -2.0016 0.9656
-7.9166 3.1396 -2.0016 0.9656
-8.0242 2.8536 -2.0016 0.9656
-8.2843 1.9750 -2.0016 0.9656
-8.3498 1.6765 -2.0016 0.9656
-8.4046 1.3759 -2.0016 0.9656
-8.4485 1.0735 -2.0016 0.9656
-8.5037 0.4650 -2.0016 0.9656
-8.5152 -0.1459 -2.0016 0.9656
-8.4502 -1.0599 -2.0016 0.9656
-8.4068 -1.3623 -2.0016 0.9656
-8.2875 -1.9616 -2.0016 0.9656
-8.0837 -2.2224 -1.9704 0.9661
-7.4488 -2.6354 -1.8570 0.9681
-7.3495 -2.9009 -1.8570 0.9681
-7.2407 -3.1627 -1.8570 0.9681
-6.9953 -3.6737 -1.8570 0.9681
-6.5601 -4.4040 -1.8570 0.9681
-6.3979 -4.6365 -1.8570 0.9681
-6.0490 -5.0833 -1.8570 0.9681
-5.8628 -5.2970 -1.8570 0.9681
-5.8936 -6.1478 -2.0016 0.9656
-5.4376 -6.5545 -2.0016 0.9656
-5.1990 -6.7454 -2.0016 0.9656
-4.9537 -6.9275 -2.0016 0.9656
-4.7020 -7.1008 -2.0016 0.9656
-4.4442 -7.2649 -2.0016 0.9656
-4.1808 -7.4196 -2.0016 0.9656
-2.2056 -8.2259 -2.0016 0.9656
-1.9091 -8.2997 -2.0016 0.9656
-1.6101 -8.3629 -2.0016 0.9656
-1.3091 -8.4152 -2.0016 0.9656
-0.7023 -8.4874 -2.0016 0.9656
-0.3974 -8.5072 -2.0016 0.9656
0.8234 -8.4765 -2.0016 0.9656
1.1270 -8.4415 -2.0016 0.9656
2.0274 -8.2716 -2.0016 0.9656
2.6152 -8.1050 -2.0016 0.9656
3.1896 -7.8966 -2.0016 0.9656
3.4708 -7.7771 -2.0016 0.9656
2.1488 -4.3850 -1.1477 0.9801
2.2279 -4.1615 -1.1094 0.9808
4.2863 -7.3592 -2.0016 0.9656
5.9808 -6.0630 -2.0016 0.9656
6.7865 -5.1452 -2.0016 0.9656
6.9667 -4.8985 -2.0016 0.9656
7.1379 -4.6454 -2.0016 0.9656
7.4526 -4.1217 -2.0016 0.9656
7.7290 -3.5767 -2.0016 0.9656
7.8523 -3.2972 -2.0016 0.9656
8.0685 -2.7257 -2.0016 0.9656
8.1611 -2.4345 -2.0016 0.9656
8.3754 -1.5436 -2.0016 0.9656
8.4254 -1.2422 -2.0016 0.9656
8.4645 -0.9391 -2.0016 0.9656
8.4697 0.8908 -2.0016 0.9656
8.4323 1.1940 -2.0016 0.9656
8.3250 1.7956 -2.0016 0.9656
8.2552 2.0930 -2.0016 0.9656
7.8710 3.2523 -2.0016 0.9656
7.7493 3.5325 -2.0016 0.9656
7.4760 4.0791 -2.0016 0.9656
7.1643 4.6046 -2.0016 0.9656
6.9945 4.8586 -2.0016 0.9656
6.6282 5.3476 -2.0016 0.9656
6.4321 5.5820 -2.0016 0.9656
5.3328 6.6401 -2.0016 0.9656
4.8430 7.0054 -2.0016 0.9656
4.5885 7.1746 -2.0016 0.9656
3.7912 7.6261 -2.0016 0.9656
3.5152 7.7572 -2.0016 0.9656
2.6615 8.0899 -2.0016 0.9656
2.3668 8.1708 -1.9993 0.9657
1.7710 8.3013 -1.9949 0.9657
1.4641 8.3143 -1.9841 0.9659
0.8501 8.2611 -1.9518 0.9665
0.2539 8.2433 -1.9383 0.9667
-0.0420 8.2435 -1.9374 0.9667
-0.3379 8.2432 -1.9390 0.9667
-0.6347 8.2425 -1.9429 0.9666
-0.9330 8.2413 -1.9493 0.9665
-1.2336 8.2396 -1.9581 0.9663
-1.8447 8.2350 -1.9834 0.9659
-2.4455 8.1316 -1.9957 0.9657
-2.7377 8.0445 -1.9971 0.9657
-3.0269 7.9477 -1.9988 0.9657
-3.8687 7.5870 -2.0016 0.9656
-4.9141 6.9557 -2.0016 0.9656
-6.2865 5.7454 -2.0016 0.9656
-6.4886 5.5162 -2.0016 0.9656
-6.6823 5.2798 -2.0016 0.9656
-6.8674 5.0367 -2.0016 0.9656
-7.0437 4.7871 -2.0016 0.9656
-7.5172 4.0027 -2.0016 0.9656
-7.6559 3.7305 -2.0016 0.9656
-8.1108 2.5971 -2.0016 0.9656
-8.4440 1.1081 -2.0016 0.9656
-8.5142 0.1945 -2.0016 0.9656
-8.5157 -0.1110 -2.0016 0.9656
-8.4123 -1.3279 -2.0016 0.9656
-8.1977 -2.2177 -1.9959 0.9657
-7.5482 -2.3356 -1.8570 0.9681
-7.2536 -3.1330 -1.8570 0.9681
-7.1365 -3.3912 -1.8570 0.9681
-6.8750 -3.8942 -1.8570 0.9681
-6.7309 -4.1383 -1.8570 0.9681
-6.5781 -4.3771 -1.8570 0.9681
-5.6915 -5.4806 -1.8570 0.9681
-5.4912 -5.6813 -1.8570 0.9681
-5.6952 -6.3320 -2.0016 0.9656
-4.7310 -7.0815 -2.0016 0.9656
-4.2111 -7.4025 -2.0016 0.9656
-3.9428 -7.5488 -2.0016 0.9656
-2.8226 -8.0351 -2.0016 0.9656
-1.9430 -8.2918 -2.0016 0.9656
-1.6443 -8.3562 -2.0016 0.9656
-0.1268 -8.5155 -2.0016 0.9656
0.4840 -8.5027 -2.0016 0.9656
0.7887 -8.4798 -2.0016 0.9656
1.0924 -8.4461 -2.0016 0.9656
1.9935 -8.2798 -2.0016 0.9656
2.2892 -8.2030 -2.0016 0.9656
2.8715 -8.0177 -2.0016 0.9656
3.4390 -7.7912 -2.0016 0.9656
4.5180 -7.2192 -2.0016 0.9656
5.0240 -6.8767 -2.0016 0.9656
5.5041 -6.4988 -2.0016 0.9656
5.7337 -6.2972 -2.0016 0.9656
6.1704 -5.8699 -2.0016 0.9656
6.3771 -5.6447 -2.0016 0.9656
6.7654 -5.1730 -2.0016 0.9656
7.1188 -4.6746 -2.0016 0.9656
7.2820 -4.4162 -2.0016 0.9656
7.4357 -4.1521 -2.0016 0.9656
7.8387 -3.3293 -2.0016 0.9656
8.0573 -2.7587 -2.0016 0.9656
8.2343 -2.1739 -2.0016 0.9656
8.4202 -1.2766 -2.0016 0.9656
8.5086 -0.3646 -2.0016 0.9656
8.5162 -0.0592 -2.0016 0.9656
8.5129 0.2464 -2.0016 0.9656
8.4986 0.5516 -2.0016 0.9656
8.3901 1.4614 -2.0016 0.9656
8.2637 2.0592 -2.0016 0.9656
8.1846 2.3544 -2.0016 0.9656
-0.6251 7.7052 -2.0016 0.9686
-0.9011 7.6778 -2.0016 0.9686
-3.5398 6.8724 -2.0016 0.9686
-3.7841 6.7410 -2.0016 0.9686
-4.0234 6.6009 -2.0016 0.9686
-4.2576 6.4524 -2.0016 0.9686
-4.4864 6.2955 -2.0016 0.9686
-5.3407 5.5891 -2.0016 0.9686
-5.5377 5.3939 -2.0016 0.9686
-6.0852 4.7677 -2.0016 0.9686
-6.2523 4.5464 -2.0016 0.9686
-6.9632 3.3577 -2.0016 0.9686
-7.0792 3.1058 -2.0016 0.9686
-7.1860 2.8498 -2.0016 0.9686
-7.2836 2.5902 -2.0016 0.9686
-7.3719 2.3273 -2.0016 0.9686
-7.4506 2.0613 -2.0016 0.9686
-7.5198 1.7927 -2.0016 0.9686
-7.7189 0.4221 -2.0016 0.9686
-7.7291 0.1449 -2.0016 0.9686
-7.7000 -0.6863 -2.0016 0.9686
-7.6309 -1.2366 -2.0016 0.9686
-7.5817 -1.5096 -2.0016 0.9686
-7.4539 -2.0493 -2.0016 0.9686
-7.1046 -2.2303 -1.9280 0.9697
-6.7770 -2.3977 -1.8613 0.9707
-6.6712 -2.6332 -1.8570 0.9708
-6.5725 -2.8708 -1.8570 0.9708
-6.4652 -3.1047 -1.8570 0.9708
-6.2260 -3.5603 -1.8570 0.9708
-6.0943 -3.7814 -1.8570 0.9708
-5.9547 -3.9975 -1.8570 0.9708
-5.8075 -4.2086 -1.8570 0.9708
-5.6527 -4.4142 -1.8570 0.9708
-5.4908 -4.6141 -1.8570 0.9708
-5.3217 -4.8081 -1.8570 0.9708
-5.1458 -4.9960 -1.8570 0.9708
-4.9633 -5.1773 -1.8570 0.9708
-4.5793 -5.5199 -1.8570 0.9708
-4.3783 -5.6806 -1.8570 0.9708
-4.4965 -6.2882 -2.0016 0.9686
-4.2681 -6.4455 -2.0016 0.9686
-3.7949 -6.7349 -2.0016 0.9686
-3.5509 -6.8667 -2.0016 0.9686
-2.2686 -7.3901 -2.0016 0.9686
-1.7329 -7.5338 -2.0016 0.9686
-1.4615 -7.5911 -2.0016 0.9686
-0.9135 -7.6763 -2.0016 0.9686
-0.6375 -7.7042 -2.0016 0.9686
-0.0835 -7.7300 -2.0016 0.9686
0.4710 -7.7161 -2.0016 0.9686
0.7475 -7.6943 -2.0016 0.9686
1.0230 -7.6625 -2.0016 0.9686
1.2972 -7.6209 -2.0016 0.9686
1.8403 -7.5082 -2.0016 0.9686
2.1084 -7.4374 -2.0016 0.9686
2.3739 -7.3570 -2.0016 0.9686
2.6363 -7.2671 -2.0016 0.9686
2.8953 -7.1678 -2.0016 0.9686
3.1505 -7.0594 -2.0016 0.9686
2.1081 -4.3018 -1.2404 0.9804
2.2012 -4.1118 -1.2076 0.9809
4.1278 -6.5362 -2.0016 0.9686
5.6228 -5.3052 -2.0016 0.9686
6.3238 -4.4464 -2.0016 0.9686
6.4792 -4.2167 -2.0016 0.9686
6.7648 -3.7413 -2.0016 0.9686
7.0157 -3.2466 -2.0016 0.9686
7.2304 -2.7352 -2.0016 0.9686
7.3239 -2.4741 -2.0016 0.9686
7.4079 -2.2098 -2.0016 0.9686
7.5473 -1.6730 -2.0016 0.9686
7.6025 -1.4011 -2.0016 0.9686
7.6478 -1.1275 -2.0016 0.9686
7.6833 -0.8524 -2.0016 0.9686
7.7090 -0.5763 -2.0016 0.9686
7.7305 -0.0221 -2.0016 0.9686
7.7121 0.5323 -2.0016 0.9686
7.6881 0.8086 -2.0016 0.9686
7.6103 1.3577 -2.0016 0.9686
7.5567 1.6299 -2.0016 0.9686
7.4934 1.8999 -2.0016 0.9686
7.4204 2.1675 -2.0016 0.9686
7.2459 2.6939 -2.0016 0.9686
7.0341 3.2065 -2.0016 0.9686
6.6489 3.9437 -2.0016 0.9686
6.5031 4.1796 -2.0016 0.9686
6.3490 4.4102 -2.0016 0.9686
6.0165 4.8541 -2.0016 0.9686
5.6530 5.2730 -2.0016 0.9686
5.4602 5.4724 -2.0016 0.9686
5.0537 5.8498 -2.0016 0.9686
4.8406 6.0273 -2.0016 0.9686
4.1651 6.5125 -2.0016 0.9686
3.9288 6.6577 -2.0016 0.9686
3.6874 6.7944 -2.0016 0.9686
3.1908 7.0413 -2.0016 0.9686
2.9361 7.1512 -2.0016 0.9686
2.1509 7.4252 -2.0016 0.9686
0.2380 7.7268 -2.0016 0.9686
-0.3167 7.7240 -2.0016 0.9686
-0.5935 7.7077 -2.0016 0.9686
-0.8696 7.6814 -2.0016 0.9686
-1.1446 7.6453 -2.0016 0.9686
-1.4182 7.5993 -2.0016 0.9686
-1.6899 7.5435 -2.0016 0.9686
-2.2264 7.4029 -2.0016 0.9686
-2.4905 7.3183 -2.0016 0.9686
-3.0088 7.1209 -2.0016 0.9686
-3.2623 7.0084 -2.0016 0.9686
-3.5116 6.8869 -2.0016 0.9686
-4.9018 5.9777 -2.0016 0.9686
-5.1131 5.7980 -2.0016 0.9686
-5.3178 5.6109 -2.0016 0.9686
-5.5156 5.4165 -2.0016 0.9686
-5.7064 5.2152 -2.0016 0.9686
-6.0656 4.7926 -2.0016 0.9686
-6.3936 4.3454 -2.0016 0.9686
-6.5454 4.1132 -2.0016 0.9686
-6.9494 3.3862 -2.0016 0.9686
-7.2730 2.6200 -2.0016 0.9686
-7.3623 2.3574 -2.0016 0.9686
-7.4421 2.0918 -2.0016 0.9686
-7.5123 1.8235 -2.0016 0.9686
-7.6238 1.2801 -2.0016 0.9686
-7.7172 0.4537 -2.0016 0.9686
-7.7298 -0.1008 -2.0016 0.9686
-7.7212 -0.3780 -2.0016 0.9686
-7.7027 -0.6548 -2.0016 0.9686
-7.6743 -0.9307 -2.0016 0.9686
-7.6359 -1.2054 -2.0016 0.9686
-6.6819 -2.6059 -1.8570 0.9708
-6.5842 -2.8439 -1.8570 0.9708
-6.3633 -3.3086 -1.8570 0.9708
-6.1097 -3.7564 -1.8570 0.9708
-5.9710 -3.9731 -1.8570 0.9708
-5.8246 -4.1848 -1.8570 0.9708
-5.6708 -4.3910 -1.8570 0.9708
-5.5096 -4.5916 -1.8570 0.9708
-5.3413 -4.7863 -1.8570 0.9708
-5.1662 -4.9748 -1.8570 0.9708
-4.4015 -5.6626 -1.8570 0.9708
-4.2944 -6.4279 -2.0016 0.9686
-3.8225 -6.7193 -2.0016 0.9686
-3.3309 -6.9761 -2.0016 0.9686
-2.5621 -7.2936 -2.0016 0.9686
-2.0326 -7.4585 -2.0016 0.9686
-1.7637 -7.5266 -2.0016 0.9686
-0.6690 -7.7015 -2.0016 0.9686
-0.1151 -7.7296 -2.0016 0.9686
0.1622 -7.7288 -2.0016 0.9686
0.4394 -7.7180 -2.0016 0.9686
0.7160 -7.6973 -2.0016 0.9686
0.9916 -7.6666 -2.0016 0.9686
1.2660 -7.6261 -2.0016 0.9686
1.5388 -7.5758 -2.0016 0.9686
1.8095 -7.5157 -2.0016 0.9686
2.0780 -7.4460 -2.0016 0.9686
2.3438 -7.3666 -2.0016 0.9686
2.6065 -7.2778 -2.0016 0.9686
2.1067 -4.3439 -1.2500 0.9802
4.1010 -6.5530 -2.0016 0.9686
4.7813 -6.0745 -2.0016 0.9686
4.9962 -5.8991 -2.0016 0.9686
5.4063 -5.5257 -2.0016 0.9686
5.9686 -4.9128 -2.0016 0.9686
6.1410 -4.6956 -2.0016 0.9686
6.3055 -4.4723 -2.0016 0.9686
6.4619 -4.2432 -2.0016 0.9686
6.6099 -4.0087 -2.0016 0.9686
7.0023 -3.2753 -2.0016 0.9686
7.2192 -2.7648 -2.0016 0.9686
7.3988 -2.2401 -2.0016 0.9686
7.4744 -1.9733 -2.0016 0.9686
7.5404 -1.7039 -2.0016 0.9686
7.5967 -1.4322 -2.0016 0.9686
7.6798 -0.8839 -2.0016 0.9686
7.7234 -0.3310 -2.0016 0.9686
7.7273 0.2236 -2.0016 0.9686
7.7143 0.5007 -2.0016 0.9686
7.6913 0.7771 -2.0016 0.9686
7.6585 1.0525 -2.0016 0.9686
7.5633 1.5989 -2.0016 0.9686
7.5011 1.8692 -2.0016 0.9686
7.4292 2.1371 -2.0016 0.9686
7.1566 2.9229 -2.0016 0.9686
-0.5717 7.0472 -2.0016 0.9710
-1.0755 6.9880 -2.0016 0.9710
-1.3255 6.9450 -2.0016 0.9710
-1.5738 6.8929 -2.0016 0.9710
-1.8200 6.8321 -2.0016 0.9710
-2.3052 6.6840 -2.0016 0.9710
-2.5435 6.5970 -2.0016 0.9710
-2.7785 6.5015 -2.0016 0.9710
-3.2375 6.2856 -2.0016 0.9710
-3.8941 5.9013 -2.0016 0.9710
-4.3071 5.6070 -2.0016 0.9710
-4.5055 5.4488 -2.0016 0.9710
-5.2385 4.7484 -2.0016 0.9710
-5.7184 4.1581 -2.0016 0.9710
-6.1320 3.5197 -2.0016 0.9710
-6.3686 3.0710 -2.0016 0.9710
-6.4746 2.8406 -2.0016 0.9710
-6.5724 2.6065 -2.0016 0.9710
-6.6616 2.3690 -2.0016 0.9710
-6.8143 1.8853 -2.0016 0.9710
-6.9774 1.1423 -2.0016 0.9710
-7.0139 0.8912 -2.0016 0.9710
-7.0414 0.6391 -2.0016 0.9710
-7.0598 0.3861 -2.0016 0.9710
-7.0691 0.1325 -2.0016 0.9710
-7.0604 -0.3746 -2.0016 0.9710
-7.0424 -0.6277 -2.0016 0.9710
-7.0154 -0.8799 -2.0016 0.9710
-6.9793 -1.1310 -2.0016 0.9710
-6.8174 -1.8743 -2.0016 0.9710
-6.3196 -2.2359 -1.8977 0.9725
-6.1015 -2.4083 -1.8570 0.9731
-6.0112 -2.6257 -1.8570 0.9731
-5.6943 -3.2563 -1.8570 0.9731
-5.5738 -3.4584 -1.8570 0.9731
-5.0219 -4.2201 -1.8570 0.9731
-4.8673 -4.3975 -1.8570 0.9731
-4.7064 -4.5693 -1.8570 0.9731
-4.5394 -4.7352 -1.8570 0.9731
-4.3666 -4.8950 -1.8570 0.9731
-4.0044 -5.1955 -1.8570 0.9731
-2.5541 -6.5929 -2.0016 0.9710
-2.3160 -6.6803 -2.0016 0.9710
-2.0749 -6.7590 -2.0016 0.9710
-1.8311 -6.8291 -2.0016 0.9710
-0.5831 -7.0462 -2.0016 0.9710
-0.3299 -7.0626 -2.0016 0.9710
0.1773 -7.0681 -2.0016 0.9710
0.4307 -7.0572 -2.0016 0.9710
0.6836 -7.0372 -2.0016 0.9710
0.9356 -7.0082 -2.0016 0.9710
1.1864 -6.9701 -2.0016 0.9710
1.4357 -6.9230 -2.0016 0.9710
1.6831 -6.8671 -2.0016 0.9710
2.1712 -6.7287 -2.0016 0.9710
2.4111 -6.6465 -2.0016 0.9710
2.0941 -4.2734 -1.3472 0.9804
3.7753 -5.9780 -2.0016 0.9710
3.9874 -5.8387 -2.0016 0.9710
4.1942 -5.6919 -2.0016 0.9710
5.4773 -4.4709 -2.0016 0.9710
6.0604 -3.6415 -2.0016 0.9710
6.3059 -3.1976 -2.0016 0.9710
6.4166 -2.9694 -2.0016 0.9710
6.5190 -2.7373 -2.0016 0.9710
6.6130 -2.5017 -2.0016 0.9710
6.9028 -1.5301 -2.0016 0.9710
6.9532 -1.2815 -2.0016 0.9710
6.9947 -1.0312 -2.0016 0.9710
7.0272 -0.7797 -2.0016 0.9710
7.0650 -0.2738 -2.0016 0.9710
7.0703 -0.0202 -2.0016 0.9710
6.9604 1.2418 -2.0016 0.9710
6.8535 1.7376 -2.0016 0.9710
6.7867 1.9824 -2.0016 0.9710
6.6271 2.4639 -2.0016 0.9710
6.5345 2.7000 -2.0016 0.9710
6.2066 3.3864 -2.0016 0.9710
5.6584 4.2393 -2.0016 0.9710
5.5027 4.4396 -2.0016 0.9710
5.3399 4.6341 -2.0016 0.9710
5.1702 4.8227 -2.0016 0.9710
4.9939 5.0051 -2.0016 0.9710
4.4273 5.5126 -2.0016 0.9710
4.2267 5.6679 -2.0016 0.9710
3.8094 5.9563 -2.0016 0.9710
2.9183 6.4400 -2.0016 0.9710
2.4490 6.6326 -2.0016 0.9710
2.2095 6.7162 -2.0016 0.9710
1.9672 6.7912 -2.0016 0.9710
1.7223 6.8573 -2.0016 0.9710
1.4752 6.9147 -2.0016 0.9710
1.2262 6.9632 -2.0016 0.9710
0.9756 7.0027 -2.0016 0.9710
0.7238 7.0332 -2.0016 0.9710
0.2176 7.0670 -2.0016 0.9710
-0.2896 7.0644 -2.0016 0.9710
-1.0469 6.9924 -2.0016 0.9710
-1.2971 6.9503 -2.0016 0.9710
-2.2778 6.6934 -2.0016 0.9710
-2.5165 6.6073 -2.0016 0.9710
-3.2117 6.2987 -2.0016 0.9710
-3.4356 6.1795 -2.0016 0.9710
-3.6551 6.0523 -2.0016 0.9710
-4.2842 5.6245 -2.0016 0.9710
-4.4832 5.4672 -2.0016 0.9710
-4.8636 5.1317 -2.0016 0.9710
-5.3868 4.5795 -2.0016 0.9710
-5.5476 4.3833 -2.0016 0.9710
-5.7013 4.1815 -2.0016 0.9710
-5.9864 3.7619 -2.0016 0.9710
-6.3559 3.0970 -2.0016 0.9710
-6.4630 2.8670 -2.0016 0.9710
-6.5616 2.6333 -2.0016 0.9710
-6.6519 2.3963 -2.0016 0.9710
-6.9727 1.1708 -2.0016 0.9710
-7.0102 0.9199 -2.0016 0.9710
-7.0581 0.4149 -2.0016 0.9710
-7.0685 0.1615 -2.0016 0.9710
-7.0697 -0.0922 -2.0016 0.9710
-7.0189 -0.8512 -2.0016 0.9710
-6.9839 -1.1024 -2.0016 0.9710
-6.9398 -1.3522 -2.0016 0.9710
-6.7544 -2.0900 -2.0016 0.9710
-6.3926 -2.2323 -1.9169 0.9722
-6.0219 -2.6010 -1.8570 0.9731
-5.8199 -3.0261 -1.8570 0.9731
-5.7076 -3.2329 -1.8570 0.9731
-5.5879 -3.4356 -1.8570 0.9731
-4.7250 -4.5500 -1.8570 0.9731
-4.5588 -4.7166 -1.8570 0.9731
-4.3866 -4.8771 -1.8570 0.9731
-4.2089 -5.0313 -1.8570 0.9731
-4.0257 -5.1791 -1.8570 0.9731
-3.6440 -5.4544 -1.8570 0.9731
-3.4460 -5.5816 -1.8570 0.9731
-3.4960 -6.1455 -2.0016 0.9710
-3.2733 -6.2670 -2.0016 0.9710
-2.5811 -6.5824 -2.0016 0.9710
-2.3433 -6.6707 -2.0016 0.9710
-2.1025 -6.7505 -2.0016 0.9710
-1.1154 -6.9818 -2.0016 0.9710
-0.6119 -7.0438 -2.0016 0.9710
-0.1053 -7.0695 -2.0016 0.9710
0.1484 -7.0688 -2.0016 0.9710
0.4019 -7.0589 -2.0016 0.9710
0.6548 -7.0399 -2.0016 0.9710
0.9069 -7.0119 -2.0016 0.9710
1.1579 -6.9749 -2.0016 0.9710
1.6550 -6.8739 -2.0016 0.9710
1.9005 -6.8101 -2.0016 0.9710
2.6212 -6.5665 -2.0016 0.9710
2.8550 -6.4683 -2.0016 0.9710
2.1723 -4.0978 -1.3130 0.9809
2.3627 -4.0950 -1.3384 0.9805
3.7508 -5.9934 -2.0016 0.9710
3.9634 -5.8550 -2.0016 0.9710
4.7601 -5.2279 -2.0016 0.9710
5.1227 -4.8732 -2.0016 0.9710
5.6166 -4.2946 -2.0016 0.9710
5.9100 -3.8808 -2.0016 0.9710
6.0455 -3.6663 -2.0016 0.9710
6.4044 -2.9956 -2.0016 0.9710
6.5077 -2.7639 -2.0016 0.9710
6.7670 -2.0488 -2.0016 0.9710
6.9479 -1.3099 -2.0016 0.9710
6.9904 -1.0599 -2.0016 0.9710
7.0240 -0.8084 -2.0016 0.9710
7.0485 -0.5559 -2.0016 0.9710
7.0639 -0.3027 -2.0016 0.9710
7.0702 -0.0491 -2.0016 0.9710
7.0674 0.2045 -2.0016 0.9710
7.0555 0.4579 -2.0016 0.9710
7.0345 0.7107 -2.0016 0.9710
6.9175 1.4624 -2.0016 0.9710
6.8605 1.7096 -2.0016 0.9710
6.5455 2.6733 -2.0016 0.9710
-0.5262 6.4862 -2.0016 0.9731
-0.7585 6.4631 -2.0016 0.9731
-0.9899 6.4318 -2.0016 0.9731
-1.4485 6.3442 -2.0016 0.9731
-1.8996 6.2240 -2.0016 0.9731
-2.3410 6.0718 -2.0016 0.9731
-2.5573 5.9839 -2.0016 0.9731
-2.7703 5.8883 -2.0016 0.9731
-2.9798 5.7852 -2.0016 0.9731
-4.4957 4.7048 -2.0016 0.9731
-4.6616 4.5405 -2.0016 0.9731
-4.8215 4.3704 -2.0016 0.9731
-5.5240 3.4399 -2.0016 0.9731
-5.6438 3.2395 -2.0016 0.9731
-6.3301 1.5091 -2.0016 0.9731
-6.3801 1.2810 -2.0016 0.9731
-6.4808 0.5882 -2.0016 0.9731
-6.4978 0.3553 -2.0016 0.9731
-6.5065 -0.1115 -2.0016 0.9731
-6.4818 -0.5777 -2.0016 0.9731
-6.4569 -0.8099 -2.0016 0.9731
-6.4237 -1.0410 -2.0016 0.9731
-6.3325 -1.4989 -2.0016 0.9731
-6.2087 -1.9490 -2.0016 0.9731
-5.6746 -2.2398 -1.8764 0.9748
-5.4424 -2.6136 -1.8570 0.9751
-5.0126 -3.3651 -1.8570 0.9751
-4.8887 -3.5428 -1.8570 0.9751
-4.4798 -4.0475 -1.8570 0.9751
-4.3317 -4.2056 -1.8570 0.9751
-4.1781 -4.3582 -1.8570 0.9751
-3.5117 -4.9110 -1.8570 0.9751
-2.9638 -5.2599 -1.8570 0.9751
-2.1810 -5.6297 -1.8570 0.9751
-1.6853 -6.2855 -2.0016 0.9731
-0.0703 -6.5071 -2.0016 0.9731
0.1632 -6.5054 -2.0016 0.9731
1.0920 -6.4152 -2.0016 0.9731
2.2192 -6.1174 -2.0016 0.9731
2.2612 -5.5980 -1.8570 0.9751
2.0802 -4.2449 -1.4540 0.9804
2.1860 -4.0832 -1.4246 0.9808
2.3764 -4.0801 -1.4523 0.9804
3.8603 -5.2388 -2.0016 0.9731
4.2260 -4.9485 -2.0016 0.9731
4.4008 -4.7937 -2.0016 0.9731
4.5700 -4.6328 -2.0016 0.9731
4.8904 -4.2932 -2.0016 0.9731
5.1856 -3.9315 -2.0016 0.9731
5.3233 -3.7430 -2.0016 0.9731
5.5780 -3.3517 -2.0016 0.9731
5.6946 -3.1494 -2.0016 0.9731
6.0000 -2.5194 -2.0016 0.9731
6.2359 -1.8602 -2.0016 0.9731
6.3533 -1.4083 -2.0016 0.9731
6.4379 -0.9491 -2.0016 0.9731
6.5026 -0.2520 -2.0016 0.9731
6.4920 0.4481 -2.0016 0.9731
6.4718 0.6807 -2.0016 0.9731
6.4432 0.9124 -2.0016 0.9731
6.4063 1.1429 -2.0016 0.9731
6.2465 1.8246 -2.0016 0.9731
6.0143 2.4851 -2.0016 0.9731
5.9213 2.6992 -2.0016 0.9731
5.8206 2.9099 -2.0016 0.9731
5.7125 3.1168 -2.0016 0.9731
5.5970 3.3198 -2.0016 0.9731
5.4743 3.5184 -2.0016 0.9731
5.3446 3.7125 -2.0016 0.9731
5.2080 3.9019 -2.0016 0.9731
4.2542 4.9243 -2.0016 0.9731
4.0748 5.0738 -2.0016 0.9731
3.3072 5.6044 -2.0016 0.9731
2.4716 6.0198 -2.0016 0.9731
2.2541 6.1046 -2.0016 0.9731
1.1286 6.4089 -2.0016 0.9731
0.8979 6.4452 -2.0016 0.9731
0.6662 6.4733 -2.0016 0.9731
0.2003 6.5044 -2.0016 0.9731
-0.0331 6.5074 -2.0016 0.9731
-0.2666 6.5020 -2.0016 0.9731
-0.4996 6.4883 -2.0016 0.9731
-0.7321 6.4662 -2.0016 0.9731
-1.1938 6.3970 -2.0016 0.9731
-1.4225 6.3501 -2.0016 0.9731
-1.8742 6.2318 -2.0016 0.9731
-2.0965 6.1605 -2.0016 0.9731
-2.5328 5.9943 -2.0016 0.9731
-2.7462 5.8996 -2.0016 0.9731
-2.9561 5.7973 -2.0016 0.9731
-3.1621 5.6875 -2.0016 0.9731
-3.3641 5.5704 -2.0016 0.9731
-3.5618 5.4462 -2.0016 0.9731
-4.1263 5.0320 -2.0016 0.9731
-4.4764 4.7232 -2.0016 0.9731
-4.6430 4.5596 -2.0016 0.9731
-4.9580 4.2149 -2.0016 0.9731
-5.3821 3.6579 -2.0016 0.9731
-5.5099 3.4625 -2.0016 0.9731
-5.7439 3.0585 -2.0016 0.9731
-5.8500 2.8505 -2.0016 0.9731
-6.2647 1.7609 -2.0016 0.9731
-6.3238 1.5350 -2.0016 0.9731
-6.4176 1.0776 -2.0016 0.9731
-6.4522 0.8467 -2.0016 0.9731
-6.4963 0.3819 -2.0016 0.9731
-6.5058 0.1486 -2.0016 0.9731
-6.3873 -1.2446 -2.0016 0.9731
-6.2817 -1.6994 -2.0016 0.9731
-6.2167 -1.9236 -2.0016 0.9731
-6.1437 -2.1454 -2.0016 0.9731
-5.7352 -2.2367 -1.8934 0.9746
-5.3566 -2.7852 -1.8570 0.9751
-5.2532 -2.9756 -1.8570 0.9751
-5.0264 -3.3446 -1.8570 0.9751
-4.3489 -4.1878 -1.8570 0.9751
-4.1958 -4.3411 -1.8570 0.9751
-4.0374 -4.4888 -1.8570 0.9751
-3.5318 -4.8966 -1.8570 0.9751
-3.3539 -5.0202 -1.8570 0.9751
-3.1716 -5.1372 -1.8570 0.9751
-2.1568 -6.1397 -2.0016 0.9731
-1.7110 -6.2785 -2.0016 0.9731
-1.0266 -6.4260 -2.0016 0.9731
-0.3303 -6.4991 -2.0016 0.9731
-0.0969 -6.5068 -2.0016 0.9731
0.1366 -6.5060 -2.0016 0.9731
0.3699 -6.4970 -2.0016 0.9731
0.6027 -6.4795 -2.0016 0.9731
0.8347 -6.4537 -2.0016 0.9731
1.0657 -6.4196 -2.0016 0.9731
1.2953 -6.3773 -2.0016 0.9731
1.5233 -6.3267 -2.0016 0.9731
1.9730 -6.2012 -2.0016 0.9731
2.1941 -6.1264 -2.0016 0.9731
2.0786 -4.2860 -1.4651 0.9803
2.1647 -4.0836 -1.4216 0.9808
2.3543 -4.0805 -1.4490 0.9805
3.4522 -5.5163 -2.0016 0.9731
4.0249 -5.1135 -2.0016 0.9731
4.2057 -4.9658 -2.0016 0.9731
4.3812 -4.8117 -2.0016 0.9731
4.5510 -4.6515 -2.0016 0.9731
4.7149 -4.4852 -2.0016 0.9731
5.0243 -4.1356 -2.0016 0.9731
5.1695 -3.9527 -2.0016 0.9731
5.3079 -3.7647 -2.0016 0.9731
5.4396 -3.5719 -2.0016 0.9731
5.6817 -3.1727 -2.0016 0.9731
5.7918 -2.9668 -2.0016 0.9731
6.0770 -2.3274 -2.0016 0.9731
6.2283 -1.8857 -2.0016 0.9731
6.4340 -0.9755 -2.0016 0.9731
6.4648 -0.7441 -2.0016 0.9731
6.4873 -0.5117 -2.0016 0.9731
6.5048 0.1883 -2.0016 0.9731
6.4745 0.6542 -2.0016 0.9731
6.4469 0.8860 -2.0016 0.9731
6.4110 1.1167 -2.0016 0.9731
6.3668 1.3460 -2.0016 0.9731
6.3144 1.5735 -2.0016 0.9731
6.2539 1.7990 -2.0016 0.9731
6.0244 2.4605 -2.0016 0.9731
-0.7019 5.9804 -2.0016 0.9749
-1.1289 5.9147 -2.0016 0.9749
-1.3403 5.8704 -2.0016 0.9749
-1.5500 5.8185 -2.0016 0.9749
-1.7578 5.7592 -2.0016 0.9749
-2.9475 5.2507 -2.0016 0.9749
-3.1339 5.1416 -2.0016 0.9749
-3.3164 5.0259 -2.0016 0.9749
-3.4945 4.9037 -2.0016 0.9749
-3.6682 4.7752 -2.0016 0.9749
-4.0011 4.4999 -2.0016 0.9749
-4.3135 4.2014 -2.0016 0.9749
-4.4614 4.0440 -2.0016 0.9749
-4.7399 3.7137 -2.0016 0.9749
-4.8700 3.5413 -2.0016 0.9749
-4.9939 3.3643 -2.0016 0.9749
-5.2223 2.9976 -2.0016 0.9749
-5.4238 2.6154 -2.0016 0.9749
-5.5141 2.4192 -2.0016 0.9749
-5.8573 1.3964 -2.0016 0.9749
-6.0125 0.3288 -2.0016 0.9749
-6.0204 0.1129 -2.0016 0.9749
-6.0206 -0.1032 -2.0016 0.9749
-5.9439 -0.9632 -2.0016 0.9749
-5.9055 -1.1758 -2.0016 0.9749
-5.8060 -1.5962 -2.0016 0.9749
-5.7450 -1.8035 -2.0016 0.9749
-5.6009 -2.2107 -2.0016 0.9749
-4.7470 -2.9454 -1.8570 0.9767
-4.5236 -3.2782 -1.8570 0.9767
-4.4030 -3.4383 -1.8570 0.9767
-4.2769 -3.5941 -1.8570 0.9767
-4.1452 -3.7452 -1.8570 0.9767
-3.7188 -4.1688 -1.8570 0.9767
-3.5669 -4.2995 -1.8570 0.9767
-3.2494 -4.5442 -1.8570 0.9767
-2.9153 -4.7655 -1.8570 0.9767
-2.5661 -4.9623 -1.8570 0.9767
-2.3864 -5.0511 -1.8570 0.9767
-2.2037 -5.1335 -1.8570 0.9767
-1.8299 -5.2783 -1.8570 0.9767
-1.6394 -5.3405 -1.8570 0.9767
-1.4468 -5.3959 -1.8570 0.9767
-0.4607 -5.5675 -1.8570 0.9767
-0.0603 -5.5862 -1.8570 0.9767
0.9374 -5.5073 -1.8570 0.9767
1.1344 -5.4701 -1.8570 0.9767
1.3299 -5.4259 -1.8570 0.9767
1.5237 -5.3747 -1.8570 0.9767
2.0923 -5.1799 -1.8570 0.9767
3.1505 -4.6134 -1.8570 0.9767
3.3217 -4.5078 -1.8613 0.9767
3.9104 -4.5789 -2.0016 0.9749
4.2286 -4.2868 -2.0016 0.9749
4.6647 -3.8077 -2.0016 0.9749
4.7983 -3.6379 -2.0016 0.9749
4.9257 -3.4634 -2.0016 0.9749
5.0468 -3.2845 -2.0016 0.9749
5.1614 -3.1013 -2.0016 0.9749
5.2693 -2.9142 -2.0016 0.9749
5.3704 -2.7233 -2.0016 0.9749
5.4647 -2.5289 -2.0016 0.9749
5.6319 -2.1305 -2.0016 0.9749
5.7047 -1.9271 -2.0016 0.9749
5.8787 -1.3031 -2.0016 0.9749
5.9571 -0.8783 -2.0016 0.9749
6.0182 0.1988 -2.0016 0.9749
5.9620 0.8442 -2.0016 0.9749
5.8861 1.2695 -2.0016 0.9749
5.7799 1.6883 -2.0016 0.9749
5.4790 2.4976 -2.0016 0.9749
5.2858 2.8840 -2.0016 0.9749
4.9454 3.4352 -2.0016 0.9749
4.5477 3.9467 -2.0016 0.9749
4.2530 4.2626 -2.0016 0.9749
3.7705 4.6948 -2.0016 0.9749
3.5996 4.8271 -2.0016 0.9749
3.0602 5.1858 -2.0016 0.9749
2.6805 5.3919 -2.0016 0.9749
1.8818 5.7199 -2.0016 0.9749
1.6754 5.7837 -2.0016 0.9749
1.2564 5.8889 -2.0016 0.9749
1.0443 5.9302 -2.0016 0.9749
0.8309 5.9638 -2.0016 0.9749
0.6164 5.9898 -2.0016 0.9749
-0.0307 6.0214 -2.0016 0.9749
-0.2467 6.0164 -2.0016 0.9749
-0.4623 6.0037 -2.0016 0.9749
-0.6774 5.9832 -2.0016 0.9749
-1.3163 5.8758 -2.0016 0.9749
-1.5262 5.8248 -2.0016 0.9749
-1.7342 5.7663 -2.0016 0.9749
-1.9399 5.7004 -2.0016 0.9749
-2.1431 5.6271 -2.0016 0.9749
-2.3436 5.5466 -2.0016 0.9749
-2.5411 5.4590 -2.0016 0.9749
-3.1129 5.1544 -2.0016 0.9749
-3.2958 5.0394 -2.0016 0.9749
-3.9827 4.5162 -2.0016 0.9749
-4.1421 4.3704 -2.0016 0.9749
-4.2962 4.2190 -2.0016 0.9749
-4.4448 4.0622 -2.0016 0.9749
-4.7246 3.7330 -2.0016 0.9749
-4.9801 3.3847 -2.0016 0.9749
-5.2100 3.0189 -2.0016 0.9749
-5.3149 2.8301 -2.0016 0.9749
-5.4130 2.6376 -2.0016 0.9749
-5.5042 2.4417 -2.0016 0.9749
-5.5882 2.2427 -2.0016 0.9749
-5.6651 2.0408 -2.0016 0.9749
-5.7346 1.8362 -2.0016 0.9749
-5.7968 1.6293 -2.0016 0.9749
-5.8515 1.4203 -2.0016 0.9749
-5.8987 1.2095 -2.0016 0.9749
-5.9383 0.9971 -2.0016 0.9749
-5.9703 0.7835 -2.0016 0.9749
-5.9945 0.5688 -2.0016 0.9749
-6.0111 0.3534 -2.0016 0.9749
-5.9776 -0.7249 -2.0016 0.9749
-5.9478 -0.9389 -2.0016 0.9749
-5.9103 -1.1516 -2.0016 0.9749
-5.8652 -1.3629 -2.0016 0.9749
-5.8125 -1.5724 -2.0016 0.9749
-5.6848 -1.9852 -2.0016 0.9749
-5.1852 -2.2396 -1.8775 0.9765
-5.0509 -2.4001 -1.8589 0.9767
-4.9565 -2.5772 -1.8570 0.9767
-4.7590 -2.9259 -1.8570 0.9767
-4.6509 -3.0948 -1.8570 0.9767
-4.4171 -3.4203 -1.8570 0.9767
-4.1605 -3.7282 -1.8570 0.9767
-3.8825 -4.0169 -1.8570 0.9767
-3.7359 -4.1536 -1.8570 0.9767
-3.5845 -4.2849 -1.8570 0.9767
-3.4284 -4.4107 -1.8570 0.9767
-3.2680 -4.5309 -1.8570 0.9767
-2.9348 -4.7535 -1.8570 0.9767
-2.5864 -4.9517 -1.8570 0.9767
-1.4689 -5.3899 -1.8570 0.9767
-1.2746 -5.4392 -1.8570 0.9767
-0.8813 -5.5165 -1.8570 0.9767
-0.4835 -5.5655 -1.8570 0.9767
-0.2835 -5.5793 -1.8570 0.9767
0.1172 -5.5853 -1.8570 0.9767
0.3175 -5.5775 -1.8570 0.9767
1.1120 -5.4747 -1.8570 0.9767
2.0711 -5.1884 -1.8570 0.9767
2.3459 -4.0659 -1.5603 0.9804
3.1316 -4.6262 -1.8570 0.9767
3.8916 -4.5949 -2.0016 0.9749
4.2110 -4.3040 -2.0016 0.9749
4.3627 -4.1502 -2.0016 0.9749
4.7834 -3.6575 -2.0016 0.9749
4.9115 -3.4835 -2.0016 0.9749
5.2573 -2.9357 -2.0016 0.9749
5.3592 -2.7452 -2.0016 0.9749
5.5423 -2.3539 -2.0016 0.9749
5.6232 -2.1536 -2.0016 0.9749
5.6968 -1.9505 -2.0016 0.9749
5.8220 -1.5370 -2.0016 0.9749
5.9172 -1.1156 -2.0016 0.9749
5.9534 -0.9026 -2.0016 0.9749
6.0028 -0.4734 -2.0016 0.9749
6.0189 0.1742 -2.0016 0.9749
6.0088 0.3900 -2.0016 0.9749
5.9909 0.6053 -2.0016 0.9749
5.9321 1.0333 -2.0016 0.9749
5.8428 1.4560 -2.0016 0.9749
5.7868 1.6646 -2.0016 0.9749
5.7233 1.8711 -2.0016 0.9749
5.6525 2.0752 -2.0016 0.9749
-0.8514 5.5320 -2.0016 0.9765
-1.0493 5.4979 -2.0016 0.9765
-1.4408 5.4085 -2.0016 0.9765
-1.6339 5.3533 -2.0016 0.9765
-2.3828 5.0646 -2.0016 0.9765
-3.2482 4.5581 -2.0016 0.9765
-3.4097 4.4386 -2.0016 0.9765
-3.5667 4.3135 -2.0016 0.9765
-3.8668 4.0466 -2.0016 0.9765
-4.0095 3.9053 -2.0016 0.9765
-4.5268 3.2917 -2.0016 0.9765
-4.6420 3.1272 -2.0016 0.9765
-4.7512 2.9587 -2.0016 0.9765
-4.9511 2.6104 -2.0016 0.9765
-5.1255 2.2487 -2.0016 0.9765
-5.2029 2.0633 -2.0016 0.9765
-5.2736 1.8754 -2.0016 0.9765
-5.3374 1.6850 -2.0016 0.9765
-5.3944 1.4924 -2.0016 0.9765
-5.4445 1.2980 -2.0016 0.9765
-5.5742 0.5059 -2.0016 0.9765
-5.5963 -0.0959 -2.0016 0.9765
-5.5750 -0.4969 -2.0016 0.9765
-5.5536 -0.6966 -2.0016 0.9765
-5.3968 -1.4837 -2.0016 0.9765
-5.2766 -1.8669 -2.0016 0.9765
-4.5974 -2.4144 -1.8570 0.9782
-4.4124 -2.7378 -1.8570 0.9782
-4.2048 -3.0471 -1.8570 0.9782
-3.7257 -3.6172 -1.8570 0.9782
-3.5935 -3.7485 -1.8570 0.9782
-3.4568 -3.8750 -1.8570 0.9782
-3.3155 -3.9965 -1.8570 0.9782
-3.1700 -4.1129 -1.8570 0.9782
-3.0204 -4.2240 -1.8570 0.9782
-2.5492 -4.5240 -1.8570 0.9782
-2.3852 -4.6126 -1.8570 0.9782
-1.5239 -4.9642 -1.8570 0.9782
-1.3448 -5.0156 -1.8570 0.9782
-1.1640 -5.0606 -1.8570 0.9782
0.3164 -5.1831 -1.8570 0.9782
0.5021 -5.1685 -1.8570 0.9782
0.6872 -5.1471 -1.8570 0.9782
0.8714 -5.1192 -1.8570 0.9782
1.2362 -5.0435 -1.8570 0.9782
1.5946 -4.9419 -1.8570 0.9782
1.7709 -4.8815 -1.8570 0.9782
2.0003 -4.4821 -1.7552 0.9794
2.0493 -4.1820 -1.6654 0.9804
2.3566 -4.0460 -1.6744 0.9803
4.4601 -3.3815 -2.0016 0.9765
4.5786 -3.2193 -2.0016 0.9765
4.6911 -3.0530 -2.0016 0.9765
4.7976 -2.8828 -2.0016 0.9765
4.8979 -2.7088 -2.0016 0.9765
4.9920 -2.5314 -2.0016 0.9765
5.3635 -1.6000 -2.0016 0.9765
5.4175 -1.4065 -2.0016 0.9765
5.5044 -1.0145 -2.0016 0.9765
5.5372 -0.8164 -2.0016 0.9765
5.5971 -0.0160 -2.0016 0.9765
5.5838 0.3854 -2.0016 0.9765
5.5101 0.9830 -2.0016 0.9765
5.2462 1.9505 -2.0016 0.9765
5.0929 2.3216 -2.0016 0.9765
5.0063 2.5028 -2.0016 0.9765
