ply
format ascii 1.0
element vertex 1599
property float32 x
property float32 y
property float32 z
property float32 I
end_header
0.7423 11.2014 -1.8494 0.9555
0.3393 11.2209 -1.8494 0.9555
-1.2719 11.1537 -1.8494 0.9555
-1.3120 8.7116 -1.4513 0.9649
-2.8568 10.8564 -1.8494 0.9555
-3.6292 10.6232 -1.8494 0.9555
-4.3828 10.3351 -1.8494 0.9555
-5.8183 9.6005 -1.8494 0.9555
-6.4929 9.1578 -1.8494 0.9555
-7.1338 8.6678 -1.8494 0.9555
-3.9682 -9.8818 -2.0016 0.9576
-3.6106 -10.0180 -2.0016 0.9576
-3.2483 -10.1413 -2.0016 0.9576
-2.8817 -10.2515 -2.0016 0.9576
-2.5115 -10.3484 -2.0016 0.9576
-2.1380 -10.4320 -2.0016 0.9576
-0.6213 -10.6307 -2.0016 0.9576
-0.2389 -10.6461 -2.0016 0.9576
0.1439 -10.6478 -2.0016 0.9576
0.9083 -10.6100 -2.0016 0.9576
1.6680 -10.5174 -2.0016 0.9576
2.4190 -10.3704 -2.0016 0.9576
3.8799 -9.9168 -2.0016 0.9576
5.5900 -9.0636 -2.0016 0.9576
6.2266 -8.6387 -2.0016 0.9576
6.5330 -8.4094 -2.0016 0.9576
7.1201 -7.9184 -2.0016 0.9576
7.6704 -7.3866 -2.0016 0.9576
7.9309 -7.1062 -2.0016 0.9576
8.1812 -6.8166 -2.0016 0.9576
8.4208 -6.5182 -2.0016 0.9576
9.0734 -5.5741 -2.0016 0.9576
9.2679 -5.2444 -2.0016 0.9576
9.4503 -4.9080 -2.0016 0.9576
9.6206 -4.5652 -2.0016 0.9576
9.7784 -4.2166 -2.0016 0.9576
9.9236 -3.8625 -2.0016 0.9576
10.2817 -2.7721 -2.0016 0.9576
10.3747 -2.4008 -2.0016 0.9576
10.4542 -2.0264 -2.0016 0.9576
10.5203 -1.6495 -2.0016 0.9576
10.6481 -0.1251 -2.0016 0.9576
10.6457 0.2576 -2.0016 0.9576
10.6296 0.6400 -2.0016 0.9576
10.5997 1.0215 -2.0016 0.9576
10.4990 1.7802 -2.0016 0.9576
10.4282 2.1563 -2.0016 0.9576
10.3440 2.5297 -2.0016 0.9576
10.2464 2.8998 -2.0016 0.9576
10.1356 3.2661 -2.0016 0.9576
10.0117 3.6282 -2.0016 0.9576
9.7252 4.3379 -2.0016 0.9576
9.5631 4.6846 -2.0016 0.9576
9.3885 5.0252 -2.0016 0.9576
9.2019 5.3593 -2.0016 0.9576
8.7932 6.0064 -2.0016 0.9576
8.3391 6.6224 -2.0016 0.9576
8.0957 6.9178 -2.0016 0.9576
7.8419 7.2043 -2.0016 0.9576
7.3042 7.7489 -2.0016 0.9576
7.0211 8.0064 -2.0016 0.9576
6.4279 8.4900 -2.0016 0.9576
6.1186 8.7155 -2.0016 0.9576
5.1451 9.3233 -2.0016 0.9576
4.7937 9.4763 -1.9961 0.9577
4.3056 9.3295 -1.9313 0.9590
3.7992 9.0760 -1.8494 0.9607
3.1375 9.3254 -1.8494 0.9607
2.8004 9.4321 -1.8494 0.9607
0.7172 9.8129 -1.8494 0.9607
0.0105 9.8391 -1.8494 0.9607
-1.0484 9.7831 -1.8494 0.9607
-1.7484 9.6825 -1.8494 0.9607
-2.0952 9.6134 -1.8494 0.9607
-3.1176 9.3321 -1.8494 0.9607
-3.4509 9.2140 -1.8494 0.9607
-3.7798 9.0841 -1.8494 0.9607
-4.1038 8.9424 -1.8494 0.9607
-4.7355 8.6245 -1.8494 0.9607
-5.7668 8.2518 -1.8922 0.9599
-6.6829 8.2332 -1.9932 0.9578
-6.9907 8.0063 -1.9978 0.9577
-7.5619 7.4976 -2.0016 0.9576
-7.8265 7.2210 -2.0016 0.9576
-8.7803 6.0252 -2.0016 0.9576
-9.1904 5.3790 -2.0016 0.9576
-9.3778 5.0453 -2.0016 0.9576
-9.7159 4.3587 -2.0016 0.9576
-9.8663 4.0067 -2.0016 0.9576
-10.1286 3.2878 -2.0016 0.9576
-10.2402 2.9217 -2.0016 0.9576
-10.3385 2.5518 -2.0016 0.9576
-10.4951 1.8027 -2.0016 0.9576
-10.5531 1.4244 -2.0016 0.9576
-10.5975 1.0442 -2.0016 0.9576
-10.5755 -1.2477 -2.0016 0.9576
-9.7683 -2.2385 -1.8837 0.9600
-9.5445 -2.5514 -1.8570 0.9606
-9.4466 -2.8927 -1.8570 0.9606
-9.3366 -3.2303 -1.8570 0.9606
-9.0805 -3.8926 -1.8570 0.9606
-8.4291 -5.1534 -1.8570 0.9606
-8.2384 -5.4530 -1.8570 0.9606
-8.6629 -6.1929 -2.0016 0.9576
-8.4348 -6.5002 -2.0016 0.9576
-7.9461 -7.0892 -2.0016 0.9576
-7.6862 -7.3701 -2.0016 0.9576
-7.4164 -7.6416 -2.0016 0.9576
-7.1370 -7.9032 -2.0016 0.9576
-6.5510 -8.3954 -2.0016 0.9576
-5.9311 -8.8442 -2.0016 0.9576
-4.6027 -9.6027 -2.0016 0.9576
-3.5425 -10.0423 -2.0016 0.9576
-3.1794 -10.1631 -2.0016 0.9576
-2.0672 -10.4462 -2.0016 0.9576
-0.1667 -10.6475 -2.0016 0.9576
0.5985 -10.6320 -2.0016 0.9576
2.4893 -10.3538 -2.0016 0.9576
2.8598 -10.2576 -2.0016 0.9576
4.2999 -9.7421 -2.0016 0.9576
5.6514 -9.0255 -2.0016 0.9576
5.9721 -8.8166 -2.0016 0.9576
6.2850 -8.5963 -2.0016 0.9576
6.5899 -8.3649 -2.0016 0.9576
6.8862 -8.1226 -2.0016 0.9576
7.7204 -7.3344 -2.0016 0.9576
7.9789 -7.0522 -2.0016 0.9576
8.2272 -6.7609 -2.0016 0.9576
8.9070 -5.8363 -2.0016 0.9576
10.6174 -0.8176 -2.0016 0.9576
10.6399 -0.4355 -2.0016 0.9576
10.6250 0.7121 -2.0016 0.9576
10.5925 1.0934 -2.0016 0.9576
10.3266 2.5998 -2.0016 0.9576
9.9868 3.6960 -2.0016 0.9576
9.1653 5.4216 -2.0016 0.9576
8.7523 6.0659 -2.0016 0.9576
8.5286 6.3765 -2.0016 0.9576
8.2940 6.6788 -2.0016 0.9576
8.0486 6.9726 -2.0016 0.9576
7.7929 7.2573 -2.0016 0.9576
7.5270 7.5327 -2.0016 0.9576
7.2515 7.7983 -2.0016 0.9576
6.6727 8.2990 -2.0016 0.9576
6.0594 8.7568 -2.0016 0.9576
5.7408 8.9689 -2.0016 0.9576
5.4148 9.1694 -2.0016 0.9576
5.0795 9.3538 -2.0007 0.9576
4.7268 9.5036 -1.9951 0.9577
3.7376 9.1015 -1.8494 0.9607
3.4081 9.2300 -1.8494 0.9607
3.0742 9.3465 -1.8494 0.9607
2.7364 9.4509 -1.8494 0.9607
2.3950 9.5431 -1.8494 0.9607
2.0505 9.6230 -1.8494 0.9607
1.3541 9.7455 -1.8494 0.9607
0.6506 9.8175 -1.8494 0.9607
0.2974 9.8346 -1.8494 0.9607
-0.0562 9.8389 -1.8494 0.9607
-1.0250 8.9885 -1.7004 0.9638
-1.8140 9.6704 -1.8494 0.9607
-2.8442 9.4190 -1.8494 0.9607
-3.1808 9.3107 -1.8494 0.9607
-3.5133 9.1904 -1.8494 0.9607
-4.1643 8.9143 -1.8494 0.9607
-4.4820 8.7589 -1.8494 0.9607
-4.7938 8.5922 -1.8494 0.9607
-5.0995 8.4144 -1.8494 0.9607
-5.4202 8.2586 -1.8568 0.9606
-5.8494 8.2502 -1.9009 0.9597
-6.7435 8.1936 -1.9946 0.9577
-3.2106 -8.9081 -2.0016 0.9620
-2.8884 -9.0177 -2.0016 0.9620
-2.5625 -9.1157 -2.0016 0.9620
-1.5666 -9.3385 -2.0016 0.9620
0.1279 -9.4682 -2.0016 0.9620
0.4681 -9.4574 -2.0016 0.9620
0.8076 -9.4345 -2.0016 0.9620
1.4832 -9.3521 -2.0016 0.9620
2.4810 -9.1382 -2.0016 0.9620
3.1309 -8.9364 -2.0016 0.9620
3.4501 -8.8181 -2.0016 0.9620
3.7647 -8.6885 -2.0016 0.9620
4.0745 -8.5476 -2.0016 0.9620
2.2038 -4.2251 -1.0073 0.9807
4.9707 -8.0594 -2.0016 0.9620
5.5367 -7.6816 -2.0016 0.9620
5.8092 -7.4777 -2.0016 0.9620
6.0741 -7.2641 -2.0016 0.9620
6.3313 -7.0411 -2.0016 0.9620
6.8206 -6.5682 -2.0016 0.9620
7.0523 -6.3189 -2.0016 0.9620
7.6913 -5.5232 -2.0016 0.9620
7.8848 -5.2433 -2.0016 0.9620
8.2411 -4.6634 -2.0016 0.9620
8.5547 -4.0595 -2.0016 0.9620
8.6951 -3.7494 -2.0016 0.9620
8.8242 -3.4345 -2.0016 0.9620
9.1426 -2.4649 -2.0016 0.9620
9.2252 -2.1348 -2.0016 0.9620
9.2960 -1.8019 -2.0016 0.9620
9.4684 -0.1113 -2.0016 0.9620
9.4519 0.5691 -2.0016 0.9620
9.3866 1.2465 -2.0016 0.9620
9.2729 1.9174 -2.0016 0.9620
9.1112 2.5785 -2.0016 0.9620
8.9025 3.2262 -2.0016 0.9620
8.5036 4.1656 -2.0016 0.9620
8.3484 4.4684 -2.0016 0.9620
8.0059 5.0565 -2.0016 0.9620
7.8190 5.3409 -2.0016 0.9620
7.1988 6.1514 -2.0016 0.9620
6.9731 6.4061 -2.0016 0.9620
6.7384 6.6525 -2.0016 0.9620
6.4950 6.8904 -2.0016 0.9620
5.9833 7.3391 -2.0016 0.9620
5.1587 7.9404 -2.0016 0.9620
4.5751 8.2904 -2.0016 0.9620
3.9679 8.5976 -2.0016 0.9620
3.6493 8.7179 -1.9977 0.9621
3.3213 8.8106 -1.9903 0.9622
2.9191 8.6761 -1.9350 0.9633
2.1898 8.4812 -1.8516 0.9648
0.6377 8.7257 -1.8494 0.9649
0.0094 8.7490 -1.8494 0.9649
-0.3050 8.7437 -1.8494 0.9649
-2.7722 8.2982 -1.8494 0.9649
-3.7847 8.2471 -1.9181 0.9636
-4.1467 8.2411 -1.9501 0.9630
-4.5213 8.2345 -1.9857 0.9623
-4.8393 8.1086 -1.9960 0.9621
-5.1349 7.9408 -1.9989 0.9621
-5.6996 7.5616 -2.0016 0.9620
-6.7241 6.6670 -2.0016 0.9620
-7.6100 5.6348 -2.0016 0.9620
-7.9950 5.0736 -2.0016 0.9620
-8.3388 4.4863 -2.0016 0.9620
-8.6395 3.8758 -2.0016 0.9620
-8.7732 3.5628 -2.0016 0.9620
-8.8955 3.2453 -2.0016 0.9620
-9.1056 2.5980 -2.0016 0.9620
-9.2687 1.9373 -2.0016 0.9620
-9.3839 1.2666 -2.0016 0.9620
-9.4234 0.9285 -2.0016 0.9620
-9.4657 0.2493 -2.0016 0.9620
-9.4686 -0.0910 -2.0016 0.9620
-9.4592 -0.4312 -2.0016 0.9620
-9.4376 -0.7708 -2.0016 0.9620
-9.4038 -1.1095 -2.0016 0.9620
-9.3579 -1.4467 -2.0016 0.9620
-8.4000 -2.5723 -1.8570 0.9647
-8.3022 -2.8724 -1.8570 0.9647
-8.0744 -3.4613 -1.8570 0.9647
-7.4952 -4.5825 -1.8570 0.9647
-7.3257 -4.8489 -1.8570 0.9647
-7.1467 -5.1090 -1.8570 0.9647
-6.7613 -5.6091 -1.8570 0.9647
-6.8347 -6.5536 -2.0016 0.9620
-6.3463 -7.0276 -2.0016 0.9620
-6.0897 -7.2511 -2.0016 0.9620
-5.5532 -7.6697 -2.0016 0.9620
-5.2740 -7.8643 -2.0016 0.9620
-4.6955 -8.2228 -2.0016 0.9620
-4.3970 -8.3862 -2.0016 0.9620
-4.0928 -8.5388 -2.0016 0.9620
-3.7833 -8.6804 -2.0016 0.9620
-3.4689 -8.8107 -2.0016 0.9620
-2.8271 -9.0371 -2.0016 0.9620
-2.5006 -9.1329 -2.0016 0.9620
-2.1708 -9.2168 -2.0016 0.9620
-0.4883 -9.4564 -2.0016 0.9620
0.8716 -9.4288 -2.0016 0.9620
2.2135 -9.2067 -2.0016 0.9620
3.1915 -8.9150 -2.0016 0.9620
3.5098 -8.7945 -2.0016 0.9620
3.8235 -8.6627 -2.0016 0.9620
4.7336 -8.2009 -2.0016 0.9620
5.0253 -8.0255 -2.0016 0.9620
5.8598 -7.4381 -2.0016 0.9620
6.3789 -6.9980 -2.0016 0.9620
6.6262 -6.7643 -2.0016 0.9620
6.8650 -6.5218 -2.0016 0.9620
7.0949 -6.2709 -2.0016 0.9620
7.5270 -5.7451 -2.0016 0.9620
7.7286 -5.4709 -2.0016 0.9620
8.1016 -4.9017 -2.0016 0.9620
8.4327 -4.3071 -2.0016 0.9620
8.9628 -3.0545 -2.0016 0.9620
9.3645 -1.4032 -2.0016 0.9620
9.4411 -0.7270 -2.0016 0.9620
9.4611 -0.3873 -2.0016 0.9620
9.4645 0.2933 -2.0016 0.9620
9.4190 0.9723 -2.0016 0.9620
9.3779 1.3101 -2.0016 0.9620
9.2596 1.9803 -2.0016 0.9620
9.1825 2.3118 -2.0016 0.9620
8.7565 3.6035 -2.0016 0.9620
8.6214 3.9159 -2.0016 0.9620
7.5837 5.6700 -2.0016 0.9620
7.1569 6.2001 -2.0016 0.9620
6.9295 6.4533 -2.0016 0.9620
6.6931 6.6981 -2.0016 0.9620
6.1947 7.1615 -2.0016 0.9620
5.9334 7.3795 -2.0016 0.9620
5.1048 7.9752 -2.0016 0.9620
4.2168 8.4782 -2.0016 0.9620
3.2431 8.7830 -1.9791 0.9624
2.8458 8.6519 -1.9252 0.9634
2.1297 8.4858 -1.8494 0.9649
1.2040 8.6657 -1.8494 0.9649
0.5785 8.7298 -1.8494 0.9649
-0.0500 8.7488 -1.8494 0.9649
-0.3643 8.7414 -1.8494 0.9649
-0.6782 8.7227 -1.8494 0.9649
-0.9912 8.6927 -1.8494 0.9649
-1.6130 8.5990 -1.8494 0.9649
-1.9210 8.5355 -1.8494 0.9649
-2.2265 8.4610 -1.8494 0.9649
-2.5291 8.3755 -1.8494 0.9649
-2.8284 8.2792 -1.8494 0.9649
-3.4992 8.2514 -1.8945 0.9640
-3.8521 8.2460 -1.9238 0.9635
-4.2164 8.2399 -1.9565 0.9629
-4.5935 8.2332 -1.9929 0.9622
-5.4767 7.7245 -2.0016 0.9620
-5.7507 7.5227 -2.0016 0.9620
-6.0173 7.3112 -2.0016 0.9620
-3.1736 -7.9030 -2.0016 0.9656
-2.3047 -8.1987 -2.0016 0.9656
-1.7099 -8.3430 -2.0016 0.9656
-1.4090 -8.3991 -2.0016 0.9656
-0.4969 -8.5019 -2.0016 0.9656
-0.1910 -8.5143 -2.0016 0.9656
0.1151 -8.5157 -2.0016 0.9656
0.4210 -8.5060 -2.0016 0.9656
0.7264 -8.4854 -2.0016 0.9656
1.0308 -8.4538 -2.0016 0.9656
1.9346 -8.2938 -2.0016 0.9656
2.5253 -8.1334 -2.0016 0.9656
2.8160 -8.0374 -2.0016 0.9656
3.1030 -7.9310 -2.0016 0.9656
3.3860 -7.8144 -2.0016 0.9656
2.3696 -4.1704 -1.1273 0.9805
4.7283 -7.0833 -2.0016 0.9656
4.9797 -6.9088 -2.0016 0.9656
5.6943 -6.3328 -2.0016 0.9656
6.3428 -5.6832 -2.0016 0.9656
6.7346 -5.2130 -2.0016 0.9656
7.2565 -4.4579 -2.0016 0.9656
7.5579 -3.9252 -2.0016 0.9656
7.6941 -3.6511 -2.0016 0.9656
7.8204 -3.3722 -2.0016 0.9656
8.2228 -2.2170 -2.0016 0.9656
8.3608 -1.6207 -2.0016 0.9656
8.4556 -1.0160 -2.0016 0.9656
8.4867 -0.7115 -2.0016 0.9656
8.5068 -0.4060 -2.0016 0.9656
8.5159 -0.1001 -2.0016 0.9656
8.5140 0.2060 -2.0016 0.9656
8.5010 0.5118 -2.0016 0.9656
8.4423 1.1211 -2.0016 0.9656
8.2727 2.0231 -2.0016 0.9656
8.1946 2.3191 -2.0016 0.9656
8.0069 2.9017 -2.0016 0.9656
7.7778 3.4692 -2.0016 0.9656
7.6481 3.7465 -2.0016 0.9656
7.3593 4.2861 -2.0016 0.9656
7.0324 4.8036 -2.0016 0.9656
6.8553 5.0532 -2.0016 0.9656
6.6692 5.2963 -2.0016 0.9656
5.1407 6.7899 -2.0016 0.9656
4.8934 6.9702 -2.0016 0.9656
4.6398 7.1416 -2.0016 0.9656
4.3801 7.3037 -2.0016 0.9656
4.1149 7.4564 -2.0016 0.9656
3.8443 7.5994 -2.0016 0.9656
3.5687 7.7327 -2.0016 0.9656
3.0041 7.9690 -2.0016 0.9656
2.4217 8.1567 -1.9997 0.9656
1.8255 8.2908 -1.9952 0.9657
1.5211 8.3220 -1.9883 0.9658
0.9034 8.2633 -1.9536 0.9664
0.6030 8.2503 -1.9442 0.9666
0.3052 8.2433 -1.9387 0.9667
-0.2876 8.2433 -1.9385 0.9667
-1.1839 8.2400 -1.9565 0.9664
-1.4875 8.2379 -1.9674 0.9662
-2.6922 8.0588 -1.9969 0.9657
-3.2696 7.8580 -2.0003 0.9656
-3.8280 7.6077 -2.0016 0.9656
-4.0989 7.4652 -2.0016 0.9656
-4.8785 6.9807 -2.0016 0.9656
-5.3673 6.6123 -2.0016 0.9656
-5.6014 6.4151 -2.0016 0.9656
-6.0477 5.9963 -2.0016 0.9656
-6.4627 5.5464 -2.0016 0.9656
-6.6579 5.3106 -2.0016 0.9656
-6.8444 5.0679 -2.0016 0.9656
-7.1907 4.5632 -2.0016 0.9656
-7.3501 4.3019 -2.0016 0.9656
-7.4999 4.0350 -2.0016 0.9656
-7.7704 3.4859 -2.0016 0.9656
-7.8906 3.2044 -2.0016 0.9656
-8.0007 2.9188 -2.0016 0.9656
-8.3363 1.7424 -2.0016 0.9656
-8.3935 1.4417 -2.0016 0.9656
-8.4399 1.1391 -2.0016 0.9656
-8.4999 0.5300 -2.0016 0.9656
-8.5161 -0.0819 -2.0016 0.9656
-8.5076 -0.3878 -2.0016 0.9656
-8.4882 -0.6933 -2.0016 0.9656
-8.4165 -1.3012 -2.0016 0.9656
-8.3643 -1.6028 -2.0016 0.9656
-8.3013 -1.9023 -2.0016 0.9656
-8.2276 -2.1994 -2.0016 0.9656
-7.5550 -2.3135 -1.8570 0.9681
-7.4670 -2.5835 -1.8570 0.9681
-7.2621 -3.1131 -1.8570 0.9681
-7.1456 -3.3721 -1.8570 0.9681
-7.0198 -3.6267 -1.8570 0.9681
-6.8849 -3.8766 -1.8570 0.9681
-6.7412 -4.1215 -1.8570 0.9681
-6.2585 -4.8230 -1.8570 0.9681
-6.0811 -5.0448 -1.8570 0.9681
-5.8959 -5.2601 -1.8570 0.9681
-5.5029 -5.6700 -1.8570 0.9681
-5.4771 -6.5216 -2.0016 0.9656
-4.7434 -7.0732 -2.0016 0.9656
-4.4862 -7.2391 -2.0016 0.9656
-4.2231 -7.3956 -2.0016 0.9656
-3.6810 -7.6798 -2.0016 0.9656
-3.4027 -7.8071 -2.0016 0.9656
-3.1199 -7.9244 -2.0016 0.9656
-2.8332 -8.0314 -2.0016 0.9656
-2.5427 -8.1280 -2.0016 0.9656
-2.2490 -8.2141 -2.0016 0.9656
-1.9524 -8.2896 -2.0016 0.9656
-1.6532 -8.3544 -2.0016 0.9656
-1.3520 -8.4085 -2.0016 0.9656
-1.0489 -8.4516 -2.0016 0.9656
-0.7445 -8.4838 -2.0016 0.9656
0.4787 -8.5030 -2.0016 0.9656
1.0881 -8.4466 -2.0016 0.9656
1.3910 -8.4021 -2.0016 0.9656
1.6920 -8.3467 -2.0016 0.9656
1.9909 -8.2805 -2.0016 0.9656
2.5804 -8.1161 -2.0016 0.9656
3.1567 -7.9098 -2.0016 0.9656
3.4389 -7.7913 -2.0016 0.9656
2.2121 -4.1718 -1.1098 0.9808
4.5197 -7.2182 -2.0016 0.9656
5.0265 -6.8749 -2.0016 0.9656
5.2703 -6.6898 -2.0016 0.9656
5.9596 -6.0838 -2.0016 0.9656
6.1744 -5.8657 -2.0016 0.9656
6.3812 -5.6400 -2.0016 0.9656
6.5798 -5.4071 -2.0016 0.9656
6.7698 -5.1672 -2.0016 0.9656
7.1234 -4.6676 -2.0016 0.9656
7.2866 -4.4086 -2.0016 0.9656
7.4403 -4.1439 -2.0016 0.9656
7.9573 -3.0351 -2.0016 0.9656
8.1547 -2.4558 -2.0016 0.9656
8.2377 -2.1611 -2.0016 0.9656
8.3100 -1.8637 -2.0016 0.9656
8.3716 -1.5639 -2.0016 0.9656
8.4623 -0.9586 -2.0016 0.9656
8.5093 -0.3483 -2.0016 0.9656
8.5163 -0.0423 -2.0016 0.9656
8.5124 0.2638 -2.0016 0.9656
8.0881 2.6670 -2.0016 0.9656
7.9870 2.9559 -2.0016 0.9656
7.8756 3.2410 -2.0016 0.9656
7.7541 3.5219 -2.0016 0.9656
7.6225 3.7983 -2.0016 0.9656
7.1695 4.5966 -2.0016 0.9656
6.9997 4.8512 -2.0016 0.9656
6.6332 5.3414 -2.0016 0.9656
6.2324 5.8041 -2.0016 0.9656
6.0198 6.0243 -2.0016 0.9656
5.3365 6.6371 -2.0016 0.9656
5.0946 6.8246 -2.0016 0.9656
4.8460 7.0033 -2.0016 0.9656
4.3305 7.3332 -2.0016 0.9656
3.7926 7.6253 -2.0016 0.9656
3.5162 7.7567 -2.0016 0.9656
2.6610 8.0901 -2.0016 0.9656
2.3658 8.1710 -1.9992 0.9657
1.4614 8.3140 -1.9839 0.9659
1.1496 8.2737 -1.9632 0.9663
0.8465 8.2609 -1.9517 0.9665
0.5466 8.2478 -1.9427 0.9666
-1.2409 8.2396 -1.9583 0.9663
-2.1595 8.2066 -1.9944 0.9657
-2.7472 8.0415 -1.9972 0.9657
-3.0369 7.9442 -1.9988 0.9657
-3.3234 7.8370 -2.0007 0.9656
-4.1494 7.4372 -2.0016 0.9656
-3.3885 -6.9483 -2.0016 0.9686
-2.8807 -7.1737 -2.0016 0.9686
-2.6211 -7.2726 -2.0016 0.9686
-2.0920 -7.4420 -2.0016 0.9686
-1.2789 -7.6240 -2.0016 0.9686
-0.7280 -7.6961 -2.0016 0.9686
-0.1734 -7.7285 -2.0016 0.9686
0.1044 -7.7298 -2.0016 0.9686
0.3821 -7.7210 -2.0016 0.9686
1.2108 -7.6351 -2.0016 0.9686
1.4844 -7.5866 -2.0016 0.9686
2.8166 -7.1991 -2.0016 0.9686
4.2919 -6.4296 -2.0016 0.9686
4.5202 -6.2712 -2.0016 0.9686
4.7426 -6.1048 -2.0016 0.9686
4.9589 -5.9304 -2.0016 0.9686
5.1688 -5.7484 -2.0016 0.9686
5.3721 -5.5589 -2.0016 0.9686
5.5683 -5.3623 -2.0016 0.9686
6.2792 -4.5091 -2.0016 0.9686
6.8605 -3.5630 -2.0016 0.9686
7.2040 -2.8039 -2.0016 0.9686
7.3868 -2.2793 -2.0016 0.9686
7.4640 -2.0124 -2.0016 0.9686
7.5315 -1.7429 -2.0016 0.9686
7.5892 -1.4711 -2.0016 0.9686
7.6753 -0.9222 -2.0016 0.9686
7.6632 1.0176 -2.0016 0.9686
7.5092 1.8364 -2.0016 0.9686
7.4384 2.1051 -2.0016 0.9686
6.9423 3.4007 -2.0016 0.9686
6.8156 3.6480 -2.0016 0.9686
6.2226 4.5869 -2.0016 0.9686
6.0538 4.8075 -2.0016 0.9686
5.3025 5.6253 -2.0016 0.9686
5.0969 5.8122 -2.0016 0.9686
3.9759 6.6297 -2.0016 0.9686
3.7351 6.7683 -2.0016 0.9686
3.4895 6.8981 -2.0016 0.9686
3.2393 7.0191 -2.0016 0.9686
2.7268 7.2336 -2.0016 0.9686
2.2003 7.4108 -2.0016 0.9686
1.3899 7.6045 -2.0016 0.9686
0.2861 7.7252 -2.0016 0.9686
0.0083 7.7305 -2.0016 0.9686
-0.5470 7.7111 -2.0016 0.9686
-0.8237 7.6865 -2.0016 0.9686
-1.0994 7.6519 -2.0016 0.9686
-1.3737 7.6075 -2.0016 0.9686
-1.6462 7.5532 -2.0016 0.9686
-2.1844 7.4154 -2.0016 0.9686
-2.7114 7.2394 -2.0016 0.9686
-4.1977 6.4915 -2.0016 0.9686
-4.4283 6.3365 -2.0016 0.9686
-5.2904 5.6366 -2.0016 0.9686
-5.4896 5.4429 -2.0016 0.9686
-6.0434 4.8205 -2.0016 0.9686
-6.2128 4.6002 -2.0016 0.9686
-6.3741 4.3740 -2.0016 0.9686
-6.8078 3.6626 -2.0016 0.9686
-7.0533 3.1642 -2.0016 0.9686
-7.1624 2.9087 -2.0016 0.9686
-7.3528 2.3867 -2.0016 0.9686
-7.4338 2.1210 -2.0016 0.9686
-7.6932 0.7580 -2.0016 0.9686
-7.7048 -0.6293 -2.0016 0.9686
-7.6772 -0.9058 -2.0016 0.9686
-7.5924 -1.4548 -2.0016 0.9686
-7.5352 -1.7267 -2.0016 0.9686
-7.2603 -2.2232 -1.9660 0.9691
-6.6892 -2.5871 -1.8570 0.9708
-6.2495 -3.5188 -1.8570 0.9708
-6.1191 -3.7411 -1.8570 0.9708
-5.9807 -3.9586 -1.8570 0.9708
-5.8346 -4.1709 -1.8570 0.9708
-5.6809 -4.3779 -1.8570 0.9708
-5.3518 -4.7746 -1.8570 0.9708
-5.1768 -4.9639 -1.8570 0.9708
-4.6125 -5.4922 -1.8570 0.9708
-4.3056 -6.4204 -2.0016 0.9686
-3.0887 -7.0866 -2.0016 0.9686
-1.5007 -7.5834 -2.0016 0.9686
-0.6758 -7.7009 -2.0016 0.9686
-0.1210 -7.7295 -2.0016 0.9686
1.2626 -7.6267 -2.0016 0.9686
1.5359 -7.5764 -2.0016 0.9686
2.3423 -7.3671 -2.0016 0.9686
2.6055 -7.2782 -2.0016 0.9686
2.8654 -7.1798 -2.0016 0.9686
2.1804 -4.1120 -1.2051 0.9810
4.9990 -5.8966 -2.0016 0.9686
5.4096 -5.5223 -2.0016 0.9686
5.6046 -5.3244 -2.0016 0.9686
6.1450 -4.6903 -2.0016 0.9686
6.7536 -3.7615 -2.0016 0.9686
6.8845 -3.5163 -2.0016 0.9686
7.0064 -3.2667 -2.0016 0.9686
7.2229 -2.7550 -2.0016 0.9686
7.3172 -2.4937 -2.0016 0.9686
7.4021 -2.2291 -2.0016 0.9686
7.5990 -1.4196 -2.0016 0.9686
7.6814 -0.8701 -2.0016 0.9686
7.7240 -0.3162 -2.0016 0.9686
7.7304 -0.0384 -2.0016 0.9686
7.7268 0.2394 -2.0016 0.9686
7.7132 0.5169 -2.0016 0.9686
7.6896 0.7938 -2.0016 0.9686
7.5595 1.6167 -2.0016 0.9686
7.4239 2.1555 -2.0016 0.9686
7.3417 2.4209 -2.0016 0.9686
7.2499 2.6831 -2.0016 0.9686
7.1488 2.9419 -2.0016 0.9686
6.9191 3.4478 -2.0016 0.9686
6.7907 3.6942 -2.0016 0.9686
6.6536 3.9358 -2.0016 0.9686
6.3537 4.4035 -2.0016 0.9686
6.0210 4.8485 -2.0016 0.9686
5.2642 5.6611 -2.0016 0.9686
4.8440 6.0246 -2.0016 0.9686
4.6244 6.1948 -2.0016 0.9686
4.3988 6.3570 -2.0016 0.9686
3.9309 6.6565 -2.0016 0.9686
3.4426 6.9216 -2.0016 0.9686
2.9366 7.1510 -2.0016 0.9686
2.6777 7.2519 -2.0016 0.9686
2.1499 7.4255 -2.0016 0.9686
1.8817 7.4980 -2.0016 0.9686
1.6111 7.5607 -2.0016 0.9686
1.3383 7.6138 -2.0016 0.9686
1.0639 7.6569 -2.0016 0.9686
0.7880 7.6902 -2.0016 0.9686
0.5112 7.7136 -2.0016 0.9686
-0.0442 7.7304 -2.0016 0.9686
-0.5993 7.7072 -2.0016 0.9686
-1.1513 7.6443 -2.0016 0.9686
-1.4252 7.5980 -2.0016 0.9686
-1.6974 7.5419 -2.0016 0.9686
-2.2346 7.4005 -2.0016 0.9686
-3.0181 7.1170 -2.0016 0.9686
-3.2719 7.0039 -2.0016 0.9686
-3.7665 6.7508 -2.0016 0.9686
-4.6949 6.1416 -2.0016 0.9686
-4.9125 5.9689 -2.0016 0.9686
-3.0992 -6.3549 -2.0016 0.9710
-2.8688 -6.4622 -2.0016 0.9710
-2.6347 -6.5611 -2.0016 0.9710
-2.3973 -6.6515 -2.0016 0.9710
-2.1567 -6.7334 -2.0016 0.9710
-1.9133 -6.8065 -2.0016 0.9710
-0.9184 -7.0104 -2.0016 0.9710
-0.6659 -7.0389 -2.0016 0.9710
0.3495 -7.0617 -2.0016 0.9710
0.6030 -7.0446 -2.0016 0.9710
0.8558 -7.0183 -2.0016 0.9710
2.0965 -6.7523 -2.0016 0.9710
2.8110 -6.4875 -2.0016 0.9710
2.0901 -4.3847 -1.3751 0.9800
3.9254 -5.8806 -2.0016 0.9710
4.1342 -5.7357 -2.0016 0.9710
4.3376 -5.5834 -2.0016 0.9710
4.5354 -5.4240 -2.0016 0.9710
4.7274 -5.2575 -2.0016 0.9710
4.9133 -5.0842 -2.0016 0.9710
5.0928 -4.9044 -2.0016 0.9710
5.2658 -4.7182 -2.0016 0.9710
5.4319 -4.5259 -2.0016 0.9710
5.5910 -4.3278 -2.0016 0.9710
5.7430 -4.1241 -2.0016 0.9710
6.1534 -3.4821 -2.0016 0.9710
6.2746 -3.2587 -2.0016 0.9710
6.3876 -3.0311 -2.0016 0.9710
6.4924 -2.7996 -2.0016 0.9710
6.8883 -1.5940 -2.0016 0.9710
6.9411 -1.3455 -2.0016 0.9710
6.9850 -1.0952 -2.0016 0.9710
7.0623 -0.3371 -2.0016 0.9710
7.0699 -0.0831 -2.0016 0.9710
7.0683 0.1710 -2.0016 0.9710
7.0377 0.6782 -2.0016 0.9710
7.0088 0.9307 -2.0016 0.9710
6.8679 1.6796 -2.0016 0.9710
6.7296 2.1685 -2.0016 0.9710
6.6473 2.4090 -2.0016 0.9710
6.4571 2.8802 -2.0016 0.9710
5.8383 3.9880 -2.0016 0.9710
5.6912 4.1952 -2.0016 0.9710
5.5368 4.3970 -2.0016 0.9710
5.3752 4.5931 -2.0016 0.9710
5.0314 4.9673 -2.0016 0.9710
4.6617 5.3159 -2.0016 0.9710
4.4676 5.4800 -2.0016 0.9710
3.8519 5.9289 -2.0016 0.9710
3.6364 6.0635 -2.0016 0.9710
2.9627 6.4197 -2.0016 0.9710
2.0124 6.7779 -2.0016 0.9710
1.5204 6.9049 -2.0016 0.9710
0.7684 7.0285 -2.0016 0.9710
0.2616 7.0655 -2.0016 0.9710
-0.5003 7.0526 -2.0016 0.9710
-0.7534 7.0301 -2.0016 0.9710
-1.9979 6.7822 -2.0016 0.9710
-2.9490 6.4260 -2.0016 0.9710
-3.4029 6.1976 -2.0016 0.9710
-3.6234 6.0713 -2.0016 0.9710
-3.8392 5.9372 -2.0016 0.9710
-4.0501 5.7954 -2.0016 0.9710
-5.0208 4.9781 -2.0016 0.9710
-5.3654 4.6046 -2.0016 0.9710
-5.5274 4.4088 -2.0016 0.9710
-5.6822 4.2074 -2.0016 0.9710
-5.8297 4.0005 -2.0016 0.9710
-5.9697 3.7884 -2.0016 0.9710
-6.2264 3.3498 -2.0016 0.9710
-6.4509 2.8940 -2.0016 0.9710
-6.7249 2.1829 -2.0016 0.9710
-6.8643 1.6943 -2.0016 0.9710
-6.9683 1.1969 -2.0016 0.9710
-7.0068 0.9457 -2.0016 0.9710
-7.0362 0.6933 -2.0016 0.9710
-7.0679 0.1862 -2.0016 0.9710
-7.0700 -0.0680 -2.0016 0.9710
-7.0469 -0.5756 -2.0016 0.9710
-6.9873 -1.0802 -2.0016 0.9710
-6.9440 -1.3306 -2.0016 0.9710
-6.8305 -1.8259 -2.0016 0.9710
-6.1180 -2.3662 -1.8570 0.9731
-5.9322 -2.7995 -1.8570 0.9731
-5.8278 -3.0108 -1.8570 0.9731
-5.7158 -3.2183 -1.8570 0.9731
-5.5965 -3.4216 -1.8570 0.9731
-5.4699 -3.6205 -1.8570 0.9731
-5.3363 -3.8148 -1.8570 0.9731
-5.1958 -4.0041 -1.8570 0.9731
-4.5685 -4.7072 -1.8570 0.9731
-4.3964 -4.8683 -1.8570 0.9731
-4.2186 -5.0231 -1.8570 0.9731
-3.8469 -5.3132 -1.8570 0.9731
-3.6535 -5.4480 -1.8570 0.9731
-3.4554 -5.5757 -1.8570 0.9731
-3.5060 -6.1398 -2.0016 0.9710
-2.8249 -6.4815 -2.0016 0.9710
-2.5902 -6.5788 -2.0016 0.9710
-1.8671 -6.8193 -2.0016 0.9710
-1.1224 -6.9807 -2.0016 0.9710
-0.8708 -7.0165 -2.0016 0.9710
-0.6181 -7.0433 -2.0016 0.9710
-0.1107 -7.0695 -2.0016 0.9710
0.1435 -7.0689 -2.0016 0.9710
0.3974 -7.0592 -2.0016 0.9710
0.6508 -7.0403 -2.0016 0.9710
0.9034 -7.0124 -2.0016 0.9710
1.1548 -6.9754 -2.0016 0.9710
1.6528 -6.8744 -2.0016 0.9710
2.8550 -6.4683 -2.0016 0.9710
2.0926 -4.3144 -1.3575 0.9803
2.1729 -4.0978 -1.3131 0.9809
2.3637 -4.0950 -1.3385 0.9805
3.9652 -5.8538 -2.0016 0.9710
4.3754 -5.5539 -2.0016 0.9710
5.2977 -4.6823 -2.0016 0.9710
5.4625 -4.4890 -2.0016 0.9710
5.6203 -4.2898 -2.0016 0.9710
5.9139 -3.8750 -2.0016 0.9710
6.0493 -3.6600 -2.0016 0.9710
6.1769 -3.4402 -2.0016 0.9710
6.2965 -3.2161 -2.0016 0.9710
6.6061 -2.5198 -2.0016 0.9710
6.7700 -2.0388 -2.0016 0.9710
6.8990 -1.5473 -2.0016 0.9710
6.9923 -1.0478 -2.0016 0.9710
7.0495 -0.5428 -2.0016 0.9710
7.0644 -0.2892 -2.0016 0.9710
7.0703 -0.0351 -2.0016 0.9710
7.0545 0.4728 -2.0016 0.9710
6.9627 1.2292 -2.0016 0.9710
6.9140 1.4786 -2.0016 0.9710
6.8564 1.7261 -2.0016 0.9710
6.7899 1.9714 -2.0016 0.9710
6.7147 2.2141 -2.0016 0.9710
6.6308 2.4540 -2.0016 0.9710
6.3282 3.1533 -2.0016 0.9710
6.0854 3.5997 -2.0016 0.9710
5.8111 4.0275 -2.0016 0.9710
5.6626 4.2337 -2.0016 0.9710
5.5068 4.4344 -2.0016 0.9710
4.8147 5.1777 -2.0016 0.9710
4.6255 5.3474 -2.0016 0.9710
4.4304 5.5101 -2.0016 0.9710
4.2295 5.6658 -2.0016 0.9710
4.0232 5.8141 -2.0016 0.9710
3.8116 5.9549 -2.0016 0.9710
3.5952 6.0880 -2.0016 0.9710
3.3741 6.2133 -2.0016 0.9710
2.9191 6.4396 -2.0016 0.9710
2.2091 6.7164 -2.0016 0.9710
1.2240 6.9636 -2.0016 0.9710
0.9730 7.0031 -2.0016 0.9710
-0.5481 7.0491 -2.0016 0.9710
-1.0530 6.9915 -2.0016 0.9710
-1.5524 6.8978 -2.0016 0.9710
-1.7993 6.8376 -2.0016 0.9710
-2.0438 6.7685 -2.0016 0.9710
-3.2207 6.2942 -2.0016 0.9710
-3.8794 5.9110 -2.0016 0.9710
-4.0893 5.7678 -2.0016 0.9710
-4.2939 5.6171 -2.0016 0.9710
-2.6464 -5.4265 -1.8570 0.9751
-2.4497 -5.5181 -1.8570 0.9751
-2.2498 -5.6026 -1.8570 0.9751
-1.7610 -6.2647 -2.0016 0.9731
-1.5348 -6.3239 -2.0016 0.9731
-1.0766 -6.4178 -2.0016 0.9731
-0.8453 -6.4523 -2.0016 0.9731
-0.3797 -6.4964 -2.0016 0.9731
0.3217 -6.4995 -2.0016 0.9731
1.7051 -6.2801 -2.0016 0.9731
1.9296 -6.2148 -2.0016 0.9731
2.1517 -6.1415 -2.0016 0.9731
3.6129 -5.4124 -2.0016 0.9731
4.5222 -4.6795 -2.0016 0.9731
4.6874 -4.5139 -2.0016 0.9731
5.1460 -3.9833 -2.0016 0.9731
5.2858 -3.7958 -2.0016 0.9731
5.4188 -3.6034 -2.0016 0.9731
5.5447 -3.4063 -2.0016 0.9731
5.6636 -3.2049 -2.0016 0.9731
5.7751 -2.9993 -2.0016 0.9731
5.8791 -2.7898 -2.0016 0.9731
6.1452 -2.1409 -2.0016 0.9731
6.3399 -1.4671 -2.0016 0.9731
6.4289 -1.0080 -2.0016 0.9731
6.4610 -0.7763 -2.0016 0.9731
6.5070 -0.0765 -2.0016 0.9731
6.5056 0.1574 -2.0016 0.9731
6.4957 0.3911 -2.0016 0.9731
6.4509 0.8566 -2.0016 0.9731
6.3727 1.3177 -2.0016 0.9731
6.1938 1.9959 -2.0016 0.9731
6.0345 2.4356 -2.0016 0.9731
5.9431 2.6509 -2.0016 0.9731
5.8440 2.8627 -2.0016 0.9731
5.7373 3.0709 -2.0016 0.9731
5.6233 3.2751 -2.0016 0.9731
5.5019 3.4750 -2.0016 0.9731
5.2382 3.8612 -2.0016 0.9731
4.9473 4.2275 -2.0016 0.9731
4.6309 4.5719 -2.0016 0.9731
4.4636 4.7353 -2.0016 0.9731
4.1120 5.0437 -2.0016 0.9731
3.9281 5.1882 -2.0016 0.9731
3.5453 5.4569 -2.0016 0.9731
3.3469 5.5808 -2.0016 0.9731
2.9374 5.8068 -2.0016 0.9731
2.5128 6.0028 -2.0016 0.9731
2.0751 6.1677 -2.0016 0.9731
0.4743 6.4902 -2.0016 0.9731
0.0070 6.5075 -2.0016 0.9731
-0.2269 6.5035 -2.0016 0.9731
-0.6934 6.4704 -2.0016 0.9731
-0.9255 6.4413 -2.0016 0.9731
-1.1563 6.4039 -2.0016 0.9731
-2.9250 5.8131 -2.0016 0.9731
-3.9169 5.1966 -2.0016 0.9731
-4.4535 4.7449 -2.0016 0.9731
-4.6211 4.5818 -2.0016 0.9731
-4.7827 4.4128 -2.0016 0.9731
-5.0873 4.0579 -2.0016 0.9731
-5.2299 3.8724 -2.0016 0.9731
-5.4945 3.4868 -2.0016 0.9731
-5.7307 3.0832 -2.0016 0.9731
-6.1134 2.2303 -2.0016 0.9731
-6.1896 2.0091 -2.0016 0.9731
-6.2578 1.7854 -2.0016 0.9731
-6.3179 1.5594 -2.0016 0.9731
-6.3698 1.3314 -2.0016 0.9731
-6.4136 1.1016 -2.0016 0.9731
-6.4490 0.8704 -2.0016 0.9731
-6.4761 0.6381 -2.0016 0.9731
-6.4949 0.4050 -2.0016 0.9731
-6.5007 -0.2963 -2.0016 0.9731
-6.4859 -0.5298 -2.0016 0.9731
-6.4311 -0.9942 -2.0016 0.9731
-6.3912 -1.2247 -2.0016 0.9731
-6.3431 -1.4536 -2.0016 0.9731
-6.2867 -1.6806 -2.0016 0.9731
-6.1498 -2.1278 -2.0016 0.9731
-5.0345 -3.3323 -1.8570 0.9751
-4.6466 -3.8548 -1.8570 0.9751
-4.3578 -4.1786 -1.8570 0.9751
-4.2048 -4.3325 -1.8570 0.9751
-3.8828 -4.6233 -1.8570 0.9751
-3.5407 -4.8902 -1.8570 0.9751
-3.1803 -5.1319 -1.8570 0.9751
-2.9938 -5.2428 -1.8570 0.9751
-2.4122 -5.5346 -1.8570 0.9751
-1.9429 -6.2107 -2.0016 0.9731
-1.2633 -6.3837 -2.0016 0.9731
-0.5689 -6.4826 -2.0016 0.9731
-0.1018 -6.5067 -2.0016 0.9731
0.3658 -6.4972 -2.0016 0.9731
1.0629 -6.4201 -2.0016 0.9731
1.2929 -6.3778 -2.0016 0.9731
1.5212 -6.3272 -2.0016 0.9731
1.9717 -6.2016 -2.0016 0.9731
2.1933 -6.1267 -2.0016 0.9731
3.6495 -5.3878 -2.0016 0.9731
3.8408 -5.2532 -2.0016 0.9731
4.0271 -5.1118 -2.0016 0.9731
4.3838 -4.8093 -2.0016 0.9731
4.7179 -4.4820 -2.0016 0.9731
4.8759 -4.3096 -2.0016 0.9731
5.0276 -4.1316 -2.0016 0.9731
5.3114 -3.7598 -2.0016 0.9731
5.5677 -3.3686 -2.0016 0.9731
5.9929 -2.5362 -2.0016 0.9731
6.1596 -2.0992 -2.0016 0.9731
6.2311 -1.8765 -2.0016 0.9731
6.2945 -1.6513 -2.0016 0.9731
6.3968 -1.1950 -2.0016 0.9731
6.4661 -0.7325 -2.0016 0.9731
6.4731 0.6682 -2.0016 0.9731
6.4084 1.1314 -2.0016 0.9731
6.3106 1.5887 -2.0016 0.9731
6.2494 1.8145 -2.0016 0.9731
6.1802 2.0379 -2.0016 0.9731
6.1029 2.2586 -2.0016 0.9731
5.9250 2.6911 -2.0016 0.9731
5.2118 3.8967 -2.0016 0.9731
4.7622 4.4349 -2.0016 0.9731
3.7029 5.3513 -2.0016 0.9731
3.3090 5.6034 -2.0016 0.9731
3.1055 5.7187 -2.0016 0.9731
2.8980 5.8266 -2.0016 0.9731
2.6867 5.9270 -2.0016 0.9731
2.4720 6.0197 -2.0016 0.9731
2.0333 6.1817 -2.0016 0.9731
1.1266 6.4092 -2.0016 0.9731
0.8956 6.4456 -2.0016 0.9731
0.6634 6.4736 -2.0016 0.9731
0.4303 6.4932 -2.0016 0.9731
-0.5045 6.4879 -2.0016 0.9731
-0.7373 6.4656 -2.0016 0.9731
-1.1998 6.3959 -2.0016 0.9731
-1.4288 6.3487 -2.0016 0.9731
-1.6560 6.2932 -2.0016 0.9731
-2.1038 6.1580 -2.0016 0.9731
-2.7543 5.8959 -2.0016 0.9731
-3.3728 5.5652 -2.0016 0.9731
-3.9521 5.1699 -2.0016 0.9731
-4.1353 5.0246 -2.0016 0.9731
-1.8941 -5.2556 -1.8570 0.9767
-1.7041 -5.3202 -1.8570 0.9767
-1.3176 -5.4289 -1.8570 0.9767
-1.1216 -5.4727 -1.8570 0.9767
-0.9242 -5.5095 -1.8570 0.9767
-0.7264 -5.5446 -1.8588 0.9767
-0.5261 -5.5617 -1.8570 0.9767
-0.3259 -5.5770 -1.8570 0.9767
-0.1253 -5.5851 -1.8570 0.9767
0.0755 -5.5860 -1.8570 0.9767
0.6763 -5.5462 -1.8572 0.9767
0.8750 -5.5175 -1.8570 0.9767
1.2691 -5.4404 -1.8570 0.9767
1.6565 -5.3352 -1.8570 0.9767
1.8472 -5.2723 -1.8570 0.9767
2.0354 -5.2025 -1.8570 0.9767
2.0617 -4.3252 -1.5927 0.9800
2.3106 -4.0665 -1.5547 0.9805
2.9326 -4.7549 -1.8570 0.9767
3.2665 -4.5320 -1.8570 0.9767
3.4273 -4.4116 -1.8570 0.9767
4.0261 -4.4775 -2.0016 0.9749
4.1844 -4.3300 -2.0016 0.9749
4.3373 -4.1768 -2.0016 0.9749
4.4846 -4.0182 -2.0016 0.9749
4.8910 -3.5123 -2.0016 0.9749
5.0140 -3.3342 -2.0016 0.9749
5.1306 -3.1519 -2.0016 0.9749
5.2406 -2.9655 -2.0016 0.9749
5.3438 -2.7753 -2.0016 0.9749
5.4400 -2.5814 -2.0016 0.9749
5.5293 -2.3843 -2.0016 0.9749
5.6114 -2.1841 -2.0016 0.9749
5.7538 -1.7754 -2.0016 0.9749
5.8138 -1.5675 -2.0016 0.9749
5.8664 -1.3576 -2.0016 0.9749
5.9114 -1.1459 -2.0016 0.9749
5.9488 -0.9327 -2.0016 0.9749
5.9784 -0.7183 -2.0016 0.9749
6.0004 -0.5030 -2.0016 0.9749
6.0197 0.1456 -2.0016 0.9749
6.0106 0.3619 -2.0016 0.9749
5.9367 1.0066 -2.0016 0.9749
5.8967 1.2193 -2.0016 0.9749
5.8491 1.4304 -2.0016 0.9749
5.7939 1.6397 -2.0016 0.9749
5.7312 1.8468 -2.0016 0.9749
5.6612 2.0516 -2.0016 0.9749
5.5838 2.2537 -2.0016 0.9749
5.2033 3.0305 -2.0016 0.9749
5.0910 3.2155 -2.0016 0.9749
4.9722 3.3964 -2.0016 0.9749
4.8469 3.5728 -2.0016 0.9749
4.7154 3.7447 -2.0016 0.9749
4.5778 3.9117 -2.0016 0.9749
4.2850 4.2304 -2.0016 0.9749
3.9701 4.5273 -2.0016 0.9749
3.8049 4.6670 -2.0016 0.9749
3.2805 5.0494 -2.0016 0.9749
2.9094 5.2719 -2.0016 0.9749
2.7180 5.3731 -2.0016 0.9749
2.5232 5.4673 -2.0016 0.9749
2.3251 5.5544 -2.0016 0.9749
2.1240 5.6344 -2.0016 0.9749
1.0827 5.9233 -2.0016 0.9749
0.6544 5.9858 -2.0016 0.9749
0.2228 6.0173 -2.0016 0.9749
-0.2099 6.0178 -2.0016 0.9749
-0.4261 6.0064 -2.0016 0.9749
-1.4928 5.8335 -2.0016 0.9749
-1.7015 5.7760 -2.0016 0.9749
-2.1119 5.6389 -2.0016 0.9749
-2.3132 5.5594 -2.0016 0.9749
-2.5115 5.4727 -2.0016 0.9749
-2.7065 5.3789 -2.0016 0.9749
-3.4493 4.9356 -2.0016 0.9749
-3.9604 4.5357 -2.0016 0.9749
-4.4255 4.0832 -2.0016 0.9749
-4.5694 3.9215 -2.0016 0.9749
-4.7074 3.7548 -2.0016 0.9749
-4.8393 3.5832 -2.0016 0.9749
-5.1968 3.0416 -2.0016 0.9749
-5.3027 2.8529 -2.0016 0.9749
-5.4939 2.4647 -2.0016 0.9749
-5.6568 2.0637 -2.0016 0.9749
-5.7273 1.8591 -2.0016 0.9749
-5.7904 1.6521 -2.0016 0.9749
-5.8460 1.4429 -2.0016 0.9749
-5.8941 1.2319 -2.0016 0.9749
-5.9345 1.0193 -2.0016 0.9749
-5.9673 0.8054 -2.0016 0.9749
-5.9924 0.5905 -2.0016 0.9749
-6.0152 -0.2742 -2.0016 0.9749
-5.9508 -0.9200 -2.0016 0.9749
-5.9138 -1.1332 -2.0016 0.9749
-5.8172 -1.5550 -2.0016 0.9749
-5.7575 -1.7631 -2.0016 0.9749
-5.6905 -1.9688 -2.0016 0.9749
-5.6160 -2.1720 -2.0016 0.9749
-4.7663 -2.9140 -1.8570 0.9767
-4.4250 -3.4101 -1.8570 0.9767
-3.7442 -4.1461 -1.8570 0.9767
-3.2762 -4.5250 -1.8570 0.9767
-2.9428 -4.7486 -1.8570 0.9767
-2.7702 -4.8513 -1.8570 0.9767
-2.5941 -4.9477 -1.8570 0.9767
-2.4146 -5.0377 -1.8570 0.9767
-1.8585 -5.2683 -1.8570 0.9767
-1.6680 -5.3317 -1.8570 0.9767
-1.2807 -5.4377 -1.8570 0.9767
-0.8868 -5.5157 -1.8570 0.9767
-0.6883 -5.5458 -1.8576 0.9767
-0.4884 -5.5651 -1.8570 0.9767
-0.2881 -5.5791 -1.8570 0.9767
-0.0874 -5.5858 -1.8570 0.9767
0.1134 -5.5853 -1.8570 0.9767
0.3140 -5.5777 -1.8570 0.9767
0.7143 -5.5450 -1.8584 0.9767
1.1099 -5.4751 -1.8570 0.9767
1.6927 -5.3239 -1.8570 0.9767
1.8829 -5.2596 -1.8570 0.9767
2.0707 -5.1886 -1.8570 0.9767
2.2558 -5.1108 -1.8570 0.9767
2.0646 -4.2565 -1.5725 0.9803
3.1330 -4.6253 -1.8570 0.9767
3.4571 -4.3883 -1.8570 0.9767
4.3655 -4.1473 -2.0016 0.9749
4.7865 -3.6534 -2.0016 0.9749
5.0365 -3.3002 -2.0016 0.9749
5.5453 -2.3467 -2.0016 0.9749
5.6261 -2.1459 -2.0016 0.9749
5.6996 -1.9424 -2.0016 0.9749
5.9550 -0.8923 -2.0016 0.9749
6.0186 0.1865 -2.0016 0.9749
5.8883 1.2593 -2.0016 0.9749
5.8392 1.4701 -2.0016 0.9749
5.7186 1.8857 -2.0016 0.9749
5.6471 2.0899 -2.0016 0.9749
5.5684 2.2915 -2.0016 0.9749
5.3894 2.6855 -2.0016 0.9749
5.0691 3.2499 -2.0016 0.9749
4.8226 3.6056 -2.0016 0.9749
4.6899 3.7766 -2.0016 0.9749
4.5512 3.9427 -2.0016 0.9749
4.2562 4.2594 -2.0016 0.9749
4.1004 4.4096 -2.0016 0.9749
3.9393 4.5541 -2.0016 0.9749
3.6020 4.8253 -2.0016 0.9749
3.4263 4.9516 -2.0016 0.9749
3.2462 5.0715 -2.0016 0.9749
3.0618 5.1849 -2.0016 0.9749
2.2874 5.5701 -2.0016 0.9749
0.3982 6.0083 -2.0016 0.9749
0.1820 6.0187 -2.0016 0.9749
-0.0344 6.0213 -2.0016 0.9749
-0.2508 6.0162 -2.0016 0.9749
-0.8968 5.9543 -2.0016 0.9749
-1.3221 5.8745 -2.0016 0.9749
-1.5323 5.8232 -2.0016 0.9749
-1.7406 5.7644 -2.0016 0.9749
-1.9466 5.6981 -2.0016 0.9749
-2.1501 5.6245 -2.0016 0.9749
-2.3508 5.5436 -2.0016 0.9749
-2.9338 5.2584 -2.0016 0.9749
-3.3039 5.0341 -2.0016 0.9749
-2.2762 -4.6673 -1.8570 0.9782
-2.1070 -4.7461 -1.8570 0.9782
-1.9351 -4.8188 -1.8570 0.9782
-1.7607 -4.8852 -1.8570 0.9782
-1.5840 -4.9453 -1.8570 0.9782
-1.2247 -5.0463 -1.8570 0.9782
-1.0426 -5.0871 -1.8570 0.9782
-0.6745 -5.1488 -1.8570 0.9782
-0.3030 -5.1839 -1.8570 0.9782
0.0702 -5.1923 -1.8570 0.9782
0.2567 -5.1864 -1.8570 0.9782
0.4429 -5.1739 -1.8570 0.9782
0.6285 -5.1546 -1.8570 0.9782
0.9971 -5.0962 -1.8570 0.9782
1.1796 -5.0570 -1.8570 0.9782
1.3606 -5.0114 -1.8570 0.9782
2.0646 -4.7647 -1.8570 0.9782
2.0242 -4.2464 -1.6823 0.9802
2.1203 -4.0652 -1.6396 0.9807
2.3007 -4.0491 -1.6654 0.9804
2.4740 -4.0113 -1.6854 0.9802
3.1858 -4.1007 -1.8570 0.9782
3.3310 -3.9836 -1.8570 0.9782
3.4721 -3.8613 -1.8570 0.9782
4.0316 -3.8824 -2.0016 0.9765
4.3001 -3.5828 -2.0016 0.9765
4.4260 -3.4260 -2.0016 0.9765
4.6607 -3.0993 -2.0016 0.9765
5.0567 -2.3995 -2.0016 0.9765
5.1396 -2.2163 -2.0016 0.9765
5.2159 -2.0301 -2.0016 0.9765
5.2855 -1.8414 -2.0016 0.9765
5.4530 -1.2619 -2.0016 0.9765
5.5295 -0.8670 -2.0016 0.9765
5.5571 -0.6677 -2.0016 0.9765
5.5870 0.3364 -2.0016 0.9765
5.5713 0.5369 -2.0016 0.9765
5.4811 1.1334 -2.0016 0.9765
5.3273 1.7167 -2.0016 0.9765
5.2622 1.9070 -2.0016 0.9765
5.1117 2.2800 -2.0016 0.9765
5.0264 2.4622 -2.0016 0.9765
4.9347 2.6413 -2.0016 0.9765
4.7322 2.9889 -2.0016 0.9765
4.5053 3.3210 -2.0016 0.9765
4.3831 3.4808 -2.0016 0.9765
4.2552 3.6361 -2.0016 0.9765
3.9830 3.9323 -2.0016 0.9765
3.5367 4.3381 -2.0016 0.9765
3.3785 4.4624 -2.0016 0.9765
3.2160 4.5809 -2.0016 0.9765
3.0493 4.6935 -2.0016 0.9765
2.5265 4.9944 -2.0016 0.9765
2.3454 5.0820 -2.0016 0.9765
1.7848 5.3049 -2.0016 0.9765
1.3992 5.4194 -2.0016 0.9765
1.2036 5.4662 -2.0016 0.9765
1.0064 5.5059 -2.0016 0.9765
0.4080 5.5822 -2.0016 0.9765
0.0060 5.5971 -2.0016 0.9765
-0.3960 5.5831 -2.0016 0.9765
-0.5964 5.5652 -2.0016 0.9765
-0.7960 5.5402 -2.0016 0.9765
-1.3876 5.4224 -2.0016 0.9765
-1.5816 5.3690 -2.0016 0.9765
-1.9631 5.2415 -2.0016 0.9765
-2.3345 5.0870 -2.0016 0.9765
-2.8684 4.8062 -2.0016 0.9765
-3.0393 4.7000 -2.0016 0.9765
-4.2474 3.6452 -2.0016 0.9765
-4.3756 3.4902 -2.0016 0.9765
-4.4982 3.3307 -2.0016 0.9765
-4.7258 2.9990 -2.0016 0.9765
-4.9290 2.6518 -2.0016 0.9765
-5.0211 2.4730 -2.0016 0.9765
-5.2581 1.9183 -2.0016 0.9765
-5.3823 1.5357 -2.0016 0.9765
-5.4787 1.1451 -2.0016 0.9765
-5.5968 -0.0538 -2.0016 0.9765
-5.5585 -0.6558 -2.0016 0.9765
-5.2894 -1.8301 -2.0016 0.9765
-5.2203 -2.0190 -2.0016 0.9765
-4.7462 -2.2398 -1.8768 0.9780
-4.6135 -2.3835 -1.8570 0.9782
-4.3302 -2.8661 -1.8570 0.9782
-4.2244 -3.0199 -1.8570 0.9782
-4.1131 -3.1697 -1.8570 0.9782
-3.7481 -3.5940 -1.8570 0.9782
-3.6165 -3.7264 -1.8570 0.9782
-3.4803 -3.8539 -1.8570 0.9782
-3.3396 -3.9765 -1.8570 0.9782
-2.8922 -4.3128 -1.8570 0.9782
-2.7354 -4.4139 -1.8570 0.9782
-2.5750 -4.5094 -1.8570 0.9782
-2.2445 -4.6827 -1.8570 0.9782
-2.0747 -4.7603 -1.8570 0.9782
-1.9023 -4.8318 -1.8570 0.9782
-1.7275 -4.8970 -1.8570 0.9782
-1.1904 -5.0545 -1.8570 0.9782
-1.0080 -5.0940 -1.8570 0.9782
-0.8243 -5.1269 -1.8570 0.9782
-0.4540 -5.1729 -1.8570 0.9782
-0.2678 -5.1859 -1.8570 0.9782
0.1054 -5.1917 -1.8570 0.9782
0.6635 -5.1502 -1.8570 0.9782
0.8481 -5.1231 -1.8570 0.9782
1.0317 -5.0893 -1.8570 0.9782
1.3946 -5.0020 -1.8570 0.9782
1.5734 -4.9487 -1.8570 0.9782
2.1500 -4.0547 -1.6412 0.9807
2.9122 -4.2993 -1.8570 0.9782
3.4982 -3.8377 -1.8570 0.9782
4.1938 -3.7067 -2.0016 0.9765
4.3243 -3.5536 -2.0016 0.9765
4.4492 -3.3959 -2.0016 0.9765
4.5683 -3.2338 -2.0016 0.9765
4.7888 -2.8974 -2.0016 0.9765
4.8898 -2.7234 -2.0016 0.9765
5.2296 -1.9947 -2.0016 0.9765
5.3594 -1.6140 -2.0016 0.9765
5.4139 -1.4203 -2.0016 0.9765
5.5615 -0.6300 -2.0016 0.9765
5.5970 -0.0278 -2.0016 0.9765
5.5846 0.3743 -2.0016 0.9765
5.5675 0.5747 -2.0016 0.9765
5.5433 0.7744 -2.0016 0.9765
5.5119 0.9731 -2.0016 0.9765
5.4733 1.1705 -2.0016 0.9765
5.4277 1.3665 -2.0016 0.9765
5.3751 1.5606 -2.0016 0.9765
5.3156 1.7528 -2.0016 0.9765
5.2492 1.9426 -2.0016 0.9765
5.1759 2.1300 -2.0016 0.9765
5.0961 2.3146 -2.0016 0.9765
5.0096 2.4963 -2.0016 0.9765
4.9167 2.6747 -2.0016 0.9765
4.8174 2.8496 -2.0016 0.9765
4.7119 3.0209 -2.0016 0.9765
4.6003 3.1883 -2.0016 0.9765
4.4827 3.3515 -2.0016 0.9765
3.9563 3.9592 -2.0016 0.9765
3.8114 4.0988 -2.0016 0.9765
3.5072 4.3620 -2.0016 0.9765
3.1849 4.6026 -2.0016 0.9765
3.0174 4.7141 -2.0016 0.9765
2.1262 5.1775 -2.0016 0.9765
1.9387 5.2506 -2.0016 0.9765
1.7488 5.3169 -2.0016 0.9765
1.1665 5.4742 -2.0016 0.9765
0.9690 5.5126 -2.0016 0.9765
0.7703 5.5438 -2.0016 0.9765
0.1692 5.5945 -2.0016 0.9765
-0.0320 5.5970 -2.0016 0.9765
-0.6341 5.5611 -2.0016 0.9765
-1.8094 5.2965 -2.0016 0.9765
-1.9986 5.2281 -2.0016 0.9765
-2.1852 5.1529 -2.0016 0.9765
-2.3689 5.0710 -2.0016 0.9765
-2.5496 4.9826 -2.0016 0.9765
-2.7270 4.8878 -2.0016 0.9765
-3.2372 4.5659 -2.0016 0.9765
-3.5568 4.3216 -2.0016 0.9765
-2.1241 -4.3554 -1.8570 0.9795
-1.9662 -4.4289 -1.8570 0.9795
-1.8057 -4.4967 -1.8570 0.9795
-0.8017 -4.7790 -1.8570 0.9795
-0.6294 -4.8047 -1.8570 0.9795
-0.2827 -4.8375 -1.8570 0.9795
-0.1087 -4.8445 -1.8570 0.9795
0.0655 -4.8453 -1.8570 0.9795
0.2395 -4.8398 -1.8570 0.9795
0.7590 -4.7859 -1.8570 0.9795
1.4369 -4.6278 -1.8570 0.9795
1.7656 -4.5127 -1.8570 0.9795
2.0011 -4.1980 -1.7822 0.9803
2.2730 -4.0004 -1.7632 0.9805
2.6903 -4.0303 -1.8570 0.9795
2.9728 -3.8267 -1.8570 0.9795
3.1084 -3.7174 -1.8570 0.9795
3.3674 -3.4845 -1.8570 0.9795
3.7622 -3.6230 -2.0016 0.9779
3.8900 -3.4854 -2.0016 0.9779
4.3492 -2.8921 -2.0016 0.9779
4.7187 -2.2392 -2.0016 0.9779
4.7961 -2.0681 -2.0016 0.9779
4.8673 -1.8945 -2.0016 0.9779
4.9323 -1.7183 -2.0016 0.9779
4.9908 -1.5400 -2.0016 0.9779
5.0430 -1.3596 -2.0016 0.9779
5.0886 -1.1775 -2.0016 0.9779
5.1276 -0.9939 -2.0016 0.9779
5.2048 -0.4363 -2.0016 0.9779
5.2227 -0.0614 -2.0016 0.9779
5.2215 0.1263 -2.0016 0.9779
5.2136 0.3139 -2.0016 0.9779
5.1776 0.6875 -2.0016 0.9779
5.1495 0.8732 -2.0016 0.9779
5.1148 1.0576 -2.0016 0.9779
4.9105 1.7796 -2.0016 0.9779
4.7700 2.1277 -2.0016 0.9779
4.6905 2.2977 -2.0016 0.9779
4.6049 2.4648 -2.0016 0.9779
4.3129 2.9460 -2.0016 0.9779
4.0902 3.2482 -2.0016 0.9779
3.0011 4.2748 -2.0016 0.9779
2.3576 4.6606 -2.0016 0.9779
2.1886 4.7424 -2.0016 0.9779
1.4866 5.0070 -2.0016 0.9779
1.3057 5.0572 -2.0016 0.9779
1.1231 5.1008 -2.0016 0.9779
0.7539 5.1683 -2.0016 0.9779
0.5677 5.1921 -2.0016 0.9779
0.3807 5.2091 -2.0016 0.9779
0.1933 5.2195 -2.0016 0.9779
-0.1821 5.2199 -2.0016 0.9779
-0.3696 5.2099 -2.0016 0.9779
-0.5565 5.1933 -2.0016 0.9779
-0.7428 5.1699 -2.0016 0.9779
-0.9281 5.1399 -2.0016 0.9779
-1.6550 4.9539 -2.0016 0.9779
-1.8319 4.8912 -2.0016 0.9779
-2.3477 4.6657 -2.0016 0.9779
-2.5138 4.5783 -2.0016 0.9779
-2.6767 4.4850 -2.0016 0.9779
-3.2917 4.0552 -2.0016 0.9779
-3.5744 3.8083 -2.0016 0.9779
-3.7090 3.6774 -2.0016 0.9779
-3.8387 3.5418 -2.0016 0.9779
-4.0832 3.2569 -2.0016 0.9779
-4.1976 3.1081 -2.0016 0.9779
-4.4100 2.7986 -2.0016 0.9779
-4.5077 2.6383 -2.0016 0.9779
-4.6856 2.3077 -2.0016 0.9779
-4.9067 1.7901 -2.0016 0.9779
-4.9679 1.6126 -2.0016 0.9779
-5.0226 1.4330 -2.0016 0.9779
-5.1126 1.0686 -2.0016 0.9779
-5.1477 0.8842 -2.0016 0.9779
-5.1979 0.5122 -2.0016 0.9779
-5.2129 0.3251 -2.0016 0.9779
-5.2212 0.1375 -2.0016 0.9779
-5.2228 -0.0502 -2.0016 0.9779
-5.2176 -0.2378 -2.0016 0.9779
-5.1617 -0.7980 -2.0016 0.9779
-5.1297 -0.9830 -2.0016 0.9779
-4.9360 -1.7078 -2.0016 0.9779
-4.8714 -1.8840 -2.0016 0.9779
-4.8005 -2.0579 -2.0016 0.9779
-4.7009 -2.2184 -1.9920 0.9780
-4.2224 -2.3775 -1.8570 0.9795
-3.9421 -2.8181 -1.8570 0.9795
-3.8382 -2.9579 -1.8570 0.9795
-3.6159 -3.2259 -1.8570 0.9795
-3.4976 -3.3538 -1.8570 0.9795
-3.3748 -3.4773 -1.8570 0.9795
-3.2477 -3.5963 -1.8570 0.9795
-3.1164 -3.7107 -1.8570 0.9795
-2.9810 -3.8203 -1.8570 0.9795
-2.6989 -4.0246 -1.8570 0.9795
-2.4029 -4.2080 -1.8570 0.9795
-2.0945 -4.3697 -1.8570 0.9795
-1.1109 -4.7167 -1.8570 0.9795
-0.9407 -4.7536 -1.8570 0.9795
-0.7692 -4.7843 -1.8570 0.9795
-0.4236 -4.8272 -1.8570 0.9795
-0.2499 -4.8393 -1.8570 0.9795
0.4460 -4.8252 -1.8570 0.9795
0.7914 -4.7807 -1.8570 0.9795
0.9627 -4.7492 -1.8570 0.9795
1.4682 -4.6180 -1.8570 0.9795
1.6332 -4.5622 -1.8570 0.9795
1.7961 -4.5006 -1.8570 0.9795
1.9567 -4.4331 -1.8570 0.9795
2.1210 -4.0000 -1.7350 0.9808
2.3091 -4.0005 -1.7701 0.9804
2.7176 -4.0120 -1.8570 0.9795
2.8600 -3.9117 -1.8570 0.9795
2.9987 -3.8064 -1.8570 0.9795
3.2644 -3.5812 -1.8570 0.9795
3.3910 -3.4616 -1.8570 0.9795
4.0353 -3.3161 -2.0016 0.9779
4.1518 -3.1690 -2.0016 0.9779
4.2630 -3.0177 -2.0016 0.9779
4.5630 -2.5414 -2.0016 0.9779
4.7338 -2.2071 -2.0016 0.9779
4.8100 -2.0356 -2.0016 0.9779
5.0964 -1.1430 -2.0016 0.9779
5.1342 -0.9591 -2.0016 0.9779
5.1654 -0.7740 -2.0016 0.9779
5.1898 -0.5879 -2.0016 0.9779
5.2205 0.1618 -2.0016 0.9779
5.0159 1.4563 -2.0016 0.9779
4.8983 1.8128 -2.0016 0.9779
4.8300 1.9877 -2.0016 0.9779
4.7555 2.1600 -2.0016 0.9779
4.4954 2.6592 -2.0016 0.9779
4.1831 3.1275 -2.0016 0.9779
4.0680 3.2758 -2.0016 0.9779
3.9477 3.4199 -2.0016 0.9779
3.8223 3.5596 -2.0016 0.9779
3.6919 3.6946 -2.0016 0.9779
3.2728 4.0705 -2.0016 0.9779
2.9720 4.2950 -2.0016 0.9779
2.8158 4.3991 -2.0016 0.9779
2.1564 4.7571 -2.0016 0.9779
1.8092 4.8997 -2.0016 0.9779
1.6319 4.9615 -2.0016 0.9779
1.4526 5.0170 -2.0016 0.9779
1.0885 5.1083 -2.0016 0.9779
0.9042 5.1442 -2.0016 0.9779
0.7188 5.1733 -2.0016 0.9779
0.5324 5.1958 -2.0016 0.9779
0.1579 5.2206 -2.0016 0.9779
-0.0298 5.2229 -2.0016 0.9779
-0.2175 5.2185 -2.0016 0.9779
-0.4049 5.2073 -2.0016 0.9779
-0.5917 5.1894 -2.0016 0.9779
-0.9629 5.1335 -2.0016 0.9779
-1.1468 5.0956 -2.0016 0.9779
-1.3292 5.0511 -2.0016 0.9779
-1.5098 5.0001 -2.0016 0.9779
-2.3792 4.6497 -2.0016 0.9779
-2.5448 4.5611 -2.0016 0.9779
-2.7071 4.4668 -2.0016 0.9779
-2.8658 4.3666 -2.0016 0.9779
-3.0209 4.2608 -2.0016 0.9779
-3.1720 4.1495 -2.0016 0.9779
-1.9888 -4.0781 -1.8570 0.9806
-1.8410 -4.1470 -1.8570 0.9806
-1.5384 -4.2685 -1.8570 0.9806
-1.3840 -4.3210 -1.8570 0.9806
-1.2278 -4.3679 -1.8570 0.9806
-1.0701 -4.4093 -1.8570 0.9806
-0.7506 -4.4747 -1.8570 0.9806
-0.4273 -4.5171 -1.8570 0.9806
0.0613 -4.5368 -1.8570 0.9806
0.2243 -4.5317 -1.8570 0.9806
0.3870 -4.5207 -1.8570 0.9806
0.7107 -4.4812 -1.8570 0.9806
0.8713 -4.4528 -1.8570 0.9806
1.0307 -4.4186 -1.8570 0.9806
1.3454 -4.3332 -1.8570 0.9806
1.5002 -4.2820 -1.8570 0.9806
1.6532 -4.2254 -1.8570 0.9806
1.8039 -4.1632 -1.8570 0.9806
2.0863 -3.9999 -1.8464 0.9807
2.2415 -3.9449 -1.8570 0.9806
2.5190 -3.7737 -1.8570 0.9806
2.6530 -3.6808 -1.8570 0.9806
2.7836 -3.5831 -1.8570 0.9806
2.9105 -3.4807 -1.8570 0.9806
3.0337 -3.3739 -1.8570 0.9806
3.1530 -3.2627 -1.8570 0.9806
3.2682 -3.1473 -1.8570 0.9806
3.6423 -3.2635 -2.0016 0.9791
3.7572 -3.1305 -2.0016 0.9791
3.8673 -2.9935 -2.0016 0.9791
4.0723 -2.7080 -2.0016 0.9791
4.2563 -2.4085 -2.0016 0.9791
4.6183 -1.6089 -2.0016 0.9791
4.6731 -1.4419 -2.0016 0.9791
4.8734 -0.4085 -2.0016 0.9791
4.8849 -0.2332 -2.0016 0.9791
4.8891 0.1183 -2.0016 0.9791
4.8817 0.2939 -2.0016 0.9791
4.7892 0.9903 -2.0016 0.9791
4.7057 1.3317 -2.0016 0.9791
4.6548 1.5000 -2.0016 0.9791
4.4663 1.9922 -2.0016 0.9791
4.3919 2.1514 -2.0016 0.9791
4.3117 2.3078 -2.0016 0.9791
4.1348 2.6116 -2.0016 0.9791
3.7180 3.1770 -2.0016 0.9791
3.6014 3.3086 -2.0016 0.9791
3.4802 3.4359 -2.0016 0.9791
3.2244 3.6770 -2.0016 0.9791
3.0902 3.7905 -2.0016 0.9791
2.9520 3.8991 -2.0016 0.9791
2.8100 4.0026 -2.0016 0.9791
2.6644 4.1010 -2.0016 0.9791
2.3629 4.2818 -2.0016 0.9791
2.0493 4.4404 -2.0016 0.9791
1.5595 4.6352 -2.0016 0.9791
1.3919 4.6882 -2.0016 0.9791
1.2226 4.7352 -2.0016 0.9791
0.1810 4.8872 -2.0016 0.9791
-0.1705 4.8875 -2.0016 0.9791
-0.3460 4.8782 -2.0016 0.9791
-0.5211 4.8627 -2.0016 0.9791
-0.8690 4.8127 -2.0016 0.9791
-1.2124 4.7378 -2.0016 0.9791
-1.3819 4.6912 -2.0016 0.9791
-1.7153 4.5798 -2.0016 0.9791
-1.8787 4.5152 -2.0016 0.9791
-2.1982 4.3686 -2.0016 0.9791
-2.3538 4.2868 -2.0016 0.9791
-2.5063 4.1995 -2.0016 0.9791
-2.8014 4.0086 -2.0016 0.9791
-2.9437 3.9054 -2.0016 0.9791
-3.2166 3.6838 -2.0016 0.9791
-3.4728 3.4433 -2.0016 0.9791
-3.7112 3.1850 -2.0016 0.9791
-3.9304 2.9102 -2.0016 0.9791
-4.0324 2.7671 -2.0016 0.9791
-4.1292 2.6204 -2.0016 0.9791
-4.2207 2.4703 -2.0016 0.9791
-4.3068 2.3171 -2.0016 0.9791
-4.5943 1.6761 -2.0016 0.9791
-4.6516 1.5099 -2.0016 0.9791
-4.7028 1.3418 -2.0016 0.9791
-2.1357 0.3668 -0.8869 0.9907
-1.9481 0.1215 -0.7988 0.9916
-1.9077 -0.0183 -0.7808 0.9918
-1.9564 -0.1598 -0.8034 0.9916
-1.9945 -0.3083 -0.8260 0.9913
-4.8031 -0.9204 -2.0016 0.9791
-4.7669 -1.0924 -2.0016 0.9791
-4.7246 -1.2630 -2.0016 0.9791
-4.5612 -1.7641 -2.0016 0.9791
-4.4949 -1.9269 -2.0016 0.9791
-4.2983 -2.2206 -1.9801 0.9793
-3.7835 -2.5043 -1.8570 0.9806
-3.6911 -2.6387 -1.8570 0.9806
-3.4920 -2.8969 -1.8570 0.9806
-3.1600 -3.2559 -1.8570 0.9806
-2.9180 -3.4745 -1.8570 0.9806
-2.7912 -3.5771 -1.8570 0.9806
-2.6609 -3.6751 -1.8570 0.9806
-2.5271 -3.7683 -1.8570 0.9806
-2.2499 -3.9401 -1.8570 0.9806
-2.1069 -4.0184 -1.8570 0.9806
-1.5094 -4.2788 -1.8570 0.9806
-1.1982 -4.3762 -1.8570 0.9806
-0.8808 -4.4509 -1.8570 0.9806
-0.7203 -4.4797 -1.8570 0.9806
-0.5588 -4.5027 -1.8570 0.9806
-0.3967 -4.5199 -1.8570 0.9806
-0.2340 -4.5312 -1.8570 0.9806
-0.0710 -4.5367 -1.8570 0.9806
0.2550 -4.5301 -1.8570 0.9806
0.4176 -4.5180 -1.8570 0.9806
0.7411 -4.4763 -1.8570 0.9806
1.3748 -4.3240 -1.8570 0.9806
1.5293 -4.2718 -1.8570 0.9806
1.6818 -4.2141 -1.8570 0.9806
1.8321 -4.1509 -1.8570 0.9806
1.9801 -4.0824 -1.8570 0.9806
2.1210 -4.0000 -1.8530 0.9806
2.2682 -3.9296 -1.8570 0.9806
2.4079 -3.8456 -1.8570 0.9806
2.8078 -3.5641 -1.8570 0.9806
3.1751 -3.2412 -1.8570 0.9806
3.6644 -3.2388 -2.0016 0.9791
3.7784 -3.1050 -2.0016 0.9791
3.8875 -2.9672 -2.0016 0.9791
4.0906 -2.6803 -2.0016 0.9791
4.1843 -2.5316 -2.0016 0.9791
4.2725 -2.3796 -2.0016 0.9791
4.3553 -2.2245 -2.0016 0.9791
4.4324 -2.0666 -2.0016 0.9791
4.7304 -1.2410 -2.0016 0.9791
4.7720 -1.0702 -2.0016 0.9791
4.8594 -0.5505 -2.0016 0.9791
4.8761 -0.3755 -2.0016 0.9791
4.8904 -0.0243 -2.0016 0.9791
4.8882 0.1515 -2.0016 0.9791
4.8435 0.6766 -2.0016 0.9791
4.8160 0.8502 -2.0016 0.9791
4.7824 1.0228 -2.0016 0.9791
4.6965 1.3636 -2.0016 0.9791
4.6445 1.5315 -2.0016 0.9791
4.5225 1.8611 -2.0016 0.9791
4.4527 2.0224 -2.0016 0.9791
4.3772 2.1811 -2.0016 0.9791
4.2092 2.4899 -2.0016 0.9791
3.6964 3.2022 -2.0016 0.9791
3.5789 3.3329 -2.0016 0.9791
3.4568 3.4594 -2.0016 0.9791
3.3303 3.5814 -2.0016 0.9791
3.1994 3.6987 -2.0016 0.9791
3.0644 3.8113 -2.0016 0.9791
2.7828 4.0216 -2.0016 0.9791
2.4868 4.2111 -2.0016 0.9791
2.1779 4.3788 -2.0016 0.9791
1.8578 4.5239 -2.0016 0.9791
1.1904 4.7434 -2.0016 0.9791
