ply
format ascii 1.0
element vertex 1587
property float32 x
property float32 y
property float32 z
property float32 I
end_header
-9.2347 7.8802 -1.9999 0.9520
-9.5193 7.5501 -2.0016 0.9519
-9.7840 7.2037 -2.0016 0.9519
-10.0361 6.8481 -2.0016 0.9519
-10.5013 6.1108 -2.0016 0.9519
-10.7138 5.7301 -2.0016 0.9519
-10.9124 5.3421 -2.0016 0.9519
-11.0971 4.9472 -2.0016 0.9519
-11.2674 4.5459 -2.0016 0.9519
-11.5644 3.7263 -2.0016 0.9519
-11.8018 2.8875 -2.0016 0.9519
-11.8978 2.4622 -2.0016 0.9519
-12.1276 0.7351 -2.0016 0.9519
-12.0047 -1.8728 -2.0016 0.9519
-11.5658 -2.2320 -1.9405 0.9534
-10.9843 -2.5317 -1.8570 0.9553
-10.8864 -2.9241 -1.8570 0.9553
-10.6487 -3.6971 -1.8570 0.9553
-10.5092 -4.0768 -1.8570 0.9553
-10.3562 -4.4512 -1.8570 0.9553
-10.0104 -5.1823 -1.8570 0.9553
-9.8291 -5.5443 -1.8591 0.9553
-9.8798 -7.0717 -2.0016 0.9519
-9.6198 -7.4216 -2.0016 0.9519
-9.3473 -7.7619 -2.0016 0.9519
-7.8121 -9.3054 -2.0016 0.9519
-7.4733 -9.5796 -2.0016 0.9519
-6.7672 -10.0908 -2.0016 0.9519
-6.4008 -10.3271 -2.0016 0.9519
-6.0262 -10.5501 -2.0016 0.9519
-5.6438 -10.7595 -2.0016 0.9519
-4.8578 -11.1365 -2.0016 0.9519
-4.4552 -11.3036 -2.0016 0.9519
-4.0468 -11.4561 -2.0016 0.9519
-2.3665 -11.9172 -2.0016 0.9519
-1.5059 -12.0562 -2.0016 0.9519
-1.0724 -12.1025 -2.0016 0.9519
1.1045 -12.0996 -2.0016 0.9519
1.5379 -12.0521 -2.0016 0.9519
2.3981 -11.9109 -2.0016 0.9519
2.8239 -11.8172 -2.0016 0.9519
4.0771 -11.4454 -2.0016 0.9519
2.2208 -4.2066 -0.7836 0.9809
6.0541 -10.5341 -2.0016 0.9519
6.7939 -10.0728 -2.0016 0.9519
7.1509 -9.8226 -2.0016 0.9519
7.8368 -9.2846 -2.0016 0.9519
8.4824 -8.6988 -2.0016 0.9519
9.0843 -8.0682 -2.0016 0.9519
9.6394 -7.3960 -2.0016 0.9519
9.8985 -7.0455 -2.0016 0.9519
10.8045 -5.5571 -2.0016 0.9519
10.9969 -5.1660 -2.0016 0.9519
11.3390 -4.3641 -2.0016 0.9519
11.4883 -3.9545 -2.0016 0.9519
11.8467 -2.6974 -2.0016 0.9519
11.9358 -2.2706 -2.0016 0.9519
12.0096 -1.8410 -2.0016 0.9519
12.0679 -1.4089 -2.0016 0.9519
12.1107 -0.9751 -2.0016 0.9519
12.1379 -0.5400 -2.0016 0.9519
12.1256 0.7672 -2.0016 0.9519
11.9730 2.0656 -2.0016 0.9519
11.7941 2.9188 -2.0016 0.9519
11.4122 4.1690 -2.0016 0.9519
11.2553 4.5757 -2.0016 0.9519
11.0839 4.9766 -2.0016 0.9519
10.4851 6.1387 -2.0016 0.9519
10.2581 6.5108 -2.0016 0.9519
-7.0475 7.9617 -1.9985 0.9576
-7.3397 7.7154 -2.0016 0.9576
-7.6117 7.4471 -2.0016 0.9576
-8.1261 6.8821 -2.0016 0.9576
-8.3678 6.5862 -2.0016 0.9576
-9.8901 3.9475 -2.0016 0.9576
-10.0254 3.5901 -2.0016 0.9576
-10.1477 3.2281 -2.0016 0.9576
-10.6031 0.9857 -2.0016 0.9576
-10.6316 0.6047 -2.0016 0.9576
-10.6476 -0.1592 -2.0016 0.9576
-10.6351 -0.5411 -2.0016 0.9576
-10.6088 -0.9223 -2.0016 0.9576
-10.4483 -2.0568 -2.0016 0.9576
-9.3210 -3.2751 -1.8570 0.9606
-8.9151 -4.2576 -1.8570 0.9606
-8.5869 -4.8859 -1.8570 0.9606
-8.4061 -5.1908 -1.8570 0.9606
-8.2144 -5.4890 -1.8570 0.9606
-8.4070 -6.5360 -2.0016 0.9576
-8.1671 -6.8334 -2.0016 0.9576
-7.6561 -7.4015 -2.0016 0.9576
-7.3856 -7.6714 -2.0016 0.9576
-6.2124 -8.6489 -2.0016 0.9576
-5.5763 -9.0721 -2.0016 0.9576
-5.2472 -9.2663 -2.0016 0.9576
-4.9114 -9.4486 -2.0016 0.9576
-3.8678 -9.9216 -2.0016 0.9576
-3.1464 -10.1734 -2.0016 0.9576
-2.7795 -10.2797 -2.0016 0.9576
-2.4089 -10.3728 -2.0016 0.9576
-0.9004 -10.6107 -2.0016 0.9576
-0.5192 -10.6362 -2.0016 0.9576
1.0076 -10.6010 -2.0016 0.9576
1.3872 -10.5581 -2.0016 0.9576
2.8832 -10.2511 -2.0016 0.9576
3.2491 -10.1410 -2.0016 0.9576
3.6108 -10.0180 -2.0016 0.9576
3.9678 -9.8820 -2.0016 0.9576
6.2995 -8.5857 -2.0016 0.9576
6.6034 -8.3542 -2.0016 0.9576
6.8989 -8.1119 -2.0016 0.9576
7.1854 -7.8592 -2.0016 0.9576
7.4628 -7.5964 -2.0016 0.9576
7.7305 -7.3237 -2.0016 0.9576
7.9882 -7.0417 -2.0016 0.9576
8.2357 -6.7506 -2.0016 0.9576
8.6986 -6.1427 -2.0016 0.9576
8.9133 -5.8267 -2.0016 0.9576
9.1166 -5.5031 -2.0016 0.9576
10.3918 -2.3254 -2.0016 0.9576
10.5318 -1.5743 -2.0016 0.9576
10.5815 -1.1954 -2.0016 0.9576
10.6176 -0.8151 -2.0016 0.9576
10.6400 -0.4336 -2.0016 0.9576
10.6487 -0.0516 -2.0016 0.9576
10.6437 0.3304 -2.0016 0.9576
10.6250 0.7120 -2.0016 0.9576
10.5926 1.0928 -2.0016 0.9576
10.5466 1.4721 -2.0016 0.9576
10.4139 2.2245 -2.0016 0.9576
10.3274 2.5967 -2.0016 0.9576
10.1146 3.3305 -2.0016 0.9576
9.8498 4.0472 -2.0016 0.9576
9.6982 4.3979 -2.0016 0.9576
9.5342 4.7430 -2.0016 0.9576
9.3579 5.0820 -2.0016 0.9576
8.7577 6.0580 -2.0016 0.9576
8.0562 6.9639 -2.0016 0.9576
7.8012 7.2484 -2.0016 0.9576
7.5361 7.5236 -2.0016 0.9576
6.9772 8.0446 -2.0016 0.9576
5.7548 8.9599 -2.0016 0.9576
5.4297 9.1606 -2.0016 0.9576
5.0959 9.3465 -2.0009 0.9576
4.7440 9.4966 -1.9953 0.9577
3.7545 9.0946 -1.8494 0.9607
2.4151 9.5381 -1.8494 0.9607
2.0713 9.6186 -1.8494 0.9607
1.7249 9.6867 -1.8494 0.9607
1.0259 9.7854 -1.8494 0.9607
0.6742 9.8159 -1.8494 0.9607
0.3216 9.8338 -1.8494 0.9607
-0.7368 9.8114 -1.8494 0.9607
-1.0883 9.7787 -1.8494 0.9607
-1.7867 9.6755 -1.8494 0.9607
-2.1326 9.6052 -1.8494 0.9607
-2.4758 9.5225 -1.8494 0.9607
-2.8159 9.4275 -1.8494 0.9607
-4.4530 8.7737 -1.8494 0.9607
-6.7122 8.2167 -1.9942 0.9577
-7.3109 7.7426 -2.0016 0.9576
-8.1004 6.9123 -2.0016 0.9576
-8.3432 6.6173 -2.0016 0.9576
-8.5752 6.3137 -2.0016 0.9576
-9.0058 5.6826 -2.0016 0.9576
-9.2039 5.3558 -2.0016 0.9576
-9.3901 5.0222 -2.0016 0.9576
-9.5643 4.6821 -2.0016 0.9576
-10.0119 3.6274 -2.0016 0.9576
-10.4986 1.7825 -2.0016 0.9576
-10.5558 1.4048 -2.0016 0.9576
-10.5993 1.0252 -2.0016 0.9576
-10.6456 0.2625 -2.0016 0.9576
-10.6481 -0.1196 -2.0016 0.9576
-10.6370 -0.5015 -2.0016 0.9576
-10.6122 -0.8828 -2.0016 0.9576
-10.5737 -1.2629 -2.0016 0.9576
-10.4559 -2.0178 -2.0016 0.9576
-9.2108 -3.5731 -1.8570 0.9606
-8.9309 -4.2244 -1.8570 0.9606
-8.6050 -4.8539 -1.8570 0.9606
-8.4254 -5.1595 -1.8570 0.9606
-8.2348 -5.4584 -1.8570 0.9606
-8.6592 -6.1980 -2.0016 0.9576
-8.1925 -6.8030 -2.0016 0.9576
-7.9432 -7.0925 -2.0016 0.9576
-7.4142 -7.6438 -2.0016 0.9576
-7.1352 -7.9048 -2.0016 0.9576
-6.8470 -8.1557 -2.0016 0.9576
-6.5500 -8.3961 -2.0016 0.9576
-6.2446 -8.6257 -2.0016 0.9576
-5.9311 -8.8442 -2.0016 0.9576
-5.6100 -9.0513 -2.0016 0.9576
-4.6051 -9.6016 -2.0016 0.9576
-4.2576 -9.7606 -2.0016 0.9576
-3.5468 -10.0408 -2.0016 0.9576
-3.1843 -10.1616 -2.0016 0.9576
-2.8177 -10.2693 -2.0016 0.9576
-2.4475 -10.3637 -2.0016 0.9576
-1.6981 -10.5126 -2.0016 0.9576
-0.5588 -10.6342 -2.0016 0.9576
-0.1769 -10.6473 -2.0016 0.9576
1.3479 -10.5632 -2.0016 0.9576
1.7260 -10.5080 -2.0016 0.9576
3.2113 -10.1531 -2.0016 0.9576
3.9310 -9.8967 -2.0016 0.9576
2.2208 -4.2065 -0.8941 0.9808
5.3062 -9.2326 -2.0016 0.9576
5.6340 -9.0363 -2.0016 0.9576
5.9546 -8.8284 -2.0016 0.9576
6.2674 -8.6091 -2.0016 0.9576
6.5722 -8.3787 -2.0016 0.9576
7.4344 -7.6241 -2.0016 0.9576
7.7031 -7.3525 -2.0016 0.9576
7.9619 -7.0714 -2.0016 0.9576
8.2105 -6.7812 -2.0016 0.9576
8.4485 -6.4823 -2.0016 0.9576
8.6756 -6.1750 -2.0016 0.9576
8.8916 -5.8598 -2.0016 0.9576
9.0961 -5.5371 -2.0016 0.9576
9.4697 -4.8706 -2.0016 0.9576
9.6383 -4.5277 -2.0016 0.9576
9.7945 -4.1790 -2.0016 0.9576
9.9382 -3.8250 -2.0016 0.9576
10.2916 -2.7351 -2.0016 0.9576
10.3831 -2.3641 -2.0016 0.9576
10.4612 -1.9901 -2.0016 0.9576
10.5770 -1.2348 -2.0016 0.9576
10.6383 -0.4733 -2.0016 0.9576
10.6484 -0.0913 -2.0016 0.9576
10.6448 0.2908 -2.0016 0.9576
10.6276 0.6724 -2.0016 0.9576
10.4938 1.8104 -2.0016 0.9576
10.3370 2.5582 -2.0016 0.9576
9.8648 4.0104 -2.0016 0.9576
9.7146 4.3617 -2.0016 0.9576
9.5518 4.7075 -2.0016 0.9576
9.1897 5.3803 -2.0016 0.9576
8.9907 5.7065 -2.0016 0.9576
8.7802 6.0253 -2.0016 0.9576
-6.2762 7.0903 -2.0016 0.9620
-6.5265 6.8606 -2.0016 0.9620
-7.0016 6.3749 -2.0016 0.9620
-7.2258 6.1196 -2.0016 0.9620
-7.4407 5.8565 -2.0016 0.9620
-7.8415 5.3079 -2.0016 0.9620
-8.2019 4.7320 -2.0016 0.9620
-8.6628 3.8233 -2.0016 0.9620
-8.7944 3.5101 -2.0016 0.9620
-9.1206 2.5449 -2.0016 0.9620
-9.2060 2.2161 -2.0016 0.9620
-9.2796 1.8844 -2.0016 0.9620
-9.3413 1.5503 -2.0016 0.9620
-9.3909 1.2141 -2.0016 0.9620
-9.4284 0.8765 -2.0016 0.9620
-9.4537 0.5377 -2.0016 0.9620
-9.3979 -1.1580 -2.0016 0.9620
-8.1785 -3.2077 -1.8570 0.9647
-8.0581 -3.4991 -1.8570 0.9647
-7.7865 -4.0679 -1.8570 0.9647
-7.6355 -4.3446 -1.8570 0.9647
-7.3044 -4.8809 -1.8570 0.9647
-7.1246 -5.1398 -1.8570 0.9647
-6.7377 -5.6374 -1.8570 0.9647
-7.0396 -6.3330 -2.0016 0.9620
-6.5674 -6.8214 -2.0016 0.9620
-6.3184 -7.0526 -2.0016 0.9620
-6.0613 -7.2748 -2.0016 0.9620
-5.7965 -7.4875 -2.0016 0.9620
-5.2447 -7.8839 -2.0016 0.9620
-4.9585 -8.0670 -2.0016 0.9620
-4.6659 -8.2397 -2.0016 0.9620
-4.0630 -8.5530 -2.0016 0.9620
-2.7978 -9.0462 -2.0016 0.9620
-2.4715 -9.1408 -2.0016 0.9620
-2.1420 -9.2236 -2.0016 0.9620
-1.8097 -9.2945 -2.0016 0.9620
-1.1386 -9.4003 -2.0016 0.9620
-0.1221 -9.4682 -2.0016 0.9620
0.5572 -9.4526 -2.0016 0.9620
1.2335 -9.3883 -2.0016 0.9620
1.5695 -9.3380 -2.0016 0.9620
2.5637 -9.1154 -2.0016 0.9620
3.8412 -8.6549 -2.0016 0.9620
4.1492 -8.5115 -2.0016 0.9620
4.7489 -8.1921 -2.0016 0.9620
5.0397 -8.0165 -2.0016 0.9620
5.3240 -7.8305 -2.0016 0.9620
5.6015 -7.6345 -2.0016 0.9620
5.8718 -7.4286 -2.0016 0.9620
6.3894 -6.9884 -2.0016 0.9620
6.6360 -6.7547 -2.0016 0.9620
6.8740 -6.5123 -2.0016 0.9620
7.7348 -5.4621 -2.0016 0.9620
7.9258 -5.1811 -2.0016 0.9620
8.1066 -4.8934 -2.0016 0.9620
8.2769 -4.5995 -2.0016 0.9620
8.4366 -4.2996 -2.0016 0.9620
8.8497 -3.3682 -2.0016 0.9620
9.0684 -2.7250 -2.0016 0.9620
9.1604 -2.3979 -2.0016 0.9620
9.3087 -1.7349 -2.0016 0.9620
9.4612 -0.3856 -2.0016 0.9620
9.4478 0.6331 -2.0016 0.9620
9.4190 0.9717 -2.0016 0.9620
9.3781 1.3090 -2.0016 0.9620
9.2601 1.9780 -2.0016 0.9620
8.9940 2.9615 -2.0016 0.9620
8.8820 3.2822 -2.0016 0.9620
8.7585 3.5988 -2.0016 0.9620
8.3211 4.5189 -2.0016 0.9620
7.7875 5.3868 -2.0016 0.9620
7.5892 5.6627 -2.0016 0.9620
7.3812 5.9313 -2.0016 0.9620
6.9369 6.4453 -2.0016 0.9620
6.4568 6.9261 -2.0016 0.9620
6.2042 7.1533 -2.0016 0.9620
5.9436 7.3713 -2.0016 0.9620
5.3998 7.7785 -2.0016 0.9620
5.1172 7.9672 -2.0016 0.9620
4.8281 8.1457 -2.0016 0.9620
4.5328 8.3136 -2.0016 0.9620
4.2316 8.4709 -2.0016 0.9620
3.9244 8.6160 -2.0013 0.9620
3.6054 8.7333 -1.9972 0.9621
2.8671 8.6589 -1.9280 0.9634
2.4935 8.5468 -1.8819 0.9643
2.1475 8.4813 -1.8494 0.9649
1.2238 8.6630 -1.8494 0.9649
0.5995 8.7284 -1.8494 0.9649
0.2860 8.7443 -1.8494 0.9649
-0.0279 8.7489 -1.8494 0.9649
-0.9677 8.6953 -1.8494 0.9649
-1.5887 8.6035 -1.8494 0.9649
-1.8964 8.5410 -1.8494 0.9649
-2.5039 8.3830 -1.8494 0.9649
-2.8030 8.2878 -1.8494 0.9649
-4.1824 8.2405 -1.9534 0.9629
-4.5577 8.2339 -1.9893 0.9623
-4.8672 8.0934 -1.9963 0.9621
-5.1618 7.9249 -1.9992 0.9621
-5.4493 7.7439 -2.0016 0.9620
-5.9905 7.3332 -2.0016 0.9620
-6.5009 6.8848 -2.0016 0.9620
-6.7437 6.6472 -2.0016 0.9620
-7.2030 6.1465 -2.0016 0.9620
-7.4188 5.8841 -2.0016 0.9620
-7.6252 5.6142 -2.0016 0.9620
-8.0081 5.0530 -2.0016 0.9620
-8.5046 4.1634 -2.0016 0.9620
-8.6485 3.8556 -2.0016 0.9620
-8.7813 3.5428 -2.0016 0.9620
-9.1111 2.5789 -2.0016 0.9620
-9.1977 2.2504 -2.0016 0.9620
-9.3354 1.5851 -2.0016 0.9620
-9.3863 1.2491 -2.0016 0.9620
-9.4661 0.2334 -2.0016 0.9620
-9.4684 -0.1063 -2.0016 0.9620
-9.4364 -0.7850 -2.0016 0.9620
-8.3971 -2.5818 -1.8570 0.9647
-8.0711 -3.4690 -1.8570 0.9647
-7.8016 -4.0388 -1.8570 0.9647
-7.1437 -5.1132 -1.8570 0.9647
-6.8323 -6.5560 -2.0016 0.9620
-6.3447 -7.0291 -2.0016 0.9620
-5.8243 -7.4659 -2.0016 0.9620
-5.2740 -7.8643 -2.0016 0.9620
-4.6965 -8.2222 -2.0016 0.9620
-4.3985 -8.3854 -2.0016 0.9620
-3.7859 -8.6792 -2.0016 0.9620
-3.1538 -8.9284 -2.0016 0.9620
-2.8315 -9.0358 -2.0016 0.9620
-2.1763 -9.2155 -2.0016 0.9620
0.1824 -9.4673 -2.0016 0.9620
0.5220 -9.4546 -2.0016 0.9620
0.8608 -9.4298 -2.0016 0.9620
2.2008 -9.2097 -2.0016 0.9620
3.4955 -8.8002 -2.0016 0.9620
4.1175 -8.5269 -2.0016 0.9620
2.2207 -4.2065 -1.0055 0.9807
4.7183 -8.2097 -2.0016 0.9620
5.2948 -7.8503 -2.0016 0.9620
5.5731 -7.6553 -2.0016 0.9620
5.8441 -7.4504 -2.0016 0.9620
6.1076 -7.2360 -2.0016 0.9620
6.6107 -6.7794 -2.0016 0.9620
7.3009 -6.0299 -2.0016 0.9620
7.5125 -5.7641 -2.0016 0.9620
8.5705 -4.0261 -2.0016 0.9620
8.9534 -3.0820 -2.0016 0.9620
9.0582 -2.7588 -2.0016 0.9620
9.1514 -2.4321 -2.0016 0.9620
9.2327 -2.1022 -2.0016 0.9620
9.3597 -1.4348 -2.0016 0.9620
9.4051 -1.0980 -2.0016 0.9620
9.2674 1.9435 -2.0016 0.9620
9.1917 2.2748 -2.0016 0.9620
8.7718 3.5661 -2.0016 0.9620
8.6383 3.8785 -2.0016 0.9620
8.3379 4.4879 -2.0016 0.9620
8.1715 4.7842 -2.0016 0.9620
7.8075 5.3578 -2.0016 0.9620
-6.2973 5.7336 -2.0016 0.9656
-6.4989 5.5040 -2.0016 0.9656
-6.6922 5.2673 -2.0016 0.9656
-6.8768 5.0238 -2.0016 0.9656
-7.0526 4.7739 -2.0016 0.9656
-7.3768 4.2559 -2.0016 0.9656
-7.6630 3.7160 -2.0016 0.9656
-7.7913 3.4387 -2.0016 0.9656
-8.0179 2.8712 -2.0016 0.9656
-8.1157 2.5817 -2.0016 0.9656
-8.2031 2.2889 -2.0016 0.9656
-8.2799 1.9931 -2.0016 0.9656
-8.3461 1.6948 -2.0016 0.9656
-8.4015 1.3943 -2.0016 0.9656
-8.4799 0.7883 -2.0016 0.9656
-8.5027 0.4836 -2.0016 0.9656
-8.5146 0.1782 -2.0016 0.9656
-8.5054 -0.4328 -2.0016 0.9656
-8.4097 -1.3441 -2.0016 0.9656
-8.2917 -1.9436 -2.0016 0.9656
-8.1436 -2.2199 -1.9838 0.9659
-7.2475 -3.1471 -1.8570 0.9681
-7.1299 -3.4051 -1.8570 0.9681
-6.8674 -3.9075 -1.8570 0.9681
-6.7228 -4.1514 -1.8570 0.9681
-6.4078 -4.6227 -1.8570 0.9681
-6.2379 -4.8497 -1.8570 0.9681
-6.0599 -5.0703 -1.8570 0.9681
-5.6807 -5.4918 -1.8570 0.9681
-5.9067 -6.1352 -2.0016 0.9656
-5.4516 -6.5429 -2.0016 0.9656
-4.9684 -6.9170 -2.0016 0.9656
-3.3760 -7.8187 -2.0016 0.9656
-1.9265 -8.2957 -2.0016 0.9656
-1.3267 -8.4125 -2.0016 0.9656
-1.0241 -8.4547 -2.0016 0.9656
-0.1098 -8.5157 -2.0016 0.9656
0.1958 -8.5142 -2.0016 0.9656
0.5011 -8.5017 -2.0016 0.9656
0.8058 -8.4782 -2.0016 0.9656
1.1094 -8.4439 -2.0016 0.9656
2.0102 -8.2758 -2.0016 0.9656
3.4548 -7.7842 -2.0016 0.9656
2.1412 -4.3923 -1.1484 0.9801
4.5327 -7.2100 -2.0016 0.9656
4.7884 -7.0428 -2.0016 0.9656
5.5174 -6.4875 -2.0016 0.9656
5.7466 -6.2854 -2.0016 0.9656
6.1825 -5.8572 -2.0016 0.9656
7.2911 -4.4012 -2.0016 0.9656
7.8456 -3.3130 -2.0016 0.9656
7.9594 -3.0294 -2.0016 0.9656
8.4626 -0.9561 -2.0016 0.9656
8.4915 -0.6519 -2.0016 0.9656
8.5123 0.2642 -2.0016 0.9656
8.3286 1.7790 -2.0016 0.9656
8.1796 2.3717 -2.0016 0.9656
8.0892 2.6636 -2.0016 0.9656
7.9884 2.9521 -2.0016 0.9656
7.8774 3.2367 -2.0016 0.9656
7.6250 3.7932 -2.0016 0.9656
7.4840 4.0644 -2.0016 0.9656
7.3334 4.3302 -2.0016 0.9656
7.1733 4.5905 -2.0016 0.9656
6.8257 5.0931 -2.0016 0.9656
6.6386 5.3347 -2.0016 0.9656
6.4430 5.5694 -2.0016 0.9656
6.2390 5.7969 -2.0016 0.9656
6.0270 6.0170 -2.0016 0.9656
5.3457 6.6298 -2.0016 0.9656
4.8565 6.9960 -2.0016 0.9656
4.0768 7.4773 -2.0016 0.9656
2.9653 7.9835 -2.0016 0.9656
2.6770 8.0848 -2.0016 0.9656
2.0856 8.2371 -1.9970 0.9657
1.7870 8.2982 -1.9950 0.9657
1.1689 8.2744 -1.9640 0.9662
0.8662 8.2617 -1.9523 0.9664
0.5666 8.2487 -1.9432 0.9666
-0.3222 8.2432 -1.9388 0.9667
-0.6190 8.2425 -1.9426 0.9666
-0.9172 8.2414 -1.9489 0.9665
-1.2177 8.2397 -1.9576 0.9664
-1.5212 8.2377 -1.9688 0.9662
-1.8284 8.2351 -1.9826 0.9659
-2.4301 8.1359 -1.9956 0.9657
-2.7224 8.0494 -1.9971 0.9657
-3.2982 7.8469 -2.0005 0.9656
-4.3890 7.2984 -2.0016 0.9656
-4.6481 7.1362 -2.0016 0.9656
-4.9011 6.9649 -2.0016 0.9656
-5.1478 6.7846 -2.0016 0.9656
-5.6210 6.3980 -2.0016 0.9656
-5.8469 6.1922 -2.0016 0.9656
-6.0653 5.9785 -2.0016 0.9656
-6.2759 5.7570 -2.0016 0.9656
-6.4784 5.5282 -2.0016 0.9656
-6.8581 5.0494 -2.0016 0.9656
-7.5098 4.0165 -2.0016 0.9656
-7.6491 3.7445 -2.0016 0.9656
-7.8979 3.1864 -2.0016 0.9656
-8.0071 2.9010 -2.0016 0.9656
-8.2724 2.0240 -2.0016 0.9656
-8.3397 1.7259 -2.0016 0.9656
-8.4420 1.1235 -2.0016 0.9656
-8.4769 0.8199 -2.0016 0.9656
-8.5139 0.2100 -2.0016 0.9656
-8.5159 -0.0956 -2.0016 0.9656
-8.4871 -0.7060 -2.0016 0.9656
-8.4563 -1.0100 -2.0016 0.9656
-8.3621 -1.6138 -2.0016 0.9656
-8.2989 -1.9127 -2.0016 0.9656
-8.2249 -2.2092 -2.0016 0.9656
-7.4642 -2.5915 -1.8570 0.9681
-7.1426 -3.3785 -1.8570 0.9681
-6.7382 -4.1263 -1.8570 0.9681
-6.0787 -5.0477 -1.8570 0.9681
-5.8937 -5.2625 -1.8570 0.9681
-5.7011 -5.4706 -1.8570 0.9681
-5.5012 -5.6716 -1.8570 0.9681
-5.7064 -6.3219 -2.0016 0.9656
-5.4759 -6.5226 -2.0016 0.9656
-5.2384 -6.7148 -2.0016 0.9656
-4.7434 -7.0732 -2.0016 0.9656
-4.4866 -7.2388 -2.0016 0.9656
-4.2241 -7.3951 -2.0016 0.9656
-3.9560 -7.5419 -2.0016 0.9656
-3.6829 -7.6789 -2.0016 0.9656
-3.4051 -7.8061 -2.0016 0.9656
-1.6588 -8.3533 -2.0016 0.9656
-1.3580 -8.4075 -2.0016 0.9656
-1.0556 -8.4508 -2.0016 0.9656
0.7742 -8.4812 -2.0016 0.9656
1.9794 -8.2832 -2.0016 0.9656
2.5682 -8.1200 -2.0016 0.9656
3.7033 -7.6691 -2.0016 0.9656
2.2049 -4.1765 -1.1100 0.9808
4.5058 -7.2269 -2.0016 0.9656
5.0124 -6.8852 -2.0016 0.9656
5.2562 -6.7009 -2.0016 0.9656
5.7231 -6.3068 -2.0016 0.9656
5.9457 -6.0974 -2.0016 0.9656
6.1606 -5.8802 -2.0016 0.9656
6.3676 -5.6554 -2.0016 0.9656
6.9384 -4.9385 -2.0016 0.9656
7.2746 -4.4283 -2.0016 0.9656
7.4288 -4.1645 -2.0016 0.9656
7.5734 -3.8953 -2.0016 0.9656
7.7083 -3.6211 -2.0016 0.9656
7.9481 -3.0590 -2.0016 0.9656
8.0527 -2.7719 -2.0016 0.9656
8.1470 -2.4813 -2.0016 0.9656
8.2307 -2.1874 -2.0016 0.9656
8.3039 -1.8907 -2.0016 0.9656
8.4590 -0.9876 -2.0016 0.9656
8.4890 -0.6835 -2.0016 0.9656
8.5161 -0.0730 -2.0016 0.9656
8.4390 1.1458 -2.0016 0.9656
8.2670 2.0459 -2.0016 0.9656
8.1883 2.3412 -2.0016 0.9656
8.0991 2.6334 -2.0016 0.9656
7.8894 3.2074 -2.0016 0.9656
7.7693 3.4883 -2.0016 0.9656
7.4991 4.0364 -2.0016 0.9656
7.0221 4.8188 -2.0016 0.9656
-5.3282 5.6009 -2.0016 0.9686
-5.5257 5.4062 -2.0016 0.9686
-5.7161 5.2045 -2.0016 0.9686
-6.2422 4.5602 -2.0016 0.9686
-6.5531 4.1009 -2.0016 0.9686
-6.6960 3.8632 -2.0016 0.9686
-6.8303 3.6204 -2.0016 0.9686
-6.9558 3.3731 -2.0016 0.9686
-7.1797 2.8656 -2.0016 0.9686
-7.3667 2.3435 -2.0016 0.9686
-7.4460 2.0777 -2.0016 0.9686
-7.5158 1.8092 -2.0016 0.9686
-7.5759 1.5384 -2.0016 0.9686
-7.6262 1.2656 -2.0016 0.9686
-7.6667 0.9912 -2.0016 0.9686
-7.6973 0.7155 -2.0016 0.9686
-7.7180 0.4389 -2.0016 0.9686
-7.7205 -0.3928 -2.0016 0.9686
-7.6725 -0.9454 -2.0016 0.9686
-7.6336 -1.2200 -2.0016 0.9686
-6.7665 -2.3776 -1.8570 0.9708
-6.6769 -2.6188 -1.8570 0.9708
-6.5786 -2.8566 -1.8570 0.9708
-5.9633 -3.9848 -1.8570 0.9708
-5.3320 -4.7968 -1.8570 0.9708
-4.7857 -5.3419 -1.8570 0.9708
-4.3904 -5.6713 -1.8570 0.9708
-4.5099 -6.2787 -2.0016 0.9686
-3.8092 -6.7268 -2.0016 0.9686
-3.3170 -6.9827 -2.0016 0.9686
-3.0644 -7.0972 -2.0016 0.9686
-1.4775 -7.5880 -2.0016 0.9686
-1.2043 -7.6361 -2.0016 0.9686
-0.9296 -7.6744 -2.0016 0.9686
-0.6536 -7.7028 -2.0016 0.9686
-0.3769 -7.7213 -2.0016 0.9686
-0.0996 -7.7298 -2.0016 0.9686
0.1777 -7.7284 -2.0016 0.9686
0.4549 -7.7171 -2.0016 0.9686
0.7314 -7.6958 -2.0016 0.9686
1.5540 -7.5727 -2.0016 0.9686
1.8247 -7.5120 -2.0016 0.9686
2.0930 -7.4418 -2.0016 0.9686
2.3587 -7.3619 -2.0016 0.9686
2.6212 -7.2725 -2.0016 0.9686
2.1074 -4.3230 -1.2452 0.9803
2.1904 -4.1119 -1.2063 0.9809
4.1144 -6.5446 -2.0016 0.9686
4.7937 -6.0647 -2.0016 0.9686
5.0082 -5.8888 -2.0016 0.9686
5.2163 -5.7054 -2.0016 0.9686
5.7990 -5.1119 -2.0016 0.9686
5.9787 -4.9006 -2.0016 0.9686
6.4706 -4.2298 -2.0016 0.9686
6.6182 -3.9950 -2.0016 0.9686
6.7573 -3.7550 -2.0016 0.9686
7.0091 -3.2608 -2.0016 0.9686
7.1216 -3.0073 -2.0016 0.9686
7.4035 -2.2247 -2.0016 0.9686
7.4785 -1.9577 -2.0016 0.9686
7.5439 -1.6881 -2.0016 0.9686
7.6455 -1.1429 -2.0016 0.9686
7.7241 -0.3148 -2.0016 0.9686
7.7304 -0.0375 -2.0016 0.9686
7.7132 0.5169 -2.0016 0.9686
7.6897 0.7933 -2.0016 0.9686
7.6563 1.0686 -2.0016 0.9686
7.6130 1.3426 -2.0016 0.9686
7.4247 2.1528 -2.0016 0.9686
7.2512 2.6796 -2.0016 0.9686
7.0404 3.1927 -2.0016 0.9686
6.9213 3.4432 -2.0016 0.9686
6.7934 3.6893 -2.0016 0.9686
6.6566 3.9306 -2.0016 0.9686
6.1958 4.6230 -2.0016 0.9686
6.0260 4.8423 -2.0016 0.9686
5.6632 5.2620 -2.0016 0.9686
5.4708 5.4617 -2.0016 0.9686
5.2714 5.6545 -2.0016 0.9686
4.8523 6.0179 -2.0016 0.9686
4.6333 6.1881 -2.0016 0.9686
4.4083 6.3503 -2.0016 0.9686
4.1777 6.5044 -2.0016 0.9686
3.2044 7.0351 -2.0016 0.9686
2.9499 7.1455 -2.0016 0.9686
2.6917 7.2468 -2.0016 0.9686
1.3553 7.6108 -2.0016 0.9686
1.0814 7.6545 -2.0016 0.9686
0.8060 7.6883 -2.0016 0.9686
-0.3020 7.7246 -2.0016 0.9686
-0.5789 7.7088 -2.0016 0.9686
-0.8551 7.6831 -2.0016 0.9686
-1.4038 7.6020 -2.0016 0.9686
-2.4767 7.3230 -2.0016 0.9686
-3.2491 7.0145 -2.0016 0.9686
-3.7438 6.7635 -2.0016 0.9686
-3.9840 6.6248 -2.0016 0.9686
-4.4488 6.3221 -2.0016 0.9686
-5.1023 5.8075 -2.0016 0.9686
-5.3073 5.6208 -2.0016 0.9686
-5.8805 5.0180 -2.0016 0.9686
-6.0567 4.8038 -2.0016 0.9686
-6.2252 4.5834 -2.0016 0.9686
-6.3856 4.3572 -2.0016 0.9686
-6.5378 4.1253 -2.0016 0.9686
-6.6816 3.8881 -2.0016 0.9686
-7.1690 2.8924 -2.0016 0.9686
-7.4383 2.1054 -2.0016 0.9686
-7.5090 1.8372 -2.0016 0.9686
-7.6214 1.2940 -2.0016 0.9686
-7.6629 1.0198 -2.0016 0.9686
-7.7163 0.4677 -2.0016 0.9686
-7.7300 -0.0868 -2.0016 0.9686
-7.7219 -0.3641 -2.0016 0.9686
-7.6759 -0.9168 -2.0016 0.9686
-7.6381 -1.1916 -2.0016 0.9686
-6.6866 -2.5939 -1.8570 0.9708
-5.6786 -4.3810 -1.8570 0.9708
-5.1750 -4.9657 -1.8570 0.9708
-4.4115 -5.6549 -1.8570 0.9708
-4.3057 -6.4204 -2.0016 0.9686
-3.8342 -6.7126 -2.0016 0.9686
-3.5909 -6.8458 -2.0016 0.9686
-3.3430 -6.9703 -2.0016 0.9686
-3.0908 -7.0857 -2.0016 0.9686
-2.8346 -7.1920 -2.0016 0.9686
-2.5748 -7.2891 -2.0016 0.9686
-0.4056 -7.7198 -2.0016 0.9686
-0.1284 -7.7294 -2.0016 0.9686
0.1489 -7.7291 -2.0016 0.9686
0.4261 -7.7187 -2.0016 0.9686
0.7028 -7.6985 -2.0016 0.9686
0.9785 -7.6683 -2.0016 0.9686
1.7967 -7.5188 -2.0016 0.9686
2.0653 -7.4495 -2.0016 0.9686
2.5941 -7.2822 -2.0016 0.9686
2.8537 -7.1845 -2.0016 0.9686
2.1709 -4.1122 -1.2040 0.9810
2.3619 -4.1096 -1.2273 0.9806
4.3227 -6.4090 -2.0016 0.9686
4.7711 -6.0825 -2.0016 0.9686
4.9862 -5.9074 -2.0016 0.9686
5.1950 -5.7247 -2.0016 0.9686
5.3970 -5.5347 -2.0016 0.9686
5.7800 -5.1335 -2.0016 0.9686
5.9604 -4.9228 -2.0016 0.9686
6.1332 -4.7058 -2.0016 0.9686
6.4548 -4.2539 -2.0016 0.9686
6.8745 -3.5358 -2.0016 0.9686
6.9969 -3.2869 -2.0016 0.9686
7.1103 -3.0338 -2.0016 0.9686
7.4712 -1.9855 -2.0016 0.9686
7.5376 -1.7162 -2.0016 0.9686
7.5943 -1.4447 -2.0016 0.9686
7.6412 -1.1713 -2.0016 0.9686
7.6783 -0.8964 -2.0016 0.9686
7.7229 -0.3436 -2.0016 0.9686
7.7276 0.2111 -2.0016 0.9686
7.7151 0.4882 -2.0016 0.9686
7.6602 1.0401 -2.0016 0.9686
7.6179 1.3142 -2.0016 0.9686
7.5659 1.5867 -2.0016 0.9686
7.4327 2.1251 -2.0016 0.9686
6.8071 3.6639 -2.0016 0.9686
6.6712 3.9058 -2.0016 0.9686
6.3740 4.3741 -2.0016 0.9686
-5.0538 4.9445 -2.0016 0.9710
-5.2280 4.7600 -2.0016 0.9710
-5.3954 4.5694 -2.0016 0.9710
-5.5558 4.3729 -2.0016 0.9710
-5.8551 3.9633 -2.0016 0.9710
-5.9935 3.7507 -2.0016 0.9710
-6.1242 3.5333 -2.0016 0.9710
-6.2470 3.3113 -2.0016 0.9710
-6.3618 3.0850 -2.0016 0.9710
-6.6564 2.3837 -2.0016 0.9710
-6.8740 1.6547 -2.0016 0.9710
-6.9289 1.4070 -2.0016 0.9710
-7.0120 0.9066 -2.0016 0.9710
-7.0400 0.6544 -2.0016 0.9710
-7.0688 0.1480 -2.0016 0.9710
-7.0612 -0.3593 -2.0016 0.9710
-7.0438 -0.6124 -2.0016 0.9710
-7.0173 -0.8647 -2.0016 0.9710
-6.8837 -1.6136 -2.0016 0.9710
-6.7503 -2.1030 -2.0016 0.9710
-6.1166 -2.3990 -1.8600 0.9731
-6.0168 -2.6127 -1.8570 0.9731
-5.8140 -3.0374 -1.8570 0.9731
-5.7013 -3.2440 -1.8570 0.9731
-5.4540 -3.6445 -1.8570 0.9731
-5.1787 -4.0262 -1.8570 0.9731
-4.5495 -4.7255 -1.8570 0.9731
-4.3771 -4.8857 -1.8570 0.9731
-4.1990 -5.0396 -1.8570 0.9731
-4.0155 -5.1870 -1.8570 0.9731
-3.6332 -5.4615 -1.8570 0.9731
-3.4839 -6.1524 -2.0016 0.9710
-3.0338 -6.3864 -2.0016 0.9710
-2.8027 -6.4911 -2.0016 0.9710
-2.5681 -6.5875 -2.0016 0.9710
-2.3301 -6.6754 -2.0016 0.9710
-1.8454 -6.8252 -2.0016 0.9710
-1.5994 -6.8871 -2.0016 0.9710
-1.3513 -6.9400 -2.0016 0.9710
-1.1014 -6.9840 -2.0016 0.9710
-0.5978 -7.0450 -2.0016 0.9710
-0.3447 -7.0619 -2.0016 0.9710
-0.0911 -7.0697 -2.0016 0.9710
0.4160 -7.0581 -2.0016 0.9710
0.6690 -7.0386 -2.0016 0.9710
0.9210 -7.0101 -2.0016 0.9710
1.9143 -6.8063 -2.0016 0.9710
2.3974 -6.6515 -2.0016 0.9710
2.6345 -6.5612 -2.0016 0.9710
2.8682 -6.4624 -2.0016 0.9710
2.0934 -4.2942 -1.3524 0.9803
2.3738 -4.0949 -1.3399 0.9805
4.1826 -5.7005 -2.0016 0.9710
4.3844 -5.5468 -2.0016 0.9710
4.5805 -5.3859 -2.0016 0.9710
4.7708 -5.2181 -2.0016 0.9710
5.1327 -4.8626 -2.0016 0.9710
5.6254 -4.2830 -2.0016 0.9710
5.9180 -3.8686 -2.0016 0.9710
6.0530 -3.6538 -2.0016 0.9710
6.6939 -2.2763 -2.0016 0.9710
6.9506 -1.2954 -2.0016 0.9710
7.0496 -0.5412 -2.0016 0.9710
7.0645 -0.2879 -2.0016 0.9710
7.0702 -0.0343 -2.0016 0.9710
7.0545 0.4728 -2.0016 0.9710
7.0025 0.9774 -2.0016 0.9710
6.9143 1.4770 -2.0016 0.9710
6.7906 1.9689 -2.0016 0.9710
6.7156 2.2113 -2.0016 0.9710
6.6320 2.4508 -2.0016 0.9710
6.5398 2.6871 -2.0016 0.9710
6.4392 2.9200 -2.0016 0.9710
6.2132 3.3742 -2.0016 0.9710
6.0882 3.5949 -2.0016 0.9710
5.9553 3.8110 -2.0016 0.9710
5.8147 4.0222 -2.0016 0.9710
5.5114 4.4288 -2.0016 0.9710
5.3489 4.6237 -2.0016 0.9710
5.1796 4.8126 -2.0016 0.9710
5.0036 4.9953 -2.0016 0.9710
4.8212 5.1716 -2.0016 0.9710
4.4380 5.5040 -2.0016 0.9710
4.2377 5.6597 -2.0016 0.9710
4.0319 5.8081 -2.0016 0.9710
3.8209 5.9490 -2.0016 0.9710
3.6051 6.0822 -2.0016 0.9710
3.3845 6.2076 -2.0016 0.9710
3.1597 6.3250 -2.0016 0.9710
2.9307 6.4343 -2.0016 0.9710
2.6980 6.5353 -2.0016 0.9710
1.9802 6.7874 -2.0016 0.9710
1.7355 6.8540 -2.0016 0.9710
0.7372 7.0318 -2.0016 0.9710
0.2311 7.0666 -2.0016 0.9710
-0.0226 7.0703 -2.0016 0.9710
-0.2762 7.0649 -2.0016 0.9710
-0.5295 7.0505 -2.0016 0.9710
-0.7821 7.0270 -2.0016 0.9710
-1.0336 6.9944 -2.0016 0.9710
-1.2839 6.9528 -2.0016 0.9710
-2.0235 6.7746 -2.0016 0.9710
-2.9717 6.4155 -2.0016 0.9710
-4.0689 5.7822 -2.0016 0.9710
-4.2737 5.6325 -2.0016 0.9710
-4.4730 5.4756 -2.0016 0.9710
-5.3783 4.5895 -2.0016 0.9710
-5.5395 4.3936 -2.0016 0.9710
-5.9795 3.7730 -2.0016 0.9710
-6.1110 3.5560 -2.0016 0.9710
-6.2346 3.3345 -2.0016 0.9710
-6.3502 3.1087 -2.0016 0.9710
-6.4577 2.8789 -2.0016 0.9710
-6.7296 2.1684 -2.0016 0.9710
-6.8678 1.6803 -2.0016 0.9710
-6.9236 1.4328 -2.0016 0.9710
-7.0085 0.9327 -2.0016 0.9710
-7.0574 0.4278 -2.0016 0.9710
-7.0682 0.1743 -2.0016 0.9710
-7.0460 -0.5861 -2.0016 0.9710
-7.0204 -0.8385 -2.0016 0.9710
-6.9858 -1.0898 -2.0016 0.9710
-6.9422 -1.3398 -2.0016 0.9710
-6.8283 -1.8341 -2.0016 0.9710
-6.4251 -2.2307 -1.9254 0.9721
-5.9297 -2.8048 -1.8570 0.9731
-5.8253 -3.0157 -1.8570 0.9731
-5.7133 -3.2228 -1.8570 0.9731
-5.5941 -3.4257 -1.8570 0.9731
-5.4676 -3.6241 -1.8570 0.9731
-5.3340 -3.8179 -1.8570 0.9731
-5.1936 -4.0069 -1.8570 0.9731
-5.0465 -4.1906 -1.8570 0.9731
-4.8929 -4.3689 -1.8570 0.9731
-4.3952 -4.8693 -1.8570 0.9731
-3.4557 -5.5755 -1.8570 0.9731
-3.0575 -6.3750 -2.0016 0.9710
-2.5926 -6.5779 -2.0016 0.9710
-2.3549 -6.6666 -2.0016 0.9710
-2.1142 -6.7468 -2.0016 0.9710
-1.8708 -6.8183 -2.0016 0.9710
-1.1275 -6.9799 -2.0016 0.9710
-0.8763 -7.0158 -2.0016 0.9710
0.3897 -7.0596 -2.0016 0.9710
0.6427 -7.0411 -2.0016 0.9710
0.8949 -7.0135 -2.0016 0.9710
1.1460 -6.9768 -2.0016 0.9710
1.8889 -6.8133 -2.0016 0.9710
2.0920 -4.3324 -1.3620 0.9802
2.3536 -4.0952 -1.3371 0.9806
3.7407 -5.9997 -2.0016 0.9710
3.9536 -5.8617 -2.0016 0.9710
4.1613 -5.7160 -2.0016 0.9710
4.5604 -5.4030 -2.0016 0.9710
4.7513 -5.2359 -2.0016 0.9710
5.6094 -4.3039 -2.0016 0.9710
5.7602 -4.0999 -2.0016 0.9710
5.9036 -3.8907 -2.0016 0.9710
6.3994 -3.0062 -2.0016 0.9710
6.5031 -2.7747 -2.0016 0.9710
6.5985 -2.5396 -2.0016 0.9710
6.6854 -2.3012 -2.0016 0.9710
6.8331 -1.8160 -2.0016 0.9710
6.8939 -1.5697 -2.0016 0.9710
6.9887 -1.0713 -2.0016 0.9710
7.0226 -0.8199 -2.0016 0.9710
7.0475 -0.5674 -2.0016 0.9710
7.0701 -0.0606 -2.0016 0.9710
7.0677 0.1930 -2.0016 0.9710
7.0357 0.6993 -2.0016 0.9710
7.0060 0.9513 -2.0016 0.9710
6.9198 1.4512 -2.0016 0.9710
6.8633 1.6985 -2.0016 0.9710
6.7979 1.9436 -2.0016 0.9710
6.1015 3.5722 -2.0016 0.9710
5.9694 3.7888 -2.0016 0.9710
5.8297 4.0005 -2.0016 0.9710
-4.4853 4.7148 -2.0016 0.9731
-4.6515 4.5509 -2.0016 0.9731
-4.8118 4.3811 -2.0016 0.9731
-4.9659 4.2056 -2.0016 0.9731
-5.2546 3.8388 -2.0016 0.9731
-5.3890 3.6478 -2.0016 0.9731
-5.7497 3.0477 -2.0016 0.9731
-5.9534 2.6275 -2.0016 0.9731
-6.2013 1.9727 -2.0016 0.9731
-6.3773 1.2950 -2.0016 0.9731
-6.4538 0.8344 -2.0016 0.9731
-6.4970 0.3695 -2.0016 0.9731
-6.5061 0.1362 -2.0016 0.9731
-6.5068 -0.0973 -2.0016 0.9731
-6.4830 -0.5636 -2.0016 0.9731
-6.4586 -0.7958 -2.0016 0.9731
-6.4259 -1.0270 -2.0016 0.9731
-6.3850 -1.2569 -2.0016 0.9731
-6.3357 -1.4851 -2.0016 0.9731
-6.2784 -1.7115 -2.0016 0.9731
-6.2129 -1.9356 -2.0016 0.9731
-5.7064 -2.2382 -1.8854 0.9747
-5.4480 -2.6018 -1.8570 0.9751
-5.0198 -3.3543 -1.8570 0.9751
-4.8963 -3.5323 -1.8570 0.9751
-4.6304 -3.8743 -1.8570 0.9751
-3.6958 -4.7740 -1.8570 0.9751
-3.5222 -4.9035 -1.8570 0.9751
-3.3440 -5.0268 -1.8570 0.9751
-3.1615 -5.1435 -1.8570 0.9751
-2.7845 -5.3569 -1.8570 0.9751
-1.9228 -6.2169 -2.0016 0.9731
-1.4721 -6.3388 -2.0016 0.9731
-1.2437 -6.3875 -2.0016 0.9731
-1.0138 -6.4280 -2.0016 0.9731
-0.3173 -6.4997 -2.0016 0.9731
-0.0839 -6.5069 -2.0016 0.9731
0.1496 -6.5058 -2.0016 0.9731
0.6157 -6.4783 -2.0016 0.9731
0.8477 -6.4520 -2.0016 0.9731
1.5360 -6.3236 -2.0016 0.9731
1.9855 -6.1972 -2.0016 0.9731
2.2496 -5.6027 -1.8570 0.9751
2.3653 -4.0803 -1.4506 0.9805
3.8496 -5.2467 -2.0016 0.9731
4.5605 -4.6421 -2.0016 0.9731
4.7241 -4.4755 -2.0016 0.9731
4.8816 -4.3032 -2.0016 0.9731
5.0328 -4.1253 -2.0016 0.9731
5.1776 -3.9421 -2.0016 0.9731
5.3157 -3.7538 -2.0016 0.9731
5.5712 -3.3630 -2.0016 0.9731
5.6882 -3.1609 -2.0016 0.9731
5.7980 -2.9548 -2.0016 0.9731
6.0819 -2.3148 -2.0016 0.9731
6.1610 -2.0951 -2.0016 0.9731
6.2954 -1.6480 -2.0016 0.9731
6.3973 -1.1923 -2.0016 0.9731
6.4663 -0.7305 -2.0016 0.9731
6.5074 -0.0316 -2.0016 0.9731
6.5043 0.2019 -2.0016 0.9731
6.3639 1.3594 -2.0016 0.9731
6.3110 1.5868 -2.0016 0.9731
6.2501 1.8122 -2.0016 0.9731
5.7186 3.1056 -2.0016 0.9731
5.6035 3.3088 -2.0016 0.9731
5.3518 3.7020 -2.0016 0.9731
4.9231 4.2556 -2.0016 0.9731
4.7673 4.4295 -2.0016 0.9731
4.2638 4.9160 -2.0016 0.9731
4.0847 5.0658 -2.0016 0.9731
3.9003 5.2091 -2.0016 0.9731
3.7109 5.3457 -2.0016 0.9731
3.5168 5.4754 -2.0016 0.9731
3.1151 5.7134 -2.0016 0.9731
2.9081 5.8215 -2.0016 0.9731
2.6974 5.9221 -2.0016 0.9731
2.4832 6.0151 -2.0016 0.9731
2.2658 6.1003 -2.0016 0.9731
1.3700 6.3616 -2.0016 0.9731
1.1408 6.4067 -2.0016 0.9731
0.2127 6.5040 -2.0016 0.9731
-0.0208 6.5074 -2.0016 0.9731
-0.4873 6.4892 -2.0016 0.9731
-0.9513 6.4376 -2.0016 0.9731
-1.1817 6.3993 -2.0016 0.9731
-1.6375 6.2981 -2.0016 0.9731
-1.8624 6.2353 -2.0016 0.9731
-2.0849 6.1645 -2.0016 0.9731
-2.3047 6.0857 -2.0016 0.9731
-2.9452 5.8029 -2.0016 0.9731
-3.9334 5.1841 -2.0016 0.9731
-4.4677 4.7315 -2.0016 0.9731
-4.9502 4.2241 -2.0016 0.9731
-5.2403 3.8583 -2.0016 0.9731
-5.6245 3.2730 -2.0016 0.9731
-5.7383 3.0691 -2.0016 0.9731
-5.8447 2.8612 -2.0016 0.9731
-5.9436 2.6497 -2.0016 0.9731
-6.0348 2.4348 -2.0016 0.9731
-6.2615 1.7723 -2.0016 0.9731
-6.3725 1.3188 -2.0016 0.9731
-6.4157 1.0893 -2.0016 0.9731
-6.4773 0.6265 -2.0016 0.9731
-6.4956 0.3937 -2.0016 0.9731
-6.5055 0.1604 -2.0016 0.9731
-6.5071 -0.0731 -2.0016 0.9731
-6.4851 -0.5395 -2.0016 0.9731
-6.4615 -0.7718 -2.0016 0.9731
-6.3412 -1.4615 -2.0016 0.9731
-6.1475 -2.1344 -2.0016 0.9731
-5.5468 -2.3841 -1.8570 0.9751
-5.4577 -2.5815 -1.8570 0.9751
-5.3616 -2.7756 -1.8570 0.9751
-5.1487 -3.1529 -1.8570 0.9751
-5.0323 -3.3356 -1.8570 0.9751
-4.9094 -3.5140 -1.8570 0.9751
-4.6448 -3.8570 -1.8570 0.9751
-3.8819 -4.6240 -1.8570 0.9751
-3.1806 -5.1317 -1.8570 0.9751
-2.8045 -5.3465 -1.8570 0.9751
-2.4139 -5.5339 -1.8570 0.9751
-2.1675 -6.1359 -2.0016 0.9731
-1.9459 -6.2097 -2.0016 0.9731
-1.4957 -6.3333 -2.0016 0.9731
0.1254 -6.5063 -2.0016 0.9731
0.3587 -6.4976 -2.0016 0.9731
0.5916 -6.4805 -2.0016 0.9731
0.8237 -6.4551 -2.0016 0.9731
1.2844 -6.3795 -2.0016 0.9731
2.0779 -4.3032 -1.4698 0.9802
3.4429 -5.5221 -2.0016 0.9731
3.6388 -5.3950 -2.0016 0.9731
3.8300 -5.2610 -2.0016 0.9731
4.1974 -4.9728 -2.0016 0.9731
4.3731 -4.8191 -2.0016 0.9731
4.8655 -4.3213 -2.0016 0.9731
5.0174 -4.1440 -2.0016 0.9731
5.1629 -3.9613 -2.0016 0.9731
5.3017 -3.7735 -2.0016 0.9731
5.4336 -3.5809 -2.0016 0.9731
5.5586 -3.3837 -2.0016 0.9731
5.7869 -2.9764 -2.0016 0.9731
5.8900 -2.7669 -2.0016 0.9731
5.9854 -2.5538 -2.0016 0.9731
6.0732 -2.3374 -2.0016 0.9731
6.2252 -1.8959 -2.0016 0.9731
6.3928 -1.2161 -2.0016 0.9731
6.4323 -0.9860 -2.0016 0.9731
6.4636 -0.7546 -2.0016 0.9731
6.5011 -0.2892 -2.0016 0.9731
6.5072 -0.0558 -2.0016 0.9731
6.4945 0.4109 -2.0016 0.9731
6.4756 0.6437 -2.0016 0.9731
6.3689 1.3357 -2.0016 0.9731
6.3169 1.5633 -2.0016 0.9731
6.2568 1.7889 -2.0016 0.9731
6.1886 2.0122 -2.0016 0.9731
6.1124 2.2329 -2.0016 0.9731
5.8371 2.8767 -2.0016 0.9731
5.6158 3.2879 -2.0016 0.9731
5.3656 3.6821 -2.0016 0.9731
-4.1503 4.3627 -2.0016 0.9749
-4.3041 4.2110 -2.0016 0.9749
-4.4524 4.0539 -2.0016 0.9749
-4.8622 3.5520 -2.0016 0.9749
-4.9865 3.3753 -2.0016 0.9749
-5.4180 2.6274 -2.0016 0.9749
-5.5924 2.2321 -2.0016 0.9749
-5.6689 2.0300 -2.0016 0.9749
-5.7381 1.8254 -2.0016 0.9749
-5.8542 1.4092 -2.0016 0.9749
-5.9402 0.9858 -2.0016 0.9749
-5.9956 0.5574 -2.0016 0.9749
-6.0117 0.3419 -2.0016 0.9749
-6.0201 0.1260 -2.0016 0.9749
-5.9988 -0.5215 -2.0016 0.9749
-5.9762 -0.7364 -2.0016 0.9749
-5.6057 -2.1986 -2.0016 0.9749
-4.6449 -3.1038 -1.8570 0.9767
-4.5306 -3.2685 -1.8570 0.9767
-4.1532 -3.7363 -1.8570 0.9767
-3.8746 -4.0245 -1.8570 0.9767
-3.7277 -4.1609 -1.8570 0.9767
-3.5760 -4.2919 -1.8570 0.9767
-3.4198 -4.4175 -1.8570 0.9767
-3.0942 -4.6513 -1.8570 0.9767
-2.9254 -4.7593 -1.8570 0.9767
-2.7527 -4.8612 -1.8570 0.9767
-2.5766 -4.9568 -1.8570 0.9767
-2.3971 -5.0461 -1.8570 0.9767
-1.2637 -5.4417 -1.8570 0.9767
-1.0677 -5.4835 -1.8570 0.9767
-0.6718 -5.5463 -1.8571 0.9767
-0.2724 -5.5798 -1.8570 0.9767
0.1284 -5.5850 -1.8570 0.9767
0.3287 -5.5768 -1.8570 0.9767
0.7285 -5.5445 -1.8589 0.9767
0.9260 -5.5092 -1.8570 0.9767
1.1230 -5.4724 -1.8570 0.9767
1.3186 -5.4286 -1.8570 0.9767
1.5125 -5.3778 -1.8570 0.9767
1.8943 -5.2555 -1.8570 0.9767
2.0816 -5.1842 -1.8570 0.9767
2.0654 -4.2368 -1.5668 0.9803
2.3568 -4.0657 -1.5621 0.9804
3.1411 -4.6198 -1.8570 0.9767
3.3048 -4.5042 -1.8570 0.9767
4.0631 -4.4440 -2.0016 0.9749
4.2199 -4.2954 -2.0016 0.9749
4.3712 -4.1412 -2.0016 0.9749
4.5170 -3.9818 -2.0016 0.9749
4.7909 -3.6476 -2.0016 0.9749
5.1551 -3.1118 -2.0016 0.9749
5.3649 -2.7341 -2.0016 0.9749
5.4595 -2.5399 -2.0016 0.9749
5.7008 -1.9386 -2.0016 0.9749
5.8252 -1.5249 -2.0016 0.9749
5.8761 -1.3149 -2.0016 0.9749
5.9834 -0.6760 -2.0016 0.9749
6.0164 -0.2452 -2.0016 0.9749
6.0214 -0.0292 -2.0016 0.9749
6.0080 0.4026 -2.0016 0.9749
5.9299 1.0458 -2.0016 0.9749
5.7194 1.8832 -2.0016 0.9749
5.6481 2.0872 -2.0016 0.9749
5.5696 2.2885 -2.0016 0.9749
5.3912 2.6820 -2.0016 0.9749
5.0718 3.2457 -2.0016 0.9749
4.9521 3.4255 -2.0016 0.9749
4.5554 3.9378 -2.0016 0.9749
4.4112 4.0986 -2.0016 0.9749
4.2613 4.2543 -2.0016 0.9749
4.1060 4.4044 -2.0016 0.9749
3.9453 4.5489 -2.0016 0.9749
3.6090 4.8201 -2.0016 0.9749
3.0702 5.1799 -2.0016 0.9749
2.2977 5.5658 -2.0016 0.9749
1.6865 5.7805 -2.0016 0.9749
1.4780 5.8372 -2.0016 0.9749
0.6279 5.9886 -2.0016 0.9749
-0.0192 6.0214 -2.0016 0.9749
-0.2352 6.0168 -2.0016 0.9749
-0.6660 5.9845 -2.0016 0.9749
-2.1325 5.6312 -2.0016 0.9749
-2.3332 5.5510 -2.0016 0.9749
-2.9161 5.2682 -2.0016 0.9749
-3.1032 5.1602 -2.0016 0.9749
-3.4652 4.9244 -2.0016 0.9749
-4.1340 4.3781 -2.0016 0.9749
-4.2884 4.2270 -2.0016 0.9749
-4.4373 4.0704 -2.0016 0.9749
-4.5804 3.9086 -2.0016 0.9749
-4.7177 3.7418 -2.0016 0.9749
-4.8489 3.5701 -2.0016 0.9749
-4.9739 3.3939 -2.0016 0.9749
-5.3097 2.8398 -2.0016 0.9749
-5.5841 2.2529 -2.0016 0.9749
-5.6613 2.0511 -2.0016 0.9749
-5.7938 1.6399 -2.0016 0.9749
-5.8965 1.2203 -2.0016 0.9749
-5.9688 0.7943 -2.0016 0.9749
-6.0104 0.3643 -2.0016 0.9749
-6.0211 -0.0676 -2.0016 0.9749
-5.9789 -0.7141 -2.0016 0.9749
-5.9495 -0.9282 -2.0016 0.9749
-5.9123 -1.1410 -2.0016 0.9749
-5.8676 -1.3524 -2.0016 0.9749
-5.8153 -1.5620 -2.0016 0.9749
-5.7555 -1.7696 -2.0016 0.9749
-5.6883 -1.9750 -2.0016 0.9749
-5.2078 -2.2384 -1.8842 0.9764
-4.9611 -2.5683 -1.8570 0.9767
-4.7642 -2.9175 -1.8570 0.9767
-4.5427 -3.2516 -1.8570 0.9767
-4.2979 -3.5689 -1.8570 0.9767
-4.1671 -3.7208 -1.8570 0.9767
-4.0309 -3.8679 -1.8570 0.9767
-3.7432 -4.1470 -1.8570 0.9767
-3.5920 -4.2786 -1.8570 0.9767
-3.1115 -4.6397 -1.8570 0.9767
-2.4159 -5.0371 -1.8570 0.9767
-2.0485 -5.1974 -1.8570 0.9767
-1.8607 -5.2675 -1.8570 0.9767
-1.6705 -5.3309 -1.8570 0.9767
-1.4782 -5.3874 -1.8570 0.9767
0.1076 -5.5855 -1.8570 0.9767
0.5079 -5.5634 -1.8570 0.9767
0.9055 -5.5126 -1.8570 0.9767
1.4925 -5.3834 -1.8570 0.9767
1.6847 -5.3264 -1.8570 0.9767
2.0623 -5.1919 -1.8570 0.9767
2.2472 -5.1146 -1.8570 0.9767
2.0638 -4.2740 -1.5777 0.9802
2.3368 -4.0660 -1.5589 0.9804
2.9557 -4.7406 -1.8570 0.9767
3.1238 -4.6315 -1.8570 0.9767
3.2880 -4.5164 -1.8570 0.9767
3.8839 -4.6014 -2.0016 0.9749
4.0465 -4.4591 -2.0016 0.9749
4.9057 -3.4917 -2.0016 0.9749
5.0278 -3.3135 -2.0016 0.9749
5.1434 -3.1310 -2.0016 0.9749
5.3547 -2.7541 -2.0016 0.9749
5.5384 -2.3631 -2.0016 0.9749
5.6196 -2.1628 -2.0016 0.9749
5.6936 -1.9599 -2.0016 0.9749
5.8712 -1.3368 -2.0016 0.9749
5.9154 -1.1253 -2.0016 0.9749
5.9808 -0.6983 -2.0016 0.9749
6.0212 -0.0516 -2.0016 0.9749
6.0094 0.3802 -2.0016 0.9749
5.9919 0.5956 -2.0016 0.9749
5.9338 1.0237 -2.0016 0.9749
5.8932 1.2359 -2.0016 0.9749
5.8451 1.4465 -2.0016 0.9749
5.7263 1.8619 -2.0016 0.9749
5.5781 2.2677 -2.0016 0.9749
5.4932 2.4664 -2.0016 0.9749
5.3022 2.8539 -2.0016 0.9749
-3.8578 4.0552 -2.0016 0.9765
-4.1386 3.7682 -2.0016 0.9765
-4.2711 3.6173 -2.0016 0.9765
-4.3982 3.4617 -2.0016 0.9765
-4.5195 3.3017 -2.0016 0.9765
-4.6351 3.1375 -2.0016 0.9765
-4.7446 2.9692 -2.0016 0.9765
-4.9453 2.6213 -2.0016 0.9765
-5.0362 2.4422 -2.0016 0.9765
-5.1206 2.2600 -2.0016 0.9765
-5.4417 1.3099 -2.0016 0.9765
-5.5216 0.9164 -2.0016 0.9765
-5.5509 0.7177 -2.0016 0.9765
-5.5881 0.3178 -2.0016 0.9765
-5.5965 -0.0837 -2.0016 0.9765
-5.5899 -0.2844 -2.0016 0.9765
-5.5269 -0.8833 -2.0016 0.9765
-5.4917 -1.0811 -2.0016 0.9765
-5.4494 -1.2774 -2.0016 0.9765
-5.3438 -1.6648 -2.0016 0.9765
-5.2806 -1.8555 -2.0016 0.9765
-4.6993 -2.2443 -1.8623 0.9781
-4.6025 -2.4045 -1.8570 0.9782
-4.4183 -2.7283 -1.8570 0.9782
-4.0996 -3.1872 -1.8570 0.9782
-3.6015 -3.7409 -1.8570 0.9782
-3.1788 -4.1062 -1.8570 0.9782
-2.8762 -4.3235 -1.8570 0.9782
-2.5587 -4.5186 -1.8570 0.9782
-2.3950 -4.6075 -1.8570 0.9782
-2.2282 -4.6905 -1.8570 0.9782
-2.0584 -4.7674 -1.8570 0.9782
-1.8861 -4.8382 -1.8570 0.9782
-1.1747 -5.0582 -1.8570 0.9782
-0.9925 -5.0971 -1.8570 0.9782
-0.2532 -5.1866 -1.8570 0.9782
-0.0669 -5.1924 -1.8570 0.9782
0.1194 -5.1914 -1.8570 0.9782
0.3056 -5.1838 -1.8570 0.9782
0.4913 -5.1695 -1.8570 0.9782
0.8607 -5.1210 -1.8570 0.9782
1.0439 -5.0868 -1.8570 0.9782
1.4059 -4.9988 -1.8570 0.9782
1.7608 -4.8852 -1.8570 0.9782
2.1065 -4.7463 -1.8570 0.9782
3.2201 -4.0738 -1.8570 0.9782
3.3642 -3.9557 -1.8570 0.9782
3.5039 -3.8325 -1.8570 0.9782
4.0632 -3.8494 -2.0016 0.9765
4.3288 -3.5481 -2.0016 0.9765
4.5720 -3.2286 -2.0016 0.9765
4.7918 -2.8925 -2.0016 0.9765
4.8924 -2.7187 -2.0016 0.9765
4.9868 -2.5415 -2.0016 0.9765
5.1562 -2.1773 -2.0016 0.9765
5.2310 -1.9910 -2.0016 0.9765
5.2991 -1.8020 -2.0016 0.9765
5.3603 -1.6107 -2.0016 0.9765
5.4146 -1.4174 -2.0016 0.9765
5.4620 -1.2223 -2.0016 0.9765
5.5023 -1.0255 -2.0016 0.9765
5.5356 -0.8275 -2.0016 0.9765
5.5617 -0.6283 -2.0016 0.9765
5.5970 -0.0271 -2.0016 0.9765
5.5944 0.1737 -2.0016 0.9765
5.5846 0.3743 -2.0016 0.9765
5.5675 0.5744 -2.0016 0.9765
5.5434 0.7737 -2.0016 0.9765
5.4736 1.1692 -2.0016 0.9765
5.4281 1.3648 -2.0016 0.9765
5.3163 1.7505 -2.0016 0.9765
5.2501 1.9401 -2.0016 0.9765
5.1771 2.1272 -2.0016 0.9765
5.0113 2.4930 -2.0016 0.9765
4.9186 2.6711 -2.0016 0.9765
4.8196 2.8459 -2.0016 0.9765
4.4859 3.3472 -2.0016 0.9765
3.6673 4.2283 -2.0016 0.9765
3.5132 4.3571 -2.0016 0.9765
3.3547 4.4804 -2.0016 0.9765
3.0248 4.7094 -2.0016 0.9765
2.5013 5.0071 -2.0016 0.9765
2.1358 5.1736 -2.0016 0.9765
1.7594 5.3134 -2.0016 0.9765
1.5676 5.3731 -2.0016 0.9765
1.3738 5.4259 -2.0016 0.9765
1.1783 5.4717 -2.0016 0.9765
0.7829 5.5421 -2.0016 0.9765
-0.2186 5.5928 -2.0016 0.9765
-0.6191 5.5627 -2.0016 0.9765
-0.8183 5.5370 -2.0016 0.9765
-1.0164 5.5040 -2.0016 0.9765
-1.2132 5.4640 -2.0016 0.9765
-1.4084 5.4170 -2.0016 0.9765
-1.6018 5.3630 -2.0016 0.9765
-1.7932 5.3021 -2.0016 0.9765
-1.9823 5.2343 -2.0016 0.9765
-2.3525 5.0787 -2.0016 0.9765
-2.5332 4.9910 -2.0016 0.9765
-2.7106 4.8970 -2.0016 0.9765
-3.3832 4.4589 -2.0016 0.9765
-3.5409 4.3346 -2.0016 0.9765
-3.8426 4.0696 -2.0016 0.9765
-3.9862 3.9291 -2.0016 0.9765
-4.1246 3.7836 -2.0016 0.9765
-4.3852 3.4781 -2.0016 0.9765
-4.5072 3.3185 -2.0016 0.9765
-4.7335 2.9868 -2.0016 0.9765
-4.9355 2.6397 -2.0016 0.9765
-5.1121 2.2790 -2.0016 0.9765
-5.1906 2.0942 -2.0016 0.9765
-5.3274 1.7166 -2.0016 0.9765
-5.3855 1.5244 -2.0016 0.9765
-5.4810 1.1343 -2.0016 0.9765
-5.5181 0.9369 -2.0016 0.9765
-5.5482 0.7383 -2.0016 0.9765
-5.5778 -0.4640 -2.0016 0.9765
-5.5576 -0.6638 -2.0016 0.9765
-5.4957 -1.0606 -2.0016 0.9765
-5.3499 -1.6449 -2.0016 0.9765
-5.2875 -1.8358 -2.0016 0.9765
-5.2182 -2.0243 -2.0016 0.9765
-5.1422 -2.2102 -2.0016 0.9765
-4.3283 -2.8690 -1.8570 0.9782
-3.9950 -3.3174 -1.8570 0.9782
-3.8734 -3.4586 -1.8570 0.9782
-3.7468 -3.5953 -1.8570 0.9782
-3.1940 -4.0943 -1.8570 0.9782
-2.7357 -4.4138 -1.8570 0.9782
-2.5756 -4.5091 -1.8570 0.9782
-2.2456 -4.6821 -1.8570 0.9782
-1.7296 -4.8963 -1.8570 0.9782
-1.5528 -4.9552 -1.8570 0.9782
-1.0114 -5.0933 -1.8570 0.9782
-0.8281 -5.1263 -1.8570 0.9782
-0.6436 -5.1528 -1.8570 0.9782
-0.2725 -5.1856 -1.8570 0.9782
-0.0863 -5.1921 -1.8570 0.9782
0.4721 -5.1713 -1.8570 0.9782
0.6573 -5.1510 -1.8570 0.9782
0.8416 -5.1241 -1.8570 0.9782
1.0249 -5.0906 -1.8570 0.9782
1.2069 -5.0506 -1.8570 0.9782
1.3873 -5.0040 -1.8570 0.9782
1.5659 -4.9511 -1.8570 0.9782
1.7426 -4.8917 -1.8570 0.9782
1.9169 -4.8260 -1.8570 0.9782
2.0888 -4.7542 -1.8570 0.9782
2.0456 -4.2362 -1.6823 0.9802
2.1407 -4.0549 -1.6397 0.9807
2.3253 -4.0459 -1.6688 0.9804
2.5006 -4.0107 -1.6902 0.9801
2.9037 -4.3051 -1.8570 0.9782
3.0563 -4.1981 -1.8570 0.9782
3.4896 -3.8455 -1.8570 0.9782
3.9076 -4.0073 -2.0016 0.9765
4.3155 -3.5642 -2.0016 0.9765
4.7810 -2.9103 -2.0016 0.9765
4.9773 -2.5600 -2.0016 0.9765
5.1481 -2.1965 -2.0016 0.9765
5.4093 -1.4376 -2.0016 0.9765
5.4574 -1.2426 -2.0016 0.9765
5.4985 -1.0460 -2.0016 0.9765
5.5325 -0.8481 -2.0016 0.9765
5.5916 -0.2488 -2.0016 0.9765
5.5969 -0.0480 -2.0016 0.9765
5.5859 0.3534 -2.0016 0.9765
5.4779 1.1488 -2.0016 0.9765
5.3228 1.7307 -2.0016 0.9765
5.2573 1.9205 -2.0016 0.9765
5.1850 2.1079 -2.0016 0.9765
4.8302 2.8279 -2.0016 0.9765
4.7256 2.9994 -2.0016 0.9765
4.6150 3.1670 -2.0016 0.9765
-3.4619 3.9109 -2.0016 0.9779
-3.7334 3.6526 -2.0016 0.9779
-3.9857 3.3755 -2.0016 0.9779
-4.2175 3.0811 -2.0016 0.9779
-4.3253 2.9278 -2.0016 0.9779
-4.4275 2.7707 -2.0016 0.9779
-4.5241 2.6101 -2.0016 0.9779
-4.6148 2.4461 -2.0016 0.9779
-4.9173 1.7609 -2.0016 0.9779
-5.1526 0.8551 -2.0016 0.9779
-5.2006 0.4835 -2.0016 0.9779
-5.2146 0.2966 -2.0016 0.9779
-5.2219 0.1093 -2.0016 0.9779
-5.2225 -0.0781 -2.0016 0.9779
-5.1838 -0.6387 -2.0016 0.9779
-4.9866 -1.5536 -2.0016 0.9779
-4.9277 -1.7315 -2.0016 0.9779
-4.7909 -2.0803 -2.0016 0.9779
-4.6516 -2.2215 -1.9754 0.9782
-4.3011 -2.2470 -1.8596 0.9794
-4.2117 -2.3964 -1.8570 0.9795
-4.1230 -2.5460 -1.8570 0.9795
-3.9298 -2.8351 -1.8570 0.9795
-3.7164 -3.1096 -1.8570 0.9795
-3.6025 -3.2409 -1.8570 0.9795
-3.3608 -3.4909 -1.8570 0.9795
-3.2334 -3.6092 -1.8570 0.9795
-3.1019 -3.7229 -1.8570 0.9795
-2.9663 -3.8317 -1.8570 0.9795
-2.6839 -4.0346 -1.8570 0.9795
-2.3877 -4.2166 -1.8570 0.9795
-2.0792 -4.3770 -1.8570 0.9795
-1.9209 -4.4488 -1.8570 0.9795
-1.5969 -4.5751 -1.8570 0.9795
-1.2648 -4.6778 -1.8570 0.9795
-1.0962 -4.7201 -1.8570 0.9795
-0.9261 -4.7564 -1.8570 0.9795
-0.7549 -4.7866 -1.8570 0.9795
-0.5827 -4.8106 -1.8570 0.9795
-0.4097 -4.8284 -1.8570 0.9795
-0.2362 -4.8400 -1.8570 0.9795
0.4585 -4.8240 -1.8570 0.9795
0.6313 -4.8045 -1.8570 0.9795
0.9741 -4.7468 -1.8570 0.9795
1.4785 -4.6147 -1.8570 0.9795
1.6431 -4.5587 -1.8570 0.9795
2.0014 -4.1055 -1.7503 0.9806
2.1308 -4.0000 -1.7368 0.9808
2.7246 -4.0073 -1.8570 0.9795
3.0049 -3.8016 -1.8570 0.9795
3.3959 -3.4567 -1.8570 0.9795
3.7916 -3.5921 -2.0016 0.9779
3.9181 -3.4538 -2.0016 0.9779
4.0395 -3.3110 -2.0016 0.9779
4.2665 -3.0129 -2.0016 0.9779
4.3718 -2.8579 -2.0016 0.9779
4.8116 -2.0318 -2.0016 0.9779
4.9449 -1.6816 -2.0016 0.9779
5.1656 -0.7722 -2.0016 0.9779
5.2077 -0.3998 -2.0016 0.9779
5.2187 -0.2127 -2.0016 0.9779
5.2113 0.3492 -2.0016 0.9779
5.1729 0.7220 -2.0016 0.9779
5.1078 1.0911 -2.0016 0.9779
5.0654 1.2736 -2.0016 0.9779
5.0164 1.4545 -2.0016 0.9779
4.9610 1.6335 -2.0016 0.9779
4.8992 1.8105 -2.0016 0.9779
4.8311 1.9851 -2.0016 0.9779
4.5899 2.4926 -2.0016 0.9779
4.4975 2.6557 -2.0016 0.9779
4.3993 2.8153 -2.0016 0.9779
3.9514 3.4156 -2.0016 0.9779
3.8263 3.5552 -2.0016 0.9779
3.6963 3.6902 -2.0016 0.9779
3.5616 3.8204 -2.0016 0.9779
3.4222 3.9457 -2.0016 0.9779
2.8226 4.3946 -2.0016 0.9779
2.5002 4.5857 -2.0016 0.9779
2.3341 4.6725 -2.0016 0.9779
1.6418 4.9583 -2.0016 0.9779
1.4628 5.0140 -2.0016 0.9779
1.2820 5.0633 -2.0016 0.9779
0.9157 5.1421 -2.0016 0.9779
0.7306 5.1717 -2.0016 0.9779
-0.2040 5.2190 -2.0016 0.9779
-0.3911 5.2084 -2.0016 0.9779
-0.7636 5.1669 -2.0016 0.9779
-0.9484 5.1362 -2.0016 0.9779
-1.1321 5.0989 -2.0016 0.9779
-1.3143 5.0550 -2.0016 0.9779
-1.4948 5.0046 -2.0016 0.9779
-2.0238 4.8150 -2.0016 0.9779
-2.1953 4.7393 -2.0016 0.9779
-2.6917 4.4760 -2.0016 0.9779
-3.0058 4.2715 -2.0016 0.9779
-3.1571 4.1609 -2.0016 0.9779
-3.3043 4.0450 -2.0016 0.9779
-3.4473 3.9238 -2.0016 0.9779
-3.7198 3.6665 -2.0016 0.9779
-4.4172 2.7872 -2.0016 0.9779
-4.5143 2.6269 -2.0016 0.9779
-4.6911 2.2965 -2.0016 0.9779
-4.8437 1.9542 -2.0016 0.9779
-4.9713 1.6019 -2.0016 0.9779
-5.0256 1.4225 -2.0016 0.9779
-5.1493 0.8743 -2.0016 0.9779
-5.1988 0.5028 -2.0016 0.9779
-5.2135 0.3160 -2.0016 0.9779
-5.2172 -0.2460 -2.0016 0.9779
-5.1862 -0.6194 -2.0016 0.9779
-5.1606 -0.8051 -2.0016 0.9779
-5.1284 -0.9897 -2.0016 0.9779
-5.0442 -1.3549 -2.0016 0.9779
-4.9924 -1.5350 -2.0016 0.9779
-4.9341 -1.7131 -2.0016 0.9779
-4.8695 -1.8890 -2.0016 0.9779
-4.7986 -2.0625 -2.0016 0.9779
-4.3294 -2.2413 -1.8683 0.9793
-4.0390 -2.6772 -1.8570 0.9795
-3.4964 -3.3550 -1.8570 0.9795
-3.3738 -3.4783 -1.8570 0.9795
-3.2469 -3.5971 -1.8570 0.9795
-3.1157 -3.7113 -1.8570 0.9795
-2.9806 -3.8207 -1.8570 0.9795
-2.8416 -3.9251 -1.8570 0.9795
-2.6990 -4.0245 -1.8570 0.9795
-2.4034 -4.2077 -1.8570 0.9795
-2.2509 -4.2912 -1.8570 0.9795
-2.0955 -4.3692 -1.8570 0.9795
-1.9374 -4.4416 -1.8570 0.9795
-1.6140 -4.5691 -1.8570 0.9795
-1.1137 -4.7160 -1.8570 0.9795
-0.7727 -4.7837 -1.8570 0.9795
-0.4277 -4.8268 -1.8570 0.9795
-0.0805 -4.8451 -1.8570 0.9795
0.2671 -4.8384 -1.8570 0.9795
0.6134 -4.8068 -1.8570 0.9795
0.7854 -4.7817 -1.8570 0.9795
0.9564 -4.7504 -1.8570 0.9795
1.4613 -4.6202 -1.8570 0.9795
1.6261 -4.5648 -1.8570 0.9795
1.7888 -4.5035 -1.8570 0.9795
1.9492 -4.4364 -1.8570 0.9795
2.4946 -4.0010 -1.8069 0.9800
2.8520 -3.9176 -1.8570 0.9795
3.1256 -3.7030 -1.8570 0.9795
3.3830 -3.4694 -1.8570 0.9795
3.9052 -3.4684 -2.0016 0.9779
4.0271 -3.3260 -2.0016 0.9779
4.1438 -3.1794 -2.0016 0.9779
4.3611 -2.8741 -2.0016 0.9779
4.4614 -2.7158 -2.0016 0.9779
4.6447 -2.3889 -2.0016 0.9779
4.8040 -2.0497 -2.0016 0.9779
4.8745 -1.8761 -2.0016 0.9779
4.9386 -1.7000 -2.0016 0.9779
5.1627 -0.7914 -2.0016 0.9779
5.2062 -0.4192 -2.0016 0.9779
5.2179 -0.2321 -2.0016 0.9779
5.2228 -0.0448 -2.0016 0.9779
5.2211 0.1426 -2.0016 0.9779
5.2126 0.3298 -2.0016 0.9779
5.1470 0.8880 -2.0016 0.9779
5.0701 1.2547 -2.0016 0.9779
4.9671 1.6150 -2.0016 0.9779
4.8385 1.9670 -2.0016 0.9779
4.6850 2.3089 -2.0016 0.9779
4.5991 2.4755 -2.0016 0.9779
4.5074 2.6389 -2.0016 0.9779
4.4098 2.7989 -2.0016 0.9779
-3.2415 3.6619 -2.0016 0.9791
-3.3708 3.5433 -2.0016 0.9791
-3.7319 3.1606 -2.0016 0.9791
-3.8429 3.0247 -2.0016 0.9791
-4.0499 2.7414 -2.0016 0.9791
-4.4004 2.1339 -2.0016 0.9791
-4.4741 1.9747 -2.0016 0.9791
-4.5421 1.8129 -2.0016 0.9791
-4.6042 1.6488 -2.0016 0.9791
-4.7106 1.3144 -2.0016 0.9791
-4.7547 1.1445 -2.0016 0.9791
-4.7927 0.9732 -2.0016 0.9791
