ply
format ascii 1.0
element vertex 1558
property float32 x
property float32 y
property float32 z
property float32 I
end_header
33.3834 14.6743 -1.8494 0.8641
32.8359 15.8616 -1.8494 0.8641
30.9431 19.2955 -1.8494 0.8641
28.6925 22.5062 -1.8494 0.8641
27.2675 26.5850 -1.9313 0.8585
27.1753 28.4655 -1.9958 0.8542
26.2122 29.5058 -2.0016 0.8538
22.8928 32.1496 -2.0016 0.8538
20.5303 33.7073 -2.0016 0.8538
19.3086 34.4217 -2.0016 0.8538
16.7925 35.7168 -2.0016 0.8538
12.8607 37.3133 -2.0016 0.8538
5.1916 17.0204 -0.9024 0.9312
3.5969 13.5101 -0.7090 0.9455
3.0396 13.3208 -0.6929 0.9467
1.4800 12.6173 -0.6443 0.9504
0.5412 12.0046 -0.6094 0.9530
0.1093 11.8899 -0.6030 0.9535
-0.7548 12.0565 -0.6126 0.9528
-2.4554 11.7530 -0.6089 0.9530
-3.9329 12.1302 -0.6467 0.9502
-4.4256 12.1470 -0.6556 0.9495
-4.8955 12.0725 -0.6607 0.9492
-5.3162 11.8693 -0.6596 0.9492
-6.8997 11.8117 -0.6937 0.9467
-8.0832 11.8052 -0.7256 0.9443
-9.3775 11.7852 -0.7638 0.9415
-10.0892 11.7864 -0.7868 0.9398
-11.8231 11.9590 -0.8529 0.9349
-12.6382 11.8984 -0.8803 0.9328
-13.5689 11.8863 -0.9148 0.9303
-14.5584 11.8582 -0.9522 0.9276
-18.2779 11.8699 -1.1053 0.9164
-19.9876 11.9840 -1.1819 0.9109
-21.5544 11.8944 -1.2485 0.9061
-25.0676 11.5734 -1.4002 0.8953
-33.6347 14.0888 -1.8494 0.8641
-37.4019 12.6007 -2.0016 0.8538
-38.2086 9.8883 -2.0016 0.8538
-38.5385 8.5121 -2.0016 0.8538
-38.8190 7.1250 -2.0016 0.8538
-39.0494 5.7287 -2.0016 0.8538
-39.3595 2.9160 -2.0016 0.8538
-39.4388 1.5030 -2.0016 0.8538
-39.4451 -1.3268 -2.0016 0.8538
-39.3722 -2.7401 -2.0016 0.8538
-39.2486 -4.1499 -2.0016 0.8538
-39.0746 -5.5543 -2.0016 0.8538
-38.8504 -6.9516 -2.0016 0.8538
-36.9879 -13.7684 -2.0016 0.8538
-36.4706 -15.0855 -2.0016 0.8538
-35.9063 -16.3833 -2.0016 0.8538
-35.2959 -17.6600 -2.0016 0.8538
-34.6401 -18.9141 -2.0016 0.8538
-33.9397 -20.1438 -2.0016 0.8538
-30.6715 -19.7243 -1.8494 0.8641
-29.1793 -21.8714 -1.8494 0.8641
-23.9620 -22.3582 -1.6621 0.8770
-16.5882 -22.2462 -1.4073 0.8948
-15.5936 -22.5570 -1.3907 0.8960
-14.0664 -21.9937 -1.3240 0.9007
-13.1546 -22.2903 -1.3126 0.9015
-10.1517 -22.3965 -1.2471 0.9062
-9.1998 -22.3992 -1.2280 0.9076
-8.2753 -22.4018 -1.2111 0.9088
-4.8079 -22.5107 -1.1674 0.9119
-3.1237 -22.3759 -1.1458 0.9135
-2.3133 -22.4133 -1.1427 0.9137
-0.6981 -22.4178 -1.1375 0.9141
0.1060 -22.4201 -1.1370 0.9141
0.8757 -21.5649 -1.0945 0.9172
4.0866 -36.2366 -1.8494 0.8641
6.6726 -35.8506 -1.8494 0.8641
7.0696 -27.0390 -1.4174 0.8941
11.3460 -37.8014 -2.0016 0.8538
16.6328 -35.7914 -2.0016 0.8538
2.1877 -4.2974 -0.2446 0.9809
2.3316 -4.2004 -0.2437 0.9809
20.3795 -33.7987 -2.0016 0.8538
22.7490 -32.2515 -2.0016 0.8538
21.9395 16.2434 -2.0016 0.8963
20.7192 17.7737 -2.0016 0.8963
20.0687 18.5051 -2.0016 0.8963
19.3924 19.2127 -2.0016 0.8963
17.9658 20.5529 -2.0016 0.8963
17.2174 21.1837 -2.0016 0.8963
16.4469 21.7873 -2.0016 0.8963
15.6553 22.3630 -2.0016 0.8963
14.8435 22.9098 -2.0016 0.8963
14.0126 23.4273 -2.0016 0.8963
8.0274 23.9109 -1.8494 0.9038
1.3819 12.6576 -0.9336 0.9502
0.0140 11.9220 -0.8741 0.9533
-0.4160 11.9892 -0.8796 0.9530
-1.2638 8.8238 -0.6536 0.9649
-3.4669 11.8032 -0.9020 0.9519
-3.9666 11.9078 -0.9203 0.9509
-4.3982 11.7774 -0.9218 0.9508
-5.4433 11.8963 -0.9592 0.9489
-7.0566 11.8609 -1.0119 0.9462
-8.2433 11.8344 -1.0575 0.9438
-8.8771 11.8172 -1.0837 0.9424
-12.8843 11.9366 -1.2878 0.9320
-14.3561 11.5032 -1.3489 0.9289
-15.4707 11.5105 -1.4139 0.9256
-16.7000 11.5185 -1.4875 0.9219
-18.0661 11.5275 -1.5713 0.9176
-19.5976 11.5375 -1.6675 0.9128
-21.0345 8.6133 -1.6666 0.9129
-26.2269 7.5723 -2.0016 0.8963
-27.0400 3.7457 -2.0016 0.8963
-27.2977 -0.1579 -2.0016 0.8963
-27.2162 -2.1135 -2.0016 0.8963
-25.1638 -2.8648 -1.8570 0.9034
-26.6346 -5.9822 -2.0016 0.8963
-26.4031 -6.9332 -2.0016 0.8963
-26.1375 -7.8753 -2.0016 0.8963
-25.8384 -8.8073 -2.0016 0.8963
-25.5060 -9.7279 -2.0016 0.8963
-24.7434 -11.5305 -2.0016 0.8963
-23.3624 -14.1205 -2.0016 0.8963
-21.2205 -16.1732 -1.9563 0.8985
-18.9132 -16.6871 -1.8494 0.9038
-18.3029 -17.3544 -1.8494 0.9038
-17.6689 -17.9994 -1.8494 0.9038
-16.3338 -19.2192 -1.8494 0.9038
-14.9146 -20.3402 -1.8494 0.9038
-13.4188 -21.3566 -1.8494 0.9038
-12.6446 -21.8239 -1.8494 0.9038
-11.8540 -22.2632 -1.8494 0.9038
-10.9121 -22.3944 -1.8266 0.9049
-9.9362 -22.3971 -1.7966 0.9064
-8.9908 -22.3998 -1.7698 0.9077
-6.2995 -22.4023 -1.7063 0.9109
-4.5295 -22.0720 -1.6521 0.9136
-2.1319 -22.4138 -1.6508 0.9137
-1.3234 -22.4161 -1.6465 0.9139
1.0907 -22.4228 -1.6460 0.9139
2.1278 -25.1325 -1.8494 0.9038
5.6986 -24.5702 -1.8494 0.9038
6.5756 -24.3502 -1.8494 0.9038
7.4443 -24.0988 -1.8494 0.9038
8.9869 -25.7765 -2.0016 0.8963
2.1982 -4.2337 -0.3498 0.9810
14.2828 -23.2636 -2.0016 0.8963
15.1076 -22.7365 -2.0016 0.8963
18.2025 -20.3436 -2.0016 0.8963
19.6134 -18.9870 -2.0016 0.8963
20.2814 -18.2717 -2.0016 0.8963
21.5386 -16.7714 -2.0016 0.8963
23.2148 -14.3620 -2.0016 0.8963
24.1842 -12.6616 -2.0016 0.8963
25.0293 -10.8961 -2.0016 0.8963
25.7457 -9.0746 -2.0016 0.8963
26.7785 -5.3014 -2.0016 0.8963
26.9513 -4.3379 -2.0016 0.8963
27.2613 -1.4192 -2.0016 0.8963
27.2946 -0.4409 -2.0016 0.8963
27.2560 1.5160 -2.0016 0.8963
27.1842 2.4922 -2.0016 0.8963
26.9357 4.4336 -2.0016 0.8963
26.7595 5.3964 -2.0016 0.8963
26.5488 6.3523 -2.0016 0.8963
25.7133 9.1660 -2.0016 0.8963
25.3682 10.0820 -2.0016 0.8963
24.9904 10.9850 -2.0016 0.8963
24.5805 11.8738 -2.0016 0.8963
24.1390 12.7474 -2.0016 0.8963
23.1636 14.4443 -2.0016 0.8963
22.0691 16.0670 -2.0016 0.8963
20.2164 18.3436 -2.0016 0.8963
18.8501 19.7450 -2.0016 0.8963
16.6211 21.6548 -2.0016 0.8963
15.0267 22.7901 -2.0016 0.8963
14.2000 23.3141 -2.0016 0.8963
13.3551 23.8082 -2.0016 0.8963
11.6148 24.7040 -2.0016 0.8963
8.2188 23.8458 -1.8494 0.9038
4.9383 16.1899 -1.2411 0.9344
3.5870 13.4732 -1.0223 0.9456
3.0285 13.2722 -0.9982 0.9469
1.4792 12.6100 -0.9309 0.9504
0.9885 12.1906 -0.8968 0.9521
0.1109 12.0628 -0.8845 0.9528
-0.3196 11.9838 -0.8790 0.9531
-0.7483 11.9533 -0.8782 0.9531
-3.3670 11.8126 -0.9006 0.9519
-3.9123 12.0668 -0.9301 0.9504
-4.8189 11.8837 -0.9403 0.9499
-5.2846 11.7988 -0.9479 0.9495
-7.4563 11.7740 -1.0218 0.9456
-9.4075 11.8230 -1.1078 0.9412
-13.4901 11.8173 -1.3150 0.9306
-14.1206 11.5016 -1.3353 0.9296
-15.2122 11.5088 -1.3986 0.9263
-16.4141 11.5167 -1.4702 0.9227
-17.7474 11.5254 -1.5516 0.9186
-20.9235 11.5462 -1.7522 0.9086
-22.5059 11.3866 -1.8494 0.9038
-22.8996 10.5725 -1.8494 0.9038
-23.5983 8.9044 -1.8494 0.9038
-24.4920 8.2513 -1.8950 0.9015
-26.1653 7.7824 -2.0016 0.8963
-26.6557 5.8875 -2.0016 0.8963
-27.0091 3.9624 -2.0016 0.8963
-27.1338 2.9915 -2.0016 0.8963
-27.2981 0.0609 -2.0016 0.8963
-27.2323 -1.8952 -2.0016 0.8963
-25.1859 -2.6630 -1.8570 0.9034
-25.0743 -3.5642 -1.8570 0.9034
-25.4010 -5.4915 -1.9055 0.9010
-25.9082 -8.5998 -2.0016 0.8963
-22.9603 -14.7654 -2.0016 0.8963
-22.4162 -15.5790 -2.0016 0.8963
-21.5721 -16.1694 -1.9767 0.8975
-20.0533 -16.1856 -1.8895 0.9018
-19.0464 -16.5349 -1.8494 0.9038
-18.4414 -17.2071 -1.8494 0.9038
-17.8127 -17.8572 -1.8494 0.9038
-17.1610 -18.4843 -1.8494 0.9038
-15.7924 -19.6664 -1.8494 0.9038
-13.5896 -21.2483 -1.8494 0.9038
-12.8191 -21.7219 -1.8494 0.9038
-8.2753 -22.4018 -1.7510 0.9087
-5.4470 -16.5480 -1.2774 0.9325
-6.4936 -22.4017 -1.7102 0.9107
-5.6320 -22.4041 -1.6938 0.9115
-3.9520 -22.4088 -1.6684 0.9128
-3.1237 -22.3758 -1.6566 0.9134
-2.3133 -22.4133 -1.6521 0.9136
-1.5039 -22.4156 -1.6473 0.9138
-0.6981 -22.4178 -1.6445 0.9140
0.1060 -22.4201 -1.6439 0.9140
1.7176 -22.4245 -1.6490 0.9137
2.8266 -25.0635 -1.8494 0.9038
3.7234 -24.9461 -1.8494 0.9038
4.6154 -24.7965 -1.8494 0.9038
7.2509 -24.1577 -1.8494 0.9038
8.7799 -25.8477 -2.0016 0.8963
9.7009 -25.5163 -2.0016 0.8963
10.6094 -25.1522 -2.0016 0.8963
2.3316 -4.2004 -0.3523 0.9809
14.0958 -23.3773 -2.0016 0.8963
16.3004 12.9984 -2.0016 0.9196
15.8239 13.5744 -2.0016 0.9196
15.3271 14.1329 -2.0016 0.9196
14.8106 14.6733 -2.0016 0.9196
14.2750 15.1949 -2.0016 0.9196
13.1495 16.1787 -2.0016 0.9196
12.5611 16.6397 -2.0016 0.9196
11.9564 17.0793 -2.0016 0.9196
10.7019 17.8921 -2.0016 0.9196
9.3923 18.6130 -2.0016 0.9196
7.6452 16.6055 -1.7551 0.9292
6.7815 18.0300 -1.8494 0.9255
6.1308 18.2615 -1.8494 0.9255
4.5399 15.3229 -1.5343 0.9378
2.8823 13.1155 -1.2892 0.9475
2.4222 13.2757 -1.2956 0.9472
0.8968 12.2819 -1.1823 0.9517
0.4542 12.2597 -1.1778 0.9519
-2.1390 11.8817 -1.1590 0.9526
-3.4808 11.8507 -1.1858 0.9516
-5.4210 11.8476 -1.2508 0.9490
-5.9260 11.8127 -1.2688 0.9483
-6.5523 11.9701 -1.3101 0.9466
-7.0032 11.7711 -1.3150 0.9464
-7.4207 11.5125 -1.3150 0.9464
-7.9836 11.4614 -1.3410 0.9454
-8.6129 11.4655 -1.3767 0.9440
-9.2777 11.4699 -1.4163 0.9424
-10.7339 11.4794 -1.5088 0.9388
-13.3382 11.4965 -1.6906 0.9317
-14.3561 11.5032 -1.7661 0.9287
-15.4548 11.4986 -1.8494 0.9255
-15.8571 10.9372 -1.8494 0.9255
-16.9398 9.1714 -1.8494 0.9255
-17.2577 8.5582 -1.8494 0.9255
-18.2443 8.2463 -1.9221 0.9227
-20.0303 5.7832 -2.0016 0.9196
-20.2248 5.0614 -2.0016 0.9196
-20.3933 4.3331 -2.0016 0.9196
-20.5355 3.5992 -2.0016 0.9196
-20.8032 1.3736 -2.0016 0.9196
-20.8482 -0.1206 -2.0016 0.9196
-20.7147 -2.3583 -2.0016 0.9196
-20.6168 -3.0994 -2.0016 0.9196
-20.3417 -4.5688 -2.0016 0.9196
-18.8974 -8.8062 -2.0016 0.9196
-17.4445 -11.4170 -2.0016 0.9196
-17.0240 -12.0351 -2.0016 0.9196
-16.5816 -12.6377 -2.0016 0.9196
-16.1179 -13.2240 -2.0016 0.9196
-15.6334 -13.7933 -2.0016 0.9196
-14.0621 -15.3921 -2.0016 0.9196
-13.4842 -15.8662 -1.9990 0.9197
-10.9996 -16.1875 -1.8789 0.9244
-10.2484 -16.3107 -1.8494 0.9255
-9.6571 -16.6677 -1.8494 0.9255
-7.1754 -17.8769 -1.8494 0.9255
-6.5299 -18.1226 -1.8494 0.9255
-4.5464 -18.7190 -1.8494 0.9255
-3.8724 -18.8699 -1.8494 0.9255
-1.8240 -19.1766 -1.8494 0.9255
-1.1353 -19.2297 -1.8494 0.9255
0.2190 -17.1819 -1.6497 0.9333
0.9359 -19.2404 -1.8494 0.9255
1.6251 -19.1945 -1.8494 0.9255
2.3122 -19.1239 -1.8494 0.9255
2.9963 -19.0287 -1.8494 0.9255
6.1354 -19.8615 -1.9957 0.9199
2.1982 -4.2337 -0.4580 0.9810
10.9082 -17.7671 -2.0016 0.9196
12.7528 -16.4932 -2.0016 0.9196
13.3358 -16.0255 -2.0016 0.9196
13.9018 -15.5371 -2.0016 0.9196
14.9794 -14.5010 -2.0016 0.9196
16.4497 -12.8089 -2.0016 0.9196
18.1117 -10.3260 -2.0016 0.9196
18.4702 -9.6701 -2.0016 0.9196
18.8050 -9.0017 -2.0016 0.9196
19.4017 -7.6311 -2.0016 0.9196
19.8986 -6.2212 -2.0016 0.9196
20.8203 -1.0838 -2.0016 0.9196
20.8445 0.4108 -2.0016 0.9196
20.8163 1.1578 -2.0016 0.9196
20.7615 1.9033 -2.0016 0.9196
20.6799 2.6464 -2.0016 0.9196
20.5717 3.3861 -2.0016 0.9196
20.4371 4.1214 -2.0016 0.9196
19.3745 7.6999 -2.0016 0.9196
18.4358 9.7356 -2.0016 0.9196
18.0749 10.3903 -2.0016 0.9196
17.6908 11.0316 -2.0016 0.9196
16.8548 12.2709 -2.0016 0.9196
16.4041 12.8672 -2.0016 0.9196
14.9277 14.5541 -2.0016 0.9196
12.6941 16.5384 -2.0016 0.9196
11.4764 17.4055 -2.0016 0.9196
10.8450 17.8058 -2.0016 0.9196
7.8091 16.6096 -1.7621 0.9289
6.9259 17.9750 -1.8494 0.9255
6.2770 18.2118 -1.8494 0.9255
5.1988 17.0440 -1.7107 0.9309
3.0217 13.2423 -1.3040 0.9469
2.5198 13.2099 -1.2911 0.9474
1.4699 12.5310 -1.2113 0.9506
0.9942 12.2610 -1.1810 0.9518
0.5481 12.1576 -1.1684 0.9523
-0.3202 12.0040 -1.1529 0.9529
-0.7392 11.8071 -1.1358 0.9536
-2.0546 11.9625 -1.1653 0.9524
-4.3064 11.8200 -1.2077 0.9507
-4.8182 11.8818 -1.2309 0.9498
-7.3282 11.5716 -1.3150 0.9464
-8.4693 11.4646 -1.3684 0.9443
-9.1258 11.4689 -1.4071 0.9428
-10.5616 11.4783 -1.4975 0.9392
-12.2035 11.4891 -1.6091 0.9349
-13.1223 11.4951 -1.6748 0.9323
-14.1206 11.5016 -1.7484 0.9294
-15.7689 11.0640 -1.8494 0.9255
-16.1554 10.4915 -1.8494 0.9255
-17.1885 8.6963 -1.8494 0.9255
-20.3579 4.4965 -2.0016 0.9196
-20.6277 3.0262 -2.0016 0.9196
-20.7915 1.5403 -2.0016 0.9196
-20.8367 -0.7009 -2.0016 0.9196
-20.7982 -1.4475 -2.0016 0.9196
-20.6410 -2.9340 -2.0016 0.9196
-20.0097 -5.8543 -2.0016 0.9196
-19.5387 -7.2731 -2.0016 0.9196
-19.2654 -7.9689 -2.0016 0.9196
-18.9674 -8.6544 -2.0016 0.9196
-18.6449 -9.3288 -2.0016 0.9196
-18.2985 -9.9913 -2.0016 0.9196
-17.9285 -10.6409 -2.0016 0.9196
-17.1200 -11.8982 -2.0016 0.9196
-16.2234 -13.0943 -2.0016 0.9196
-14.7237 -14.7605 -2.0016 0.9196
-14.1851 -15.2789 -2.0016 0.9196
-13.6220 -15.7704 -2.0006 0.9197
-12.0624 -16.1767 -1.9373 0.9221
-11.1891 -16.1856 -1.8891 0.9240
-10.3788 -16.2280 -1.8494 0.9255
-9.7904 -16.5897 -1.8494 0.9255
-9.1894 -16.9300 -1.8494 0.9255
-8.5765 -17.2486 -1.8494 0.9255
-7.9526 -17.5450 -1.8494 0.9255
-7.3185 -17.8188 -1.8494 0.9255
-5.4378 -16.5198 -1.6697 0.9325
-5.3631 -18.5016 -1.8494 0.9255
-4.0235 -18.8383 -1.8494 0.9255
-3.3456 -18.9704 -1.8494 0.9255
-1.9777 -19.1614 -1.8494 0.9255
-1.2895 -19.2200 -1.8494 0.9255
0.7816 -19.2473 -1.8494 0.9255
2.1587 -19.1418 -1.8494 0.9255
3.5248 -18.9379 -1.8494 0.9255
6.7055 -19.7407 -2.0016 0.9196
7.4089 -19.4876 -2.0016 0.9196
8.1028 -19.2095 -2.0016 0.9196
8.7862 -18.9067 -2.0016 0.9196
2.3316 -4.2003 -0.4613 0.9809
12.0170 -17.0367 -2.0016 0.9196
12.7892 10.9711 -2.0016 0.9344
12.3876 11.4225 -2.0016 0.9344
11.5373 12.2808 -2.0016 0.9344
11.0896 12.6865 -2.0016 0.9344
8.6495 14.4608 -2.0016 0.9344
7.5076 13.6391 -1.8494 0.9392
7.0138 13.8995 -1.8494 0.9392
5.9998 14.3663 -1.8494 0.9392
5.4809 14.5722 -1.8494 0.9392
3.4204 13.2747 -1.6284 0.9463
2.8619 13.0228 -1.5838 0.9477
2.3324 12.7840 -1.5436 0.9490
0.0138 11.7381 -1.3943 0.9538
-0.4008 11.5511 -1.3729 0.9545
-0.8065 11.4144 -1.3592 0.9550
-1.2194 11.4171 -1.3639 0.9548
-1.2634 8.8212 -1.0585 0.9647
-2.0563 11.4226 -1.3787 0.9543
-2.4827 11.4254 -1.3888 0.9540
-3.8088 11.4341 -1.4316 0.9526
-4.7463 11.4402 -1.4712 0.9513
-5.7424 11.4467 -1.5212 0.9497
-10.6333 11.3720 -1.8494 0.9392
-11.0342 10.9834 -1.8494 0.9392
-11.4209 10.5808 -1.8494 0.9392
-11.7929 10.1645 -1.8494 0.9392
-12.8160 8.8396 -1.8494 0.9392
-13.1247 8.3745 -1.8494 0.9392
-14.0045 8.2448 -1.9304 0.9366
-14.7897 8.0073 -1.9978 0.9345
-15.0959 7.4862 -2.0016 0.9344
-15.5935 6.3852 -2.0016 0.9344
-16.0109 5.2515 -2.0016 0.9344
-16.1889 4.6741 -2.0016 0.9344
-16.3461 4.0907 -2.0016 0.9344
-16.4822 3.5021 -2.0016 0.9344
-16.5972 2.9089 -2.0016 0.9344
-16.6908 2.3121 -2.0016 0.9344
-16.8135 1.1102 -2.0016 0.9344
-16.8425 0.5066 -2.0016 0.9344
-16.8355 -0.7015 -2.0016 0.9344
-16.7996 -1.3046 -2.0016 0.9344
-16.1337 -4.8611 -2.0016 0.9344
-15.2732 -7.1174 -2.0016 0.9344
-15.0082 -7.6603 -2.0016 0.9344
-14.7239 -8.1935 -2.0016 0.9344
-13.7591 -9.7270 -2.0016 0.9344
-13.4016 -10.2140 -2.0016 0.9344
-13.0268 -10.6879 -2.0016 0.9344
-12.2275 -11.5938 -2.0016 0.9344
-11.3653 -12.4402 -2.0016 0.9344
-10.4447 -13.2226 -2.0016 0.9344
-9.9639 -13.5885 -2.0016 0.9344
-9.4703 -13.9370 -2.0016 0.9344
-8.4474 -14.5798 -2.0016 0.9344
-7.9192 -14.8732 -2.0016 0.9344
-6.2766 -15.6375 -2.0016 0.9344
-5.1273 -16.0075 -1.9966 0.9345
-3.3188 -16.1723 -1.9611 0.9357
-0.3754 -16.2377 -1.9293 0.9367
0.7999 -16.4456 -1.9558 0.9358
2.0171 -16.6836 -1.9962 0.9345
2.6200 -16.6394 -2.0009 0.9344
3.2160 -16.5404 -2.0016 0.9344
3.8069 -16.4145 -2.0016 0.9344
4.3929 -16.2675 -2.0016 0.9344
4.9733 -16.0995 -2.0016 0.9344
9.3254 -14.0344 -2.0016 0.9344
10.3070 -13.3302 -2.0016 0.9344
10.7783 -12.9521 -2.0016 0.9344
11.2357 -12.5573 -2.0016 0.9344
11.6786 -12.1465 -2.0016 0.9344
12.1066 -11.7200 -2.0016 0.9344
12.9153 -10.8224 -2.0016 0.9344
13.2950 -10.3524 -2.0016 0.9344
14.6382 -8.3457 -2.0016 0.9344
15.4497 -6.7258 -2.0016 0.9344
16.2524 -4.4483 -2.0016 0.9344
16.4014 -3.8628 -2.0016 0.9344
16.6360 -2.6776 -2.0016 0.9344
16.7213 -2.0795 -2.0016 0.9344
16.7851 -1.4787 -2.0016 0.9344
16.8469 0.3320 -2.0016 0.9344
16.5176 3.3310 -2.0016 0.9344
16.3876 3.9210 -2.0016 0.9344
16.2365 4.5060 -2.0016 0.9344
15.4257 6.7806 -2.0016 0.9344
15.1727 7.3293 -2.0016 0.9344
14.9001 7.8685 -2.0016 0.9344
14.6085 8.3976 -2.0016 0.9344
14.2980 8.9159 -2.0016 0.9344
13.2581 10.3995 -2.0016 0.9344
12.4788 11.3228 -2.0016 0.9344
9.7738 13.7259 -2.0016 0.9344
7.1250 13.8428 -1.8494 0.9392
6.6242 14.0893 -1.8494 0.9392
6.1148 14.3178 -1.8494 0.9392
5.5976 14.5278 -1.8494 0.9392
5.0732 14.7191 -1.8494 0.9392
2.9841 13.0779 -1.5934 0.9474
2.4485 12.8363 -1.5523 0.9487
1.4530 12.3873 -1.4815 0.9510
-1.1268 11.4165 -1.3627 0.9548
-2.3868 11.4247 -1.3864 0.9541
-2.8185 11.4276 -1.3981 0.9537
-3.2581 11.4304 -1.4119 0.9533
-3.7070 11.4334 -1.4277 0.9527
-4.6388 11.4395 -1.4663 0.9515
-5.6276 11.4460 -1.5151 0.9499
-6.1485 11.4494 -1.5437 0.9490
-7.2554 11.4566 -1.6108 0.9468
-7.8472 11.4605 -1.6499 0.9456
-9.1258 11.4689 -1.7410 0.9427
-9.8213 11.4735 -1.7940 0.9410
-10.9458 11.0716 -1.8494 0.9392
-11.3356 10.6720 -1.8494 0.9392
-12.0712 9.8324 -1.8494 0.9392
-12.4160 9.3933 -1.8494 0.9392
-13.0571 8.4795 -1.8494 0.9392
-14.7112 8.1181 -1.9959 0.9346
-15.5418 6.5101 -2.0016 0.9344
-15.7652 5.9487 -2.0016 0.9344
-16.3127 4.2217 -2.0016 0.9344
-16.4536 3.6342 -2.0016 0.9344
-16.5733 3.0419 -2.0016 0.9344
-16.6717 2.4458 -2.0016 0.9344
-16.7487 1.8466 -2.0016 0.9344
-16.8379 0.6417 -2.0016 0.9344
-16.8406 -0.5665 -2.0016 0.9344
-16.8095 -1.1699 -2.0016 0.9344
-16.7568 -1.7718 -2.0016 0.9344
-16.6825 -2.3713 -2.0016 0.9344
-16.5867 -2.9679 -2.0016 0.9344
-16.4697 -3.5606 -2.0016 0.9344
-16.3314 -4.1488 -2.0016 0.9344
-15.7916 -5.8782 -2.0016 0.9344
-15.3298 -6.9947 -2.0016 0.9344
-15.0692 -7.5397 -2.0016 0.9344
-14.1725 -9.1141 -2.0016 0.9344
-13.8367 -9.6163 -2.0016 0.9344
-13.1121 -10.5831 -2.0016 0.9344
-11.4647 -12.3487 -2.0016 0.9344
-11.0146 -12.7517 -2.0016 0.9344
-10.0726 -13.5082 -2.0016 0.9344
-9.0787 -14.1952 -2.0016 0.9344
-7.5021 -15.0879 -2.0016 0.9344
-6.9564 -15.3472 -2.0016 0.9344
-6.4017 -15.5867 -2.0016 0.9344
-4.0645 -16.1687 -1.9804 0.9350
-3.4540 -16.1717 -1.9643 0.9356
-2.8525 -16.1742 -1.9509 0.9360
0.0770 -16.2995 -1.9362 0.9365
2.4852 -16.6507 -1.9998 0.9344
3.0832 -16.5657 -2.0016 0.9344
3.6751 -16.4445 -2.0016 0.9344
4.8440 -16.1389 -2.0016 0.9344
5.4195 -15.9548 -2.0016 0.9344
5.9880 -15.7503 -2.0016 0.9344
2.1876 -4.2972 -0.5728 0.9808
2.3315 -4.2003 -0.5707 0.9808
11.0447 8.8073 -2.0016 0.9445
10.7219 9.1976 -2.0016 0.9445
9.2971 10.6358 -2.0016 0.9445
8.5110 11.2746 -2.0016 0.9445
8.1014 11.5725 -2.0016 0.9445
6.2941 11.4344 -1.8494 0.9486
5.8801 11.6527 -1.8494 0.9486
5.4585 11.8560 -1.8494 0.9486
4.5950 12.2167 -1.8494 0.9486
4.1541 12.3735 -1.8494 0.9486
3.7078 12.5145 -1.8494 0.9486
2.8015 12.7480 -1.8494 0.9486
2.3324 12.7840 -1.8413 0.9489
-1.2194 11.4171 -1.6269 0.9547
-1.2527 8.7465 -1.2519 0.9649
-2.0563 11.4226 -1.6445 0.9542
-3.3576 11.4311 -1.6881 0.9530
-4.2711 11.4371 -1.7298 0.9519
-4.7463 11.4402 -1.7549 0.9512
-5.2360 11.4434 -1.7831 0.9504
-5.7424 11.4467 -1.8145 0.9496
-6.2672 11.4491 -1.8494 0.9486
-6.6736 11.2171 -1.8494 0.9486
-7.0715 10.9706 -1.8494 0.9486
-7.4602 10.7101 -1.8494 0.9486
-8.2085 10.1480 -1.8494 0.9486
-8.5670 9.8472 -1.8494 0.9486
-9.8866 8.5215 -1.8494 0.9486
-11.0751 8.2401 -1.9559 0.9458
-11.6067 8.0056 -1.9978 0.9446
-12.1734 7.1668 -2.0016 0.9445
-12.8725 5.8183 -2.0016 0.9445
-13.5720 3.9186 -2.0016 0.9445
-13.8179 2.9360 -2.0016 0.9445
-13.9143 2.4387 -2.0016 0.9445
-13.9928 1.9383 -2.0016 0.9445
-14.0533 1.4354 -2.0016 0.9445
-14.0957 0.9307 -2.0016 0.9445
-14.1200 0.4247 -2.0016 0.9445
-14.1142 -0.5881 -2.0016 0.9445
-14.0840 -1.0937 -2.0016 0.9445
-13.9694 -2.1001 -2.0016 0.9445
-12.7874 -2.8721 -1.8570 0.9484
-12.6763 -3.3287 -1.8570 0.9484
-12.4052 -4.2284 -1.8570 0.9484
-12.2456 -4.6704 -1.8570 0.9484
-12.0703 -5.1064 -1.8570 0.9484
-11.8795 -5.5359 -1.8570 0.9484
-12.0897 -7.3072 -2.0016 0.9445
-10.5928 -9.3460 -2.0016 0.9445
-9.8959 -10.0810 -2.0016 0.9445
-9.5281 -10.4293 -2.0016 0.9445
-7.5155 -11.9613 -2.0016 0.9445
-6.6391 -12.4691 -2.0016 0.9445
-6.1878 -12.6991 -2.0016 0.9445
-5.7286 -12.9127 -2.0016 0.9445
-4.3091 -13.4531 -2.0016 0.9445
-2.8398 -13.8380 -2.0016 0.9445
-1.8409 -14.0059 -2.0016 0.9445
-1.3376 -14.0629 -2.0016 0.9445
0.6863 -14.1097 -2.0016 0.9445
1.1917 -14.0760 -2.0016 0.9445
2.1973 -13.9545 -2.0016 0.9445
3.6828 -13.6379 -2.0016 0.9445
4.1694 -13.4971 -2.0016 0.9445
5.1258 -13.1636 -2.0016 0.9445
6.9548 -12.2958 -2.0016 0.9445
7.3911 -12.0385 -2.0016 0.9445
9.4195 -10.5275 -2.0016 0.9445
9.7908 -10.1830 -2.0016 0.9445
10.8276 -9.0730 -2.0016 0.9445
11.1459 -8.6790 -2.0016 0.9445
12.2720 -6.9966 -2.0016 0.9445
12.5150 -6.5522 -2.0016 0.9445
12.7418 -6.0993 -2.0016 0.9445
13.6253 -3.7293 -2.0016 0.9445
14.0719 -1.2397 -2.0016 0.9445
14.1246 -0.2282 -2.0016 0.9445
14.0674 1.2897 -2.0016 0.9445
14.0121 1.7932 -2.0016 0.9445
13.7386 3.2872 -2.0016 0.9445
13.6119 3.7776 -2.0016 0.9445
13.4677 4.2632 -2.0016 0.9445
13.3063 4.7433 -2.0016 0.9445
12.7201 6.1445 -2.0016 0.9445
12.4916 6.5966 -2.0016 0.9445
11.7111 7.8997 -2.0016 0.9445
11.4204 8.3144 -2.0016 0.9445
11.1150 8.7185 -2.0016 0.9445
10.7953 9.1114 -2.0016 0.9445
10.4617 9.4925 -2.0016 0.9445
10.1147 9.8615 -2.0016 0.9445
9.7546 10.2178 -2.0016 0.9445
8.9974 10.8905 -2.0016 0.9445
8.6012 11.2060 -2.0016 0.9445
8.1939 11.5072 -2.0016 0.9445
7.7761 11.7935 -2.0016 0.9445
7.3380 12.0479 -1.9988 0.9446
6.3855 11.3836 -1.8494 0.9486
5.5534 11.8119 -1.8494 0.9486
5.1264 12.0034 -1.8494 0.9486
4.2531 12.3398 -1.8494 0.9486
2.9037 12.7251 -1.8494 0.9486
2.4456 12.8211 -1.8494 0.9486
1.9391 12.6066 -1.8072 0.9498
0.5398 11.9754 -1.6985 0.9527
0.1083 11.7807 -1.6693 0.9535
-0.3092 11.5924 -1.6431 0.9542
-0.7145 11.4138 -1.6204 0.9548
-1.1268 11.4165 -1.6255 0.9547
-1.1812 8.7464 -1.2505 0.9650
-1.9618 11.4220 -1.6421 0.9543
-2.3868 11.4247 -1.6537 0.9539
-3.2581 11.4304 -1.6841 0.9531
-3.7070 11.4334 -1.7030 0.9526
-4.1667 11.4364 -1.7246 0.9520
-4.6388 11.4395 -1.7491 0.9514
-6.5834 11.2703 -1.8494 0.9486
-6.9833 11.0270 -1.8494 0.9486
-8.1268 10.2135 -1.8494 0.9486
-8.4878 9.9156 -1.8494 0.9486
-8.8378 9.6049 -1.8494 0.9486
-9.1764 9.2819 -1.8494 0.9486
-9.5033 8.9469 -1.8494 0.9486
-11.5337 8.0924 -1.9963 0.9447
-11.8474 7.6938 -2.0016 0.9445
-12.6050 6.3773 -2.0016 0.9445
-12.8255 5.9213 -2.0016 0.9445
-13.5402 4.0273 -2.0016 0.9445
-13.7939 3.0467 -2.0016 0.9445
-13.8943 2.5502 -2.0016 0.9445
-14.0878 1.0437 -2.0016 0.9445
-14.1264 0.0315 -2.0016 0.9445
-13.9858 -1.9880 -2.0016 0.9445
-12.8101 -2.7694 -1.8570 0.9484
-12.7025 -3.2269 -1.8570 0.9484
-12.2826 -4.5721 -1.8570 0.9484
-12.1108 -5.0095 -1.8570 0.9484
-11.9235 -5.4404 -1.8570 0.9484
-12.6333 -6.3210 -2.0016 0.9445
-12.3986 -6.7698 -2.0016 0.9445
-11.8816 -7.6409 -2.0016 0.9445
-11.6000 -8.0619 -2.0016 0.9445
-11.3036 -8.4726 -2.0016 0.9445
-10.6674 -9.2608 -2.0016 0.9445
-10.3285 -9.6372 -2.0016 0.9445
-9.9764 -10.0013 -2.0016 0.9445
-9.6115 -10.3526 -2.0016 0.9445
-9.2341 -10.6905 -2.0016 0.9445
-8.8449 -11.0146 -2.0016 0.9445
-8.4444 -11.3247 -2.0016 0.9445
-8.0330 -11.6201 -2.0016 0.9445
-7.6112 -11.9006 -2.0016 0.9445
-7.1797 -12.1658 -2.0016 0.9445
-4.8950 -13.2512 -2.0016 0.9445
-3.4440 -13.7002 -2.0016 0.9445
-2.9506 -13.8148 -2.0016 0.9445
-1.9531 -13.9907 -2.0016 0.9445
-0.9456 -14.0947 -2.0016 0.9445
0.0668 -14.1262 -2.0016 0.9445
0.5732 -14.1148 -2.0016 0.9445
1.0788 -14.0851 -2.0016 0.9445
1.5831 -14.0374 -2.0016 0.9445
2.5848 -13.8879 -2.0016 0.9445
3.0811 -13.7863 -2.0016 0.9445
4.0610 -13.5301 -2.0016 0.9445
5.4902 -13.0159 -2.0016 0.9445
2.3315 -4.2003 -0.6807 0.9808
7.7234 -11.8281 -2.0016 0.9445
9.7648 7.2296 -2.0016 0.9519
9.4994 7.5750 -2.0016 0.9519
8.3190 8.8551 -2.0016 0.9519
6.6065 10.1967 -2.0016 0.9519
6.2320 10.4190 -2.0000 0.9520
5.0573 10.0223 -1.8494 0.9555
4.3262 10.3589 -1.8494 0.9555
3.5728 10.6423 -1.8494 0.9555
2.8011 10.8709 -1.8494 0.9555
2.0149 11.0437 -1.8494 0.9555
1.6177 11.1088 -1.8494 0.9555
1.2184 11.1597 -1.8494 0.9555
0.4156 11.2183 -1.8494 0.9555
-0.7912 11.1981 -1.8494 0.9555
-1.1922 11.1625 -1.8494 0.9555
-1.2498 8.7263 -1.4522 0.9649
-1.9890 11.0484 -1.8494 0.9555
-2.3838 10.9700 -1.8494 0.9555
-3.5478 10.6506 -1.8494 0.9555
-4.6708 10.2081 -1.8494 0.9555
-5.3903 9.8472 -1.8494 0.9555
-5.7399 9.6476 -1.8494 0.9555
-6.0820 9.4357 -1.8494 0.9555
-6.4164 9.2116 -1.8494 0.9555
-6.7425 8.9756 -1.8494 0.9555
-9.1922 7.9230 -1.9992 0.9520
-9.4816 7.5973 -2.0016 0.9519
-10.0016 6.8984 -2.0016 0.9519
-10.4702 6.1640 -2.0016 0.9519
-10.6844 5.7847 -2.0016 0.9519
-10.8849 5.3979 -2.0016 0.9519
-11.2437 4.6041 -2.0016 0.9519
-11.4016 4.1981 -2.0016 0.9519
-11.6731 3.3703 -2.0016 0.9519
-11.9674 2.0975 -2.0016 0.9519
-12.0870 1.2346 -2.0016 0.9519
-12.1235 0.8005 -2.0016 0.9519
-12.1497 -0.0703 -2.0016 0.9519
-12.1393 -0.5058 -2.0016 0.9519
-12.1134 -0.9407 -2.0016 0.9519
-10.9026 -2.8629 -1.8570 0.9553
-10.6695 -3.6368 -1.8570 0.9553
-10.5322 -4.0169 -1.8570 0.9553
-10.3814 -4.3919 -1.8570 0.9553
-10.2173 -4.7613 -1.8570 0.9553
-10.0400 -5.1245 -1.8570 0.9553
-10.3981 -6.2848 -2.0016 0.9519
-9.6633 -7.3648 -2.0016 0.9519
-9.1107 -8.0383 -2.0016 0.9519
-8.5113 -8.6705 -2.0016 0.9519
-8.1950 -8.9700 -2.0016 0.9519
-7.8681 -9.2581 -2.0016 0.9519
-7.5312 -9.5342 -2.0016 0.9519
-7.1845 -9.7981 -2.0016 0.9519
-6.8286 -10.0493 -2.0016 0.9519
-6.0910 -10.5128 -2.0016 0.9519
-5.7102 -10.7244 -2.0016 0.9519
-5.3220 -10.9222 -2.0016 0.9519
-4.9271 -11.1060 -2.0016 0.9519
-4.5257 -11.2755 -2.0016 0.9519
-3.7062 -11.5708 -2.0016 0.9519
-2.8675 -11.8066 -2.0016 0.9519
-2.4424 -11.9018 -2.0016 0.9519
-2.0142 -11.9818 -2.0016 0.9519
0.1548 -12.1489 -2.0016 0.9519
0.5903 -12.1355 -2.0016 0.9519
3.5860 -11.6086 -2.0016 0.9519
4.4086 -11.3218 -2.0016 0.9519
2.1981 -4.2336 -0.7858 0.9808
6.7241 -10.1196 -2.0016 0.9519
7.4319 -9.6118 -2.0016 0.9519
7.7717 -9.3392 -2.0016 0.9519
8.1015 -9.0545 -2.0016 0.9519
8.4209 -8.7583 -2.0016 0.9519
8.7295 -8.4507 -2.0016 0.9519
9.0269 -8.1324 -2.0016 0.9519
9.3126 -7.8035 -2.0016 0.9519
9.5864 -7.4646 -2.0016 0.9519
10.5549 -6.0177 -2.0016 0.9519
11.3067 -4.4472 -2.0016 0.9519
11.7188 -3.2075 -2.0016 0.9519
11.8263 -2.7853 -2.0016 0.9519
11.9186 -2.3595 -2.0016 0.9519
11.9955 -1.9307 -2.0016 0.9519
12.1334 -0.6316 -2.0016 0.9519
12.1311 0.6747 -2.0016 0.9519
12.0516 1.5423 -2.0016 0.9519
11.5834 3.6667 -2.0016 0.9519
11.4445 4.0796 -2.0016 0.9519
11.2909 4.4873 -2.0016 0.9519
10.9403 5.2848 -2.0016 0.9519
10.5335 6.0551 -2.0016 0.9519
10.0725 6.7944 -2.0016 0.9519
9.8225 7.1511 -2.0016 0.9519
9.5598 7.4986 -2.0016 0.9519
9.2848 7.8365 -2.0016 0.9519
8.9979 8.1644 -2.0016 0.9519
8.0693 9.0832 -2.0016 0.9519
7.3977 9.6381 -2.0016 0.9519
6.6881 10.1434 -2.0016 0.9519
6.3202 10.3767 -2.0016 0.9519
5.9234 10.5597 -1.9946 0.9521
4.4091 10.3239 -1.8494 0.9555
3.6580 10.6133 -1.8494 0.9555
3.2752 10.7376 -1.8494 0.9555
2.8882 10.8481 -1.8494 0.9555
2.4974 10.9447 -1.8494 0.9555
2.1034 11.0272 -1.8494 0.9555
1.7067 11.0955 -1.8494 0.9555
1.3079 11.1495 -1.8494 0.9555
0.9073 11.1893 -1.8494 0.9555
-0.7014 11.2041 -1.8494 0.9555
-1.1027 11.1717 -1.8494 0.9555
-1.1785 8.7262 -1.4506 0.9649
-1.9003 11.0640 -1.8494 0.9555
-2.2958 10.9887 -1.8494 0.9555
-2.6882 10.8994 -1.8494 0.9555
-3.0772 10.7960 -1.8494 0.9555
-3.4623 10.6787 -1.8494 0.9555
-3.8429 10.5477 -1.8494 0.9555
-5.3111 9.8901 -1.8494 0.9555
-6.3423 9.2627 -1.8494 0.9555
-6.9897 8.7844 -1.8494 0.9555
-7.3002 8.5282 -1.8494 0.9555
-7.6050 8.2651 -1.8503 0.9555
-8.1547 8.2484 -1.9108 0.9541
-8.7478 8.2357 -1.9793 0.9525
-9.1231 7.9918 -1.9980 0.9520
-9.6894 7.3305 -2.0016 0.9519
-10.1897 6.6173 -2.0016 0.9519
-11.0310 5.0928 -2.0016 0.9519
-11.2065 4.6941 -2.0016 0.9519
-11.5140 3.8791 -2.0016 0.9519
-11.6457 3.4638 -2.0016 0.9519
-11.9502 2.1934 -2.0016 0.9519
-12.1411 0.4627 -2.0016 0.9519
-12.1430 -0.4085 -2.0016 0.9519
-11.9599 -2.1400 -2.0016 0.9519
-11.0177 -2.3819 -1.8570 0.9553
-10.6983 -3.5511 -1.8570 0.9553
-10.4163 -4.3086 -1.8570 0.9553
-10.2552 -4.6792 -1.8570 0.9553
-10.4482 -6.2012 -2.0016 0.9519
-9.1749 -7.9650 -2.0016 0.9519
-7.6074 -9.4735 -2.0016 0.9519
-7.2629 -9.7401 -2.0016 0.9519
-6.9090 -9.9943 -2.0016 0.9519
-6.1751 -10.4636 -2.0016 0.9519
-5.7960 -10.6783 -2.0016 0.9519
-3.7988 -11.5407 -2.0016 0.9519
-3.3827 -11.6695 -2.0016 0.9519
-2.9621 -11.7833 -2.0016 0.9519
-2.5378 -11.8819 -2.0016 0.9519
-1.2474 -12.0857 -2.0016 0.9519
-0.8133 -12.1226 -2.0016 0.9519
0.4930 -12.1399 -2.0016 0.9519
0.9279 -12.1144 -2.0016 0.9519
1.3616 -12.0733 -2.0016 0.9519
2.2232 -11.9447 -2.0016 0.9519
2.6500 -11.8574 -2.0016 0.9519
3.0734 -11.7547 -2.0016 0.9519
4.3177 -11.3568 -2.0016 0.9519
4.7220 -11.1947 -2.0016 0.9519
5.1203 -11.0182 -2.0016 0.9519
2.1875 -4.2970 -0.7943 0.9806
2.3315 -4.2002 -0.7914 0.9807
6.2737 -10.4048 -2.0016 0.9519
8.3258 6.6392 -2.0016 0.9576
7.5648 7.4947 -2.0016 0.9576
7.2913 7.7611 -2.0016 0.9576
6.7164 8.2636 -2.0016 0.9576
6.1070 8.7236 -2.0016 0.9576
5.7903 8.9370 -2.0016 0.9576
5.1351 9.3289 -2.0016 0.9576
3.4638 9.2092 -1.8494 0.9607
2.7950 9.4337 -1.8494 0.9607
1.4178 9.7364 -1.8494 0.9607
1.0679 9.7810 -1.8494 0.9607
0.7165 9.8130 -1.8494 0.9607
0.3643 9.8323 -1.8494 0.9607
0.0116 9.8391 -1.8494 0.9607
-0.3412 9.8332 -1.8494 0.9607
-0.6935 9.8146 -1.8494 0.9607
-1.0449 9.7834 -1.8494 0.9607
-1.2469 8.7060 -1.6531 0.9648
-1.7432 9.6834 -1.8494 0.9607
-2.7728 9.4403 -1.8494 0.9607
-4.0938 8.9470 -1.8494 0.9607
-4.4119 8.7945 -1.8494 0.9607
-4.7243 8.6306 -1.8494 0.9607
-5.3306 8.2699 -1.8494 0.9607
-5.7481 8.2522 -1.8903 0.9599
-6.1925 8.2434 -1.9379 0.9589
-6.6600 8.2336 -1.9905 0.9578
-6.9756 8.0180 -1.9976 0.9577
-7.2730 7.7782 -2.0016 0.9576
-7.5472 7.5125 -2.0016 0.9576
-8.3102 6.6587 -2.0016 0.9576
-8.9770 5.7280 -2.0016 0.9576
-9.1766 5.4025 -2.0016 0.9576
-9.9930 3.6794 -2.0016 0.9576
-10.4889 1.8384 -2.0016 0.9576
-10.5481 1.4612 -2.0016 0.9576
-10.5937 1.0821 -2.0016 0.9576
-10.6257 0.7016 -2.0016 0.9576
-10.5805 -1.2046 -2.0016 0.9576
-10.4670 -1.9596 -2.0016 0.9576
-9.9406 -2.2327 -1.9150 0.9594
-9.5557 -2.5092 -1.8570 0.9606
-9.4596 -2.8502 -1.8570 0.9606
-9.3513 -3.1875 -1.8570 0.9606
-9.2310 -3.5207 -1.8570 0.9606
-8.7996 -4.4914 -1.8570 0.9606
-8.6330 -4.8040 -1.8570 0.9606
-8.2666 -5.4103 -1.8570 0.9606
-8.4694 -6.4549 -2.0016 0.9576
-6.6007 -8.3563 -2.0016 0.9576
-5.0047 -9.3995 -2.0016 0.9576
-4.6645 -9.5729 -2.0016 0.9576
-3.9666 -9.8825 -2.0016 0.9576
-3.6098 -10.0183 -2.0016 0.9576
-3.2483 -10.1413 -2.0016 0.9576
-2.8826 -10.2512 -2.0016 0.9576
-2.1407 -10.4314 -2.0016 0.9576
-1.7653 -10.5015 -2.0016 0.9576
-1.3877 -10.5580 -2.0016 0.9576
0.1357 -10.6480 -2.0016 0.9576
0.8983 -10.6109 -2.0016 0.9576
1.2782 -10.5718 -2.0016 0.9576
2.4059 -10.3735 -2.0016 0.9576
2.7762 -10.2806 -2.0016 0.9576
3.5057 -10.0552 -2.0016 0.9576
3.8639 -9.9231 -2.0016 0.9576
4.2172 -9.7782 -2.0016 0.9576
4.5650 -9.6207 -2.0016 0.9576
5.5716 -9.0749 -2.0016 0.9576
5.8934 -8.8694 -2.0016 0.9576
6.2075 -8.6524 -2.0016 0.9576
6.8116 -8.1853 -2.0016 0.9576
7.9116 -7.1276 -2.0016 0.9576
8.1621 -6.8394 -2.0016 0.9576
8.8492 -5.9235 -2.0016 0.9576
9.0559 -5.6025 -2.0016 0.9576
9.2509 -5.2742 -2.0016 0.9576
9.4341 -4.9392 -2.0016 0.9576
9.7637 -4.2505 -2.0016 0.9576
9.9098 -3.8977 -2.0016 0.9576
10.0432 -3.5400 -2.0016 0.9576
10.1637 -3.1776 -2.0016 0.9576
10.3652 -2.4412 -2.0016 0.9576
10.6077 -0.9345 -2.0016 0.9576
10.6344 -0.5536 -2.0016 0.9576
10.6468 0.2098 -2.0016 0.9576
10.6324 0.5914 -2.0016 0.9576
10.6044 0.9722 -2.0016 0.9576
10.5627 1.3517 -2.0016 0.9576
10.5074 1.7295 -2.0016 0.9576
10.4387 2.1051 -2.0016 0.9576
10.1523 3.2137 -2.0016 0.9576
9.8959 3.9329 -2.0016 0.9576
9.7486 4.2852 -2.0016 0.9576
9.5887 4.6319 -2.0016 0.9576
9.4165 4.9727 -2.0016 0.9576
9.2321 5.3071 -2.0016 0.9576
8.3787 6.5722 -2.0016 0.9576
8.1377 6.8684 -2.0016 0.9576
7.8863 7.1557 -2.0016 0.9576
7.6247 7.4338 -2.0016 0.9576
7.0724 7.9611 -2.0016 0.9576
6.7824 8.2095 -2.0016 0.9576
5.8618 8.8902 -2.0016 0.9576
5.5393 9.0947 -2.0016 0.9576
4.8628 9.4475 -1.9972 0.9577
4.4152 9.3908 -1.9505 0.9586
3.8883 9.1044 -1.8608 0.9605
3.5375 9.1811 -1.8494 0.9607
1.4959 9.7247 -1.8494 0.9607
1.1463 9.7721 -1.8494 0.9607
0.7952 9.8069 -1.8494 0.9607
0.4431 9.8291 -1.8494 0.9607
-0.6148 9.8198 -1.8494 0.9607
-0.9664 9.7915 -1.8494 0.9607
-1.6655 9.6971 -1.8494 0.9607
-2.6971 9.4622 -1.8494 0.9607
-3.3681 9.2446 -1.8494 0.9607
-4.0219 8.9795 -1.8494 0.9607
-4.3412 8.8296 -1.8494 0.9607
-4.6550 8.6682 -1.8494 0.9607
-4.9628 8.4958 -1.8494 0.9607
-5.2641 8.3124 -1.8494 0.9607
-6.5533 8.2359 -1.9783 0.9581
-6.9080 8.0701 -1.9967 0.9577
-7.2074 7.8330 -2.0007 0.9576
-7.4867 7.5727 -2.0016 0.9576
-7.7534 7.2995 -2.0016 0.9576
-8.4923 6.4248 -2.0016 0.9576
-8.9308 5.7998 -2.0016 0.9576
-9.1330 5.4759 -2.0016 0.9576
-9.3234 5.1450 -2.0016 0.9576
-9.5019 4.8074 -2.0016 0.9576
-9.8219 4.1142 -2.0016 0.9576
-10.0915 3.3998 -2.0016 0.9576
-10.5360 1.5457 -2.0016 0.9576
-10.6411 0.4055 -2.0016 0.9576
-10.6488 0.0238 -2.0016 0.9576
-10.6428 -0.3580 -2.0016 0.9576
-10.6231 -0.7393 -2.0016 0.9576
-10.4823 -1.8756 -2.0016 0.9576
-10.2750 -2.2214 -1.9759 0.9581
-9.5755 -2.4325 -1.8570 0.9606
-9.3766 -3.1124 -1.8570 0.9606
-9.1294 -3.7763 -1.8570 0.9606
-8.9882 -4.1011 -1.8570 0.9606
-8.8354 -4.4207 -1.8570 0.9606
-8.6712 -4.7346 -1.8570 0.9606
-8.4959 -5.0425 -1.8570 0.9606
-8.1128 -5.6383 -1.8570 0.9606
-8.5209 -6.3868 -2.0016 0.9576
-7.7859 -7.2648 -2.0016 0.9576
-7.5205 -7.5392 -2.0016 0.9576
-7.2453 -7.8040 -2.0016 0.9576
-6.6675 -8.3031 -2.0016 0.9576
-6.3656 -8.5368 -2.0016 0.9576
-6.0554 -8.7595 -2.0016 0.9576
-5.4122 -9.1709 -2.0016 0.9576
-5.0799 -9.3590 -2.0016 0.9576
-4.7411 -9.5351 -2.0016 0.9576
-4.3962 -9.6990 -2.0016 0.9576
-2.2242 -10.4139 -2.0016 0.9576
-1.8495 -10.4870 -2.0016 0.9576
-1.0933 -10.5925 -2.0016 0.9576
0.0503 -10.6487 -2.0016 0.9576
0.8132 -10.6177 -2.0016 0.9576
1.5720 -10.5321 -2.0016 0.9576
1.9485 -10.4690 -2.0016 0.9576
2.6937 -10.3025 -2.0016 0.9576
3.0613 -10.1993 -2.0016 0.9576
2.3314 -4.2002 -0.9029 0.9806
5.4986 -9.1193 -2.0016 0.9576
6.1380 -8.7019 -2.0016 0.9576
7.4034 5.9036 -2.0016 0.9620
7.1869 6.1652 -2.0016 0.9620
6.7267 6.6644 -2.0016 0.9620
6.4835 6.9012 -2.0016 0.9620
5.9723 7.3481 -2.0016 0.9620
5.4304 7.7571 -2.0016 0.9620
4.5662 8.2953 -2.0016 0.9620
4.2658 8.4537 -2.0016 0.9620
3.3124 8.8067 -1.9889 0.9623
2.1851 8.4805 -1.8512 0.9648
1.8779 8.5451 -1.8494 0.9649
1.2608 8.6577 -1.8494 0.9649
0.9496 8.6973 -1.8494 0.9649
0.6372 8.7258 -1.8494 0.9649
0.3239 8.7430 -1.8494 0.9649
-0.9291 8.6995 -1.8494 0.9649
-1.5501 8.6106 -1.8494 0.9649
-2.7650 8.3006 -1.8494 0.9649
-3.0836 8.2572 -1.8632 0.9646
-3.7736 8.2472 -1.9171 0.9636
-4.5076 8.2348 -1.9844 0.9623
-4.8279 8.1148 -1.9959 0.9621
-5.1230 7.9478 -1.9988 0.9621
-5.4122 7.7699 -2.0016 0.9620
-6.2151 7.1439 -2.0016 0.9620
-6.9462 6.4353 -2.0016 0.9620
-7.7947 5.3763 -2.0016 0.9620
-8.7628 3.5882 -2.0016 0.9620
-8.8858 3.2718 -2.0016 0.9620
-8.9974 2.9511 -2.0016 0.9620
-9.0974 2.6266 -2.0016 0.9620
-9.1857 2.2988 -2.0016 0.9620
-9.4200 0.9622 -2.0016 0.9620
-9.4485 0.6239 -2.0016 0.9620
-9.4406 -0.7331 -2.0016 0.9620
-9.3638 -1.4077 -2.0016 0.9620
-9.2389 -2.0751 -2.0016 0.9620
-8.5372 -2.2418 -1.8658 0.9646
-8.3153 -2.8343 -1.8570 0.9647
-7.6765 -4.2718 -1.8570 0.9647
-7.3507 -4.8109 -1.8570 0.9647
-6.7917 -5.5723 -1.8570 0.9647
-6.3868 -6.9908 -2.0016 0.9620
-6.1320 -7.2153 -2.0016 0.9620
-5.5993 -7.6361 -2.0016 0.9620
-5.0377 -8.0177 -2.0016 0.9620
-4.7470 -8.1932 -2.0016 0.9620
-4.4502 -8.3581 -2.0016 0.9620
-4.1477 -8.5123 -2.0016 0.9620
-2.8884 -9.0177 -2.0016 0.9620
-0.8966 -9.4265 -2.0016 0.9620
-0.5581 -9.4526 -2.0016 0.9620
0.4600 -9.4578 -2.0016 0.9620
1.4728 -9.3538 -2.0016 0.9620
1.8072 -9.2950 -2.0016 0.9620
2.4686 -9.1416 -2.0016 0.9620
4.6618 -8.2419 -2.0016 0.9620
4.9543 -8.0695 -2.0016 0.9620
5.2404 -7.8867 -2.0016 0.9620
5.5198 -7.6938 -2.0016 0.9620
5.7921 -7.4909 -2.0016 0.9620
6.0569 -7.2785 -2.0016 0.9620
7.8688 -5.2673 -2.0016 0.9620
8.0526 -4.9818 -2.0016 0.9620
8.3889 -4.3920 -2.0016 0.9620
8.9305 -3.1478 -2.0016 0.9620
9.0376 -2.8256 -2.0016 0.9620
9.1331 -2.4998 -2.0016 0.9620
9.2168 -2.1707 -2.0016 0.9620
9.2887 -1.8389 -2.0016 0.9620
9.3487 -1.5047 -2.0016 0.9620
9.4562 -0.4923 -2.0016 0.9620
9.4672 0.1866 -2.0016 0.9620
9.4295 0.8645 -2.0016 0.9620
9.3924 1.2020 -2.0016 0.9620
9.1242 2.5322 -2.0016 0.9620
8.6685 3.8104 -2.0016 0.9620
8.5263 4.1187 -2.0016 0.9620
8.0348 5.0104 -2.0016 0.9620
7.8500 5.2952 -2.0016 0.9620
7.4504 5.8441 -2.0016 0.9620
7.2362 6.1074 -2.0016 0.9620
6.7799 6.6102 -2.0016 0.9620
6.5386 6.8490 -2.0016 0.9620
6.2888 7.0790 -2.0016 0.9620
5.7654 7.5115 -2.0016 0.9620
5.2124 7.9053 -2.0016 0.9620
4.6325 8.2584 -2.0016 0.9620
4.3335 8.4192 -2.0016 0.9620
4.0289 8.5692 -2.0016 0.9620
3.3925 8.8048 -1.9945 0.9622
2.9995 8.7027 -1.9458 0.9631
2.2612 8.4933 -1.8579 0.9647
1.9463 8.5297 -1.8494 0.9649
1.6393 8.5940 -1.8494 0.9649
1.0193 8.6894 -1.8494 0.9649
0.0804 8.7486 -1.8494 0.9649
-0.2333 8.7459 -1.8494 0.9649
-0.5467 8.7319 -1.8494 0.9649
-0.8594 8.7067 -1.8494 0.9649
-1.4810 8.6227 -1.8494 0.9649
-2.0951 8.4944 -1.8494 0.9649
-2.3983 8.4139 -1.8494 0.9649
-2.6983 8.3225 -1.8494 0.9649
-3.3469 8.2536 -1.8826 0.9642
-3.6945 8.2485 -1.9105 0.9637
-4.4230 8.2363 -1.9761 0.9625
-4.7612 8.1508 -1.9953 0.9621
-5.3484 7.8112 -2.0011 0.9620
-5.8958 7.4096 -2.0016 0.9620
-6.4116 6.9681 -2.0016 0.9620
-6.6573 6.7338 -2.0016 0.9620
-7.3417 5.9801 -2.0016 0.9620
-7.5514 5.7130 -2.0016 0.9620
-8.1212 4.8692 -2.0016 0.9620
-8.5970 3.9691 -2.0016 0.9620
-8.7338 3.6584 -2.0016 0.9620
-8.8593 3.3429 -2.0016 0.9620
-8.9735 3.0232 -2.0016 0.9620
-9.0761 2.6995 -2.0016 0.9620
-9.3687 1.3744 -2.0016 0.9620
-9.4120 1.0377 -2.0016 0.9620
-9.4621 0.3606 -2.0016 0.9620
-9.4690 0.0211 -2.0016 0.9620
-9.4637 -0.3183 -2.0016 0.9620
-9.4462 -0.6574 -2.0016 0.9620
-9.4165 -0.9956 -2.0016 0.9620
-9.3210 -1.6678 -2.0016 0.9620
-9.2552 -2.0009 -2.0016 0.9620
-8.4316 -2.4669 -1.8570 0.9647
-8.1180 -3.3579 -1.8570 0.9647
-7.7105 -4.2101 -1.8570 0.9647
-7.5546 -4.4838 -1.8570 0.9647
-7.3890 -4.7518 -1.8570 0.9647
-7.2139 -5.0136 -1.8570 0.9647
-6.8361 -5.5176 -1.8570 0.9647
-7.1504 -6.2075 -2.0016 0.9620
-6.9233 -6.4599 -2.0016 0.9620
-6.6873 -6.7040 -2.0016 0.9620
-6.1897 -7.1659 -2.0016 0.9620
-5.9288 -7.3832 -2.0016 0.9620
-5.6603 -7.5910 -2.0016 0.9620
-5.3845 -7.7890 -2.0016 0.9620
-4.2159 -8.4787 -2.0016 0.9620
-3.9092 -8.6244 -2.0016 0.9620
-3.2812 -8.8824 -2.0016 0.9620
-2.6363 -9.0946 -2.0016 0.9620
-0.6338 -9.4478 -2.0016 0.9620
-0.2947 -9.4644 -2.0016 0.9620
0.3842 -9.4612 -2.0016 0.9620
1.3978 -9.3653 -2.0016 0.9620
1.7326 -9.3091 -2.0016 0.9620
2.3952 -9.1611 -2.0016 0.9620
2.7221 -9.0693 -2.0016 0.9620
3.0455 -8.9659 -2.0016 0.9620
3.9905 -8.5871 -2.0016 0.9620
2.1874 -4.2968 -1.0192 0.9805
2.3314 -4.2001 -1.0154 0.9806
5.1770 -7.9285 -2.0016 0.9620
5.4579 -7.7378 -2.0016 0.9620
6.8447 5.0676 -2.0016 0.9656
6.4639 5.5450 -2.0016 0.9656
6.2610 5.7732 -2.0016 0.9656
6.0500 5.9939 -2.0016 0.9656
5.6050 6.4120 -2.0016 0.9656
5.3715 6.6089 -2.0016 0.9656
5.1311 6.7972 -2.0016 0.9656
4.8841 6.9768 -2.0016 0.9656
4.6308 7.1474 -2.0016 0.9656
4.3716 7.3088 -2.0016 0.9656
3.8367 7.6033 -2.0016 0.9656
3.5616 7.7359 -2.0016 0.9656
3.2820 7.8586 -2.0016 0.9656
2.9982 7.9713 -2.0016 0.9656
2.4170 8.1579 -1.9997 0.9656
2.1204 8.2294 -1.9973 0.9657
1.5183 8.3216 -1.9881 0.9658
0.0097 8.2435 -1.9374 0.9667
-0.8802 8.2415 -1.9480 0.9665
-1.4830 8.2380 -1.9672 0.9662
-1.7896 8.2355 -1.9807 0.9660
-2.0978 8.2214 -1.9941 0.9657
-3.8188 7.6123 -2.0016 0.9656
-5.1151 6.8092 -2.0016 0.9656
-6.2474 5.7879 -2.0016 0.9656
-6.6461 5.3253 -2.0016 0.9656
-7.1794 4.5810 -2.0016 0.9656
-7.3391 4.3207 -2.0016 0.9656
-7.4892 4.0548 -2.0016 0.9656
-7.8813 3.2272 -2.0016 0.9656
-7.9919 2.9426 -2.0016 0.9656
-8.0923 2.6542 -2.0016 0.9656
-8.1822 2.3624 -2.0016 0.9656
-8.3305 1.7700 -2.0016 0.9656
-8.3886 1.4702 -2.0016 0.9656
-8.4724 0.8654 -2.0016 0.9656
-8.5126 0.2561 -2.0016 0.9656
-8.4618 -0.9634 -2.0016 0.9656
-8.3710 -1.5672 -2.0016 0.9656
-8.3094 -1.8663 -2.0016 0.9656
-8.2372 -2.1630 -2.0016 0.9656
-7.4787 -2.5492 -1.8570 0.9681
-7.3826 -2.8157 -1.8570 0.9681
-7.1618 -3.3374 -1.8570 0.9681
-7.0376 -3.5920 -1.8570 0.9681
-6.9043 -3.8420 -1.8570 0.9681
-6.7621 -4.0871 -1.8570 0.9681
-6.4518 -4.5611 -1.8570 0.9681
-6.1084 -5.0117 -1.8570 0.9681
-5.9248 -5.2275 -1.8570 0.9681
-5.7443 -6.2875 -2.0016 0.9656
-5.5152 -6.4894 -2.0016 0.9656
-5.2790 -6.6830 -2.0016 0.9656
-4.7865 -7.0441 -2.0016 0.9656
-4.5309 -7.2111 -2.0016 0.9656
-4.0026 -7.5173 -2.0016 0.9656
-3.7305 -7.6559 -2.0016 0.9656
-2.5978 -8.1106 -2.0016 0.9656
-2.3054 -8.1985 -2.0016 0.9656
-1.7120 -8.3426 -2.0016 0.9656
-1.4118 -8.3986 -2.0016 0.9656
-0.8064 -8.4782 -2.0016 0.9656
-0.5019 -8.5016 -2.0016 0.9656
0.1085 -8.5158 -2.0016 0.9656
1.0222 -8.4549 -2.0016 0.9656
1.3247 -8.4128 -2.0016 0.9656
2.8037 -8.0417 -2.0016 0.9656
3.0902 -7.9360 -2.0016 0.9656
2.3591 -4.1708 -1.1262 0.9805
4.4559 -7.2577 -2.0016 0.9656
4.9645 -6.9198 -2.0016 0.9656
5.2094 -6.7374 -2.0016 0.9656
5.4476 -6.5463 -2.0016 0.9656
5.6788 -6.3468 -2.0016 0.9656
6.1189 -5.9235 -2.0016 0.9656
6.3274 -5.7004 -2.0016 0.9656
6.7196 -5.2323 -2.0016 0.9656
7.0772 -4.7374 -2.0016 0.9656
7.2425 -4.4806 -2.0016 0.9656
7.3985 -4.2181 -2.0016 0.9656
7.6817 -3.6771 -2.0016 0.9656
8.2143 -2.2483 -2.0016 0.9656
8.3543 -1.6539 -2.0016 0.9656
8.4082 -1.3533 -2.0016 0.9656
8.4513 -1.0510 -2.0016 0.9656
8.5049 -0.4427 -2.0016 0.9656
8.5153 -0.1376 -2.0016 0.9656
8.5148 0.1678 -2.0016 0.9656
8.4809 0.7775 -2.0016 0.9656
8.4476 1.0811 -2.0016 0.9656
8.4034 1.3832 -2.0016 0.9656
8.3484 1.6836 -2.0016 0.9656
8.2063 2.2774 -2.0016 0.9656
8.1194 2.5702 -2.0016 0.9656
8.0220 2.8596 -2.0016 0.9656
7.9143 3.1454 -2.0016 0.9656
7.7965 3.4271 -2.0016 0.9656
7.5309 3.9769 -2.0016 0.9656
7.3835 4.2444 -2.0016 0.9656
7.2265 4.5063 -2.0016 0.9656
7.0603 4.7625 -2.0016 0.9656
6.8851 5.0125 -2.0016 0.9656
6.7009 5.2562 -2.0016 0.9656
6.3071 5.7228 -2.0016 0.9656
5.6562 6.3669 -2.0016 0.9656
5.4243 6.5656 -2.0016 0.9656
4.9399 6.9374 -2.0016 0.9656
4.6880 7.1100 -2.0016 0.9656
3.8975 7.5723 -2.0016 0.9656
3.3449 7.8321 -2.0016 0.9656
3.0620 7.9470 -2.0016 0.9656
1.8889 8.2782 -1.9956 0.9657
0.9696 8.2662 -1.9561 0.9664
0.6692 8.2532 -1.9461 0.9665
0.3716 8.2432 -1.9393 0.9667
-0.2199 8.2434 -1.9381 0.9667
-0.8135 8.2418 -1.9464 0.9665
-1.4150 8.2384 -1.9646 0.9662
-1.7207 8.2361 -1.9775 0.9660
-2.3270 8.1638 -1.9951 0.9657
-2.6200 8.0809 -1.9965 0.9657
-3.4813 7.7724 -2.0016 0.9656
-3.7577 7.6426 -2.0016 0.9656
-4.0292 7.5030 -2.0016 0.9656
-4.5565 7.1950 -2.0016 0.9656
-4.8115 7.0270 -2.0016 0.9656
-5.0604 6.8500 -2.0016 0.9656
-5.3027 6.6642 -2.0016 0.9656
-5.7666 6.2671 -2.0016 0.9656
-6.2008 5.8378 -2.0016 0.9656
-6.4061 5.6117 -2.0016 0.9656
-6.6032 5.3785 -2.0016 0.9656
-7.3042 4.3794 -2.0016 0.9656
-7.4565 4.1147 -2.0016 0.9656
-7.5992 3.8447 -2.0016 0.9656
-7.7321 3.5698 -2.0016 0.9656
-7.8552 3.2903 -2.0016 0.9656
-8.2448 2.1337 -2.0016 0.9656
-8.3765 1.5375 -2.0016 0.9656
-8.5103 0.3243 -2.0016 0.9656
-8.5164 0.0190 -2.0016 0.9656
-8.4959 -0.5913 -2.0016 0.9656
-8.4692 -0.8955 -2.0016 0.9656
-8.3241 -1.7996 -2.0016 0.9656
-7.6565 -2.2401 -1.8749 0.9678
-7.3013 -3.0201 -1.8570 0.9681
-7.1883 -3.2799 -1.8570 0.9681
-6.9348 -3.7865 -1.8570 0.9681
-6.7946 -4.0327 -1.8570 0.9681
-6.6457 -4.2737 -1.8570 0.9681
-6.4882 -4.5092 -1.8570 0.9681
-6.3224 -4.7389 -1.8570 0.9681
-6.1484 -4.9626 -1.8570 0.9681
-5.5801 -5.5940 -1.8570 0.9681
-5.3324 -6.6404 -2.0016 0.9656
-4.8429 -7.0055 -2.0016 0.9656
-4.5886 -7.1746 -2.0016 0.9656
-4.0627 -7.4849 -2.0016 0.9656
-3.7918 -7.6258 -2.0016 0.9656
-3.5159 -7.7568 -2.0016 0.9656
-3.2356 -7.8779 -2.0016 0.9656
-2.9511 -7.9888 -2.0016 0.9656
-2.0763 -8.2595 -2.0016 0.9656
-1.7789 -8.3286 -2.0016 0.9656
-1.4791 -8.3870 -2.0016 0.9656
-1.1775 -8.4346 -2.0016 0.9656
0.6504 -8.4916 -2.0016 0.9656
0.9544 -8.4628 -2.0016 0.9656
1.8575 -8.3114 -2.0016 0.9656
3.3099 -7.8469 -2.0016 0.9656
2.3046 -4.1518 -1.1160 0.9807
4.6562 -7.1309 -2.0016 0.9656
5.6832 5.2404 -2.0016 0.9686
5.0877 5.8203 -2.0016 0.9686
4.8758 5.9990 -2.0016 0.9686
4.2035 6.4878 -2.0016 0.9686
3.7278 6.7723 -2.0016 0.9686
3.4826 6.9016 -2.0016 0.9686
2.1960 7.4120 -2.0016 0.9686
1.9289 7.4860 -2.0016 0.9686
1.6593 7.5503 -2.0016 0.9686
1.1140 7.6498 -2.0016 0.9686
0.8390 7.6848 -2.0016 0.9686
0.5630 7.7100 -2.0016 0.9686
0.2862 7.7252 -2.0016 0.9686
0.0091 7.7305 -2.0016 0.9686
-0.2681 7.7258 -2.0016 0.9686
-0.5449 7.7113 -2.0016 0.9686
-1.0960 7.6524 -2.0016 0.9686
-1.6415 7.5542 -2.0016 0.9686
-1.9113 7.4905 -2.0016 0.9686
-2.1786 7.4171 -2.0016 0.9686
-2.4431 7.3343 -2.0016 0.9686
-3.2164 7.0296 -2.0016 0.9686
-3.7119 6.7810 -2.0016 0.9686
-4.1882 6.4976 -2.0016 0.9686
-4.4185 6.3433 -2.0016 0.9686
-4.6430 6.1808 -2.0016 0.9686
-5.2798 5.6466 -2.0016 0.9686
-6.2022 4.6145 -2.0016 0.9686
-6.3636 4.3892 -2.0016 0.9686
-6.5169 4.1582 -2.0016 0.9686
-6.7981 3.6806 -2.0016 0.9686
-6.9257 3.4345 -2.0016 0.9686
-7.1539 2.9294 -2.0016 0.9686
-7.2544 2.6711 -2.0016 0.9686
-7.3455 2.4093 -2.0016 0.9686
-7.4271 2.1444 -2.0016 0.9686
-7.7137 0.5093 -2.0016 0.9686
-7.7073 -0.5985 -2.0016 0.9686
-7.6446 -1.1493 -2.0016 0.9686
-7.5426 -1.6941 -2.0016 0.9686
-7.4770 -1.9634 -2.0016 0.9686
-6.3881 -3.2605 -1.8570 0.9708
-6.2671 -3.4875 -1.8570 0.9708
-6.1380 -3.7099 -1.8570 0.9708
-6.0011 -3.9276 -1.8570 0.9708
-5.7042 -4.3475 -1.8570 0.9708
-5.5447 -4.5492 -1.8570 0.9708
-5.3781 -4.7450 -1.8570 0.9708
-4.4457 -5.6281 -1.8570 0.9708
-4.5712 -6.2341 -2.0016 0.9686
-4.3448 -6.3940 -2.0016 0.9686
-3.3862 -6.9494 -2.0016 0.9686
-3.1349 -7.0663 -2.0016 0.9686
-2.6205 -7.2728 -2.0016 0.9686
-2.3581 -7.3621 -2.0016 0.9686
-1.8245 -7.5121 -2.0016 0.9686
-1.5540 -7.5727 -2.0016 0.9686
-1.2815 -7.6235 -2.0016 0.9686
-1.0074 -7.6646 -2.0016 0.9686
-0.7320 -7.6958 -2.0016 0.9686
-0.4556 -7.7170 -2.0016 0.9686
0.3756 -7.7214 -2.0016 0.9686
0.6522 -7.7029 -2.0016 0.9686
1.2024 -7.6364 -2.0016 0.9686
1.4754 -7.5884 -2.0016 0.9686
2.2816 -7.3861 -2.0016 0.9686
2.5450 -7.2996 -2.0016 0.9686
2.3248 -4.1101 -1.2226 0.9807
4.5064 -6.2812 -2.0016 0.9686
4.9448 -5.9421 -2.0016 0.9686
5.1547 -5.7610 -2.0016 0.9686
5.3579 -5.5725 -2.0016 0.9686
5.7434 -5.1743 -2.0016 0.9686
5.9252 -4.9651 -2.0016 0.9686
6.0994 -4.7494 -2.0016 0.9686
6.2658 -4.5277 -2.0016 0.9686
6.5741 -4.0671 -2.0016 0.9686
6.9728 -3.3378 -2.0016 0.9686
7.0880 -3.0856 -2.0016 0.9686
7.2908 -2.5698 -2.0016 0.9686
7.4562 -2.0408 -2.0016 0.9686
7.5246 -1.7722 -2.0016 0.9686
7.5833 -1.5013 -2.0016 0.9686
7.6714 -0.9540 -2.0016 0.9686
7.7007 -0.6784 -2.0016 0.9686
7.7200 -0.4019 -2.0016 0.9686
7.7295 -0.1249 -2.0016 0.9686
7.7290 0.1523 -2.0016 0.9686
7.6982 0.7057 -2.0016 0.9686
7.6680 0.9813 -2.0016 0.9686
7.5779 1.5282 -2.0016 0.9686
7.5183 1.7989 -2.0016 0.9686
7.4489 2.0673 -2.0016 0.9686
7.3700 2.3330 -2.0016 0.9686
7.2817 2.5957 -2.0016 0.9686
7.0770 3.1108 -2.0016 0.9686
6.9609 3.3625 -2.0016 0.9686
6.5596 4.0904 -2.0016 0.9686
6.4088 4.3230 -2.0016 0.9686
6.0825 4.7711 -2.0016 0.9686
5.7250 5.1947 -2.0016 0.9686
5.5351 5.3966 -2.0016 0.9686
5.3381 5.5915 -2.0016 0.9686
5.1342 5.7793 -2.0016 0.9686
4.9237 5.9597 -2.0016 0.9686
4.4840 6.2971 -2.0016 0.9686
4.2554 6.4538 -2.0016 0.9686
4.0213 6.6023 -2.0016 0.9686
3.7820 6.7422 -2.0016 0.9686
2.7794 7.2135 -2.0016 0.9686
2.5190 7.3086 -2.0016 0.9686
1.9889 7.4703 -2.0016 0.9686
1.4485 7.5936 -2.0016 0.9686
1.1753 7.6406 -2.0016 0.9686
0.9006 7.6778 -2.0016 0.9686
-0.2061 7.7277 -2.0016 0.9686
-0.4830 7.7154 -2.0016 0.9686
-0.7593 7.6931 -2.0016 0.9686
-1.3086 7.6189 -2.0016 0.9686
-1.5809 7.5671 -2.0016 0.9686
-2.1191 7.4344 -2.0016 0.9686
-2.3842 7.3536 -2.0016 0.9686
-2.9050 7.1639 -2.0016 0.9686
-3.8992 6.6751 -2.0016 0.9686
-4.3675 6.3785 -2.0016 0.9686
-5.2344 5.6887 -2.0016 0.9686
-5.4350 5.4974 -2.0016 0.9686
-5.6285 5.2990 -2.0016 0.9686
-5.9938 4.8821 -2.0016 0.9686
-6.3282 4.4401 -2.0016 0.9686
-6.6301 3.9752 -2.0016 0.9686
-6.8979 3.4899 -2.0016 0.9686
-7.0186 3.2404 -2.0016 0.9686
-7.1302 2.9867 -2.0016 0.9686
-7.2327 2.7291 -2.0016 0.9686
-7.4097 2.2039 -2.0016 0.9686
-7.4839 1.9368 -2.0016 0.9686
-7.5485 1.6673 -2.0016 0.9686
-7.6486 1.1221 -2.0016 0.9686
-7.6839 0.8472 -2.0016 0.9686
-7.7249 0.2944 -2.0016 0.9686
-7.7305 0.0173 -2.0016 0.9686
-7.6876 -0.8128 -2.0016 0.9686
-7.6096 -1.3616 -2.0016 0.9686
-7.5559 -1.6335 -2.0016 0.9686
-7.4925 -1.9034 -2.0016 0.9686
-7.4194 -2.1708 -2.0016 0.9686
-6.8069 -2.2594 -1.8570 0.9708
-6.6275 -2.7414 -1.8570 0.9708
-6.2949 -3.4371 -1.8570 0.9708
-6.1676 -3.6606 -1.8570 0.9708
-5.5810 -4.5046 -1.8570 0.9708
