ply
format ascii 1.0
element vertex 1535
property float32 x
property float32 y
property float32 z
property float32 I
end_header
-9.4154 13.9902 2.5834 0.9340
-11.7940 13.9968 2.8040 0.9286
-13.5947 13.9617 2.9853 0.9242
-15.7467 14.0025 3.2281 0.9183
-27.9268 -22.3472 5.4794 0.8652
-25.9633 -22.3526 5.2484 0.8705
-24.3455 -22.5327 5.0819 0.8744
-20.7869 -22.2164 4.6609 0.8842
-19.4137 -22.3040 4.5299 0.8872
-17.8709 -22.0865 4.3524 0.8914
-16.8130 -22.3780 4.2880 0.8929
-15.3640 -22.0574 4.1180 0.8969
-14.0414 -21.7882 3.9709 0.9004
-13.0572 -21.9556 3.9133 0.9018
-12.3449 -22.5661 3.9405 0.9011
-11.2245 -22.3936 3.8374 0.9036
-10.2361 -22.3963 3.7724 0.9052
-9.3022 -22.4539 3.7233 0.9063
-8.3507 -22.4016 3.6625 0.9078
-7.4446 -22.3991 3.6160 0.9089
-5.6967 -22.4039 3.5414 0.9107
-4.8757 -22.5377 3.5325 0.9109
-4.0423 -22.5841 3.5147 0.9113
-3.1781 -22.3631 3.4603 0.9126
-2.3731 -22.4681 3.4611 0.9126
0.8712 -22.5977 3.4644 0.9125
2.1917 -4.3165 0.7416 0.9806
32.5417 -29.8067 6.7604 0.8365
32.9111 -28.0382 6.6234 0.8395
34.9618 -25.6918 6.6466 0.8390
36.6797 -24.9754 6.7981 0.8356
29.4423 -3.8660 4.5491 0.8868
30.7055 -1.8039 4.7120 0.8830
30.3353 -0.6899 4.6484 0.8845
37.6418 13.1744 6.1095 0.8510
35.0329 13.6934 5.7623 0.8588
30.1458 14.3579 5.1152 0.8736
27.0311 18.0307 4.9777 0.8768
25.7725 18.5631 4.8657 0.8794
28.5851 23.8860 5.7067 0.8601
24.9604 25.9018 5.5106 0.8645
2.3170 14.7418 2.2861 0.9414
1.7858 14.8155 2.2861 0.9414
0.1810 14.9217 2.2861 0.9414
-0.3553 14.9185 2.2861 0.9414
-2.4890 14.7137 2.2861 0.9414
-4.5713 14.2053 2.2861 0.9414
-5.6225 13.9465 2.3036 0.9410
-6.8256 13.9480 2.3789 0.9391
-7.4593 13.9497 2.4234 0.9380
-8.2820 13.1245 2.3774 0.9391
-10.2798 13.9576 2.6556 0.9323
-11.1045 13.9949 2.7369 0.9303
-11.9506 13.9972 2.8195 0.9282
-12.8507 13.9997 2.9112 0.9260
-13.7729 13.9622 3.0045 0.9237
-14.8399 14.0000 3.1254 0.9208
-15.9149 13.9681 3.2439 0.9179
-17.1226 13.9715 3.3855 0.9145
-21.1743 16.0455 4.0699 0.8981
-30.2695 -4.3348 4.6844 0.8836
-27.5595 -22.3482 5.4356 0.8662
-21.9848 -22.1517 4.7811 0.8814
-19.2185 -22.3714 4.5181 0.8875
-17.8650 -22.3746 4.3862 0.8906
-16.3472 -22.0547 4.2056 0.8949
-15.1527 -22.0580 4.0997 0.8974
-11.0435 -22.3941 3.8251 0.9039
-10.0611 -22.3968 3.7614 0.9054
-9.1321 -22.4543 3.7135 0.9066
-3.8610 -22.4090 3.4835 0.9121
-3.0367 -22.4113 3.4647 0.9125
-2.2257 -22.4685 3.4589 0.9127
0.2053 -22.5959 3.4617 0.9126
1.0162 -22.5540 3.4587 0.9127
1.8196 -22.4248 3.4466 0.9130
2.1912 -4.2471 0.7321 0.9808
32.8761 -34.3247 7.2812 0.8250
32.1349 -31.2231 6.8640 0.8342
32.7345 -29.5949 6.7604 0.8365
35.4436 -25.6932 6.7063 0.8377
37.1985 -24.9769 6.8640 0.8342
41.5005 -25.7514 7.4821 0.8207
33.1919 -7.8381 5.2247 0.8711
31.6651 -5.1105 4.9137 0.8783
29.4065 -3.6673 4.5398 0.8870
30.7828 -2.7199 4.7341 0.8825
30.9109 -0.5023 4.7360 0.8824
35.2608 0.6945 5.4028 0.8670
46.9994 13.0723 7.4734 0.8209
-8.1155 13.0476 2.0009 0.9399
-10.2202 13.0535 2.1589 0.9353
-11.0010 13.0556 2.2232 0.9335
-11.8309 13.0579 2.2945 0.9314
-14.6477 13.9995 2.6385 0.9215
-15.7468 14.0025 2.7440 0.9185
-21.2531 14.0178 3.3154 0.9024
-27.7592 -22.2130 4.6297 0.8664
-24.1563 -22.3576 4.2862 0.8757
-22.4838 -22.3623 4.1294 0.8799
-19.6242 -22.5458 3.8923 0.8864
-16.8130 -22.3780 3.6449 0.8932
-15.6811 -22.5127 3.5727 0.8952
-13.1731 -22.1505 3.3560 0.9013
-12.3449 -22.5661 3.3495 0.9014
-10.2361 -22.3963 3.2066 0.9054
-8.3507 -22.4016 3.1132 0.9081
-6.5776 -22.4565 3.0472 0.9099
-0.7478 -22.4177 2.9209 0.9135
0.0582 -22.4199 2.9196 0.9135
0.8712 -22.5977 2.9449 0.9128
1.6732 -22.4244 2.9282 0.9133
2.1917 -4.3164 0.6304 0.9807
2.3233 -4.1951 0.6244 0.9808
32.9502 -34.8521 6.2457 0.8241
32.5337 -32.0238 5.9446 0.8318
32.9658 -28.0848 5.6395 0.8397
32.5479 -25.7691 5.4060 0.8458
37.8921 -25.8010 5.9696 0.8312
40.9978 -25.8096 6.3086 0.8225
30.7597 -6.3136 4.0891 0.8810
31.3147 -4.1119 4.1128 0.8804
32.0742 -0.7295 4.1778 0.8786
33.0312 8.9566 4.4567 0.8711
42.0311 13.0354 5.7305 0.8374
37.6418 13.1744 5.1933 0.8514
29.9191 14.2499 4.3154 0.8749
26.9626 17.9851 4.2205 0.8774
27.6592 24.8536 4.8423 0.8607
26.6258 27.6300 4.9967 0.8566
2.7257 17.3425 2.2861 0.9316
2.1008 17.4293 2.2861 0.9316
0.7631 15.8622 2.0680 0.9380
-0.3700 15.5390 2.0241 0.9392
-3.2186 15.5961 2.0737 0.9378
-4.4080 15.5994 2.1109 0.9367
-5.0205 15.6011 2.1342 0.9360
-5.7478 15.8802 2.1992 0.9341
-6.0469 14.9991 2.1060 0.9368
-6.2140 13.9463 1.9882 0.9403
-6.8256 13.9480 2.0221 0.9393
-7.5912 13.0462 1.9656 0.9409
-8.2337 13.0479 2.0091 0.9397
-8.9062 13.0498 2.0574 0.9383
-11.1471 13.0560 2.2355 0.9331
-11.9947 13.0672 2.3098 0.9310
-13.7728 13.9622 2.5539 0.9239
-14.8399 14.0000 2.6567 0.9210
-15.9149 13.9681 2.7574 0.9181
-17.1226 13.9715 2.8778 0.9147
-18.4422 13.9751 3.0132 0.9109
-35.2107 17.8308 5.1396 0.8528
-22.1946 -22.3631 4.1029 0.8807
-17.4575 -21.8643 3.6434 0.8933
-15.4957 -22.5573 3.5637 0.8955
-13.1186 -22.3883 3.3791 0.9006
-11.0435 -22.3941 3.2515 0.9042
-4.7321 -22.5822 3.0045 0.9111
-3.8610 -22.4090 2.9611 0.9124
-2.2257 -22.4685 2.9402 0.9129
0.2053 -22.5959 2.9426 0.9129
1.8196 -22.4248 2.9298 0.9132
2.1912 -4.2471 0.6223 0.9809
32.9048 -36.9238 6.4405 0.8191
32.5316 -31.6086 5.9066 0.8328
41.5970 -25.8113 6.3749 0.8208
36.4684 -8.6118 4.8796 0.8597
25.9887 -4.1944 3.4281 0.8993
29.5710 -2.6128 3.8658 0.8871
-7.4781 13.0458 1.6147 0.9413
-8.1155 13.0476 1.6500 0.9401
-9.4823 13.0514 1.7323 0.9372
-10.2202 13.0535 1.7802 0.9355
-11.8309 13.0579 1.8921 0.9316
-15.3905 14.7094 2.2861 0.9179
-16.8839 13.9603 2.3525 0.9156
-18.1948 13.9745 2.4636 0.9118
-34.6930 17.8525 4.1897 0.8547
-27.9268 -22.3472 3.8408 0.8660
-24.2549 -22.4489 3.5489 0.8755
-20.9274 -22.3666 3.2891 0.8841
-17.6906 -21.8636 3.0200 0.8930
-15.6811 -22.5127 2.9461 0.8955
-12.9454 -21.7675 2.7196 0.9031
-11.2246 -22.3936 2.6898 0.9041
-10.2361 -22.3963 2.6442 0.9057
-9.3521 -22.5744 2.6239 0.9064
-7.4446 -22.3991 2.5346 0.9094
-4.8757 -22.5377 2.4761 0.9114
-4.0344 -22.5400 2.4588 0.9120
-2.3811 -22.5446 2.4343 0.9128
0.8712 -22.5977 2.4284 0.9130
2.1916 -4.3163 0.5198 0.9807
32.4161 -36.8544 5.2705 0.8208
32.9488 -34.8507 5.1501 0.8245
32.6285 -25.8329 4.4689 0.8458
37.8905 -25.7999 4.9224 0.8316
32.9900 -8.0167 3.6456 0.8723
31.5482 -6.4754 3.4583 0.8785
31.2743 -5.2559 3.4054 0.8802
32.7993 -3.1128 3.5379 0.8759
33.0224 8.9542 3.6741 0.8714
37.6418 13.1744 4.2825 0.8518
35.0329 13.6934 4.0391 0.8596
27.3883 15.5500 3.3820 0.8810
27.5426 16.9744 3.4741 0.8780
25.9776 17.3280 3.3532 0.8819
27.9591 20.1381 3.7000 0.8706
27.6242 23.0831 3.8656 0.8652
26.7426 25.8259 3.9922 0.8611
31.8433 35.5143 5.1221 0.8254
0.1771 14.6002 1.5679 0.9430
-1.4077 14.6659 1.5821 0.9425
-2.4887 14.7121 1.6023 0.9417
-3.0383 14.7223 1.6142 0.9413
-3.6198 14.8265 1.6389 0.9404
-4.2004 14.8645 1.6587 0.9398
-5.3729 14.8446 1.6952 0.9385
-6.0469 14.9992 1.7366 0.9370
-6.8256 13.9480 1.6675 0.9394
-8.9062 13.0498 1.6966 0.9384
-9.6127 13.0518 1.7406 0.9369
-10.3578 13.0538 1.7894 0.9352
-11.1471 13.0560 1.8435 0.9333
-15.4856 14.6092 2.2861 0.9179
-16.0006 14.0433 2.2861 0.9179
-17.1096 13.9609 2.3713 0.9150
-18.4422 13.9751 2.4847 0.9111
-23.3611 14.0237 2.9258 0.8962
-35.1774 17.8139 4.2341 0.8533
-19.3690 -22.5465 3.1918 0.8873
-17.4575 -21.8643 3.0044 0.8935
-16.5873 -22.3787 2.9912 0.8940
-15.4957 -22.5573 2.9387 0.8957
-13.8273 -21.7651 2.7689 0.9015
-12.1555 -22.5666 2.7524 0.9020
-11.0435 -22.3941 2.6812 0.9044
-10.0611 -22.3968 2.6365 0.9059
-9.1811 -22.5748 2.6169 0.9066
-8.1856 -22.4020 2.5611 0.9085
-6.4040 -22.4020 2.5019 0.9105
-5.5422 -22.4044 2.4783 0.9113
-4.7229 -22.5381 2.4727 0.9115
-0.6022 -22.4181 2.4082 0.9137
0.2053 -22.5959 2.4265 0.9131
1.8196 -22.4248 2.4159 0.9135
2.1912 -4.2470 0.5132 0.9810
27.7271 -38.8317 5.1237 0.8253
32.5852 -31.6607 4.8787 0.8330
32.8996 -29.7442 4.7626 0.8366
32.9884 -27.7365 4.6281 0.8408
38.1051 -25.5856 4.9286 0.8314
41.5960 -25.8107 5.2567 0.8212
32.7588 -7.7358 3.6144 0.8734
31.4624 -6.2453 3.4444 0.8789
32.8760 0.6475 3.5310 0.8761
46.9994 13.0723 5.2385 0.8218
36.8783 13.1766 4.2052 0.8542
-8.8748 15.4825 1.5107 0.9309
-9.4254 15.1536 1.5107 0.9309
-9.9638 14.8051 1.5107 0.9309
-10.4894 14.4375 1.5107 0.9309
-11.4992 13.6469 1.5107 0.9309
-11.9822 13.2249 1.5107 0.9309
-16.1308 15.4170 1.8889 0.9143
-17.5411 15.5982 1.9871 0.9101
-21.9946 15.6694 2.2861 0.8973
-30.2508 -4.1320 2.5846 0.8846
-27.9268 -22.3472 3.0278 0.8663
-22.4838 -22.3623 2.6844 0.8805
-20.9274 -22.3666 2.5929 0.8843
-19.6242 -22.5458 2.5303 0.8869
-16.8130 -22.3780 2.3695 0.8937
-15.5534 -22.3293 2.3036 0.8965
-13.1278 -22.0743 2.1741 0.9020
-11.2246 -22.3936 2.1205 0.9043
-10.2361 -22.3963 2.0845 0.9059
-7.4446 -22.3990 1.9981 0.9096
-6.5615 -22.4015 1.9760 0.9106
-4.8473 -22.4063 1.9406 0.9121
-4.0108 -22.4086 1.9271 0.9127
-3.1781 -22.3631 1.9121 0.9133
-1.5556 -22.4154 1.9021 0.9137
-0.7478 -22.4177 1.8988 0.9139
1.6732 -22.4244 1.9036 0.9137
2.1916 -4.3162 0.4098 0.9808
32.6005 -37.0640 4.1786 0.8202
33.4872 -35.4201 4.1263 0.8223
32.6143 -32.1032 3.8740 0.8322
33.1096 -30.3268 3.8009 0.8351
32.6148 -4.2826 2.7846 0.8763
32.9923 8.9461 2.8937 0.8718
42.0048 13.0273 3.7229 0.8382
35.0329 13.6934 3.1841 0.8599
35.0189 15.1601 3.2303 0.8580
28.0985 14.6439 2.6823 0.8806
27.3138 16.8334 2.7160 0.8792
26.9144 17.9529 2.7387 0.8782
30.5590 23.7238 3.2749 0.8562
2.7514 22.8265 1.9463 0.9118
1.9225 22.8289 1.9394 0.9121
0.7631 15.8622 1.3443 0.9382
-0.3232 13.5701 1.1491 0.9470
-0.8119 13.5715 1.1509 0.9469
-1.1711 8.8453 0.7553 0.9648
-2.3073 13.6395 1.1710 0.9460
-3.3463 13.7063 1.1944 0.9449
-3.8769 13.7198 1.2069 0.9444
-4.4298 13.7656 1.2242 0.9436
-6.0469 14.9992 1.3690 0.9371
-6.2140 13.9463 1.2925 0.9405
-6.8256 13.9480 1.3145 0.9396
-7.4593 13.9498 1.3391 0.9385
-10.0597 14.7401 1.5107 0.9309
-10.5829 14.3691 1.5107 0.9309
-11.0924 13.9796 1.5107 0.9309
-12.9239 13.1016 1.5579 0.9288
-16.3747 15.4480 1.9057 0.9136
-17.8124 15.6335 2.0063 0.9092
-22.0959 15.5263 2.2861 0.8973
-35.2890 17.8705 3.3485 0.8532
-25.6261 -22.3535 2.8787 0.8724
-23.8449 -22.3585 2.7671 0.8770
-22.3408 -22.5104 2.6847 0.8805
-20.6575 -22.3674 2.5774 0.8849
-14.9810 -21.8080 2.2397 0.8992
-13.1186 -22.3883 2.1966 0.9011
-12.1555 -22.5666 2.1698 0.9022
-11.0435 -22.3941 2.1137 0.9046
-10.0611 -22.3968 2.0785 0.9061
-6.4040 -22.4020 1.9724 0.9107
-5.5422 -22.4044 1.9538 0.9115
-3.8610 -22.4090 1.9249 0.9128
-3.0367 -22.4113 1.9145 0.9132
-2.2203 -22.4136 1.9067 0.9136
-1.4095 -22.4159 1.9013 0.9138
-0.6022 -22.4181 1.8984 0.9139
0.2037 -22.4203 1.8980 0.9139
2.1912 -4.2470 0.4046 0.9810
32.6122 -31.6869 3.8493 0.8332
33.2582 -30.0683 3.7954 0.8353
32.6295 -25.4909 3.5052 0.8469
34.4646 -4.2981 2.9401 0.8699
43.8372 -3.8734 3.7254 0.8381
41.5216 13.1734 3.6876 0.8396
36.8281 13.1586 3.3106 0.8547
-11.9365 17.7362 1.3257 0.9179
-12.7795 17.5896 1.3483 0.9166
-13.2083 16.8700 1.3286 0.9177
-13.2116 15.6791 1.2714 0.9211
-13.2147 14.5852 1.2204 0.9242
-13.5946 13.9617 1.2084 0.9249
-15.9526 14.1856 1.3238 0.9180
-17.4056 14.3916 1.4005 0.9135
-19.0494 14.6308 1.4895 0.9082
-30.2456 -4.1312 1.8930 0.8848
-27.9268 -22.3472 2.2179 0.8665
-25.9633 -22.3526 2.1245 0.8717
-22.4838 -22.3623 1.9664 0.8807
-19.4717 -22.3706 1.8391 0.8879
-15.3106 -18.9223 1.5094 0.9071
-12.2490 -22.3907 1.5826 0.9028
-11.2246 -22.3936 1.5533 0.9045
-9.2795 -22.3990 1.5034 0.9074
-7.4446 -22.3990 1.4637 0.9097
-6.5615 -22.4015 1.4475 0.9107
-5.6967 -22.4039 1.4335 0.9115
-3.1737 -22.3317 1.3987 0.9136
-1.5556 -22.4154 1.3933 0.9139
0.8645 -22.4222 1.3914 0.9140
1.6732 -22.4244 1.3944 0.9138
2.1915 -4.3162 0.3002 0.9808
32.6005 -37.0640 3.0609 0.8205
32.6143 -32.1032 2.8379 0.8324
34.8818 -25.6330 2.6843 0.8407
45.3484 8.8582 2.8652 0.8310
32.9890 8.9452 2.1195 0.8720
41.7527 12.9491 2.7108 0.8393
34.6620 13.5484 2.3078 0.8614
34.6165 14.9859 2.3391 0.8597
29.0148 15.1214 2.0289 0.8771
35.0549 21.6042 2.5534 0.8479
34.8663 25.1131 2.6645 0.8418
1.9225 22.8289 1.4206 0.9123
0.1646 13.5687 0.8415 0.9471
-1.3028 13.5728 0.8455 0.9468
-1.1709 8.8439 0.5532 0.9649
-2.8019 13.5770 0.8597 0.9460
-6.0469 14.9992 1.0028 0.9372
-6.2140 13.9463 0.9468 0.9406
-7.4593 13.9498 0.9809 0.9386
-10.2215 17.5665 1.2603 0.9218
-11.1908 17.7342 1.3003 0.9194
-12.1048 17.7367 1.3316 0.9175
-12.9166 17.5378 1.3507 0.9164
-13.2089 16.6470 1.3178 0.9184
-12.9262 14.0821 1.1854 0.9263
-16.8422 15.8890 1.4358 0.9114
-16.1959 14.2147 1.3363 0.9173
-17.6991 14.4419 1.4165 0.9125
-21.0256 14.7742 1.5935 0.9021
-25.6261 -22.3535 2.1087 0.8726
-23.8449 -22.3585 2.0270 0.8772
-15.1089 -18.9228 1.5016 0.9075
-15.0733 -21.9424 1.6508 0.8988
-11.0435 -22.3941 1.5483 0.9048
-10.0611 -22.3968 1.5225 0.9063
-7.2836 -22.3995 1.4606 0.9099
-6.4040 -22.4020 1.4448 0.9109
-4.6875 -22.3694 1.4173 0.9125
-3.0367 -22.4113 1.4024 0.9133
-2.2203 -22.4136 1.3967 0.9137
-1.4095 -22.4159 1.3928 0.9139
-0.6022 -22.4181 1.3907 0.9140
0.2037 -22.4203 1.3903 0.9141
1.8196 -22.4248 1.3951 0.9138
2.1912 -4.2470 0.2963 0.9810
32.9098 -36.9294 3.0674 0.8202
33.3777 -34.8484 2.9923 0.8242
33.0527 -29.8826 2.7631 0.8365
32.8099 -27.5864 2.6581 0.8422
32.6295 -25.4909 2.5677 0.8471
34.4147 -4.2919 2.1506 0.8702
43.8336 -3.8731 2.7287 0.8383
35.6720 12.7455 2.3490 0.8591
-10.1639 17.7313 0.8059 0.9214
-11.0302 17.7337 0.8235 0.9198
-13.2083 16.8700 0.8448 0.9178
-13.2147 14.5852 0.7761 0.9242
-16.6241 15.8884 0.9067 0.9121
-15.2403 13.5522 0.8042 0.9216
-16.3942 13.5554 0.8388 0.9184
-17.6537 13.5589 0.8777 0.9147
-19.0376 13.5627 0.9217 0.9107
-30.2429 -4.1309 1.2036 0.8850
-24.2980 -22.4887 1.3055 0.8759
-20.9274 -22.3666 1.2078 0.8846
-16.4674 -18.9191 0.9890 0.9045
-14.2189 -18.9253 0.9334 0.9096
-13.1731 -22.1505 1.0162 0.9020
-10.2361 -22.3963 0.9710 0.9061
-7.4446 -22.3991 0.9307 0.9098
-4.0295 -22.5129 0.9018 0.9125
-3.1737 -22.3317 0.8894 0.9137
-2.3811 -22.5446 0.8939 0.9132
-1.5678 -22.5910 0.8929 0.9133
-0.7478 -22.4177 0.8844 0.9141
2.3232 -4.1949 0.1891 0.9810
32.6005 -37.0640 1.9464 0.8207
34.0503 -36.0156 1.9543 0.8200
32.6143 -32.1032 1.8045 0.8326
37.7989 -25.7375 1.8032 0.8327
40.8778 -25.7340 1.9047 0.8242
32.6105 -4.2820 1.2969 0.8766
32.9866 8.9445 1.3477 0.8721
35.0329 13.6934 1.4832 0.8602
35.1768 18.3328 1.5641 0.8532
35.1814 19.9746 1.5952 0.8505
35.1861 21.6851 1.6297 0.8475
35.0599 23.3862 1.6618 0.8448
35.0651 25.2562 1.7040 0.8411
35.0705 27.2263 1.7507 0.8372
35.4139 31.8217 1.8773 0.8265
2.7514 22.8265 0.9066 0.9121
1.9225 22.8289 0.9034 0.9124
0.7631 15.8622 0.6262 0.9384
0.1925 15.8638 0.6256 0.9385
-0.9492 15.8670 0.6268 0.9384
-1.5231 15.8686 0.6286 0.9382
-2.6849 15.8718 0.6347 0.9376
-4.4864 15.8768 0.6506 0.9361
-5.7478 15.8803 0.6659 0.9346
-6.0469 14.9992 0.6377 0.9373
-10.2215 17.5665 0.8014 0.9219
-11.1908 17.7342 0.8269 0.9195
-13.2122 15.4748 0.8023 0.9218
-16.8422 15.8890 0.9130 0.9115
-15.4416 13.5527 0.8101 0.9210
-16.6134 13.5560 0.8455 0.9177
-20.8642 13.5678 0.9813 0.9052
-25.6261 -22.3535 1.3409 0.8727
-23.8449 -22.3585 1.2889 0.8773
-15.1089 -18.9228 0.9548 0.9076
-13.0923 -22.3433 1.0211 0.9015
-10.0611 -22.3968 0.9681 0.9064
-6.4040 -22.4020 0.9187 0.9109
-3.8545 -22.3717 0.8951 0.9131
-2.2377 -22.5892 0.8951 0.9131
-0.6022 -22.4181 0.8843 0.9141
0.2053 -22.5959 0.8910 0.9135
1.0162 -22.5540 0.8902 0.9136
2.1912 -4.2469 0.1884 0.9811
32.8872 -36.9041 1.9491 0.8205
32.6122 -31.6869 1.7930 0.8336
32.8916 -27.6551 1.6945 0.8420
32.6295 -25.4909 1.6327 0.8473
37.1757 -26.9488 1.8105 0.8321
34.3869 -4.2885 1.3664 0.8705
41.4913 13.1637 1.7164 0.8401
36.8783 13.1766 1.5442 0.8549
-10.1639 17.7313 0.3452 0.9215
-11.0302 17.7337 0.3528 0.9198
-8.4202 12.5115 0.2547 0.9415
-10.2967 12.2197 0.2699 0.9381
-13.2147 14.5852 0.3325 0.9243
-16.6241 15.8884 0.3884 0.9121
-20.7015 15.8997 0.4409 0.9008
-33.2606 23.6955 0.6898 0.8493
-30.2426 -4.1308 0.5156 0.8851
-24.3455 -22.5327 0.5603 0.8757
-22.4838 -22.3623 0.5357 0.8809
-19.6242 -22.5458 0.5049 0.8873
-17.7291 -21.9113 0.4761 0.8934
-14.2169 -22.0606 0.4433 0.9003
-13.1731 -22.1505 0.4353 0.9020
-10.2361 -22.3963 0.4160 0.9062
-8.3507 -22.4016 0.4038 0.9088
-5.6967 -22.4039 0.3905 0.9117
-4.0295 -22.5129 0.3863 0.9126
-3.1737 -22.3317 0.3810 0.9137
-1.5678 -22.5910 0.3825 0.9134
-0.7478 -22.4177 0.3789 0.9142
0.0582 -22.4199 0.3787 0.9142
2.1914 -4.3160 0.0818 0.9808
32.6005 -37.0640 0.8338 0.8208
34.0521 -36.0176 0.8372 0.8201
32.6285 -25.8329 0.7030 0.8466
37.7941 -25.7343 0.7724 0.8328
35.1814 19.9746 0.6834 0.8506
35.1911 23.4737 0.7146 0.8443
35.1963 25.3508 0.7327 0.8407
35.4416 31.8466 0.8049 0.8264
0.7631 15.8622 0.2683 0.9384
0.1518 12.5125 0.2114 0.9512
-0.3778 15.8654 0.2681 0.9385
-0.9492 15.8670 0.2685 0.9384
-2.1082 12.4628 0.2135 0.9507
-3.2758 15.8735 0.2738 0.9372
-3.8758 15.8751 0.2760 0.9367
-4.4864 15.8768 0.2787 0.9361
-4.0224 12.4994 0.2218 0.9488
-6.2140 13.9463 0.2579 0.9407
-7.4593 13.9498 0.2672 0.9387
-8.3490 12.2335 0.2502 0.9425
-12.9166 17.5378 0.3679 0.9166
-10.5378 12.3424 0.2741 0.9371
-12.9262 14.0820 0.3229 0.9264
-18.1075 15.8925 0.4070 0.9081
-19.4816 15.8963 0.4247 0.9043
-25.6261 -22.3535 0.5744 0.8728
-22.2490 -22.4179 0.5335 0.8813
-17.4575 -21.8643 0.4726 0.8941
-13.8966 -21.8741 0.4378 0.9015
-13.0923 -22.3433 0.4374 0.9016
-9.1321 -22.4543 0.4095 0.9076
-8.1856 -22.4020 0.4029 0.9090
-5.4158 -16.6553 0.2955 0.9323
-6.4040 -22.4020 0.3936 0.9110
-4.7172 -22.5110 0.3885 0.9121
-3.0367 -22.4113 0.3820 0.9135
-1.4095 -22.4159 0.3794 0.9141
-0.6022 -22.4181 0.3788 0.9142
0.2053 -22.5959 0.3817 0.9136
1.0162 -22.5540 0.3814 0.9136
1.8196 -22.4248 0.3800 0.9139
2.1911 -4.2469 0.0807 0.9811
32.8838 -36.9002 0.8349 0.8206
32.6122 -31.6869 0.7681 0.8337
32.8887 -27.6527 0.7258 0.8421
37.1775 -26.9501 0.7756 0.8322
38.1819 -25.6372 0.7769 0.8319
43.8261 -3.8724 0.7432 0.8386
48.1604 13.3952 0.8444 0.8187
-6.9248 12.0806 -0.0784 0.9458
-7.5088 12.0722 -0.0800 0.9447
-8.2320 12.2318 -0.0830 0.9427
-9.4590 12.0812 -0.0864 0.9405
-10.2006 12.1058 -0.0891 0.9386
-11.7219 12.0384 -0.0946 0.9350
-12.4101 11.8609 -0.0967 0.9336
-13.6472 12.1356 -0.1028 0.9296
-14.3883 11.8968 -0.1051 0.9280
-18.2903 12.0636 -0.1234 0.9161
-19.9337 12.1428 -0.1314 0.9109
-23.4825 12.0837 -0.1487 0.8998
-25.5023 11.9843 -0.1586 0.8934
-30.1832 -4.1227 -0.1715 0.8853
-27.9268 -22.3472 -0.2014 0.8667
-25.9633 -22.3526 -0.1929 0.8719
-24.3455 -22.5327 -0.1868 0.8757
-19.6242 -22.5458 -0.1683 0.8873
-17.7291 -21.9113 -0.1587 0.8934
-15.7118 -22.5567 -0.1548 0.8959
-13.1731 -22.1505 -0.1451 0.9020
-8.3507 -22.4016 -0.1346 0.9088
-7.4446 -22.3991 -0.1329 0.9099
-6.6129 -22.5770 -0.1325 0.9102
-5.6967 -22.4039 -0.1302 0.9117
-4.8698 -22.5105 -0.1297 0.9120
-4.0295 -22.5129 -0.1288 0.9126
-3.1737 -22.3317 -0.1270 0.9137
-2.3811 -22.5446 -0.1276 0.9133
0.0582 -22.4199 -0.1262 0.9142
0.8712 -22.5977 -0.1273 0.9135
1.6732 -22.4244 -0.1266 0.9140
32.6005 -37.0640 -0.2779 0.8208
34.0539 -36.0195 -0.2791 0.8201
32.8808 -30.1173 -0.2510 0.8366
37.7894 -25.7310 -0.2574 0.8329
32.9134 8.9247 -0.1920 0.8725
43.2353 13.4089 -0.2549 0.8344
35.1814 19.9746 -0.2278 0.8506
34.4720 21.2450 -0.2280 0.8505
35.1911 23.4738 -0.2382 0.8443
35.1963 25.3508 -0.2442 0.8407
35.2018 27.3282 -0.2509 0.8367
1.5368 12.7502 -0.0723 0.9499
1.0593 12.5791 -0.0711 0.9508
0.5835 12.1289 -0.0684 0.9526
0.1461 12.0442 -0.0678 0.9530
-0.2865 12.0313 -0.0678 0.9530
-0.7399 12.3681 -0.0698 0.9516
-1.1704 8.8396 -0.0502 0.9650
-2.4674 11.9562 -0.0687 0.9523
-2.9803 12.2073 -0.0707 0.9510
-3.4420 12.1807 -0.0713 0.9506
-4.4051 12.1707 -0.0729 0.9495
-4.8654 12.0683 -0.0733 0.9493
-6.4880 12.1333 -0.0775 0.9464
-6.9544 11.9518 -0.0779 0.9462
-7.6096 12.0589 -0.0803 0.9446
-8.2983 12.1591 -0.0829 0.9428
-8.8051 11.9552 -0.0836 0.9423
-10.3125 12.0785 -0.0894 0.9384
-13.8397 12.1468 -0.1037 0.9290
-15.9685 12.1006 -0.1128 0.9230
-16.8945 11.8714 -0.1163 0.9207
-18.2916 11.8949 -0.1228 0.9164
-19.8538 11.9182 -0.1304 0.9115
-27.5595 -22.3482 -0.1998 0.8677
-25.6261 -22.3535 -0.1915 0.8728
-23.8449 -22.3585 -0.1840 0.8774
-19.3690 -22.5465 -0.1674 0.8879
-17.4575 -21.8643 -0.1576 0.8941
-14.2353 -19.2054 -0.1392 0.9088
-15.4957 -22.5573 -0.1541 0.8963
-13.8966 -21.8741 -0.1459 0.9015
-12.1555 -22.5666 -0.1443 0.9026
-11.0435 -22.3941 -0.1406 0.9049
-5.4137 -16.6490 -0.0984 0.9324
-6.4040 -22.4020 -0.1312 0.9110
-5.5422 -22.4044 -0.1299 0.9118
-4.7172 -22.5110 -0.1295 0.9121
-3.8545 -22.3717 -0.1278 0.9132
-2.2377 -22.5892 -0.1278 0.9132
-1.4095 -22.4159 -0.1265 0.9141
-0.6022 -22.4181 -0.1263 0.9142
0.2053 -22.5959 -0.1272 0.9136
1.0162 -22.5540 -0.1271 0.9136
32.8804 -36.8964 -0.2783 0.8206
32.6122 -31.6869 -0.2560 0.8337
33.1963 -30.0123 -0.2520 0.8361
38.1819 -25.6372 -0.2589 0.8320
34.6652 -4.3232 -0.1967 0.8696
43.8229 -3.8721 -0.2477 0.8386
42.2724 13.4116 -0.2497 0.8374
-7.4439 11.9678 -0.3969 0.9452
-8.0431 11.9511 -0.4056 0.9440
-8.5988 11.8353 -0.4119 0.9431
-9.2689 11.8384 -0.4234 0.9416
-11.6879 12.0034 -0.4718 0.9352
-14.3864 11.8952 -0.5256 0.9280
-23.3594 12.0204 -0.7397 0.9002
-30.2418 -4.1307 -0.8594 0.8850
-25.9055 -22.3029 -0.9625 0.8722
-22.3842 -22.2632 -0.8890 0.8813
-19.3510 -22.2320 -0.8299 0.8887
-16.6408 -22.1488 -0.7801 0.8951
-14.2169 -22.0606 -0.7390 0.9003
-12.1572 -22.2230 -0.7133 0.9036
-10.1728 -22.2576 -0.6891 0.9067
-8.3137 -22.3024 -0.6702 0.9092
-7.4172 -22.3166 -0.6622 0.9102
-6.5416 -22.3336 -0.6553 0.9111
-4.8698 -22.5105 -0.6485 0.9120
-3.1781 -22.3631 -0.6360 0.9136
-1.5543 -22.3959 -0.6321 0.9141
0.0581 -22.4032 -0.6308 0.9143
0.8638 -22.4044 -0.6313 0.9142
6.9376 -47.0627 -1.3395 0.8267
2.1914 -4.3158 -0.1363 0.9808
32.8213 -30.0628 -1.2533 0.8369
37.6977 -25.6686 -1.2842 0.8332
39.1018 -24.6160 -1.3010 0.8312
46.0510 -2.7054 -1.2989 0.8314
32.9859 8.9443 -0.9624 0.8722
35.7687 12.5189 -1.0671 0.8593
35.0368 13.6949 -1.0592 0.8602
36.0480 15.6056 -1.1061 0.8545
33.4620 18.9984 -1.0835 0.8573
33.6587 20.7438 -1.1133 0.8537
34.2661 22.8568 -1.1598 0.8480
30.0191 26.9741 -1.1364 0.8509
3.6811 13.6334 -0.3976 0.9451
2.5496 13.1268 -0.3765 0.9479
2.0341 12.9422 -0.3689 0.9489
1.5126 12.5493 -0.3559 0.9507
0.1456 12.0049 -0.3381 0.9531
-0.2854 11.9858 -0.3376 0.9532
-0.7184 12.0091 -0.3388 0.9530
-1.1687 12.1755 -0.3444 0.9522
-1.1702 8.8382 -0.2510 0.9650
-2.0200 11.9416 -0.3410 0.9527
-2.9404 12.0440 -0.3491 0.9516
-3.4105 12.0694 -0.3532 0.9511
-3.8189 11.8673 -0.3510 0.9513
-5.8381 11.9300 -0.3740 0.9482
-6.3478 11.8712 -0.3791 0.9476
-9.4342 11.8898 -0.4274 0.9411
-10.9400 11.9182 -0.4555 0.9373
-13.4786 11.8299 -0.5050 0.9308
-14.5969 11.9107 -0.5305 0.9274
-15.6317 11.8454 -0.5523 0.9245
-16.9181 11.8880 -0.5822 0.9206
-23.3883 11.8439 -0.7382 0.9004
-26.5170 12.2517 -0.8225 0.8897
-33.3727 -23.2987 -1.1460 0.8497
-27.5275 -22.3222 -0.9979 0.8678
-17.4575 -21.8643 -0.7878 0.8941
-15.4957 -22.5573 -0.7706 0.8963
-10.0006 -22.2621 -0.6872 0.9070
-9.0633 -22.2852 -0.6774 0.9082
-8.1488 -22.3013 -0.6686 0.9094
-5.5290 -22.3510 -0.6483 0.9120
-4.7172 -22.5110 -0.6476 0.9121
-3.8550 -22.3745 -0.6393 0.9132
-3.0330 -22.3837 -0.6360 0.9136
-2.2181 -22.3911 -0.6336 0.9139
32.8174 -36.8258 -1.3889 0.8209
32.6122 -31.6869 -1.2804 0.8336
33.1314 -29.9537 -1.2577 0.8363
32.6295 -25.4909 -1.1658 0.8473
37.1270 -26.9135 -1.2912 0.8324
34.7919 -4.3390 -0.9873 0.8691
43.7428 -3.8650 -1.2365 0.8389
45.2538 12.5868 -1.3226 0.8286
35.4391 12.6623 -1.0597 0.8602
-6.7994 11.8618 -0.6934 0.9467
-7.3687 11.8469 -0.7075 0.9457
-7.9470 11.8083 -0.7218 0.9446
-8.5874 11.8196 -0.7409 0.9432
-10.8712 11.9987 -0.8211 0.9372
-11.5542 11.8661 -0.8399 0.9358
-13.4819 11.9886 -0.9150 0.9303
-14.3796 11.8896 -0.9462 0.9280
-15.3602 11.7974 -0.9822 0.9254
-19.5592 11.9148 -1.1615 0.9124
-21.1459 11.8612 -1.2296 0.9075
-33.5397 14.3136 -1.8494 0.8641
-38.4843 8.7539 -2.0016 0.8538
-39.2029 4.5616 -2.0016 0.8538
-39.3415 3.1499 -2.0016 0.8538
-39.4293 1.7342 -2.0016 0.8538
-39.4661 0.3163 -2.0016 0.8538
-39.3869 -2.5190 -2.0016 0.8538
-39.2710 -3.9327 -2.0016 0.8538
-30.0828 -4.1090 -1.5398 0.8855
-38.3024 -9.5184 -2.0016 0.8538
-37.9357 -10.8886 -2.0016 0.8538
-37.5199 -12.2447 -2.0016 0.8538
-37.0557 -13.5850 -2.0016 0.8538
-36.5436 -14.9078 -2.0016 0.8538
-35.3785 -17.4938 -2.0016 0.8538
-30.7591 -19.5874 -1.8494 0.8641
-30.0353 -20.6801 -1.8494 0.8641
-29.2728 -21.7460 -1.8494 0.8641
-24.1563 -22.3576 -1.6693 0.8765
-22.4838 -22.3623 -1.6082 0.8807
-19.4717 -22.3706 -1.5041 0.8880
-17.7291 -21.9113 -1.4294 0.8933
-16.6408 -22.1488 -1.4050 0.8950
-15.7118 -22.5567 -1.3941 0.8957
-13.1731 -22.1505 -1.3070 0.9019
-10.2361 -22.3963 -1.2488 0.9061
-6.5615 -22.4015 -1.1838 0.9107
-4.8698 -22.5105 -1.1680 0.9119
-2.3673 -22.4132 -1.1430 0.9137
-1.5556 -22.4154 -1.1395 0.9139
-0.7478 -22.4177 -1.1375 0.9141
0.8308 -21.5502 -1.0937 0.9172
6.6110 -35.8620 -1.8494 0.8641
7.8954 -35.6013 -1.8494 0.8641
7.0252 -27.0406 -1.4169 0.8941
15.2946 -36.3834 -2.0016 0.8538
16.5921 -35.8103 -2.0016 0.8538
2.1913 -4.3157 -0.2455 0.9808
20.3494 -33.8168 -2.0016 0.8538
21.5515 -33.0637 -2.0016 0.8538
22.7256 -32.2680 -2.0016 0.8538
23.8704 -31.4305 -2.0016 0.8538
24.9844 -30.5525 -2.0016 0.8538
26.9725 -26.5498 -1.9194 0.8593
26.9947 -24.7259 -1.8565 0.8636
27.7585 -23.6485 -1.8494 0.8641
29.3853 -21.5939 -1.8494 0.8641
31.5384 -18.3062 -1.8494 0.8641
32.1759 -17.1611 -1.8494 0.8641
35.9851 -15.9876 -1.9970 0.8541
37.9916 -10.6917 -2.0016 0.8538
38.3513 -9.3196 -2.0016 0.8538
38.6614 -7.9355 -2.0016 0.8538
38.9216 -6.5411 -2.0016 0.8538
34.0782 -3.2342 -1.7360 0.8719
37.9619 -2.2302 -1.9285 0.8587
39.4572 -0.8974 -2.0016 0.8538
39.4640 0.5210 -2.0016 0.8538
39.4198 1.9388 -2.0016 0.8538
38.9822 6.1696 -2.0016 0.8538
32.7533 8.8812 -1.7210 0.8729
34.4190 12.0465 -1.8494 0.8641
31.0442 19.1324 -1.8494 0.8641
30.3366 20.2356 -1.8494 0.8641
28.8050 22.3621 -1.8494 0.8641
27.2796 28.3085 -1.9938 0.8543
26.3476 29.3850 -2.0016 0.8538
24.1691 31.2015 -2.0016 0.8538
23.0323 32.0498 -2.0016 0.8538
21.8658 32.8567 -2.0016 0.8538
18.2030 35.0190 -2.0016 0.8538
16.9328 35.6505 -2.0016 0.8538
14.3287 36.7745 -2.0016 0.8538
11.6506 37.7086 -2.0016 0.8538
3.6393 13.4784 -0.7080 0.9456
3.1243 13.4786 -0.7017 0.9461
2.4990 12.8664 -0.6647 0.9489
2.0273 12.8990 -0.6622 0.9490
1.0505 12.4750 -0.6349 0.9511
0.5732 11.9140 -0.6049 0.9534
-0.7265 12.1439 -0.6170 0.9524
-1.1370 11.8456 -0.6035 0.9535
-2.4204 11.7282 -0.6073 0.9532
-3.3391 11.8165 -0.6227 0.9520
-4.2745 11.8099 -0.6370 0.9509
-4.7363 11.7482 -0.6424 0.9505
-5.2592 11.8034 -0.6553 0.9496
-5.8029 11.8582 -0.6695 0.9485
-6.8828 11.8287 -0.6940 0.9467
-7.3985 11.7245 -0.7031 0.9460
-8.0734 11.8296 -0.7263 0.9443
-8.7209 11.8409 -0.7458 0.9428
-10.0808 11.8071 -0.7873 0.9397
-11.8090 11.9714 -0.8528 0.9349
-14.5373 11.8620 -0.9515 0.9276
-15.6487 11.8583 -0.9957 0.9244
-16.9681 11.9231 -1.0517 0.9203
-18.2678 11.8794 -1.1051 0.9164
-23.1320 11.7141 -1.3150 0.9014
-25.0486 11.5733 -1.3994 0.8954
-33.6319 14.0956 -1.8494 0.8641
-36.9244 13.9378 -2.0016 0.8538
-38.8210 7.1135 -2.0016 0.8538
-39.2317 4.3070 -2.0016 0.8538
-39.3611 2.8945 -2.0016 0.8538
-39.4397 1.4783 -2.0016 0.8538
-39.4674 0.0601 -2.0016 0.8538
-39.4440 -1.3581 -2.0016 0.8538
-39.2446 -4.1875 -2.0016 0.8538
-38.8425 -6.9953 -2.0016 0.8538
-38.5661 -8.3864 -2.0016 0.8538
-38.2398 -9.7669 -2.0016 0.8538
-37.4396 -12.4880 -2.0016 0.8538
-36.9667 -13.8252 -2.0016 0.8538
-36.4460 -15.1447 -2.0016 0.8538
-35.8783 -16.4445 -2.0016 0.8538
-35.2642 -17.7231 -2.0016 0.8538
-34.6046 -18.9788 -2.0016 0.8538
-33.9003 -20.2101 -2.0016 0.8538
-30.6313 -19.7867 -1.8494 0.8641
-29.1311 -21.9356 -1.8494 0.8641
-25.6261 -22.3535 -1.7246 0.8727
-20.6575 -22.3674 -1.5441 0.8852
-19.2185 -22.3714 -1.4957 0.8886
-15.4957 -22.5573 -1.3879 0.8962
-13.1186 -22.3883 -1.3160 0.9013
-11.0435 -22.3941 -1.2663 0.9048
-9.1098 -22.3994 -1.2263 0.9077
-8.1856 -22.4020 -1.2096 0.9089
-6.4040 -22.4020 -1.1816 0.9109
-5.5422 -22.4044 -1.1705 0.9117
-4.7172 -22.5110 -1.1664 0.9120
-3.8610 -22.4090 -1.1532 0.9130
-3.0367 -22.4113 -1.1470 0.9134
-1.4095 -22.4159 -1.1390 0.9140
-0.6022 -22.4181 -1.1373 0.9141
4.2535 -36.2174 -1.8494 0.8641
6.8437 -35.8183 -1.8494 0.8641
10.1720 -38.1341 -2.0016 0.8538
11.5356 -37.7439 -2.0016 0.8538
14.2166 -36.8180 -2.0016 0.8538
15.5304 -36.2834 -2.0016 0.8538
2.1911 -4.2468 -0.2423 0.9810
19.3448 -34.4014 -2.0016 0.8538
20.5685 -33.6840 -2.0016 0.8538
26.2580 -29.4651 -2.0016 0.8538
27.0501 -24.4557 -1.8494 0.8641
28.7367 -22.4498 -1.8494 0.8641
29.5249 -21.4027 -1.8494 0.8641
30.2748 -20.3279 -1.8494 0.8641
30.0076 -18.6200 -1.7910 0.8681
31.6566 -18.1011 -1.8494 0.8641
32.2866 -16.9519 -1.8494 0.8641
36.1514 -15.7813 -2.0005 0.8539
37.2118 -13.1513 -2.0016 0.8538
38.4110 -9.0705 -2.0016 0.8538
38.7121 -7.6844 -2.0016 0.8538
35.4547 -3.1327 -1.8051 0.8671
39.4137 -2.0588 -2.0016 0.8538
39.4622 -0.6412 -2.0016 0.8538
39.4598 0.7772 -2.0016 0.8538
39.1470 5.0191 -2.0016 0.8538
38.9413 6.4225 -2.0016 0.8538
38.6748 7.8156 -2.0010 0.8538
35.4611 8.5029 -1.8494 0.8641
32.7539 9.1101 -1.7241 0.8727
34.7588 11.0278 -1.8494 0.8641
-6.8724 11.9892 -1.0133 0.9461
-7.3783 11.8624 -1.0243 0.9455
-8.6093 11.8498 -1.0740 0.9429
-9.3090 11.8897 -1.1072 0.9412
-10.7963 11.9160 -1.1790 0.9375
-13.2424 11.7756 -1.2993 0.9314
-13.9087 11.5002 -1.3233 0.9302
-14.9825 11.5073 -1.3852 0.9270
-16.1633 11.5150 -1.4551 0.9235
-17.4715 11.5236 -1.5346 0.9195
-20.5804 11.5440 -1.7302 0.9097
-22.4273 11.5407 -1.8494 0.9038
-23.1982 9.9002 -1.8494 0.9038
-23.5389 9.0602 -1.8494 0.9038
-23.9923 8.2577 -1.8604 0.9032
-26.0808 7.9405 -1.9990 0.8964
-26.3835 7.0073 -2.0016 0.8963
-26.6182 6.0548 -2.0016 0.8963
-26.9843 4.1274 -2.0016 0.8963
-27.1152 3.1551 -2.0016 0.8963
-27.2111 2.1787 -2.0016 0.8963
-27.2425 -1.7423 -2.0016 0.8963
-25.2572 -2.5293 -1.8612 0.9032
-24.9539 -4.3270 -1.8570 0.9034
-25.2759 -10.3112 -2.0016 0.8963
-24.0195 -12.9713 -2.0016 0.8963
-23.5379 -13.8261 -2.0016 0.8963
-23.0258 -14.6629 -2.0016 0.8963
-21.7633 -16.1673 -1.9879 0.8970
-19.1145 -16.4562 -1.8494 0.9038
-17.8832 -17.7865 -1.8494 0.9038
-17.2325 -18.4176 -1.8494 0.9038
-16.5596 -19.0250 -1.8494 0.9038
-15.1504 -20.1652 -1.8494 0.9038
-13.6631 -21.2012 -1.8494 0.9038
-12.1051 -22.1277 -1.8494 0.9038
-11.2246 -22.3936 -1.8367 0.9044
-9.2795 -22.3990 -1.7777 0.9073
-8.3507 -22.4016 -1.7529 0.9086
-6.5615 -22.4015 -1.7115 0.9106
-5.6966 -22.4039 -1.6950 0.9115
-4.7748 -22.0713 -1.6558 0.9134
-2.3673 -22.4132 -1.6525 0.9136
0.0582 -22.4199 -1.6439 0.9140
1.6732 -22.4244 -1.6488 0.9138
2.7793 -25.0688 -1.8494 0.9038
3.6785 -24.9527 -1.8494 0.9038
4.5727 -24.8044 -1.8494 0.9038
6.3422 -24.4120 -1.8494 0.9038
7.2153 -24.1683 -1.8494 0.9038
8.7440 -25.8599 -2.0016 0.8963
11.4761 -24.7687 -2.0016 0.8963
2.1913 -4.3157 -0.3549 0.9808
2.3231 -4.1947 -0.3516 0.9810
14.0750 -23.3899 -2.0016 0.8963
15.7185 -22.3186 -2.0016 0.8963
16.5103 -21.7394 -2.0016 0.8963
17.2808 -21.1321 -2.0016 0.8963
19.4546 -19.1497 -2.0016 0.8963
20.7797 -17.7030 -2.0016 0.8963
22.5641 -15.3640 -2.0016 0.8963
24.5325 -11.9727 -2.0016 0.8963
26.2774 -7.3951 -2.0016 0.8963
26.7407 -5.4887 -2.0016 0.8963
26.9207 -4.5243 -2.0016 0.8963
27.0658 -3.5540 -2.0016 0.8963
27.1761 -2.5791 -2.0016 0.8963
27.2911 -0.6207 -2.0016 0.8963
27.2958 0.3604 -2.0016 0.8963
27.2652 1.3410 -2.0016 0.8963
27.1994 2.3198 -2.0016 0.8963
26.7918 5.2334 -2.0016 0.8963
26.5865 6.1927 -2.0016 0.8963
26.3468 7.1441 -2.0016 0.8963
26.0730 8.0862 -2.0016 0.8963
25.7657 9.0178 -2.0016 0.8963
25.4250 9.9379 -2.0016 0.8963
24.6456 11.7382 -2.0016 0.8963
23.7389 13.4780 -2.0016 0.8963
22.1506 15.9544 -2.0016 0.8963
21.5630 16.7400 -2.0016 0.8963
20.9476 17.5040 -2.0016 0.8963
19.6363 18.9633 -2.0016 0.8963
18.9422 19.6566 -2.0016 0.8963
18.2237 20.3246 -2.0016 0.8963
17.4816 20.9663 -2.0016 0.8963
15.9306 22.1677 -2.0016 0.8963
15.1238 22.7258 -2.0016 0.8963
13.4526 23.7533 -2.0016 0.8963
12.5903 24.2213 -2.0016 0.8963
10.8182 25.0630 -2.0016 0.8963
9.9106 25.4356 -2.0016 0.8963
8.3067 23.8153 -1.8494 0.9038
5.3133 17.1973 -1.3198 0.9304
3.7028 13.7138 -1.0415 0.9446
3.0671 13.2317 -0.9959 0.9470
2.0026 12.7415 -0.9457 0.9496
1.5120 12.5439 -0.9264 0.9506
1.0231 12.1487 -0.8939 0.9523
0.1459 12.0247 -0.8817 0.9529
-1.1509 11.9903 -0.8832 0.9528
-2.5033 12.1301 -0.9081 0.9515
-3.3631 11.9017 -0.9068 0.9516
-3.7982 11.8027 -0.9091 0.9515
-4.2905 11.8541 -0.9243 0.9507
-5.2445 11.7705 -0.9448 0.9496
-7.4645 11.8291 -1.0256 0.9454
-8.0975 11.8650 -1.0533 0.9440
-9.3876 11.8311 -1.1074 0.9412
-11.7428 11.9043 -1.2261 0.9351
-14.0955 11.5015 -1.3339 0.9296
-15.1873 11.5086 -1.3972 0.9264
-16.3895 11.5165 -1.4687 0.9228
-17.7232 11.5252 -1.5501 0.9187
-19.2155 11.5350 -1.6433 0.9140
-22.8966 10.5790 -1.8494 0.9038
-26.6570 5.8818 -2.0016 0.8963
-26.8511 4.9202 -2.0016 0.8963
-27.2981 0.0416 -2.0016 0.8963
-27.2820 -0.9394 -2.0016 0.8963
-27.2306 -1.9191 -2.0016 0.8963
-24.9253 -4.4889 -1.8570 0.9034
-26.4491 -6.7554 -2.0016 0.8963
-25.8956 -8.6375 -2.0016 0.8963
-25.5685 -9.5624 -2.0016 0.8963
-25.2084 -10.4750 -2.0016 0.8963
-24.3910 -12.2584 -2.0016 0.8963
-23.4476 -13.9786 -2.0016 0.8963
-22.9302 -14.8121 -2.0016 0.8963
-21.4749 -16.1705 -1.9711 0.8978
-19.0072 -16.5800 -1.8494 0.9038
-18.3992 -17.2522 -1.8494 0.9038
-16.4358 -19.1321 -1.8494 0.9038
-14.2353 -19.2055 -1.7528 0.9086
-14.2814 -20.7897 -1.8494 0.9038
-13.5251 -21.2894 -1.8494 0.9038
-12.7514 -21.7617 -1.8494 0.9038
-11.9612 -22.2058 -1.8494 0.9038
-10.0611 -22.3968 -1.8003 0.9062
-6.4040 -22.4020 -1.7084 0.9108
-3.8610 -22.4090 -1.6673 0.9128
-0.6022 -22.4181 -1.6443 0.9140
0.9751 -21.6422 -1.5885 0.9168
3.8403 -24.9283 -1.8494 0.9038
4.7336 -24.7742 -1.8494 0.9038
5.6209 -24.5881 -1.8494 0.9038
6.5006 -24.3703 -1.8494 0.9038
7.3721 -24.1210 -1.8494 0.9038
8.9117 -25.8025 -2.0016 0.8963
10.7418 -25.0959 -2.0016 0.8963
13.3801 -23.7942 -2.0016 0.8963
15.0545 -22.7718 -2.0016 0.8963
15.8630 -22.2161 -2.0016 0.8963
17.4176 -21.0195 -2.0016 0.8963
22.1019 -16.0217 -2.0016 0.8963
23.1955 -14.3930 -2.0016 0.8963
23.6977 -13.5503 -2.0016 0.8963
24.1693 -12.6899 -2.0016 0.8963
24.6097 -11.8133 -2.0016 0.8963
25.0183 -10.9213 -2.0016 0.8963
25.3946 -10.0153 -2.0016 0.8963
26.0483 -8.1656 -2.0016 0.8963
26.3249 -7.2243 -2.0016 0.8963
26.9494 -4.3495 -2.0016 0.8963
27.0883 -3.3782 -2.0016 0.8963
27.2610 -1.4240 -2.0016 0.8963
27.2946 -0.4435 -2.0016 0.8963
27.2929 0.5375 -2.0016 0.8963
27.1838 2.4963 -2.0016 0.8963
26.9343 4.4422 -2.0016 0.8963
26.7573 5.4072 -2.0016 0.8963
26.5457 6.3652 -2.0016 0.8963
-9.6670 11.4724 -1.4403 0.9415
-11.1805 11.4824 -1.5386 0.9376
-12.9255 11.4938 -1.6606 0.9329
-13.9087 11.5002 -1.7326 0.9300
-14.9825 11.5073 -1.8137 0.9269
-16.4512 10.0214 -1.8494 0.9255
-16.8006 9.4238 -1.8494 0.9255
-17.1284 8.8140 -1.8494 0.9255
-19.1146 8.1574 -1.9952 0.9199
-19.4570 7.4890 -2.0016 0.9196
-19.7135 6.7851 -2.0016 0.9196
-20.4823 3.8907 -2.0016 0.9196
-20.7820 1.6639 -2.0016 0.9196
-20.8284 0.9161 -2.0016 0.9196
-20.8478 0.1671 -2.0016 0.9196
-20.8060 -1.3307 -2.0016 0.9196
-20.7447 -2.0774 -2.0016 0.9196
-20.6567 -2.8215 -2.0016 0.9196
-20.4007 -4.2978 -2.0016 0.9196
-20.2331 -5.0281 -2.0016 0.9196
-20.0394 -5.7519 -2.0016 0.9196
-19.5745 -7.1762 -2.0016 0.9196
-19.0086 -8.5635 -2.0016 0.9196
-18.3444 -9.9066 -2.0016 0.9196
-17.9766 -10.5594 -2.0016 0.9196
-17.5856 -11.1986 -2.0016 0.9196
-17.1718 -11.8232 -2.0016 0.9196
-16.7359 -12.4326 -2.0016 0.9196
-16.2783 -13.0260 -2.0016 0.9196
-15.7997 -13.6026 -2.0016 0.9196
-14.7820 -14.7021 -2.0016 0.9196
-13.6870 -15.7247 -2.0014 0.9196
-13.0661 -16.1482 -1.9942 0.9199
-11.2734 -16.1848 -1.8936 0.9238
-10.4391 -16.1985 -1.8501 0.9255
-9.8464 -16.5565 -1.8494 0.9255
-9.2451 -16.8997 -1.8494 0.9255
-8.6318 -17.2209 -1.8494 0.9255
-8.0074 -17.5200 -1.8494 0.9255
-6.7285 -18.0499 -1.8494 0.9255
-5.4847 -16.5021 -1.6695 0.9325
-5.4148 -18.4865 -1.8494 0.9255
-4.7470 -18.6691 -1.8494 0.9255
-4.0731 -18.8276 -1.8494 0.9255
-3.3939 -18.9618 -1.8494 0.9255
-2.7104 -19.0715 -1.8494 0.9255
-2.0233 -19.1566 -1.8494 0.9255
-0.6422 -19.2525 -1.8494 0.9255
0.0500 -19.2631 -1.8494 0.9255
1.4333 -19.2098 -1.8494 0.9255
2.1227 -19.1459 -1.8494 0.9255
2.8093 -19.0572 -1.8494 0.9255
4.1707 -18.8062 -1.8494 0.9255
4.8438 -18.6442 -1.8494 0.9255
5.8809 -19.6987 -1.9737 0.9207
8.0793 -19.2194 -2.0016 0.9196
8.7647 -18.9167 -2.0016 0.9196
2.3231 -4.1946 -0.4603 0.9809
11.3845 -17.4658 -2.0016 0.9196
12.0047 -17.0454 -2.0016 0.9196
12.6095 -16.6031 -2.0016 0.9196
13.1979 -16.1392 -2.0016 0.9196
13.7693 -15.6546 -2.0016 0.9196
15.3740 -14.0819 -2.0016 0.9196
15.8701 -13.5203 -2.0016 0.9196
17.2329 -11.7340 -2.0016 0.9196
18.0311 -10.4660 -2.0016 0.9196
18.7363 -9.1440 -2.0016 0.9196
19.6115 -7.0746 -2.0016 0.9196
20.0689 -5.6478 -2.0016 0.9196
20.2589 -4.9230 -2.0016 0.9196
20.4227 -4.1919 -2.0016 0.9196
20.6710 -2.7143 -2.0016 0.9196
20.7552 -1.9698 -2.0016 0.9196
20.8467 0.2752 -2.0016 0.9196
20.8233 1.0241 -2.0016 0.9196
20.7731 1.7717 -2.0016 0.9196
20.4618 3.9969 -2.0016 0.9196
20.3049 4.7296 -2.0016 0.9196
19.6781 6.8872 -2.0016 0.9196
19.1326 8.2827 -2.0016 0.9196
18.8226 8.9649 -2.0016 0.9196
18.4883 9.6354 -2.0016 0.9196
17.7486 10.9384 -2.0016 0.9196
17.3440 11.5691 -2.0016 0.9196
16.4684 12.7849 -2.0016 0.9196
15.9983 13.3684 -2.0016 0.9196
15.5076 13.9346 -2.0016 0.9196
14.4668 15.0124 -2.0016 0.9196
13.3512 16.0126 -2.0016 0.9196
12.1667 16.9302 -2.0016 0.9196
10.9194 17.7603 -2.0016 0.9196
10.2741 18.1412 -2.0016 0.9196
9.6156 18.4986 -2.0016 0.9196
7.6340 17.6859 -1.8494 0.9255
6.9935 17.9488 -1.8494 0.9255
6.3441 18.1885 -1.8494 0.9255
3.6070 13.3589 -1.3284 0.9459
2.0058 12.7619 -1.2402 0.9494
1.5397 12.7740 -1.2352 0.9496
0.5802 12.0604 -1.1592 0.9526
0.1462 12.0508 -1.1570 0.9527
-0.7263 12.1407 -1.1677 0.9523
-1.1300 11.7723 -1.1354 0.9536
-1.1696 8.8339 -0.8555 0.9648
-2.0253 11.9725 -1.1658 0.9524
-2.4648 11.9435 -1.1708 0.9522
-2.9250 11.9810 -1.1840 0.9516
-5.2144 11.7029 -1.2300 0.9498
-5.8306 11.9147 -1.2735 0.9481
-6.3753 11.9226 -1.2980 0.9471
-7.3095 11.5834 -1.3150 0.9464
-8.4436 11.4644 -1.3669 0.9444
-9.7958 11.4733 -1.4484 0.9412
-11.3276 11.4833 -1.5486 0.9372
-12.1781 11.4889 -1.6073 0.9349
-13.0970 11.4949 -1.6730 0.9324
-16.5158 9.9144 -1.8494 0.9255
-16.8615 9.3146 -1.8494 0.9255
-17.8612 8.2525 -1.8890 0.9240
-19.7571 6.6570 -2.0016 0.9196
-19.9836 5.9427 -2.0016 0.9196
-20.1842 5.2208 -2.0016 0.9196
-20.6288 3.0184 -2.0016 0.9196
-20.7240 2.2752 -2.0016 0.9196
-20.7924 1.5290 -2.0016 0.9196
-20.8339 0.7809 -2.0016 0.9196
-20.8362 -0.7174 -2.0016 0.9196
-20.7969 -1.4657 -2.0016 0.9196
-20.3724 -4.4301 -2.0016 0.9196
-19.2525 -8.0001 -2.0016 0.9196
-18.6282 -9.3622 -2.0016 0.9196
-18.2797 -10.0255 -2.0016 0.9196
-17.9077 -10.6759 -2.0016 0.9196
-17.5125 -11.3124 -2.0016 0.9196
-17.0947 -11.9345 -2.0016 0.9196
-15.7111 -13.7048 -2.0016 0.9196
-15.2085 -14.2605 -2.0016 0.9196
-14.1451 -15.3159 -2.0016 0.9196
-12.9090 -16.1676 -1.9863 0.9202
-11.9909 -16.1775 -1.9332 0.9223
-10.3296 -16.2594 -1.8494 0.9255
-9.7387 -16.6201 -1.8494 0.9255
-9.1352 -16.9593 -1.8494 0.9255
-8.5199 -17.2766 -1.8494 0.9255
-5.3725 -16.5222 -1.6680 0.9326
-4.6257 -18.6995 -1.8494 0.9255
-3.9508 -18.8537 -1.8494 0.9255
-3.2708 -18.9835 -1.8494 0.9255
-1.8989 -19.1693 -1.8494 0.9255
2.9329 -19.0386 -1.8494 0.9255
4.2927 -18.7787 -1.8494 0.9255
5.0075 -18.7729 -1.8653 0.9249
8.8873 -18.8594 -2.0016 0.9196
2.1910 -4.2467 -0.4588 0.9810
11.4976 -17.3915 -2.0016 0.9196
13.3024 -16.0532 -2.0016 0.9196
13.8707 -15.5648 -2.0016 0.9196
14.4210 -15.0564 -2.0016 0.9196
15.4651 -13.9818 -2.0016 0.9196
16.4293 -12.8350 -2.0016 0.9196
19.1073 -8.3410 -2.0016 0.9196
20.1052 -5.5174 -2.0016 0.9196
20.2904 -4.7915 -2.0016 0.9196
20.4495 -4.0592 -2.0016 0.9196
20.5822 -3.3218 -2.0016 0.9196
20.7676 -1.8350 -2.0016 0.9196
20.8457 -0.3387 -2.0016 0.9196
20.8445 0.4105 -2.0016 0.9196
20.6792 2.6513 -2.0016 0.9196
20.2738 4.8613 -2.0016 0.9196
19.8723 6.3048 -2.0016 0.9196
19.6329 7.0148 -2.0016 0.9196
-7.7124 11.4596 -1.6408 0.9459
-8.3288 11.4637 -1.6832 0.9445
-9.6670 11.4724 -1.7821 0.9414
-10.3988 11.4772 -1.8397 0.9395
-10.8612 11.1545 -1.8494 0.9392
-11.2551 10.7570 -1.8494 0.9392
-11.6343 10.3456 -1.8494 0.9392
-12.3473 9.4833 -1.8494 0.9392
-12.6801 9.0335 -1.8494 0.9392
-12.9965 8.5721 -1.8494 0.9392
-13.5486 8.2533 -1.8845 0.9381
-15.2502 7.1666 -2.0016 0.9344
-15.4979 6.6139 -2.0016 0.9344
-16.2855 4.3254 -2.0016 0.9344
-16.4305 3.7374 -2.0016 0.9344
-16.5541 3.1446 -2.0016 0.9344
-16.6564 2.5477 -2.0016 0.9344
-16.7372 1.9475 -2.0016 0.9344
-16.7964 1.3448 -2.0016 0.9344
-16.8496 0.1350 -2.0016 0.9344
-16.8436 -0.4705 -2.0016 0.9344
-16.8158 -1.0755 -2.0016 0.9344
-16.6024 -2.8788 -2.0016 0.9344
-16.1962 -4.6488 -2.0016 0.9344
-15.8205 -5.8000 -2.0016 0.9344
-15.3631 -6.9212 -2.0016 0.9344
-14.5290 -8.5343 -2.0016 0.9344
-13.8786 -9.5558 -2.0016 0.9344
-13.1565 -10.5278 -2.0016 0.9344
-12.7697 -10.9938 -2.0016 0.9344
-12.3664 -11.4456 -2.0016 0.9344
-11.9471 -11.8825 -2.0016 0.9344
-11.5124 -12.3041 -2.0016 0.9344
-10.5990 -13.0992 -2.0016 0.9344
-9.6308 -13.8266 -2.0016 0.9344
-8.0870 -14.7827 -2.0016 0.9344
-7.5506 -15.0638 -2.0016 0.9344
-7.0044 -15.3253 -2.0016 0.9344
-5.3037 -15.9575 -1.9975 0.9345
-3.4985 -16.1715 -1.9654 0.9355
-2.8949 -16.1740 -1.9518 0.9360
0.0423 -16.2948 -1.9356 0.9365
1.2356 -16.5599 -1.9725 0.9353
3.0548 -16.5709 -2.0016 0.9344
3.6483 -16.4505 -2.0016 0.9344
4.8203 -16.1460 -2.0016 0.9344
6.5298 -15.5335 -2.0016 0.9344
7.0838 -15.2888 -2.0016 0.9344
2.3230 -4.1946 -0.5696 0.9809
8.6880 -14.4377 -2.0016 0.9344
9.2011 -14.1162 -2.0016 0.9344
9.7024 -13.7764 -2.0016 0.9344
10.1912 -13.4189 -2.0016 0.9344
10.6668 -13.0440 -2.0016 0.9344
11.1286 -12.6523 -2.0016 0.9344
11.5761 -12.2443 -2.0016 0.9344
12.0086 -11.8204 -2.0016 0.9344
12.4256 -11.3813 -2.0016 0.9344
14.5731 -8.4588 -2.0016 0.9344
14.8677 -7.9297 -2.0016 0.9344
15.3988 -6.8414 -2.0016 0.9344
15.6347 -6.2836 -2.0016 0.9344
15.8504 -5.7178 -2.0016 0.9344
16.3736 -3.9789 -2.0016 0.9344
16.5060 -3.3880 -2.0016 0.9344
16.6171 -2.7927 -2.0016 0.9344
16.7067 -2.1937 -2.0016 0.9344
16.8212 -0.9882 -2.0016 0.9344
16.7269 2.0343 -2.0016 0.9344
16.6430 2.6341 -2.0016 0.9344
16.5376 3.2304 -2.0016 0.9344
16.2629 4.4098 -2.0016 0.9344
16.0939 4.9913 -2.0016 0.9344
15.6939 6.1343 -2.0016 0.9344
14.9426 7.7875 -2.0016 0.9344
14.3447 8.8406 -2.0016 0.9344
14.0178 9.3504 -2.0016 0.9344
13.3100 10.3330 -2.0016 0.9344
12.5335 11.2622 -2.0016 0.9344
11.6923 12.1333 -2.0016 0.9344
10.7907 12.9417 -2.0016 0.9344
10.3187 13.3211 -2.0016 0.9344
9.8334 13.6833 -2.0016 0.9344
9.3353 14.0278 -2.0016 0.9344
8.8253 14.3542 -2.0016 0.9344
7.6723 13.5471 -1.8494 0.9392
6.6796 14.0632 -1.8494 0.9392
6.1699 14.2941 -1.8494 0.9392
5.6523 14.5066 -1.8494 0.9392
5.1274 14.7003 -1.8494 0.9392
3.6070 13.3589 -1.6437 0.9458
2.4974 12.8584 -1.5559 0.9486
1.0269 12.1951 -1.4537 0.9519
0.5769 11.9921 -1.4261 0.9528
-0.2765 11.6072 -1.3792 0.9543
-0.6828 11.4136 -1.3582 0.9550
-1.9321 11.4218 -1.3760 0.9544
-4.6118 11.4393 -1.4651 0.9515
-5.0984 11.4425 -1.4880 0.9508
-5.6012 11.4458 -1.5137 0.9500
-6.1222 11.4492 -1.5422 0.9490
-6.6641 11.4528 -1.5740 0.9480
-7.2294 11.4565 -1.6092 0.9469
-7.8214 11.4604 -1.6481 0.9456
-9.1001 11.4687 -1.7391 0.9427
-10.5281 11.4695 -1.8494 0.9392
-10.9334 11.0838 -1.8494 0.9392
-12.0627 9.8428 -1.8494 0.9392
-12.4086 9.4030 -1.8494 0.9392
-13.0519 8.4875 -1.8494 0.9392
-13.7426 8.2497 -1.9040 0.9375
-14.7067 8.1242 -1.9958 0.9346
-15.0325 7.6125 -2.0016 0.9344
-15.2964 7.0674 -2.0016 0.9344
-16.1511 4.8030 -2.0016 0.9344
-16.4544 3.6306 -2.0016 0.9344
-16.5742 3.0370 -2.0016 0.9344
-16.6726 2.4395 -2.0016 0.9344
-16.7495 1.8388 -2.0016 0.9344
-16.8048 1.2358 -2.0016 0.9344
-16.8383 0.6311 -2.0016 0.9344
-16.8501 0.0257 -2.0016 0.9344
-16.8085 -1.1846 -2.0016 0.9344
-16.7550 -1.7878 -2.0016 0.9344
-16.6800 -2.3887 -2.0016 0.9344
-16.4653 -3.5805 -2.0016 0.9344
-16.3260 -4.1699 -2.0016 0.9344
-16.1657 -4.7538 -2.0016 0.9344
-15.9844 -5.3316 -2.0016 0.9344
-15.7825 -5.9025 -2.0016 0.9344
-15.5602 -6.4659 -2.0016 0.9344
-15.0557 -7.5667 -2.0016 0.9344
-13.0878 -10.6130 -2.0016 0.9344
-12.2918 -11.5256 -2.0016 0.9344
-11.8697 -11.9598 -2.0016 0.9344
-11.4323 -12.3786 -2.0016 0.9344
-10.9801 -12.7814 -2.0016 0.9344
-10.5138 -13.1677 -2.0016 0.9344
-10.0338 -13.5370 -2.0016 0.9344
-6.9048 -15.3705 -2.0016 0.9344
-6.3480 -15.6087 -2.0016 0.9344
-5.7783 -15.8137 -1.9999 0.9344
-5.1987 -15.9875 -1.9970 0.9345
-4.6147 -16.1427 -1.9943 0.9346
-2.1919 -16.1764 -1.9391 0.9364
-1.6026 -16.1779 -1.9311 0.9366
-0.4360 -16.2318 -1.9288 0.9367
0.1482 -16.3108 -1.9376 0.9364
0.7403 -16.4308 -1.9537 0.9359
1.9598 -16.6870 -1.9958 0.9346
3.1623 -16.5508 -2.0016 0.9344
4.9250 -16.1143 -2.0016 0.9344
7.1829 -15.2425 -2.0016 0.9344
2.1910 -4.2467 -0.5676 0.9809
8.2591 -14.6873 -2.0016 0.9344
8.7815 -14.3810 -2.0016 0.9344
9.7916 -13.7132 -2.0016 0.9344
10.7512 -12.9745 -2.0016 0.9344
12.8972 -10.8439 -2.0016 0.9344
13.6427 -9.8896 -2.0016 0.9344
13.9892 -9.3930 -2.0016 0.9344
15.1907 -7.2919 -2.0016 0.9344
15.4429 -6.7413 -2.0016 0.9344
16.0786 -5.0403 -2.0016 0.9344
16.7206 -2.0853 -2.0016 0.9344
16.7848 -1.4831 -2.0016 0.9344
16.8272 -0.8790 -2.0016 0.9344
16.8469 0.3318 -2.0016 0.9344
16.7796 1.5409 -2.0016 0.9344
16.7133 2.1429 -2.0016 0.9344
16.5163 3.3377 -2.0016 0.9344
16.3857 3.9290 -2.0016 0.9344
16.2339 4.5153 -2.0016 0.9344
15.8677 5.6695 -2.0016 0.9344
-6.4910 11.3238 -1.8494 0.9486
-6.8937 11.0832 -1.8494 0.9486
-8.4104 9.9812 -1.8494 0.9486
-9.1056 9.3514 -1.8494 0.9486
-9.4357 9.0182 -1.8494 0.9486
-10.7376 8.2470 -1.9184 0.9468
-11.7924 7.7779 -2.0016 0.9445
-12.3205 6.9108 -2.0016 0.9445
-12.5609 6.4637 -2.0016 0.9445
-12.9927 5.5448 -2.0016 0.9445
-13.1835 5.0744 -2.0016 0.9445
-13.6531 3.6262 -2.0016 0.9445
-13.7745 3.1332 -2.0016 0.9445
-13.9640 2.1359 -2.0016 0.9445
-14.0813 1.1274 -2.0016 0.9445
-14.1259 0.1132 -2.0016 0.9445
-14.1209 -0.3945 -2.0016 0.9445
-14.0976 -0.9016 -2.0016 0.9445
-13.9964 -1.9118 -2.0016 0.9445
-12.8245 -2.7017 -1.8570 0.9484
-12.7192 -3.1608 -1.8570 0.9484
-12.4593 -4.0661 -1.8570 0.9484
-12.3051 -4.5112 -1.8570 0.9484
-12.1351 -4.9505 -1.8570 0.9484
-11.9494 -5.3833 -1.8570 0.9484
-12.6629 -6.2615 -2.0016 0.9445
-12.1805 -7.1548 -2.0016 0.9445
-11.9155 -7.5879 -2.0016 0.9445
-10.3674 -9.5954 -2.0016 0.9445
-10.0159 -9.9618 -2.0016 0.9445
-9.2746 -10.6554 -2.0016 0.9445
-8.4854 -11.2940 -2.0016 0.9445
-8.0741 -11.5916 -2.0016 0.9445
-7.6523 -11.8742 -2.0016 0.9445
-6.7798 -12.3932 -2.0016 0.9445
-5.8722 -12.8481 -2.0016 0.9445
-5.4067 -13.0508 -2.0016 0.9445
-4.9342 -13.2366 -2.0016 0.9445
-2.4889 -13.9054 -2.0016 0.9445
-1.4838 -14.0483 -2.0016 0.9445
-0.4710 -14.1185 -2.0016 0.9445
0.5442 -14.1159 -2.0016 0.9445
1.5566 -14.0404 -2.0016 0.9445
4.5249 -13.3821 -2.0016 0.9445
5.0028 -13.2109 -2.0016 0.9445
5.4743 -13.0226 -2.0016 0.9445
5.9387 -12.8174 -2.0016 0.9445
2.1911 -4.3154 -0.6857 0.9806
7.7138 -11.8344 -2.0016 0.9445
8.9426 -10.9355 -2.0016 0.9445
10.7532 -9.1610 -2.0016 0.9445
11.6766 -7.9506 -2.0016 0.9445
12.2174 -7.0915 -2.0016 0.9445
12.9096 -5.7355 -2.0016 0.9445
13.1074 -5.2679 -2.0016 0.9445
13.2882 -4.7936 -2.0016 0.9445
13.4519 -4.3130 -2.0016 0.9445
13.5982 -3.8268 -2.0016 0.9445
13.8379 -2.8403 -2.0016 0.9445
13.9310 -2.3412 -2.0016 0.9445
14.1228 -0.3212 -2.0016 0.9445
14.1252 0.1865 -2.0016 0.9445
14.1093 0.6939 -2.0016 0.9445
14.0753 1.2005 -2.0016 0.9445
14.0231 1.7055 -2.0016 0.9445
13.9527 2.2083 -2.0016 0.9445
13.7581 3.2047 -2.0016 0.9445
13.6341 3.6970 -2.0016 0.9445
12.5272 6.5287 -2.0016 0.9445
12.0260 7.4116 -2.0016 0.9445
11.7519 7.8389 -2.0016 0.9445
11.4626 8.2561 -2.0016 0.9445
10.5076 9.4417 -2.0016 0.9445
9.4305 10.5177 -2.0016 0.9445
8.2439 11.4714 -2.0016 0.9445
7.8263 11.7603 -2.0016 0.9445
7.3921 12.0231 -1.9998 0.9446
3.4024 12.6010 -1.8494 0.9486
2.9474 12.7151 -1.8494 0.9486
1.9846 12.6271 -1.8111 0.9497
1.0269 12.1951 -1.7340 0.9518
0.5769 11.9921 -1.7011 0.9527
0.1431 11.7964 -1.6715 0.9535
-1.0958 11.4163 -1.6250 0.9547
-1.9321 11.4218 -1.6413 0.9543
-2.3577 11.4245 -1.6528 0.9540
-4.1393 11.4362 -1.7233 0.9521
-5.0984 11.4425 -1.7749 0.9507
-5.6012 11.4458 -1.8055 0.9498
-6.1222 11.4492 -1.8396 0.9489
-6.5643 11.2814 -1.8494 0.9486
