ply
format ascii 1.0
element vertex 1603
property float32 x
property float32 y
property float32 z
property float32 I
end_header
4.2084 7.4040 -2.0016 0.9656
3.6659 7.6871 -2.0016 0.9656
3.1045 7.9304 -2.0016 0.9656
2.8176 8.0369 -2.0016 0.9656
2.2295 8.2044 -1.9981 0.9657
1.9311 8.2696 -1.9958 0.9657
1.3177 8.2946 -1.9739 0.9661
1.0104 8.2679 -1.9576 0.9664
0.7090 8.2549 -1.9472 0.9665
0.1139 8.2434 -1.9376 0.9667
-0.7768 8.2420 -1.9456 0.9666
-1.3790 8.2387 -1.9632 0.9663
-1.9948 8.2335 -1.9911 0.9658
-2.2938 8.1726 -1.9950 0.9657
-2.8789 7.9986 -1.9979 0.9657
-3.4520 7.7853 -2.0015 0.9656
-3.7295 7.6564 -2.0016 0.9656
-4.0022 7.5175 -2.0016 0.9656
-4.2696 7.3689 -2.0016 0.9656
-4.5316 7.2107 -2.0016 0.9656
-4.7877 7.0433 -2.0016 0.9656
-5.0376 6.8667 -2.0016 0.9656
-5.7471 6.2849 -2.0016 0.9656
-5.9692 6.0744 -2.0016 0.9656
-6.3899 5.6301 -2.0016 0.9656
-6.9586 4.9100 -2.0016 0.9656
-7.5901 3.8627 -2.0016 0.9656
-7.7239 3.5876 -2.0016 0.9656
-8.0651 2.7358 -2.0016 0.9656
-8.3738 1.5524 -2.0016 0.9656
-8.4241 1.2506 -2.0016 0.9656
-8.4922 0.6425 -2.0016 0.9656
-8.5098 0.3370 -2.0016 0.9656
-8.5164 0.0311 -2.0016 0.9656
0.5323 -7.7121 -2.0016 0.9686
0.8090 -7.6880 -2.0016 0.9686
1.3590 -7.6101 -2.0016 0.9686
1.9019 -7.4929 -2.0016 0.9686
2.4349 -7.3370 -2.0016 0.9686
2.6969 -7.2448 -2.0016 0.9686
3.2101 -7.0325 -2.0016 0.9686
3.9481 -6.6463 -2.0016 0.9686
4.4151 -6.3456 -2.0016 0.9686
4.6402 -6.1829 -2.0016 0.9686
5.2785 -5.6478 -2.0016 0.9686
5.6704 -5.2543 -2.0016 0.9686
5.8554 -5.0472 -2.0016 0.9686
6.0330 -4.8336 -2.0016 0.9686
6.2027 -4.6137 -2.0016 0.9686
6.9273 -3.4311 -2.0016 0.9686
7.0461 -3.1801 -2.0016 0.9686
7.1558 -2.9249 -2.0016 0.9686
7.7143 -0.4994 -2.0016 0.9686
7.7273 -0.2219 -2.0016 0.9686
7.7303 0.0558 -2.0016 0.9686
7.7233 0.3335 -2.0016 0.9686
7.7063 0.6107 -2.0016 0.9686
7.6426 1.1624 -2.0016 0.9686
7.4732 1.9779 -2.0016 0.9686
7.3973 2.2451 -2.0016 0.9686
7.3119 2.5094 -2.0016 0.9686
7.1128 3.0279 -2.0016 0.9686
6.9995 3.2815 -2.0016 0.9686
6.6058 4.0155 -2.0016 0.9686
6.4573 4.2502 -2.0016 0.9686
6.1355 4.7028 -2.0016 0.9686
5.9626 4.9202 -2.0016 0.9686
5.7820 5.1312 -2.0016 0.9686
5.5939 5.3356 -2.0016 0.9686
5.3986 5.5331 -2.0016 0.9686
5.1964 5.7235 -2.0016 0.9686
4.9874 5.9065 -2.0016 0.9686
4.7720 6.0818 -2.0016 0.9686
4.5504 6.2493 -2.0016 0.9686
4.0900 6.5599 -2.0016 0.9686
3.6084 6.8366 -2.0016 0.9686
3.1083 7.0781 -2.0016 0.9686
2.5920 7.2830 -2.0016 0.9686
1.5222 7.5791 -2.0016 0.9686
1.2489 7.6289 -2.0016 0.9686
0.1434 7.7292 -2.0016 0.9686
-0.1344 7.7293 -2.0016 0.9686
-0.4120 7.7195 -2.0016 0.9686
-0.6890 7.6997 -2.0016 0.9686
-0.9652 7.6700 -2.0016 0.9686
-1.2401 7.6304 -2.0016 0.9686
-1.5134 7.5809 -2.0016 0.9686
-2.0538 7.4527 -2.0016 0.9686
-2.3202 7.3741 -2.0016 0.9686
-3.6005 6.8408 -2.0016 0.9686
-3.8439 6.7071 -2.0016 0.9686
-4.5432 6.2546 -2.0016 0.9686
-5.3922 5.5394 -2.0016 0.9686
-5.5877 5.3421 -2.0016 0.9686
-5.7760 5.1379 -2.0016 0.9686
-5.9568 4.9271 -2.0016 0.9686
-6.2952 4.4867 -2.0016 0.9686
-6.4523 4.2577 -2.0016 0.9686
-6.6011 4.0231 -2.0016 0.9686
-6.7414 3.7834 -2.0016 0.9686
-6.8729 3.5388 -2.0016 0.9686
-7.2138 2.7788 -2.0016 0.9686
-7.3947 2.2537 -2.0016 0.9686
-7.4709 1.9866 -2.0016 0.9686
-7.5374 1.7169 -2.0016 0.9686
-7.6784 0.8961 -2.0016 0.9686
-7.7056 0.6197 -2.0016 0.9686
-7.7229 0.3424 -2.0016 0.9686
-7.7276 -0.2129 -2.0016 0.9686
-7.7149 -0.4904 -2.0016 0.9686
-7.6598 -1.0431 -2.0016 0.9686
-7.6174 -1.3176 -2.0016 0.9686
-7.5651 -1.5904 -2.0016 0.9686
-7.4314 -2.1294 -2.0016 0.9686
-6.8761 -2.2405 -1.8725 0.9706
-6.7350 -2.4655 -1.8570 0.9708
-6.6421 -2.7059 -1.8570 0.9708
-6.4306 -3.1758 -1.8570 0.9708
-6.1860 -3.6293 -1.8570 0.9708
-6.0516 -3.8492 -1.8570 0.9708
-5.9095 -4.0641 -1.8570 0.9708
-5.7597 -4.2738 -1.8570 0.9708
-5.2664 -4.8686 -1.8570 0.9708
-5.0881 -5.0547 -1.8570 0.9708
-4.7121 -5.4070 -1.8570 0.9708
-4.5148 -5.5727 -1.8570 0.9708
-4.6474 -6.1776 -2.0016 0.9686
-4.4225 -6.3405 -2.0016 0.9686
-4.1919 -6.4953 -2.0016 0.9686
-3.9558 -6.6417 -2.0016 0.9686
-3.4687 -6.9086 -2.0016 0.9686
-2.9637 -7.1398 -2.0016 0.9686
-2.7053 -7.2417 -2.0016 0.9686
-2.4435 -7.3342 -2.0016 0.9686
-1.6402 -7.5545 -2.0016 0.9686
-1.3678 -7.6085 -2.0016 0.9686
0.8454 -7.6841 -2.0016 0.9686
1.9373 -7.4838 -2.0016 0.9686
2.2049 -7.4094 -2.0016 0.9686
2.9892 -7.1292 -2.0016 0.9686
2.1124 -4.1700 -1.2103 0.9809
3.9795 -6.6275 -2.0016 0.9686
4.4451 -6.3247 -2.0016 0.9686
4.6694 -6.1609 -2.0016 0.9686
4.8877 -5.9892 -2.0016 0.9686
5.3051 -5.6228 -2.0016 0.9686
5.5037 -5.4286 -2.0016 0.9686
5.6951 -5.2274 -2.0016 0.9686
5.8792 -5.0194 -2.0016 0.9686
6.2245 -4.5844 -2.0016 0.9686
6.3851 -4.3578 -2.0016 0.9686
6.9435 -3.3983 -2.0016 0.9686
7.0611 -3.1467 -2.0016 0.9686
7.1696 -2.8910 -2.0016 0.9686
7.3586 -2.3688 -2.0016 0.9686
7.4390 -2.1029 -2.0016 0.9686
7.5708 -1.5634 -2.0016 0.9686
7.6220 -1.2904 -2.0016 0.9686
7.7283 -0.1854 -2.0016 0.9686
7.7299 0.0924 -2.0016 0.9686
7.7216 0.3700 -2.0016 0.9686
7.6751 0.9234 -2.0016 0.9686
7.6370 1.1986 -2.0016 0.9686
7.5890 1.4721 -2.0016 0.9686
7.4637 2.0132 -2.0016 0.9686
7.3866 2.2801 -2.0016 0.9686
7.2038 2.8045 -2.0016 0.9686
6.9839 3.3145 -2.0016 0.9686
6.8603 3.5633 -2.0016 0.9686
6.7279 3.8074 -2.0016 0.9686
6.5867 4.0466 -2.0016 0.9686
6.2792 4.5091 -2.0016 0.9686
5.9392 4.9483 -2.0016 0.9686
5.7576 5.1585 -2.0016 0.9686
5.5686 5.3620 -2.0016 0.9686
5.1692 5.7480 -2.0016 0.9686
4.7432 6.1043 -2.0016 0.9686
4.5208 6.2707 -2.0016 0.9686
4.2927 6.4291 -2.0016 0.9686
4.0589 6.5792 -2.0016 0.9686
3.8200 6.7207 -2.0016 0.9686
3.5761 6.8536 -2.0016 0.9686
3.0748 7.0927 -2.0016 0.9686
2.8180 7.1986 -2.0016 0.9686
2.2939 7.3823 -2.0016 0.9686
2.0272 7.4600 -2.0016 0.9686
1.7579 7.5280 -2.0016 0.9686
1.2128 7.6348 -2.0016 0.9686
0.9378 7.6734 -2.0016 0.9686
0.3844 7.7209 -2.0016 0.9686
-0.1709 7.7286 -2.0016 0.9686
-0.4485 7.7175 -2.0016 0.9686
-0.7254 7.6964 -2.0016 0.9686
-1.0014 7.6654 -2.0016 0.9686
-1.2761 7.6244 -2.0016 0.9686
-1.5492 7.5737 -2.0016 0.9686
-2.0890 7.4429 -2.0016 0.9686
-2.6180 7.2737 -2.0016 0.9686
-2.8776 7.1749 -2.0016 0.9686
-3.3853 6.9498 -2.0016 0.9686
-3.8756 6.6888 -2.0016 0.9686
-4.3459 6.3933 -2.0016 0.9686
-4.5727 6.2330 -2.0016 0.9686
-6.8896 3.5062 -2.0016 0.9686
-7.0111 3.2565 -2.0016 0.9686
-7.2268 2.7447 -2.0016 0.9686
-7.3208 2.4833 -2.0016 0.9686
-7.4052 2.2187 -2.0016 0.9686
-7.5454 1.6813 -2.0016 0.9686
-7.7244 0.3059 -2.0016 0.9686
-7.7265 -0.2495 -2.0016 0.9686
0.4869 -7.0536 -2.0016 0.9710
0.9921 -7.0004 -2.0016 0.9710
1.2429 -6.9602 -2.0016 0.9710
1.4921 -6.9111 -2.0016 0.9710
1.7394 -6.8530 -2.0016 0.9710
2.7031 -6.5332 -2.0016 0.9710
2.9360 -6.4319 -2.0016 0.9710
2.0971 -4.1889 -1.3262 0.9807
2.2386 -4.0969 -1.3217 0.9808
4.0381 -5.8037 -2.0016 0.9710
4.2440 -5.6549 -2.0016 0.9710
5.1861 -4.8056 -2.0016 0.9710
5.5178 -4.4208 -2.0016 0.9710
5.6730 -4.2197 -2.0016 0.9710
5.8210 -4.0132 -2.0016 0.9710
6.0941 -3.5849 -2.0016 0.9710
6.4444 -2.9085 -2.0016 0.9710
6.5447 -2.6751 -2.0016 0.9710
6.7199 -2.1983 -2.0016 0.9710
7.0046 -0.9621 -2.0016 0.9710
7.0346 -0.7099 -2.0016 0.9710
7.0556 -0.4567 -2.0016 0.9710
7.0638 0.3050 -2.0016 0.9710
7.0482 0.5586 -2.0016 0.9710
7.0236 0.8114 -2.0016 0.9710
6.9899 1.0632 -2.0016 0.9710
6.8956 1.5623 -2.0016 0.9710
6.8350 1.8090 -2.0016 0.9710
6.6875 2.2951 -2.0016 0.9710
6.6007 2.5338 -2.0016 0.9710
6.5054 2.7693 -2.0016 0.9710
6.4017 3.0012 -2.0016 0.9710
6.0417 3.6725 -2.0016 0.9710
5.9059 3.8872 -2.0016 0.9710
5.2882 4.6930 -2.0016 0.9710
4.9376 5.0606 -2.0016 0.9710
4.1619 5.7156 -2.0016 0.9710
3.9539 5.8615 -2.0016 0.9710
3.7407 5.9997 -2.0016 0.9710
3.5228 6.1302 -2.0016 0.9710
3.3003 6.2528 -2.0016 0.9710
3.0735 6.3673 -2.0016 0.9710
2.8428 6.4736 -2.0016 0.9710
2.6084 6.5716 -2.0016 0.9710
2.3707 6.6610 -2.0016 0.9710
2.1299 6.7419 -2.0016 0.9710
1.6403 6.8774 -2.0016 0.9710
0.8909 7.0140 -2.0016 0.9710
0.3850 7.0598 -2.0016 0.9710
-0.3768 7.0603 -2.0016 0.9710
-0.6302 7.0422 -2.0016 0.9710
-0.8827 7.0150 -2.0016 0.9710
-1.1342 6.9788 -2.0016 0.9710
-1.3841 6.9335 -2.0016 0.9710
-1.6323 6.8793 -2.0016 0.9710
-2.1220 6.7444 -2.0016 0.9710
-2.3629 6.6638 -2.0016 0.9710
-2.6008 6.5746 -2.0016 0.9710
-3.0661 6.3709 -2.0016 0.9710
-3.5157 6.1343 -2.0016 0.9710
-3.7338 6.0041 -2.0016 0.9710
-4.1552 5.7205 -2.0016 0.9710
-4.3580 5.5675 -2.0016 0.9710
-4.5552 5.4074 -2.0016 0.9710
-4.7465 5.2402 -2.0016 0.9710
-4.9317 5.0663 -2.0016 0.9710
-5.4481 4.5064 -2.0016 0.9710
-5.6065 4.3077 -2.0016 0.9710
-6.0374 3.6796 -2.0016 0.9710
-6.1657 3.4603 -2.0016 0.9710
-6.2860 3.2366 -2.0016 0.9710
-6.3982 3.0087 -2.0016 0.9710
-6.5022 2.7769 -2.0016 0.9710
-6.6848 2.3029 -2.0016 0.9710
-6.7632 2.0612 -2.0016 0.9710
-6.8937 1.5703 -2.0016 0.9710
-6.9457 1.3217 -2.0016 0.9710
-7.0227 0.8195 -2.0016 0.9710
-7.0476 0.5667 -2.0016 0.9710
-7.0634 0.3132 -2.0016 0.9710
-7.0701 0.0593 -2.0016 0.9710
-7.0676 -0.1948 -2.0016 0.9710
-7.0561 -0.4485 -2.0016 0.9710
-7.0354 -0.7017 -2.0016 0.9710
-6.9669 -1.2050 -2.0016 0.9710
-6.8624 -1.7022 -2.0016 0.9710
-6.7968 -1.9476 -2.0016 0.9710
-6.0749 -2.4748 -1.8570 0.9731
-5.8815 -2.9046 -1.8570 0.9731
-5.7733 -3.1140 -1.8570 0.9731
-5.2678 -3.9088 -1.8570 0.9731
-4.9735 -4.2770 -1.8570 0.9731
-4.8167 -4.4529 -1.8570 0.9731
-3.9435 -5.2419 -1.8570 0.9731
-3.7526 -5.3802 -1.8570 0.9731
-3.5569 -5.5115 -1.8570 0.9731
-3.3974 -6.2006 -2.0016 0.9710
-2.9435 -6.4285 -2.0016 0.9710
-2.7106 -6.5301 -2.0016 0.9710
-2.4743 -6.6232 -2.0016 0.9710
-1.7474 -6.8510 -2.0016 0.9710
-1.5002 -6.9094 -2.0016 0.9710
-1.0002 -6.9992 -2.0016 0.9710
-0.4951 -7.0530 -2.0016 0.9710
-0.2414 -7.0662 -2.0016 0.9710
0.2666 -7.0653 -2.0016 0.9710
0.5202 -7.0512 -2.0016 0.9710
1.0252 -6.9956 -2.0016 0.9710
1.2758 -6.9543 -2.0016 0.9710
1.7718 -6.8447 -2.0016 0.9710
2.0166 -6.7767 -2.0016 0.9710
2.7339 -6.5204 -2.0016 0.9710
2.2636 -4.0965 -1.3250 0.9807
3.6396 -6.0616 -2.0016 0.9710
3.8550 -5.9269 -2.0016 0.9710
4.2706 -5.6348 -2.0016 0.9710
4.4703 -5.4778 -2.0016 0.9710
4.6642 -5.3136 -2.0016 0.9710
5.0337 -4.9650 -2.0016 0.9710
5.2088 -4.7810 -2.0016 0.9710
5.3772 -4.5908 -2.0016 0.9710
5.5386 -4.3947 -2.0016 0.9710
5.9793 -3.7733 -2.0016 0.9710
6.2348 -3.3342 -2.0016 0.9710
6.3505 -3.1081 -2.0016 0.9710
6.7302 -2.1665 -2.0016 0.9710
6.8037 -1.9233 -2.0016 0.9710
6.8684 -1.6777 -2.0016 0.9710
6.9242 -1.4299 -2.0016 0.9710
6.9711 -1.1802 -2.0016 0.9710
7.0379 -0.6766 -2.0016 0.9710
7.0577 -0.4234 -2.0016 0.9710
7.0683 -0.1695 -2.0016 0.9710
7.0698 0.0845 -2.0016 0.9710
7.0622 0.3384 -2.0016 0.9710
7.0455 0.5919 -2.0016 0.9710
7.0197 0.8446 -2.0016 0.9710
6.9848 1.0962 -2.0016 0.9710
6.9409 1.3464 -2.0016 0.9710
6.3875 3.0315 -2.0016 0.9710
6.1533 3.4823 -2.0016 0.9710
6.0242 3.7011 -2.0016 0.9710
5.8874 3.9151 -2.0016 0.9710
5.7430 4.1241 -2.0016 0.9710
5.4320 4.5258 -2.0016 0.9710
4.7278 5.2571 -2.0016 0.9710
4.1348 5.7353 -2.0016 0.9710
3.9261 5.8801 -2.0016 0.9710
3.7123 6.0173 -2.0016 0.9710
3.0434 6.3818 -2.0016 0.9710
2.5773 6.5838 -2.0016 0.9710
2.3392 6.6722 -2.0016 0.9710
1.6078 6.8851 -2.0016 0.9710
1.1093 6.9828 -2.0016 0.9710
0.6050 7.0444 -2.0016 0.9710
0.3516 7.0616 -2.0016 0.9710
0.0977 7.0697 -2.0016 0.9710
-0.9159 7.0108 -2.0016 0.9710
-1.1672 6.9733 -2.0016 0.9710
-1.6648 6.8715 -2.0016 0.9710
-2.6319 6.5622 -2.0016 0.9710
-2.8659 6.4634 -2.0016 0.9710
-4.7712 5.2177 -2.0016 0.9710
-5.1336 4.8617 -2.0016 0.9710
-5.3049 4.6741 -2.0016 0.9710
-5.6268 4.2812 -2.0016 0.9710
-5.7770 4.0763 -2.0016 0.9710
-5.9197 3.8661 -2.0016 0.9710
-6.0547 3.6510 -2.0016 0.9710
-6.3013 3.2068 -2.0016 0.9710
-6.4124 2.9784 -2.0016 0.9710
-6.5153 2.7461 -2.0016 0.9710
-6.6097 2.5103 -2.0016 0.9710
-6.6956 2.2712 -2.0016 0.9710
-6.7729 2.0292 -2.0016 0.9710
-6.9937 1.0382 -2.0016 0.9710
-7.0265 0.7863 -2.0016 0.9710
-7.0502 0.5334 -2.0016 0.9710
-7.0648 0.2798 -2.0016 0.9710
-7.0703 0.0258 -2.0016 0.9710
-7.0666 -0.2282 -2.0016 0.9710
0.2146 -6.5039 -2.0016 0.9731
0.4481 -6.4920 -2.0016 0.9731
0.9131 -6.4431 -2.0016 0.9731
1.1440 -6.4061 -2.0016 0.9731
2.2703 -6.0986 -2.0016 0.9731
2.3082 -5.5788 -1.8570 0.9751
2.5071 -5.4923 -1.8570 0.9751
2.2308 -4.0825 -1.4309 0.9807
2.4234 -4.0795 -1.4595 0.9803
3.5223 -5.4718 -2.0016 0.9731
3.9061 -5.2048 -2.0016 0.9731
4.0906 -5.0611 -2.0016 0.9731
4.6113 -4.5916 -2.0016 0.9731
4.7733 -4.4230 -2.0016 0.9731
5.0785 -4.0689 -2.0016 0.9731
5.4868 -3.4989 -2.0016 0.9731
5.6090 -3.2995 -2.0016 0.9731
5.8314 -2.8883 -2.0016 0.9731
5.9314 -2.6769 -2.0016 0.9731
6.1083 -2.2442 -2.0016 0.9731
6.2536 -1.7998 -2.0016 0.9731
6.3143 -1.5740 -2.0016 0.9731
6.3667 -1.3461 -2.0016 0.9731
6.4469 -0.8855 -2.0016 0.9731
6.4746 -0.6534 -2.0016 0.9731
6.5073 0.0470 -2.0016 0.9731
6.5014 0.2807 -2.0016 0.9731
6.4871 0.5141 -2.0016 0.9731
6.3942 1.2090 -2.0016 0.9731
6.2270 1.8899 -2.0016 0.9731
6.1551 2.1124 -2.0016 0.9731
6.0752 2.3321 -2.0016 0.9731
5.1648 3.9588 -2.0016 0.9731
5.0193 4.1418 -2.0016 0.9731
4.5445 4.6577 -2.0016 0.9731
4.3743 4.8180 -2.0016 0.9731
4.1984 4.9720 -2.0016 0.9731
3.8305 5.2606 -2.0016 0.9731
3.6391 5.3948 -2.0016 0.9731
3.4429 5.5221 -2.0016 0.9731
3.2424 5.6422 -2.0016 0.9731
2.4008 6.0484 -2.0016 0.9731
1.9603 6.2052 -2.0016 0.9731
1.5097 6.3299 -2.0016 0.9731
1.2814 6.3801 -2.0016 0.9731
0.8200 6.4556 -2.0016 0.9731
0.5875 6.4809 -2.0016 0.9731
-0.5800 6.4816 -2.0016 0.9731
-1.0439 6.4232 -2.0016 0.9731
-1.5024 6.3317 -2.0016 0.9731
-1.9531 6.2075 -2.0016 0.9731
-2.1748 6.1333 -2.0016 0.9731
-2.3938 6.0512 -2.0016 0.9731
-3.0309 5.7586 -2.0016 0.9731
-3.2358 5.6460 -2.0016 0.9731
-3.8244 5.2651 -2.0016 0.9731
-4.0111 5.1243 -2.0016 0.9731
-4.1926 4.9769 -2.0016 0.9731
-4.3687 4.8231 -2.0016 0.9731
-4.7037 4.4969 -2.0016 0.9731
-5.0144 4.1476 -2.0016 0.9731
-5.1602 3.9648 -2.0016 0.9731
-5.2993 3.7769 -2.0016 0.9731
-5.5568 3.3866 -2.0016 0.9731
-5.6749 3.1848 -2.0016 0.9731
-5.8889 2.7692 -2.0016 0.9731
-5.9846 2.5558 -2.0016 0.9731
-6.0725 2.3392 -2.0016 0.9731
-6.1526 2.1195 -2.0016 0.9731
-6.2248 1.8971 -2.0016 0.9731
-6.2889 1.6723 -2.0016 0.9731
-6.3450 1.4453 -2.0016 0.9731
-6.3928 1.2165 -2.0016 0.9731
-6.4754 -0.6459 -2.0016 0.9731
-6.3683 -1.3388 -2.0016 0.9731
-6.2557 -1.7925 -2.0016 0.9731
-6.0630 -2.2195 -1.9859 0.9733
-5.5058 -2.4772 -1.8570 0.9751
-5.4133 -2.6734 -1.8570 0.9751
-5.0942 -3.2402 -1.8570 0.9751
-4.9746 -3.4212 -1.8570 0.9751
-4.8484 -3.5976 -1.8570 0.9751
-4.4332 -4.0984 -1.8570 0.9751
-4.2832 -4.2550 -1.8570 0.9751
-3.9666 -4.5515 -1.8570 0.9751
-3.6296 -4.8246 -1.8570 0.9751
-3.4539 -4.9519 -1.8570 0.9751
-3.0894 -5.1871 -1.8570 0.9751
-2.1128 -5.6556 -1.8570 0.9751
-2.0569 -6.1739 -2.0016 0.9731
-1.8338 -6.2438 -2.0016 0.9731
-1.6083 -6.3056 -2.0016 0.9731
-1.3807 -6.3593 -2.0016 0.9731
-0.9206 -6.4420 -2.0016 0.9731
-0.6885 -6.4709 -2.0016 0.9731
-0.2222 -6.5037 -2.0016 0.9731
0.2454 -6.5029 -2.0016 0.9731
1.4034 -6.3543 -2.0016 0.9731
1.6308 -6.2998 -2.0016 0.9731
1.8560 -6.2372 -2.0016 0.9731
2.0789 -6.1665 -2.0016 0.9731
2.3345 -5.5678 -1.8570 0.9751
2.0894 -4.1247 -1.4221 0.9808
2.2557 -4.0821 -1.4345 0.9807
2.4542 -4.0874 -1.4664 0.9802
3.9307 -5.1862 -2.0016 0.9731
4.2929 -4.8906 -2.0016 0.9731
4.6330 -4.5698 -2.0016 0.9731
4.7941 -4.4004 -2.0016 0.9731
4.9491 -4.2253 -2.0016 0.9731
5.8450 -2.8607 -2.0016 0.9731
6.0353 -2.4336 -2.0016 0.9731
6.1188 -2.2153 -2.0016 0.9731
6.3730 -1.3160 -2.0016 0.9731
6.4846 0.5448 -2.0016 0.9731
6.4609 0.7774 -2.0016 0.9731
6.3884 1.2392 -2.0016 0.9731
6.3397 1.4679 -2.0016 0.9731
6.2829 1.6947 -2.0016 0.9731
6.2180 1.9193 -2.0016 0.9731
6.0641 2.3608 -2.0016 0.9731
5.9754 2.5772 -2.0016 0.9731
5.8790 2.7901 -2.0016 0.9731
5.5447 3.4064 -2.0016 0.9731
5.1460 3.9832 -2.0016 0.9731
4.9996 4.1655 -2.0016 0.9731
4.6876 4.5137 -2.0016 0.9731
4.3514 4.8386 -2.0016 0.9731
4.1748 4.9918 -2.0016 0.9731
3.8056 5.2787 -2.0016 0.9731
3.4168 5.5383 -2.0016 0.9731
2.8011 5.8738 -2.0016 0.9731
2.5883 5.9706 -2.0016 0.9731
1.2512 6.3861 -2.0016 0.9731
1.0210 6.4269 -2.0016 0.9731
0.7894 6.4594 -2.0016 0.9731
0.0899 6.5069 -2.0016 0.9731
-0.1439 6.5059 -2.0016 0.9731
-1.0742 6.4182 -2.0016 0.9731
-1.7585 6.2654 -2.0016 0.9731
-2.2038 6.1229 -2.0016 0.9731
-3.2625 5.6306 -2.0016 0.9731
-3.6583 5.3818 -2.0016 0.9731
-3.8493 5.2469 -2.0016 0.9731
-4.0353 5.1053 -2.0016 0.9731
-4.5611 4.6415 -2.0016 0.9731
-4.7249 4.4747 -2.0016 0.9731
-4.8826 4.3020 -2.0016 0.9731
-5.0340 4.1239 -2.0016 0.9731
-5.1789 3.9404 -2.0016 0.9731
-5.3171 3.7518 -2.0016 0.9731
-5.5727 3.3603 -2.0016 0.9731
-5.7996 2.9515 -2.0016 0.9731
-5.9019 2.7413 -2.0016 0.9731
-6.0835 2.3104 -2.0016 0.9731
-6.1626 2.0904 -2.0016 0.9731
-6.2968 1.6426 -2.0016 0.9731
-6.4369 0.9556 -2.0016 0.9731
-6.5074 0.0238 -2.0016 0.9731
0.3847 -5.5732 -1.8570 0.9767
0.7839 -5.5312 -1.8570 0.9767
1.1790 -5.4607 -1.8570 0.9767
1.3744 -5.4148 -1.8570 0.9767
1.5680 -5.3619 -1.8570 0.9767
2.1358 -5.1621 -1.8570 0.9767
2.2229 -4.0681 -1.5409 0.9806
2.4145 -4.0646 -1.5715 0.9803
3.1906 -4.5857 -1.8570 0.9767
3.9508 -4.5441 -2.0016 0.9749
4.5609 -3.9314 -2.0016 0.9749
4.8314 -3.5937 -2.0016 0.9749
4.9574 -3.4179 -2.0016 0.9749
5.1900 -3.0531 -2.0016 0.9749
5.6521 -2.0766 -2.0016 0.9749
5.7866 -1.6654 -2.0016 0.9749
5.8427 -1.4564 -2.0016 0.9749
5.8912 -1.2456 -2.0016 0.9749
5.9321 -1.0332 -2.0016 0.9749
5.9910 -0.6046 -2.0016 0.9749
6.0089 -0.3890 -2.0016 0.9749
6.0190 -0.1729 -2.0016 0.9749
6.0158 0.2598 -2.0016 0.9749
5.9817 0.6910 -2.0016 0.9749
5.9530 0.9055 -2.0016 0.9749
5.6954 1.9546 -2.0016 0.9749
5.6215 2.1579 -2.0016 0.9749
5.5403 2.3585 -2.0016 0.9749
5.2544 2.9409 -2.0016 0.9749
4.9075 3.4891 -2.0016 0.9749
4.7790 3.6631 -2.0016 0.9749
4.6444 3.8324 -2.0016 0.9749
4.0476 4.4581 -2.0016 0.9749
3.8848 4.6007 -2.0016 0.9749
3.7170 4.7372 -2.0016 0.9749
3.3673 4.9919 -2.0016 0.9749
3.0002 5.2208 -2.0016 0.9749
2.8107 5.3252 -2.0016 0.9749
2.4211 5.5133 -2.0016 0.9749
2.0190 5.6729 -2.0016 0.9749
1.8139 5.7417 -2.0016 0.9749
1.6065 5.8032 -2.0016 0.9749
0.9728 5.9423 -2.0016 0.9749
0.7587 5.9734 -2.0016 0.9749
0.5437 5.9969 -2.0016 0.9749
0.1117 6.0204 -2.0016 0.9749
-0.1047 6.0205 -2.0016 0.9749
-0.3209 6.0129 -2.0016 0.9749
-0.5367 5.9975 -2.0016 0.9749
-0.7518 5.9743 -2.0016 0.9749
-0.9659 5.9435 -2.0016 0.9749
-1.1788 5.9049 -2.0016 0.9749
-1.3902 5.8588 -2.0016 0.9749
-2.2150 5.5993 -2.0016 0.9749
-2.4147 5.5161 -2.0016 0.9749
-2.8045 5.3285 -2.0016 0.9749
-2.9941 5.2243 -2.0016 0.9749
-3.5388 4.8718 -2.0016 0.9749
-4.0424 4.4628 -2.0016 0.9749
-4.2001 4.3147 -2.0016 0.9749
-4.6399 3.8378 -2.0016 0.9749
-4.9035 3.4948 -2.0016 0.9749
-5.0259 3.3164 -2.0016 0.9749
-5.2510 2.9470 -2.0016 0.9749
-5.3535 2.7564 -2.0016 0.9749
-5.4491 2.5623 -2.0016 0.9749
-5.5376 2.3649 -2.0016 0.9749
-5.6190 2.1645 -2.0016 0.9749
-5.6931 1.9612 -2.0016 0.9749
-5.8192 1.5474 -2.0016 0.9749
-5.9808 0.6980 -2.0016 0.9749
-6.0093 -0.3820 -2.0016 0.9749
-5.9917 -0.5976 -2.0016 0.9749
-5.9664 -0.8125 -2.0016 0.9749
-5.9333 -1.0263 -2.0016 0.9749
-5.8926 -1.2388 -2.0016 0.9749
-5.8443 -1.4496 -2.0016 0.9749
-5.7885 -1.6587 -2.0016 0.9749
-5.7252 -1.8655 -2.0016 0.9749
-5.6545 -2.0700 -2.0016 0.9749
-4.7138 -2.9982 -1.8570 0.9767
-4.3638 -3.4880 -1.8570 0.9767
-4.2357 -3.6425 -1.8570 0.9767
-4.1021 -3.7923 -1.8570 0.9767
-3.8193 -4.0770 -1.8570 0.9767
-3.6703 -4.2116 -1.8570 0.9767
-3.1959 -4.5820 -1.8570 0.9767
-2.8587 -4.7997 -1.8570 0.9767
-2.5067 -4.9925 -1.8570 0.9767
-1.9550 -5.2332 -1.8570 0.9767
-1.3807 -5.4132 -1.8570 0.9767
-0.3912 -5.5728 -1.8570 0.9767
0.0100 -5.5865 -1.8570 0.9767
0.2106 -5.5825 -1.8570 0.9767
0.8100 -5.5275 -1.8570 0.9767
1.0081 -5.4948 -1.8570 0.9767
1.2048 -5.4550 -1.8570 0.9767
1.4000 -5.4082 -1.8570 0.9767
1.7847 -5.2937 -1.8570 0.9767
1.9737 -5.2262 -1.8570 0.9767
2.0652 -4.4681 -1.6362 0.9795
2.2477 -4.0676 -1.5448 0.9806
3.0460 -4.6830 -1.8570 0.9767
3.2123 -4.5706 -1.8570 0.9767
3.8071 -4.6651 -2.0016 0.9749
3.9723 -4.5254 -2.0016 0.9749
4.1323 -4.3797 -2.0016 0.9749
4.4361 -4.0717 -2.0016 0.9749
4.5795 -3.9098 -2.0016 0.9749
4.7170 -3.7427 -2.0016 0.9749
5.2044 -3.0285 -2.0016 0.9749
5.3098 -2.8396 -2.0016 0.9749
5.5845 -2.2519 -2.0016 0.9749
5.6618 -2.0498 -2.0016 0.9749
5.7318 -1.8451 -2.0016 0.9749
5.7944 -1.6380 -2.0016 0.9749
5.8495 -1.4288 -2.0016 0.9749
5.8970 -1.2177 -2.0016 0.9749
5.9692 -0.7912 -2.0016 0.9749
5.9938 -0.5762 -2.0016 0.9749
6.0197 -0.1444 -2.0016 0.9749
6.0145 0.2882 -2.0016 0.9749
6.0003 0.5041 -2.0016 0.9749
5.9112 1.1467 -2.0016 0.9749
5.8662 1.3583 -2.0016 0.9749
5.6861 1.9815 -2.0016 0.9749
5.6112 2.1845 -2.0016 0.9749
5.4399 2.5818 -2.0016 0.9749
5.1306 3.1520 -2.0016 0.9749
5.0140 3.3343 -2.0016 0.9749
4.8910 3.5123 -2.0016 0.9749
4.7617 3.6857 -2.0016 0.9749
4.4847 4.0181 -2.0016 0.9749
4.1847 4.3297 -2.0016 0.9749
4.0264 4.4772 -2.0016 0.9749
3.8630 4.6190 -2.0016 0.9749
3.3436 5.0078 -2.0016 0.9749
2.9755 5.2349 -2.0016 0.9749
2.7855 5.3384 -2.0016 0.9749
2.1950 5.6071 -2.0016 0.9749
1.9922 5.6823 -2.0016 0.9749
1.5790 5.8107 -2.0016 0.9749
1.3693 5.8637 -2.0016 0.9749
1.1577 5.9091 -2.0016 0.9749
0.7305 5.9770 -2.0016 0.9749
0.5153 5.9994 -2.0016 0.9749
0.0832 6.0209 -2.0016 0.9749
-0.1331 6.0200 -2.0016 0.9749
-0.3493 6.0113 -2.0016 0.9749
-0.5650 5.9949 -2.0016 0.9749
-0.7800 5.9707 -2.0016 0.9749
-0.9940 5.9388 -2.0016 0.9749
-1.2067 5.8993 -2.0016 0.9749
-2.0392 5.6656 -2.0016 0.9749
-2.4407 5.5046 -2.0016 0.9749
-2.8297 5.3151 -2.0016 0.9749
-3.0188 5.2101 -2.0016 0.9749
-3.9012 4.5868 -2.0016 0.9749
-4.0634 4.4437 -2.0016 0.9749
-4.2204 4.2948 -2.0016 0.9749
-4.3720 4.1404 -2.0016 0.9749
-4.5179 3.9807 -2.0016 0.9749
-4.7921 3.6461 -2.0016 0.9749
-4.9200 3.4715 -2.0016 0.9749
-5.2649 2.9221 -2.0016 0.9749
-5.3665 2.7311 -2.0016 0.9749
-5.5487 2.3387 -2.0016 0.9749
-5.6291 2.1379 -2.0016 0.9749
-5.7681 1.7282 -2.0016 0.9749
-5.8265 1.5199 -2.0016 0.9749
-5.9841 0.6697 -2.0016 0.9749
-6.0183 -0.1943 -2.0016 0.9749
0.5435 -5.1643 -1.8570 0.9782
1.0959 -5.0758 -1.8570 0.9782
1.6356 -4.9285 -1.8570 0.9782
1.8116 -4.8665 -1.8570 0.9782
2.8107 -4.3663 -1.8570 0.9782
2.9658 -4.2626 -1.8570 0.9782
3.2642 -4.0386 -1.8570 0.9782
3.4071 -3.9187 -1.8570 0.9782
4.1055 -3.8042 -2.0016 0.9765
4.3680 -3.4997 -2.0016 0.9765
4.6080 -3.1770 -2.0016 0.9765
4.7192 -3.0094 -2.0016 0.9765
5.0156 -2.4842 -2.0016 0.9765
5.2537 -1.9302 -2.0016 0.9765
5.3197 -1.7402 -2.0016 0.9765
5.3788 -1.5480 -2.0016 0.9765
5.4309 -1.3538 -2.0016 0.9765
5.4760 -1.1578 -2.0016 0.9765
5.5141 -0.9604 -2.0016 0.9765
5.5919 0.2414 -2.0016 0.9765
5.5796 0.4422 -2.0016 0.9765
5.5601 0.6423 -2.0016 0.9765
5.5335 0.8416 -2.0016 0.9765
5.4996 1.0399 -2.0016 0.9765
5.4108 1.4321 -2.0016 0.9765
5.2940 1.8169 -2.0016 0.9765
5.2253 2.0059 -2.0016 0.9765
5.0678 2.3759 -2.0016 0.9765
4.9792 2.5564 -2.0016 0.9765
4.8841 2.7336 -2.0016 0.9765
4.7828 2.9073 -2.0016 0.9765
4.5617 3.2432 -2.0016 0.9765
4.3171 3.5624 -2.0016 0.9765
3.7623 4.1440 -2.0016 0.9765
3.6110 4.2764 -2.0016 0.9765
3.4551 4.4034 -2.0016 0.9765
2.7888 4.8529 -2.0016 0.9765
2.6126 4.9499 -2.0016 0.9765
2.4331 5.0406 -2.0016 0.9765
2.2505 5.1247 -2.0016 0.9765
2.0649 5.2023 -2.0016 0.9765
1.8767 5.2731 -2.0016 0.9765
1.6861 5.3371 -2.0016 0.9765
1.2985 5.4444 -2.0016 0.9765
1.1021 5.4875 -2.0016 0.9765
0.7053 5.5525 -2.0016 0.9765
-0.0973 5.5962 -2.0016 0.9765
-0.2983 5.5891 -2.0016 0.9765
-0.4989 5.5748 -2.0016 0.9765
-0.8978 5.5246 -2.0016 0.9765
-2.0589 5.2047 -2.0016 0.9765
-2.2445 5.1273 -2.0016 0.9765
-2.4273 5.0434 -2.0016 0.9765
-2.7831 4.8561 -2.0016 0.9765
-2.9558 4.7530 -2.0016 0.9765
-3.1246 4.6437 -2.0016 0.9765
-3.2894 4.5285 -2.0016 0.9765
-3.4499 4.4074 -2.0016 0.9765
-3.7575 4.1483 -2.0016 0.9765
-4.0456 3.8678 -2.0016 0.9765
-4.1820 3.7200 -2.0016 0.9765
-4.4383 3.4101 -2.0016 0.9765
-4.7794 2.9129 -2.0016 0.9765
-5.0650 2.3818 -2.0016 0.9765
-5.1473 2.1983 -2.0016 0.9765
-5.4573 1.2431 -2.0016 0.9765
-5.4984 1.0463 -2.0016 0.9765
-5.5594 0.6488 -2.0016 0.9765
-5.5791 0.4486 -2.0016 0.9765
-5.5916 0.2479 -2.0016 0.9765
-5.5969 0.0469 -2.0016 0.9765
-5.5950 -0.1542 -2.0016 0.9765
-5.5695 -0.5555 -2.0016 0.9765
-5.4774 -1.1515 -2.0016 0.9765
-5.2560 -1.9241 -2.0016 0.9765
-4.9514 -2.2277 -1.9416 0.9772
-4.0563 -3.2422 -1.8570 0.9782
-3.8130 -3.5250 -1.8570 0.9782
-3.5501 -3.7897 -1.8570 0.9782
-2.8158 -4.3631 -1.8570 0.9782
-2.6572 -4.4614 -1.8570 0.9782
-2.4952 -4.5540 -1.8570 0.9782
-2.1618 -4.7214 -1.8570 0.9782
-1.9908 -4.7960 -1.8570 0.9782
-1.8173 -4.8644 -1.8570 0.9782
-1.6413 -4.9266 -1.8570 0.9782
-1.2834 -5.0317 -1.8570 0.9782
-0.9188 -5.1109 -1.8570 0.9782
-0.7346 -5.1406 -1.8570 0.9782
-0.5495 -5.1636 -1.8570 0.9782
-0.3636 -5.1800 -1.8570 0.9782
-0.1773 -5.1898 -1.8570 0.9782
0.1958 -5.1891 -1.8570 0.9782
0.3821 -5.1787 -1.8570 0.9782
0.5679 -5.1617 -1.8570 0.9782
0.7529 -5.1379 -1.8570 0.9782
0.9370 -5.1076 -1.8570 0.9782
1.3013 -5.0271 -1.8570 0.9782
2.0079 -4.7889 -1.8570 0.9782
2.0554 -4.0575 -1.6265 0.9809
2.4216 -4.0330 -1.6823 0.9802
3.1366 -4.1385 -1.8570 0.9782
3.2832 -4.0231 -1.8570 0.9782
3.4256 -3.9026 -1.8570 0.9782
4.1234 -3.7848 -2.0016 0.9765
4.2567 -3.6342 -2.0016 0.9765
4.5067 -3.3192 -2.0016 0.9765
4.7334 -2.9871 -2.0016 0.9765
5.0273 -2.4605 -2.0016 0.9765
5.1124 -2.2783 -2.0016 0.9765
5.1910 -2.0932 -2.0016 0.9765
5.2628 -1.9053 -2.0016 0.9765
5.3279 -1.7151 -2.0016 0.9765
5.4814 -1.1319 -2.0016 0.9765
5.5714 -0.5356 -2.0016 0.9765
5.5955 -0.1342 -2.0016 0.9765
5.5967 0.0669 -2.0016 0.9765
5.5570 0.6686 -2.0016 0.9765
5.5294 0.8678 -2.0016 0.9765
5.4528 1.2626 -2.0016 0.9765
5.4040 1.4576 -2.0016 0.9765
5.3481 1.6508 -2.0016 0.9765
5.2853 1.8419 -2.0016 0.9765
5.1395 2.2166 -2.0016 0.9765
4.8712 2.7567 -2.0016 0.9765
4.7690 2.9299 -2.0016 0.9765
4.6607 3.0993 -2.0016 0.9765
4.3002 3.5827 -2.0016 0.9765
4.1687 3.7349 -2.0016 0.9765
4.0318 3.8822 -2.0016 0.9765
3.8898 4.0246 -2.0016 0.9765
3.5908 4.2935 -2.0016 0.9765
3.4342 4.4197 -2.0016 0.9765
3.2732 4.5402 -2.0016 0.9765
2.9388 4.7635 -2.0016 0.9765
2.7658 4.8660 -2.0016 0.9765
2.5892 4.9622 -2.0016 0.9765
2.4093 5.0520 -2.0016 0.9765
2.2262 5.1353 -2.0016 0.9765
1.8518 5.2819 -2.0016 0.9765
1.6608 5.3450 -2.0016 0.9765
1.0761 5.4927 -2.0016 0.9765
0.8781 5.5278 -2.0016 0.9765
0.4790 5.5766 -2.0016 0.9765
0.0773 5.5966 -2.0016 0.9765
-0.1238 5.5957 -2.0016 0.9765
-0.3247 5.5877 -2.0016 0.9765
-0.7250 5.5499 -2.0016 0.9765
-0.9240 5.5203 -2.0016 0.9765
-1.3179 5.4397 -2.0016 0.9765
-1.5125 5.3889 -2.0016 0.9765
-1.7051 5.3310 -2.0016 0.9765
-1.8955 5.2664 -2.0016 0.9765
-2.2687 5.1167 -2.0016 0.9765
-2.9782 4.7390 -2.0016 0.9765
-3.3108 4.5129 -2.0016 0.9765
-3.7771 4.1305 -2.0016 0.9765
-4.0639 3.8487 -2.0016 0.9765
-4.5732 3.2269 -2.0016 0.9765
-4.6862 3.0605 -2.0016 0.9765
-4.9883 2.5386 -2.0016 0.9765
-5.0762 2.3578 -2.0016 0.9765
-5.3616 1.6064 -2.0016 0.9765
-5.4159 1.4128 -2.0016 0.9765
-5.4631 1.2173 -2.0016 0.9765
-5.5033 1.0203 -2.0016 0.9765
-5.5364 0.8219 -2.0016 0.9765
-5.5624 0.6225 -2.0016 0.9765
-5.5811 0.4223 -2.0016 0.9765
-5.5942 -0.1806 -2.0016 0.9765
0.6799 -4.7978 -1.8570 0.9795
1.0227 -4.7366 -1.8570 0.9795
1.1922 -4.6968 -1.8570 0.9795
2.0006 -4.3827 -1.8462 0.9796
2.0163 -4.0274 -1.7260 0.9809
2.1858 -4.0002 -1.7469 0.9807
2.3766 -4.0007 -1.7833 0.9803
2.6229 -4.0745 -1.8570 0.9795
2.9087 -3.8757 -1.8570 0.9795
3.1794 -3.6569 -1.8570 0.9795
3.8311 -3.5500 -2.0016 0.9779
4.0761 -3.2658 -2.0016 0.9779
4.1908 -3.1172 -2.0016 0.9779
4.3001 -2.9647 -2.0016 0.9779
4.4038 -2.8083 -2.0016 0.9779
4.5941 -2.4848 -2.0016 0.9779
4.6804 -2.3182 -2.0016 0.9779
5.0193 -1.4446 -2.0016 0.9779
5.1101 -1.0804 -2.0016 0.9779
5.1456 -0.8962 -2.0016 0.9779
5.2209 -0.1499 -2.0016 0.9779
5.2229 0.0377 -2.0016 0.9779
5.2182 0.2253 -2.0016 0.9779
5.1885 0.5994 -2.0016 0.9779
5.1321 0.9704 -2.0016 0.9779
5.0939 1.1541 -2.0016 0.9779
5.0492 1.3364 -2.0016 0.9779
4.9979 1.5169 -2.0016 0.9779
4.9402 1.6954 -2.0016 0.9779
4.8761 1.8718 -2.0016 0.9779
4.8057 2.0458 -2.0016 0.9779
4.5577 2.5509 -2.0016 0.9779
4.4631 2.7130 -2.0016 0.9779
4.3628 2.8716 -2.0016 0.9779
4.2568 3.0265 -2.0016 0.9779
4.1454 3.1774 -2.0016 0.9779
4.0286 3.3243 -2.0016 0.9779
3.9065 3.4669 -2.0016 0.9779
3.5109 3.8670 -2.0016 0.9779
3.3697 3.9906 -2.0016 0.9779
3.2242 4.1091 -2.0016 0.9779
2.7634 4.4321 -2.0016 0.9779
2.4380 4.6191 -2.0016 0.9779
2.2705 4.7037 -2.0016 0.9779
2.1001 4.7822 -2.0016 0.9779
1.9269 4.8546 -2.0016 0.9779
1.7513 4.9207 -2.0016 0.9779
1.5734 4.9804 -2.0016 0.9779
1.0284 5.1208 -2.0016 0.9779
0.6581 5.1814 -2.0016 0.9779
0.4716 5.2017 -2.0016 0.9779
0.2844 5.2153 -2.0016 0.9779
0.0969 5.2221 -2.0016 0.9779
-0.0908 5.2222 -2.0016 0.9779
-0.2783 5.2156 -2.0016 0.9779
-0.4655 5.2022 -2.0016 0.9779
-0.6521 5.1822 -2.0016 0.9779
-0.8378 5.1554 -2.0016 0.9779
-1.2058 5.0819 -2.0016 0.9779
-1.3876 5.0353 -2.0016 0.9779
-1.5676 4.9822 -2.0016 0.9779
-1.7456 4.9227 -2.0016 0.9779
-1.9213 4.8568 -2.0016 0.9779
-2.0945 4.7847 -2.0016 0.9779
-2.2650 4.7063 -2.0016 0.9779
-2.4326 4.6219 -2.0016 0.9779
-2.5971 4.5316 -2.0016 0.9779
-2.9158 4.3334 -2.0016 0.9779
-3.0696 4.2259 -2.0016 0.9779
-3.6432 3.7426 -2.0016 0.9779
-3.7753 3.6093 -2.0016 0.9779
-4.0247 3.3290 -2.0016 0.9779
-4.1417 3.1822 -2.0016 0.9779
-4.3595 2.8766 -2.0016 0.9779
-4.4600 2.7182 -2.0016 0.9779
-4.5548 2.5562 -2.0016 0.9779
-4.8033 2.0514 -2.0016 0.9779
-4.9961 1.5227 -2.0016 0.9779
-5.0476 1.3422 -2.0016 0.9779
-5.0926 1.1600 -2.0016 0.9779
-5.1310 0.9764 -2.0016 0.9779
-5.1627 0.7914 -2.0016 0.9779
-5.1878 0.6054 -2.0016 0.9779
-5.2062 0.4187 -2.0016 0.9779
-5.2229 0.0438 -2.0016 0.9779
-5.1972 -0.5184 -2.0016 0.9779
-5.1753 -0.7047 -2.0016 0.9779
-5.1113 -1.0745 -2.0016 0.9779
-5.0694 -1.2574 -2.0016 0.9779
-5.0210 -1.4387 -2.0016 0.9779
-4.9047 -1.7955 -2.0016 0.9779
-4.5153 -2.2299 -1.9299 0.9787
-4.0887 -2.6007 -1.8570 0.9795
-3.8915 -2.8875 -1.8570 0.9795
-3.5582 -3.2894 -1.8570 0.9795
-3.3129 -3.5364 -1.8570 0.9795
-3.0504 -3.7652 -1.8570 0.9795
-2.9132 -3.8723 -1.8570 0.9795
-2.4796 -4.1633 -1.8570 0.9795
-2.3285 -4.2496 -1.8570 0.9795
-2.1743 -4.3305 -1.8570 0.9795
-2.0173 -4.4059 -1.8570 0.9795
-1.6958 -4.5393 -1.8570 0.9795
-1.5316 -4.5973 -1.8570 0.9795
-1.3655 -4.6494 -1.8570 0.9795
-1.1976 -4.6954 -1.8570 0.9795
-0.6855 -4.7970 -1.8570 0.9795
-0.1654 -4.8429 -1.8570 0.9795
0.0086 -4.8457 -1.8570 0.9795
0.1827 -4.8423 -1.8570 0.9795
0.3566 -4.8326 -1.8570 0.9795
0.5299 -4.8167 -1.8570 0.9795
0.7026 -4.7945 -1.8570 0.9795
1.0450 -4.7317 -1.8570 0.9795
1.2143 -4.6911 -1.8570 0.9795
1.5480 -4.5918 -1.8570 0.9795
1.8737 -4.4688 -1.8570 0.9795
2.0322 -4.0116 -1.7233 0.9809
2.4023 -4.0008 -1.7883 0.9802
2.7863 -3.9646 -1.8570 0.9795
3.0638 -3.7543 -1.8570 0.9795
3.1967 -3.6418 -1.8570 0.9795
3.8479 -3.5318 -2.0016 0.9779
3.9723 -3.3913 -2.0016 0.9779
4.2055 -3.0974 -2.0016 0.9779
4.3141 -2.9443 -2.0016 0.9779
4.4171 -2.7874 -2.0016 0.9779
4.5143 -2.6270 -2.0016 0.9779
4.6058 -2.4631 -2.0016 0.9779
4.6913 -2.2960 -2.0016 0.9779
4.7708 -2.1260 -2.0016 0.9779
4.8440 -1.9533 -2.0016 0.9779
4.9111 -1.7780 -2.0016 0.9779
4.9718 -1.6004 -2.0016 0.9779
5.0739 -1.2393 -2.0016 0.9779
5.1151 -1.0563 -2.0016 0.9779
5.1498 -0.8718 -2.0016 0.9779
5.1991 -0.4998 -2.0016 0.9779
5.2227 0.0624 -2.0016 0.9779
5.1599 0.8098 -2.0016 0.9779
5.1275 0.9946 -2.0016 0.9779
5.0884 1.1782 -2.0016 0.9779
4.9907 1.5405 -2.0016 0.9779
4.9321 1.7188 -2.0016 0.9779
4.8672 1.8949 -2.0016 0.9779
4.7960 2.0685 -2.0016 0.9779
4.7186 2.2394 -2.0016 0.9779
4.5456 2.5724 -2.0016 0.9779
4.4503 2.7341 -2.0016 0.9779
4.2425 3.0466 -2.0016 0.9779
4.0128 3.3433 -2.0016 0.9779
3.7624 3.6228 -2.0016 0.9779
3.6298 3.7556 -2.0016 0.9779
3.2047 4.1243 -2.0016 0.9779
2.9003 4.3438 -2.0016 0.9779
2.7424 4.4451 -2.0016 0.9779
2.4162 4.6306 -2.0016 0.9779
2.2482 4.7144 -2.0016 0.9779
2.0774 4.7921 -2.0016 0.9779
1.9040 4.8636 -2.0016 0.9779
1.7280 4.9289 -2.0016 0.9779
1.5498 4.9878 -2.0016 0.9779
1.1877 5.0862 -2.0016 0.9779
1.0042 5.1256 -2.0016 0.9779
0.8194 5.1584 -2.0016 0.9779
0.6336 5.1845 -2.0016 0.9779
0.4470 5.2039 -2.0016 0.9779
0.2597 5.2166 -2.0016 0.9779
0.0722 5.2225 -2.0016 0.9779
-0.3030 5.2142 -2.0016 0.9779
-0.6766 5.1790 -2.0016 0.9779
-0.8622 5.1514 -2.0016 0.9779
-1.0467 5.1171 -2.0016 0.9779
-1.2298 5.0762 -2.0016 0.9779
-1.5912 4.9748 -2.0016 0.9779
-1.7688 4.9144 -2.0016 0.9779
-1.9442 4.8477 -2.0016 0.9779
-2.1171 4.7747 -2.0016 0.9779
-2.2873 4.6956 -2.0016 0.9779
-2.4545 4.6104 -2.0016 0.9779
-2.9362 4.3196 -2.0016 0.9779
-3.0895 4.2113 -2.0016 0.9779
-3.2388 4.0976 -2.0016 0.9779
-3.6608 3.7254 -2.0016 0.9779
-4.0404 3.3099 -2.0016 0.9779
-4.1567 3.1626 -2.0016 0.9779
-4.2676 3.0113 -2.0016 0.9779
-4.3730 2.8560 -2.0016 0.9779
-4.7370 2.2002 -2.0016 0.9779
-4.8130 2.0286 -2.0016 0.9779
-4.9462 1.6778 -2.0016 0.9779
-5.0980 1.1359 -2.0016 0.9779
-5.1355 0.9521 -2.0016 0.9779
-5.2081 0.3940 -2.0016 0.9779
-5.2189 0.2067 -2.0016 0.9779
0.1496 -4.5348 -1.8570 0.9806
0.3124 -4.5265 -1.8570 0.9806
0.4749 -4.5123 -1.8570 0.9806
0.6367 -4.4924 -1.8570 0.9806
0.7976 -4.4666 -1.8570 0.9806
1.1162 -4.3978 -1.8570 0.9806
1.4291 -4.3063 -1.8570 0.9806
1.5829 -4.2522 -1.8570 0.9806
1.8841 -4.1275 -1.8570 0.9806
2.0163 -4.0274 -1.8434 0.9807
2.1756 -3.9816 -1.8570 0.9806
2.7235 -3.6290 -1.8570 0.9806
2.8521 -3.5288 -1.8570 0.9806
2.9770 -3.4240 -1.8570 0.9806
3.2152 -3.2015 -1.8570 0.9806
3.3281 -3.0839 -1.8570 0.9806
3.8166 -3.0578 -2.0016 0.9791
3.9240 -2.9188 -2.0016 0.9791
4.0263 -2.7759 -2.0016 0.9791
4.1234 -2.6295 -2.0016 0.9791
4.2152 -2.4797 -2.0016 0.9791
4.4576 -2.0118 -2.0016 0.9791
4.6481 -1.5205 -2.0016 0.9791
4.7453 -1.1829 -2.0016 0.9791
4.7847 -1.0117 -2.0016 0.9791
4.8180 -0.8391 -2.0016 0.9791
4.8450 -0.6655 -2.0016 0.9791
4.8803 -0.3159 -2.0016 0.9791
4.8885 -0.1404 -2.0016 0.9791
4.8860 0.2110 -2.0016 0.9791
4.8349 0.7354 -2.0016 0.9791
4.8054 0.9086 -2.0016 0.9791
4.7696 1.0806 -2.0016 0.9791
4.5657 1.7526 -2.0016 0.9791
4.4998 1.9155 -2.0016 0.9791
4.4280 2.0759 -2.0016 0.9791
4.0850 2.6888 -2.0016 0.9791
3.9858 2.8338 -2.0016 0.9791
3.7721 3.1126 -2.0016 0.9791
3.5388 3.3754 -2.0016 0.9791
2.8787 3.9535 -2.0016 0.9791
2.5874 4.1500 -2.0016 0.9791
2.1260 4.4042 -2.0016 0.9791
1.3047 4.7132 -2.0016 0.9791
0.6162 4.8515 -2.0016 0.9791
-0.0850 4.8898 -2.0016 0.9791
-0.2606 4.8836 -2.0016 0.9791
-0.6106 4.8522 -2.0016 0.9791
-0.9574 4.7959 -2.0016 0.9791
-1.2993 4.7148 -2.0016 0.9791
-1.4678 4.6650 -2.0016 0.9791
-1.6344 4.6093 -2.0016 0.9791
-1.7990 4.5476 -2.0016 0.9791
-2.2778 4.3277 -2.0016 0.9791
-2.8741 3.9568 -2.0016 0.9791
-3.0144 3.8510 -2.0016 0.9791
-3.2831 3.6246 -2.0016 0.9791
-3.4112 3.5044 -2.0016 0.9791
-3.5349 3.3795 -2.0016 0.9791
-4.0819 2.6935 -2.0016 0.9791
-4.1760 2.5451 -2.0016 0.9791
-4.3480 2.2387 -2.0016 0.9791
-4.4256 2.0811 -2.0016 0.9791
-4.5636 1.7579 -2.0016 0.9791
-4.6781 1.4257 -2.0016 0.9791
-4.7263 1.2568 -2.0016 0.9791
-4.7684 1.0862 -2.0016 0.9791
-2.2102 0.4206 -0.9208 0.9903
-1.9843 0.3042 -0.8216 0.9914
-1.9371 0.0859 -0.7936 0.9917
-1.9242 -0.0530 -0.7878 0.9917
-1.9487 -0.1239 -0.7992 0.9916
-1.9577 -0.1953 -0.8052 0.9915
-4.7467 -1.1774 -2.0016 0.9791
-4.7013 -1.3471 -2.0016 0.9791
-4.6499 -1.5151 -2.0016 0.9791
-4.5924 -1.6812 -2.0016 0.9791
-4.3849 -2.1655 -2.0016 0.9791
-3.9134 -2.2960 -1.8570 0.9806
-3.8284 -2.4351 -1.8570 0.9806
-3.6437 -2.7037 -1.8570 0.9806
-3.4402 -2.9583 -1.8570 0.9806
-3.3317 -3.0800 -1.8570 0.9806
-3.2189 -3.1977 -1.8570 0.9806
-2.8562 -3.5255 -1.8570 0.9806
-2.5957 -3.7214 -1.8570 0.9806
-1.8889 -4.1254 -1.8570 0.9806
-1.5878 -4.2503 -1.8570 0.9806
-1.2786 -4.3534 -1.8570 0.9806
-1.1214 -4.3965 -1.8570 0.9806
-0.9627 -4.4339 -1.8570 0.9806
-0.4801 -4.5118 -1.8570 0.9806
-0.1549 -4.5346 -1.8570 0.9806
0.8187 -4.4628 -1.8570 0.9806
1.1370 -4.3925 -1.8570 0.9806
1.4495 -4.2995 -1.8570 0.9806
1.9036 -4.1186 -1.8570 0.9806
2.3357 -3.8899 -1.8570 0.9806
2.7406 -3.6160 -1.8570 0.9806
3.1137 -3.3002 -1.8570 0.9806
3.2394 -3.1952 -1.8622 0.9805
3.6029 -3.3070 -2.0016 0.9791
3.7194 -3.1754 -2.0016 0.9791
3.8310 -3.0398 -2.0016 0.9791
4.0394 -2.7569 -2.0016 0.9791
4.1358 -2.6100 -2.0016 0.9791
4.2269 -2.4597 -2.0016 0.9791
4.4670 -1.9907 -2.0016 0.9791
4.5356 -1.8289 -2.0016 0.9791
4.5984 -1.6648 -2.0016 0.9791
4.7895 -0.9890 -2.0016 0.9791
4.8219 -0.8163 -2.0016 0.9791
4.8817 -0.2928 -2.0016 0.9791
4.8902 0.0584 -2.0016 0.9791
4.8849 0.2341 -2.0016 0.9791
4.8733 0.4094 -2.0016 0.9791
4.8555 0.5842 -2.0016 0.9791
4.8314 0.7582 -2.0016 0.9791
4.8010 0.9313 -2.0016 0.9791
4.6729 1.4424 -2.0016 0.9791
4.4906 1.9368 -2.0016 0.9791
4.4182 2.0969 -2.0016 0.9791
4.3400 2.2542 -2.0016 0.9791
4.0723 2.7080 -2.0016 0.9791
3.9724 2.8526 -2.0016 0.9791
3.6424 3.2634 -2.0016 0.9791
3.2702 3.6363 -2.0016 0.9791
3.1375 3.7515 -2.0016 0.9791
3.0007 3.8617 -2.0016 0.9791
2.8600 3.9670 -2.0016 0.9791
2.7157 4.0672 -2.0016 0.9791
2.5678 4.1621 -2.0016 0.9791
2.4166 4.2517 -2.0016 0.9791
2.1051 4.4142 -2.0016 0.9791
1.4512 4.6702 -2.0016 0.9791
0.9403 4.7993 -2.0016 0.9791
0.5933 4.8544 -2.0016 0.9791
0.4185 4.8726 -2.0016 0.9791
0.0676 4.8900 -2.0016 0.9791
-0.1081 4.8893 -2.0016 0.9791
-0.2837 4.8823 -2.0016 0.9791
-0.4589 4.8689 -2.0016 0.9791
-0.6335 4.8493 -2.0016 0.9791
-1.3216 4.7086 -2.0016 0.9791
-1.6562 4.6015 -2.0016 0.9791
-1.8204 4.5390 -2.0016 0.9791
-1.9823 4.4707 -2.0016 0.9791
-2.1417 4.3966 -2.0016 0.9791
-2.7493 4.0445 -2.0016 0.9791
-2.8928 3.9432 -2.0016 0.9791
-3.0326 3.8367 -2.0016 0.9791
-3.1685 3.7253 -2.0016 0.9791
-3.3002 3.6091 -2.0016 0.9791
-3.4278 3.4882 -2.0016 0.9791
-3.5509 3.3628 -2.0016 0.9791
-3.6694 3.2331 -2.0016 0.9791
-3.7831 3.0992 -2.0016 0.9791
-3.8920 2.9613 -2.0016 0.9791
-3.9959 2.8195 -2.0016 0.9791
-4.0946 2.6742 -2.0016 0.9791
-4.2760 2.3733 -2.0016 0.9791
-4.3585 2.2181 -2.0016 0.9791
-4.5066 1.8995 -2.0016 0.9791
-4.5719 1.7363 -2.0016 0.9791
-4.7322 1.2344 -2.0016 0.9791
-4.7734 1.0636 -2.0016 0.9791
-2.1904 0.4061 -0.9117 0.9904
-1.9472 0.2891 -0.8057 0.9915
-1.9562 0.2189 -0.8056 0.9915
-1.9542 0.1479 -0.8021 0.9916
-1.9337 0.0766 -0.7921 0.9917
-1.9016 0.0069 -0.7783 0.9918
-1.9281 -0.0623 -0.7895 0.9917
0.1405 -4.2586 -1.8570 0.9816
0.2934 -4.2508 -1.8570 0.9816
0.4459 -4.2375 -1.8570 0.9816
0.5979 -4.2188 -1.8570 0.9816
0.8992 -4.1650 -1.8570 0.9816
1.0483 -4.1300 -1.8570 0.9816
1.1960 -4.0896 -1.8570 0.9816
1.3421 -4.0440 -1.8570 0.9816
1.6290 -3.9372 -1.8570 0.9816
1.9075 -3.8101 -1.8570 0.9816
2.0431 -3.7391 -1.8570 0.9816
2.3063 -3.5828 -1.8570 0.9816
2.4335 -3.4976 -1.8570 0.9816
2.5576 -3.4079 -1.8570 0.9816
2.6784 -3.3139 -1.8570 0.9816
2.7957 -3.2155 -1.8570 0.9816
3.6850 -2.7410 -2.0016 0.9802
3.9585 -2.3286 -2.0016 0.9802
4.0396 -2.1849 -2.0016 0.9802
4.2512 -1.7377 -2.0016 0.9802
4.3109 -1.5838 -2.0016 0.9802
4.3650 -1.4279 -2.0016 0.9802
4.4135 -1.2702 -2.0016 0.9802
4.4933 -0.9500 -2.0016 0.9802
4.5500 -0.6250 -2.0016 0.9802
4.5831 -0.2967 -2.0016 0.9802
4.5127 0.8533 -2.0016 0.9802
4.4791 1.0148 -2.0016 0.9802
4.4398 1.1751 -2.0016 0.9802
4.0077 2.2430 -2.0016 0.9802
3.9245 2.3856 -2.0016 0.9802
3.8363 2.5250 -2.0016 0.9802
3.5423 2.9231 -2.0016 0.9802
3.4350 3.0484 -2.0016 0.9802
3.3233 3.1699 -2.0016 0.9802
3.2073 3.2872 -2.0016 0.9802
3.0872 3.4003 -2.0016 0.9802
2.8350 3.6132 -2.0016 0.9802
2.7034 3.7127 -2.0016 0.9802
2.4299 3.8972 -2.0016 0.9802
2.2883 3.9820 -2.0016 0.9802
2.1438 4.0616 -2.0016 0.9802
1.9965 4.1360 -2.0016 0.9802
1.8466 4.2051 -2.0016 0.9802
1.3835 4.3793 -2.0016 0.9802
0.7420 4.5323 -2.0016 0.9802
0.5787 4.5561 -2.0016 0.9802
0.4146 4.5739 -2.0016 0.9802
-0.0798 4.5920 -2.0016 0.9802
-0.2447 4.5861 -2.0016 0.9802
-0.4093 4.5744 -2.0016 0.9802
-0.5734 4.5567 -2.0016 0.9802
-0.8991 4.5038 -2.0016 0.9802
-1.0603 4.4686 -2.0016 0.9802
-1.2201 4.4276 -2.0016 0.9802
-1.3784 4.3809 -2.0016 0.9802
-1.6894 4.2707 -2.0016 0.9802
-2.1391 4.0641 -2.0016 0.9802
-2.2837 3.9847 -2.0016 0.9802
-2.5639 3.8104 -2.0016 0.9802
-2.6991 3.7158 -2.0016 0.9802
-2.8308 3.6165 -2.0016 0.9802
-3.0832 3.4039 -2.0016 0.9802
-3.2035 3.2909 -2.0016 0.9802
-3.4315 3.0524 -2.0016 0.9802
-3.6418 2.7982 -2.0016 0.9802
-3.8333 2.5295 -2.0016 0.9802
-3.9217 2.3901 -2.0016 0.9802
-4.0050 2.2477 -2.0016 0.9802
-4.2236 1.8038 -2.0016 0.9802
-1.5761 0.4803 -0.7181 0.9928
-1.5293 0.3484 -0.6836 0.9932
-1.4986 0.2852 -0.6648 0.9934
-1.5117 0.2317 -0.6665 0.9933
-1.5287 0.1229 -0.6684 0.9933
-1.5291 0.0678 -0.6671 0.9933
-1.5241 0.0128 -0.6642 0.9934
-1.5274 -0.0421 -0.6659 0.9934
-1.5296 -0.0972 -0.6680 0.9933
-1.5036 -0.2601 -0.6650 0.9934
-1.5437 -0.3829 -0.6932 0.9931
-1.5670 -0.4490 -0.7104 0.9929
-1.5850 -0.5165 -0.7265 0.9928
-4.2533 -1.7327 -2.0016 0.9802
-4.1883 -1.8844 -2.0016 0.9802
-4.0422 -2.1803 -2.0016 0.9802
-3.5953 -2.2868 -1.8570 0.9816
-3.4218 -2.5390 -1.8570 0.9816
-3.0229 -3.0030 -1.8570 0.9816
-2.9130 -3.1096 -1.8570 0.9816
-2.7994 -3.2123 -1.8570 0.9816
-2.6822 -3.3108 -1.8570 0.9816
-2.5616 -3.4050 -1.8570 0.9816
-2.4376 -3.4948 -1.8570 0.9816
-2.0475 -3.7368 -1.8570 0.9816
-1.9119 -3.8079 -1.8570 0.9816
-1.7739 -3.8741 -1.8570 0.9816
-1.6336 -3.9353 -1.8570 0.9816
-1.3468 -4.0425 -1.8570 0.9816
-1.0531 -4.1287 -1.8570 0.9816
-0.9041 -4.1639 -1.8570 0.9816
-0.4509 -4.2370 -1.8570 0.9816
-0.2983 -4.2505 -1.8570 0.9816
-0.1455 -4.2584 -1.8570 0.9816
0.1607 -4.2579 -1.8570 0.9816
1.0678 -4.1250 -1.8570 0.9816
1.2153 -4.0839 -1.8570 0.9816
1.6476 -3.9295 -1.8570 0.9816
1.7877 -3.8678 -1.8570 0.9816
1.9255 -3.8010 -1.8570 0.9816
2.1934 -3.6530 -1.8570 0.9816
2.3232 -3.5718 -1.8570 0.9816
2.4500 -3.4861 -1.8570 0.9816
2.5737 -3.3958 -1.8570 0.9816
2.6940 -3.3012 -1.8570 0.9816
2.9241 -3.0992 -1.8570 0.9816
3.0335 -2.9922 -1.8570 0.9816
3.1391 -2.8813 -1.8570 0.9816
3.4929 -2.9820 -2.0016 0.9802
3.5977 -2.8546 -2.0016 0.9802
3.6979 -2.7236 -2.0016 0.9802
3.8839 -2.4510 -2.0016 0.9802
4.1251 -2.0189 -2.0016 0.9802
4.2594 -1.7175 -2.0016 0.9802
4.3184 -1.5634 -2.0016 0.9802
4.3717 -1.4073 -2.0016 0.9802
4.4615 -1.0898 -2.0016 0.9802
4.5282 -0.7666 -2.0016 0.9802
4.5529 -0.6035 -2.0016 0.9802
4.5874 0.2198 -2.0016 0.9802
4.5765 0.3845 -2.0016 0.9802
4.5598 0.5486 -2.0016 0.9802
4.5086 0.8746 -2.0016 0.9802
4.1491 1.9691 -2.0016 0.9802
3.7304 2.6789 -2.0016 0.9802
3.6318 2.8111 -2.0016 0.9802
3.5285 2.9398 -2.0016 0.9802
3.3083 3.1855 -2.0016 0.9802
3.1917 3.3023 -2.0016 0.9802
3.0710 3.4149 -2.0016 0.9802
2.9464 3.5230 -2.0016 0.9802
2.6858 3.7254 -2.0016 0.9802
2.5503 3.8195 -2.0016 0.9802
2.4114 3.9087 -2.0016 0.9802
2.2694 3.9928 -2.0016 0.9802
1.5195 4.3340 -2.0016 0.9802
1.3628 4.3858 -2.0016 0.9802
1.2043 4.4319 -2.0016 0.9802
0.8830 4.5070 -2.0016 0.9802
0.5571 4.5587 -2.0016 0.9802
0.3930 4.5758 -2.0016 0.9802
-0.1015 4.5915 -2.0016 0.9802
-0.4310 4.5724 -2.0016 0.9802
-0.5949 4.5540 -2.0016 0.9802
-1.5553 4.3213 -2.0016 0.9802
-2.7166 3.7030 -2.0016 0.9802
-2.8479 3.6031 -2.0016 0.9802
-2.9755 3.4984 -2.0016 0.9802
-3.0993 3.3893 -2.0016 0.9802
-3.2190 3.2757 -2.0016 0.9802
-3.4459 3.0362 -2.0016 0.9802
-3.6550 2.7809 -2.0016 0.9802
-3.9330 2.3716 -2.0016 0.9802
-4.0931 2.0830 -2.0016 0.9802
-4.1653 1.9347 -2.0016 0.9802
-4.2934 1.6306 -2.0016 0.9802
-1.5736 0.4715 -0.7159 0.9929
-1.5520 0.4049 -0.6990 0.9930
-1.5135 0.2247 -0.6668 0.9933
-1.5240 0.1705 -0.6683 0.9933
-1.5288 0.0605 -0.6668 0.9933
-1.5230 0.0056 -0.6638 0.9934
-1.5280 -0.0493 -0.6663 0.9934
0.1323 -4.0096 -1.8570 0.9825
0.2763 -4.0022 -1.8570 0.9825
0.9870 -3.8885 -1.8570 0.9825
1.1260 -3.8505 -1.8570 0.9825
1.2636 -3.8076 -1.8570 0.9825
1.6659 -3.6495 -1.8570 0.9825
1.7959 -3.5873 -1.8570 0.9825
1.9237 -3.5205 -1.8570 0.9825
2.0489 -3.4491 -1.8570 0.9825
2.2912 -3.2931 -1.8570 0.9825
2.4080 -3.2087 -1.8570 0.9825
2.7393 -2.9310 -1.8570 0.9825
2.8428 -2.8307 -1.8570 0.9825
2.9427 -2.7267 -1.8570 0.9825
3.4695 -2.5807 -2.0016 0.9811
3.6459 -2.3250 -2.0016 0.9811
3.7270 -2.1925 -2.0016 0.9811
3.8034 -2.0572 -2.0016 0.9811
3.8748 -1.9192 -2.0016 0.9811
4.0588 -1.4912 -2.0016 0.9811
4.2306 -0.8945 -2.0016 0.9811
4.2839 -0.5884 -2.0016 0.9811
4.3023 -0.4342 -2.0016 0.9811
4.3151 -0.2793 -2.0016 0.9811
4.3223 -0.1241 -2.0016 0.9811
4.3106 0.3416 -2.0016 0.9811
4.2955 0.4962 -2.0016 0.9811
4.2749 0.6502 -2.0016 0.9811
4.2172 0.9555 -2.0016 0.9811
4.1377 1.2558 -2.0016 0.9811
3.9152 1.8355 -2.0016 0.9811
3.8467 1.9750 -2.0016 0.9811
3.7733 2.1119 -2.0016 0.9811
3.6950 2.2461 -2.0016 0.9811
3.5242 2.5056 -2.0016 0.9811
3.4319 2.6306 -2.0016 0.9811
3.0198 3.0950 -2.0016 0.9811
2.9066 3.2015 -2.0016 0.9811
2.6693 3.4019 -2.0016 0.9811
2.2878 3.6693 -2.0016 0.9811
2.1545 3.7491 -2.0016 0.9811
2.0184 3.8241 -2.0016 0.9811
1.4499 4.0738 -2.0016 0.9811
1.3026 4.1232 -2.0016 0.9811
1.0032 4.2061 -2.0016 0.9811
0.8514 4.2394 -2.0016 0.9811
0.6986 4.2673 -2.0016 0.9811
0.0802 4.3234 -2.0016 0.9811
-0.0752 4.3234 -2.0016 0.9811
-0.3854 4.3069 -2.0016 0.9811
-0.5399 4.2903 -2.0016 0.9811
-0.8465 4.2404 -2.0016 0.9811
-1.1488 4.1687 -2.0016 0.9811
-1.4451 4.0755 -2.0016 0.9811
-1.8752 3.8963 -2.0016 0.9811
-2.0140 3.8265 -2.0016 0.9811
-2.1501 3.7516 -2.0016 0.9811
-2.2835 3.6720 -2.0016 0.9811
-2.4139 3.5876 -2.0016 0.9811
-2.5413 3.4985 -2.0016 0.9811
-2.9029 3.2048 -2.0016 0.9811
-3.3320 2.7560 -2.0016 0.9811
-3.4288 2.6345 -2.0016 0.9811
-3.6092 2.3815 -2.0016 0.9811
-1.3311 0.5128 -0.6603 0.9937
-1.3336 0.4594 -0.6529 0.9938
-1.3155 0.3498 -0.6301 0.9940
-1.3003 0.2962 -0.6173 0.9941
-1.3124 0.2497 -0.6184 0.9941
-1.3247 0.2031 -0.6203 0.9941
-1.3334 0.1556 -0.6214 0.9941
-1.3381 0.0593 -0.6200 0.9941
-1.3369 -0.0368 -0.6191 0.9941
-1.3363 -0.1333 -0.6216 0.9941
-1.3292 -0.1810 -0.6209 0.9941
-1.3186 -0.2281 -0.6194 0.9941
-1.3044 -0.2742 -0.6170 0.9941
-1.3089 -0.3247 -0.6242 0.9941
-1.3221 -0.3788 -0.6366 0.9940
-1.3329 -0.4880 -0.6570 0.9938
-3.8771 -1.9147 -2.0016 0.9811
-3.8058 -2.0528 -2.0016 0.9811
-3.7296 -2.1882 -2.0016 0.9811
-3.5075 -2.2310 -1.9242 0.9818
-3.3055 -2.2733 -1.8570 0.9825
-3.2304 -2.3970 -1.8620 0.9824
-3.1337 -2.5048 -1.8570 0.9825
-3.0417 -2.6157 -1.8570 0.9825
-2.9458 -2.7233 -1.8570 0.9825
-2.6357 -3.0244 -1.8570 0.9825
-2.4118 -3.2059 -1.8570 0.9825
-2.1754 -3.3707 -1.8570 0.9825
-2.0529 -3.4467 -1.8570 0.9825
-1.8001 -3.5852 -1.8570 0.9825
-1.6701 -3.6476 -1.8570 0.9825
-1.5380 -3.7052 -1.8570 0.9825
-1.4039 -3.7581 -1.8570 0.9825
-1.2680 -3.8061 -1.8570 0.9825
-0.5675 -3.9714 -1.8570 0.9825
0.4387 -3.9877 -1.8570 0.9825
0.5817 -3.9694 -1.8570 0.9825
0.8652 -3.9174 -1.8570 0.9825
1.0053 -3.8837 -1.8570 0.9825
1.1442 -3.8451 -1.8570 0.9825
1.2816 -3.8015 -1.8570 0.9825
1.5512 -3.6997 -1.8570 0.9825
1.8129 -3.5788 -1.8570 0.9825
1.9403 -3.5113 -1.8570 0.9825
2.3068 -3.2822 -1.8570 0.9825
2.4232 -3.1972 -1.8570 0.9825
2.5365 -3.1081 -1.8570 0.9825
2.6465 -3.0150 -1.8570 0.9825
3.2886 -2.8077 -2.0016 0.9811
3.4817 -2.5643 -2.0016 0.9811
3.5716 -2.4376 -2.0016 0.9811
3.6568 -2.3077 -2.0016 0.9811
3.7374 -2.1748 -2.0016 0.9811
3.8131 -2.0392 -2.0016 0.9811
3.8839 -1.9009 -2.0016 0.9811
4.1610 -1.1763 -2.0016 0.9811
4.2348 -0.8745 -2.0016 0.9811
4.3238 0.0517 -2.0016 0.9811
4.3192 0.2070 -2.0016 0.9811
4.2718 0.6704 -2.0016 0.9811
4.2450 0.8235 -2.0016 0.9811
4.2127 0.9754 -2.0016 0.9811
4.1749 1.1261 -2.0016 0.9811
4.0295 1.5687 -2.0016 0.9811
3.8373 1.9931 -2.0016 0.9811
3.6006 2.3944 -2.0016 0.9811
3.5123 2.5222 -2.0016 0.9811
3.4194 2.6468 -2.0016 0.9811
3.3221 2.7679 -2.0016 0.9811
3.1148 2.9993 -2.0016 0.9811
3.0051 3.1092 -2.0016 0.9811
2.6531 3.4145 -2.0016 0.9811
2.1367 3.7593 -2.0016 0.9811
2.0003 3.8336 -2.0016 0.9811
1.8613 3.9030 -2.0016 0.9811
1.7199 3.9673 -2.0016 0.9811
1.4306 4.0806 -2.0016 0.9811
1.1339 4.1728 -2.0016 0.9811
0.9833 4.2108 -2.0016 0.9811
0.6784 4.2706 -2.0016 0.9811
0.5246 4.2922 -2.0016 0.9811
0.2150 4.3187 -2.0016 0.9811
0.0597 4.3237 -2.0016 0.9811
-0.2508 4.3168 -2.0016 0.9811
-0.5601 4.2877 -2.0016 0.9811
-0.7138 4.2648 -2.0016 0.9811
-1.0182 4.2025 -2.0016 0.9811
-1.3173 4.1186 -2.0016 0.9811
-1.6096 4.0134 -2.0016 0.9811
-1.7527 3.9529 -2.0016 0.9811
-2.3008 3.6611 -2.0016 0.9811
-2.4309 3.5761 -2.0016 0.9811
-2.5578 3.4865 -2.0016 0.9811
-2.6814 3.3924 -2.0016 0.9811
-2.9180 3.1911 -2.0016 0.9811
-3.2444 2.8586 -2.0016 0.9811
-3.6204 2.3645 -2.0016 0.9811
-3.8537 1.9612 -2.0016 0.9811
-1.3247 0.5584 -0.6654 0.9937
-1.3334 0.4523 -0.6517 0.9938
-1.3137 0.3427 -0.6284 0.9940
-1.2989 0.2894 -0.6160 0.9942
-1.3142 0.2436 -0.6187 0.9941
-1.3260 0.1969 -0.6205 0.9941
-1.3343 0.1493 -0.6215 0.9941
