ply
format ascii 1.0
element vertex 1594
property float32 x
property float32 y
property float32 z
property float32 I
end_header
-6.5050 -3.0206 -1.8570 0.9708
-6.2712 -3.4800 -1.8570 0.9708
-5.8602 -4.1348 -1.8570 0.9708
-5.3812 -4.7415 -1.8570 0.9708
-5.2073 -4.9318 -1.8570 0.9708
-4.6463 -5.4636 -1.8570 0.9708
-4.3452 -6.3937 -2.0016 0.9686
-4.1126 -6.5457 -2.0016 0.9686
-3.6318 -6.8242 -2.0016 0.9686
-2.8763 -7.1755 -2.0016 0.9686
-2.3535 -7.3635 -2.0016 0.9686
-1.5473 -7.5741 -2.0016 0.9686
-0.9993 -7.6656 -2.0016 0.9686
-0.7232 -7.6966 -2.0016 0.9686
-0.4461 -7.7176 -2.0016 0.9686
0.1094 -7.7297 -2.0016 0.9686
1.7610 -7.5272 -2.0016 0.9686
2.0304 -7.4591 -2.0016 0.9686
2.5609 -7.2940 -2.0016 0.9686
2.8213 -7.1973 -2.0016 0.9686
2.3389 -4.1099 -1.2244 0.9807
4.0625 -6.5770 -2.0016 0.9686
4.2962 -6.4268 -2.0016 0.9686
4.5244 -6.2682 -2.0016 0.9686
4.9629 -5.9271 -2.0016 0.9686
5.5720 -5.3585 -2.0016 0.9686
5.9425 -4.9444 -2.0016 0.9686
6.2823 -4.5048 -2.0016 0.9686
6.4401 -4.2762 -2.0016 0.9686
6.7306 -3.8026 -2.0016 0.9686
6.8629 -3.5582 -2.0016 0.9686
6.9863 -3.3093 -2.0016 0.9686
7.3019 -2.5382 -2.0016 0.9686
7.3884 -2.2741 -2.0016 0.9686
7.4654 -2.0072 -2.0016 0.9686
7.5903 -1.4657 -2.0016 0.9686
7.7300 -0.0853 -2.0016 0.9686
7.7281 0.1925 -2.0016 0.9686
7.6625 1.0231 -2.0016 0.9686
7.5692 1.5708 -2.0016 0.9686
7.5079 1.8418 -2.0016 0.9686
7.3562 2.3763 -2.0016 0.9686
7.0577 3.1542 -2.0016 0.9686
6.6772 3.8955 -2.0016 0.9686
6.3802 4.3651 -2.0016 0.9686
6.0502 4.8120 -2.0016 0.9686
5.4971 5.4352 -2.0016 0.9686
5.2983 5.6293 -2.0016 0.9686
4.8803 5.9953 -2.0016 0.9686
4.4370 6.3303 -2.0016 0.9686
3.9709 6.6327 -2.0016 0.9686
3.4842 6.9008 -2.0016 0.9686
3.2340 7.0215 -2.0016 0.9686
1.9268 7.4865 -2.0016 0.9686
1.3840 7.6056 -2.0016 0.9686
1.1098 7.6504 -2.0016 0.9686
0.8342 7.6854 -2.0016 0.9686
0.2800 7.7254 -2.0016 0.9686
-0.2756 7.7256 -2.0016 0.9686
-0.5531 7.7107 -2.0016 0.9686
-0.8298 7.6858 -2.0016 0.9686
-1.3797 7.6064 -2.0016 0.9686
-1.6522 7.5519 -2.0016 0.9686
-1.9225 7.4876 -2.0016 0.9686
-2.1903 7.4137 -2.0016 0.9686
-2.4553 7.3302 -2.0016 0.9686
-2.9755 7.1349 -2.0016 0.9686
-3.4803 6.9028 -2.0016 0.9686
-3.7261 6.7732 -2.0016 0.9686
-3.9671 6.6349 -2.0016 0.9686
-4.4334 6.3329 -2.0016 0.9686
-5.0892 5.8189 -2.0016 0.9686
-5.2950 5.6323 -2.0016 0.9686
-5.8705 5.0297 -2.0016 0.9686
-6.3777 4.3687 -2.0016 0.9686
-6.5306 4.1367 -2.0016 0.9686
-6.9378 3.4098 -2.0016 0.9686
-7.0559 3.1583 -2.0016 0.9686
-7.1648 2.9027 -2.0016 0.9686
-7.2645 2.6433 -2.0016 0.9686
-7.3548 2.3805 -2.0016 0.9686
-7.4356 2.1147 -2.0016 0.9686
-7.5068 1.8461 -2.0016 0.9686
-7.7280 0.1969 -2.0016 0.9686
-7.7222 -0.3587 -2.0016 0.9686
-7.7043 -0.6360 -2.0016 0.9686
-7.6765 -0.9124 -2.0016 0.9686
-7.6387 -1.1877 -2.0016 0.9686
-7.5911 -1.4614 -2.0016 0.9686
-7.0320 -0.7351 -2.0016 0.9710
-7.0011 -0.9873 -2.0016 0.9710
-6.9611 -1.2383 -2.0016 0.9710
-6.9121 -1.4876 -2.0016 0.9710
-6.8541 -1.7351 -2.0016 0.9710
-6.0628 -2.5043 -1.8570 0.9731
-5.7580 -3.1422 -1.8570 0.9731
-5.1036 -4.1209 -1.8570 0.9731
-4.9522 -4.3016 -1.8570 0.9731
-4.4605 -4.8096 -1.8570 0.9731
-4.2848 -4.9668 -1.8570 0.9731
-4.1035 -5.1176 -1.8570 0.9731
-3.7253 -5.3991 -1.8570 0.9731
-3.5289 -5.5295 -1.8570 0.9731
-2.9105 -6.4435 -2.0016 0.9710
-2.6770 -6.5439 -2.0016 0.9710
-2.4401 -6.6359 -2.0016 0.9710
-2.2001 -6.7193 -2.0016 0.9710
-1.7118 -6.8600 -2.0016 0.9710
-1.2146 -6.9652 -2.0016 0.9710
-0.7112 -7.0345 -2.0016 0.9710
-0.4579 -7.0555 -2.0016 0.9710
-0.2041 -7.0674 -2.0016 0.9710
0.0500 -7.0702 -2.0016 0.9710
0.3041 -7.0638 -2.0016 0.9710
0.5577 -7.0483 -2.0016 0.9710
1.0625 -6.9900 -2.0016 0.9710
1.3131 -6.9473 -2.0016 0.9710
1.8087 -6.8351 -2.0016 0.9710
2.2949 -6.6875 -2.0016 0.9710
4.0973 -5.7621 -2.0016 0.9710
4.3018 -5.6111 -2.0016 0.9710
4.5006 -5.4529 -2.0016 0.9710
4.6937 -5.2876 -2.0016 0.9710
5.0613 -4.9368 -2.0016 0.9710
5.7165 -4.1607 -2.0016 0.9710
5.8623 -3.9526 -2.0016 0.9710
6.2537 -3.2987 -2.0016 0.9710
6.3682 -3.0718 -2.0016 0.9710
6.4744 -2.8410 -2.0016 0.9710
6.5723 -2.6065 -2.0016 0.9710
6.6618 -2.3686 -2.0016 0.9710
6.7426 -2.1277 -2.0016 0.9710
7.0600 -0.3820 -2.0016 0.9710
7.0692 -0.1281 -2.0016 0.9710
7.0419 0.6335 -2.0016 0.9710
6.9782 1.1376 -2.0016 0.9710
6.9328 1.3877 -2.0016 0.9710
6.8785 1.6359 -2.0016 0.9710
6.7432 2.1258 -2.0016 0.9710
6.6625 2.3667 -2.0016 0.9710
6.5731 2.6046 -2.0016 0.9710
6.4752 2.8392 -2.0016 0.9710
6.3690 3.0700 -2.0016 0.9710
6.2546 3.2969 -2.0016 0.9710
6.1321 3.5196 -2.0016 0.9710
5.8634 3.9509 -2.0016 0.9710
5.4042 4.5590 -2.0016 0.9710
5.0627 4.9354 -2.0016 0.9710
3.8893 5.9045 -2.0016 0.9710
3.6746 6.0404 -2.0016 0.9710
2.7712 6.5046 -2.0016 0.9710
2.5357 6.6000 -2.0016 0.9710
2.2968 6.6869 -2.0016 0.9710
2.0550 6.7651 -2.0016 0.9710
1.5638 6.8952 -2.0016 0.9710
1.3150 6.9470 -2.0016 0.9710
1.0645 6.9897 -2.0016 0.9710
0.8127 7.0235 -2.0016 0.9710
0.5597 7.0481 -2.0016 0.9710
0.0520 7.0701 -2.0016 0.9710
-0.2021 7.0674 -2.0016 0.9710
-0.7092 7.0347 -2.0016 0.9710
-0.9615 7.0046 -2.0016 0.9710
-1.7098 6.8605 -2.0016 0.9710
-2.4382 6.6366 -2.0016 0.9710
-2.6752 6.5447 -2.0016 0.9710
-2.9086 6.4443 -2.0016 0.9710
-3.1383 6.3356 -2.0016 0.9710
-4.4214 5.5173 -2.0016 0.9710
-4.8063 5.1855 -2.0016 0.9710
-4.9896 5.0094 -2.0016 0.9710
-5.3365 4.6381 -2.0016 0.9710
-5.9460 3.8256 -2.0016 0.9710
-6.0796 3.6094 -2.0016 0.9710
-6.2054 3.3886 -2.0016 0.9710
-6.3232 3.1634 -2.0016 0.9710
-6.4328 2.9342 -2.0016 0.9710
-6.6269 2.4645 -2.0016 0.9710
-6.7868 1.9822 -2.0016 0.9710
-6.8536 1.7370 -2.0016 0.9710
-6.9116 1.4896 -2.0016 0.9710
-7.0266 -0.7848 -2.0016 0.9710
-6.9939 -1.0368 -2.0016 0.9710
-6.9014 -1.5365 -2.0016 0.9710
-6.8417 -1.7835 -2.0016 0.9710
-6.5599 -2.2242 -1.9609 0.9716
-6.1325 -2.3282 -1.8570 0.9731
-5.9495 -2.7627 -1.8570 0.9731
-5.4922 -3.5866 -1.8570 0.9731
-5.3598 -3.7817 -1.8570 0.9731
-5.2204 -3.9718 -1.8570 0.9731
-4.4264 -4.8411 -1.8570 0.9731
-4.0672 -5.1465 -1.8570 0.9731
-3.8796 -5.2893 -1.8570 0.9731
-3.4897 -5.5543 -1.8570 0.9731
-3.3217 -6.2415 -2.0016 0.9710
-2.8648 -6.4639 -2.0016 0.9710
-2.6307 -6.5627 -2.0016 0.9710
-2.3931 -6.6530 -2.0016 0.9710
-2.1525 -6.7347 -2.0016 0.9710
-1.9091 -6.8077 -2.0016 0.9710
-1.6632 -6.8719 -2.0016 0.9710
-1.4152 -6.9273 -2.0016 0.9710
-1.1653 -6.9736 -2.0016 0.9710
-0.6614 -7.0393 -2.0016 0.9710
-0.1541 -7.0686 -2.0016 0.9710
0.1000 -7.0696 -2.0016 0.9710
0.3540 -7.0615 -2.0016 0.9710
1.3622 -6.9379 -2.0016 0.9710
2.1009 -6.7510 -2.0016 0.9710
2.3422 -6.6711 -2.0016 0.9710
2.5804 -6.5826 -2.0016 0.9710
2.8153 -6.4856 -2.0016 0.9710
2.3307 -4.0955 -1.3340 0.9806
3.7155 -6.0153 -2.0016 0.9710
4.9167 -5.0809 -2.0016 0.9710
5.0961 -4.9009 -2.0016 0.9710
5.2690 -4.7146 -2.0016 0.9710
5.4350 -4.5222 -2.0016 0.9710
5.5940 -4.3240 -2.0016 0.9710
5.8901 -3.9110 -2.0016 0.9710
6.1558 -3.4778 -2.0016 0.9710
6.2768 -3.2544 -2.0016 0.9710
6.3897 -3.0267 -2.0016 0.9710
6.8279 -1.8358 -2.0016 0.9710
6.8894 -1.5892 -2.0016 0.9710
6.9421 -1.3406 -2.0016 0.9710
6.9858 -1.0902 -2.0016 0.9710
7.0204 -0.8385 -2.0016 0.9710
7.0460 -0.5857 -2.0016 0.9710
7.0699 -0.0781 -2.0016 0.9710
7.0681 0.1761 -2.0016 0.9710
7.0572 0.4300 -2.0016 0.9710
7.0372 0.6833 -2.0016 0.9710
7.0081 0.9357 -2.0016 0.9710
6.9700 1.1870 -2.0016 0.9710
6.9228 1.4367 -2.0016 0.9710
6.7280 2.1734 -2.0016 0.9710
6.6455 2.4138 -2.0016 0.9710
6.5545 2.6511 -2.0016 0.9710
6.4550 2.8849 -2.0016 0.9710
5.8353 3.9923 -2.0016 0.9710
5.6881 4.1994 -2.0016 0.9710
5.3718 4.5971 -2.0016 0.9710
5.2031 4.7872 -2.0016 0.9710
5.0277 4.9711 -2.0016 0.9710
4.8458 5.1486 -2.0016 0.9710
4.6577 5.3194 -2.0016 0.9710
3.6318 6.0663 -2.0016 0.9710
3.1867 6.3115 -2.0016 0.9710
2.9578 6.4219 -2.0016 0.9710
2.4889 6.6178 -2.0016 0.9710
2.0071 6.7795 -2.0016 0.9710
1.7622 6.8472 -2.0016 0.9710
1.5150 6.9061 -2.0016 0.9710
1.2658 6.9561 -2.0016 0.9710
1.0150 6.9971 -2.0016 0.9710
0.7629 7.0291 -2.0016 0.9710
0.5098 7.0519 -2.0016 0.9710
0.0020 7.0703 -2.0016 0.9710
-0.5058 7.0522 -2.0016 0.9710
-0.7589 7.0295 -2.0016 0.9710
-1.2619 6.9568 -2.0016 0.9710
-1.5111 6.9070 -2.0016 0.9710
-2.0033 6.7806 -2.0016 0.9710
-2.4851 6.6192 -2.0016 0.9710
-4.0548 5.7921 -2.0016 0.9710
-4.4604 5.4859 -2.0016 0.9710
-4.8429 5.1513 -2.0016 0.9710
-5.0249 4.9739 -2.0016 0.9710
-5.2004 4.7902 -2.0016 0.9710
-5.9729 3.7834 -2.0016 0.9710
-6.1050 3.5663 -2.0016 0.9710
-6.3454 3.1186 -2.0016 0.9710
-6.4533 2.8886 -2.0016 0.9710
-6.6442 2.4176 -2.0016 0.9710
-6.8658 1.6885 -2.0016 0.9710
-6.9220 1.4407 -2.0016 0.9710
-7.0699 -0.0740 -2.0016 0.9710
-7.0627 -0.3280 -2.0016 0.9710
-7.0464 -0.5816 -2.0016 0.9710
-7.0209 -0.8345 -2.0016 0.9710
-6.9864 -1.0863 -2.0016 0.9710
-6.9428 -1.3366 -2.0016 0.9710
-6.4923 -0.4435 -2.0016 0.9731
-6.3618 -1.3692 -2.0016 0.9731
-6.3085 -1.5969 -2.0016 0.9731
-6.2470 -1.8226 -2.0016 0.9731
-5.4937 -2.5039 -1.8570 0.9751
-5.1923 -3.0806 -1.8570 0.9751
-5.0782 -3.2653 -1.8570 0.9751
-4.9576 -3.4456 -1.8570 0.9751
-4.5580 -3.9592 -1.8570 0.9751
-4.4128 -4.1204 -1.8570 0.9751
-4.2618 -4.2763 -1.8570 0.9751
-3.9437 -4.5714 -1.8570 0.9751
-3.7769 -4.7102 -1.8570 0.9751
-3.6051 -4.8429 -1.8570 0.9751
-2.6814 -5.4093 -1.8570 0.9751
-2.0249 -6.1844 -2.0016 0.9731
-1.8014 -6.2532 -2.0016 0.9731
-1.3476 -6.3664 -2.0016 0.9731
-1.1179 -6.4107 -2.0016 0.9731
-0.6546 -6.4745 -2.0016 0.9731
-0.4215 -6.4938 -2.0016 0.9731
0.9779 -6.4336 -2.0016 0.9731
1.2085 -6.3943 -2.0016 0.9731
1.4375 -6.3467 -2.0016 0.9731
1.8897 -6.2271 -2.0016 0.9731
2.3648 -5.5550 -1.8570 0.9751
2.0733 -4.4223 -1.5023 0.9798
3.3805 -5.5605 -2.0016 0.9731
3.5781 -5.4355 -2.0016 0.9731
4.1423 -5.0188 -2.0016 0.9731
4.3200 -4.8667 -2.0016 0.9731
4.4921 -4.7083 -2.0016 0.9731
5.1204 -4.0161 -2.0016 0.9731
5.2614 -3.8295 -2.0016 0.9731
5.3956 -3.6379 -2.0016 0.9731
5.5229 -3.4417 -2.0016 0.9731
5.6430 -3.2410 -2.0016 0.9731
6.1314 -2.1801 -2.0016 0.9731
6.2058 -1.9583 -2.0016 0.9731
6.3305 -1.5075 -2.0016 0.9731
6.3805 -1.2790 -2.0016 0.9731
6.4559 -0.8174 -2.0016 0.9731
6.4811 -0.5849 -2.0016 0.9731
6.4980 -0.3516 -2.0016 0.9731
6.5064 -0.1179 -2.0016 0.9731
6.5064 0.1160 -2.0016 0.9731
6.4562 0.8156 -2.0016 0.9731
6.4227 1.0471 -2.0016 0.9731
6.3809 1.2772 -2.0016 0.9731
6.2727 1.7322 -2.0016 0.9731
6.1321 2.1783 -2.0016 0.9731
5.7567 3.0344 -2.0016 0.9731
5.3967 3.6364 -2.0016 0.9731
4.8200 4.3721 -2.0016 0.9731
4.1438 5.0176 -2.0016 0.9731
3.7727 5.3023 -2.0016 0.9731
3.3821 5.5596 -2.0016 0.9731
2.9740 5.7881 -2.0016 0.9731
2.7641 5.8913 -2.0016 0.9731
2.1140 6.1545 -2.0016 0.9731
1.8915 6.2265 -2.0016 0.9731
1.4393 6.3463 -2.0016 0.9731
1.2103 6.3939 -2.0016 0.9731
0.9798 6.4333 -2.0016 0.9731
0.5152 6.4871 -2.0016 0.9731
0.0479 6.5073 -2.0016 0.9731
-1.1161 6.4111 -2.0016 0.9731
-1.7996 6.2537 -2.0016 0.9731
-2.2441 6.1083 -2.0016 0.9731
-3.2999 5.6087 -2.0016 0.9731
-3.6942 5.3572 -2.0016 0.9731
-4.0695 5.0781 -2.0016 0.9731
-4.4237 4.7727 -2.0016 0.9731
-4.5923 4.6106 -2.0016 0.9731
-4.9117 4.2688 -2.0016 0.9731
-5.2056 3.9050 -2.0016 0.9731
-5.5956 3.3221 -2.0016 0.9731
-5.7114 3.1189 -2.0016 0.9731
-5.9207 2.7006 -2.0016 0.9731
-6.0139 2.4861 -2.0016 0.9731
-6.4435 0.9105 -2.0016 0.9731
-6.4720 0.6784 -2.0016 0.9731
-6.5040 0.2118 -2.0016 0.9731
-6.5024 -0.2559 -2.0016 0.9731
-6.4890 -0.4894 -2.0016 0.9731
-6.4673 -0.7223 -2.0016 0.9731
-6.4371 -0.9543 -2.0016 0.9731
-6.3987 -1.1850 -2.0016 0.9731
-6.2340 -1.8668 -2.0016 0.9731
-5.5637 -2.3443 -1.8570 0.9751
-5.4759 -2.5427 -1.8570 0.9751
-5.3809 -2.7379 -1.8570 0.9751
-5.2791 -2.9295 -1.8570 0.9751
-5.1704 -3.1173 -1.8570 0.9751
-5.0550 -3.3011 -1.8570 0.9751
-4.9331 -3.4806 -1.8570 0.9751
-4.6704 -3.8260 -1.8570 0.9751
-4.5299 -3.9913 -1.8570 0.9751
-4.2315 -4.3064 -1.8570 0.9751
-3.9112 -4.5992 -1.8570 0.9751
-3.7434 -4.7368 -1.8570 0.9751
-3.5708 -4.8683 -1.8570 0.9751
-3.0261 -5.2243 -1.8570 0.9751
-2.8364 -5.3297 -1.8570 0.9751
-2.4463 -5.5196 -1.8570 0.9751
-1.7571 -6.2658 -2.0016 0.9731
-1.3025 -6.3758 -2.0016 0.9731
-0.8412 -6.4529 -2.0016 0.9731
0.0921 -6.5068 -2.0016 0.9731
0.3258 -6.4993 -2.0016 0.9731
0.5592 -6.4834 -2.0016 0.9731
1.0234 -6.4265 -2.0016 0.9731
1.4824 -6.3364 -2.0016 0.9731
3.4197 -5.5365 -2.0016 0.9731
3.6165 -5.4100 -2.0016 0.9731
3.9957 -5.1363 -2.0016 0.9731
4.1777 -4.9894 -2.0016 0.9731
4.3544 -4.8360 -2.0016 0.9731
4.5253 -4.6764 -2.0016 0.9731
4.6905 -4.5108 -2.0016 0.9731
4.8495 -4.3393 -2.0016 0.9731
5.0023 -4.1622 -2.0016 0.9731
5.2884 -3.7922 -2.0016 0.9731
5.6658 -3.2010 -2.0016 0.9731
5.7772 -2.9953 -2.0016 0.9731
5.8811 -2.7857 -2.0016 0.9731
5.9774 -2.5726 -2.0016 0.9731
6.1467 -2.1366 -2.0016 0.9731
6.2195 -1.9144 -2.0016 0.9731
6.2843 -1.6896 -2.0016 0.9731
6.4616 -0.7717 -2.0016 0.9731
6.5003 -0.3056 -2.0016 0.9731
6.5055 0.1621 -2.0016 0.9731
6.4954 0.3957 -2.0016 0.9731
6.4770 0.6289 -2.0016 0.9731
6.4151 1.0925 -2.0016 0.9731
6.3717 1.3223 -2.0016 0.9731
6.1165 2.2216 -2.0016 0.9731
5.9411 2.6552 -2.0016 0.9731
5.8419 2.8670 -2.0016 0.9731
5.7351 3.0751 -2.0016 0.9731
5.4994 3.4791 -2.0016 0.9731
5.2353 3.8651 -2.0016 0.9731
4.9442 4.2312 -2.0016 0.9731
4.6275 4.5754 -2.0016 0.9731
4.2869 4.8959 -2.0016 0.9731
4.1082 5.0468 -2.0016 0.9731
3.5411 5.4596 -2.0016 0.9731
3.3427 5.5834 -2.0016 0.9731
2.5082 6.0047 -2.0016 0.9731
2.2908 6.0910 -2.0016 0.9731
1.6219 6.3021 -2.0016 0.9731
1.3944 6.3563 -2.0016 0.9731
0.7022 6.4695 -2.0016 0.9731
0.4693 6.4905 -2.0016 0.9731
0.2357 6.5032 -2.0016 0.9731
0.0019 6.5075 -2.0016 0.9731
-0.2320 6.5033 -2.0016 0.9731
-0.4656 6.4908 -2.0016 0.9731
-0.6985 6.4699 -2.0016 0.9731
-1.8438 6.2408 -2.0016 0.9731
-2.2873 6.0923 -2.0016 0.9731
-2.5047 6.0061 -2.0016 0.9731
-2.7190 5.9122 -2.0016 0.9731
-2.9297 5.8107 -2.0016 0.9731
-3.1366 5.7017 -2.0016 0.9731
-3.5380 5.4616 -2.0016 0.9731
-4.4573 4.7412 -2.0016 0.9731
-4.7864 4.4088 -2.0016 0.9731
-4.9417 4.2339 -2.0016 0.9731
-5.2331 3.8681 -2.0016 0.9731
-5.3687 3.6775 -2.0016 0.9731
-5.4974 3.4822 -2.0016 0.9731
-5.6190 3.2824 -2.0016 0.9731
-5.7333 3.0784 -2.0016 0.9731
-5.8402 2.8703 -2.0016 0.9731
-5.9396 2.6586 -2.0016 0.9731
-6.1152 2.2251 -2.0016 0.9731
-6.3192 1.5541 -2.0016 0.9731
-6.3710 1.3260 -2.0016 0.9731
-6.4767 0.6326 -2.0016 0.9731
-6.4952 0.3994 -2.0016 0.9731
-6.5054 0.1658 -2.0016 0.9731
-6.5071 -0.0681 -2.0016 0.9731
-6.4620 -0.7681 -2.0016 0.9731
-6.3901 -1.2302 -2.0016 0.9731
-5.9888 -0.6260 -2.0016 0.9749
-5.9624 -0.8408 -2.0016 0.9749
-5.9284 -1.0546 -2.0016 0.9749
-5.8373 -1.4777 -2.0016 0.9749
-5.7161 -1.8931 -2.0016 0.9749
-5.6444 -2.0973 -2.0016 0.9749
-4.9968 -2.4981 -1.8570 0.9767
-4.8045 -2.8506 -1.8570 0.9767
-4.4698 -3.3511 -1.8570 0.9767
-4.3465 -3.5095 -1.8570 0.9767
-4.2176 -3.6635 -1.8570 0.9767
-4.0832 -3.8127 -1.8570 0.9767
-3.9435 -3.9569 -1.8570 0.9767
-3.4948 -4.3584 -1.8570 0.9767
-3.3359 -4.4812 -1.8570 0.9767
-3.1727 -4.5981 -1.8570 0.9767
-3.0054 -4.7092 -1.8570 0.9767
-2.8342 -4.8141 -1.8570 0.9767
-2.1152 -5.1706 -1.8570 0.9767
-1.9280 -5.2432 -1.8570 0.9767
-1.5464 -5.3682 -1.8570 0.9767
-0.9597 -5.5034 -1.8570 0.9767
-0.1613 -5.5842 -1.8570 0.9767
0.0395 -5.5863 -1.8570 0.9767
0.2402 -5.5813 -1.8570 0.9767
0.4407 -5.5691 -1.8570 0.9767
0.8395 -5.5230 -1.8570 0.9767
1.2341 -5.4485 -1.8570 0.9767
2.0590 -4.3917 -1.6123 0.9798
2.0969 -4.0839 -1.5260 0.9808
2.2766 -4.0671 -1.5493 0.9805
3.2374 -4.5528 -1.8570 0.9767
3.8329 -4.6439 -2.0016 0.9749
4.3105 -4.2044 -2.0016 0.9749
4.4588 -4.0468 -2.0016 0.9749
4.6013 -3.8840 -2.0016 0.9749
5.3259 -2.8093 -2.0016 0.9749
5.4234 -2.6161 -2.0016 0.9749
5.8037 -1.6045 -2.0016 0.9749
5.8576 -1.3949 -2.0016 0.9749
5.9040 -1.1835 -2.0016 0.9749
5.9427 -0.9706 -2.0016 0.9749
6.0126 -0.3254 -2.0016 0.9749
6.0205 0.1074 -2.0016 0.9749
5.9430 0.9689 -2.0016 0.9749
5.8042 1.6029 -2.0016 0.9749
5.5146 2.4180 -2.0016 0.9749
5.3267 2.8078 -2.0016 0.9749
5.2224 2.9974 -2.0016 0.9749
4.8694 3.5421 -2.0016 0.9749
4.7390 3.7148 -2.0016 0.9749
4.6025 3.8827 -2.0016 0.9749
4.4600 4.0456 -2.0016 0.9749
4.1579 4.3555 -2.0016 0.9749
3.9986 4.5021 -2.0016 0.9749
3.8343 4.6429 -2.0016 0.9749
3.6649 4.7776 -2.0016 0.9749
3.4909 4.9063 -2.0016 0.9749
3.1295 5.1443 -2.0016 0.9749
2.9426 5.2535 -2.0016 0.9749
2.7519 5.3558 -2.0016 0.9749
2.5576 5.4513 -2.0016 0.9749
2.3601 5.5397 -2.0016 0.9749
1.5420 5.8207 -2.0016 0.9749
1.3318 5.8723 -2.0016 0.9749
1.1199 5.9164 -2.0016 0.9749
0.9066 5.9528 -2.0016 0.9749
0.6921 5.9815 -2.0016 0.9749
0.0443 6.0213 -2.0016 0.9749
-3.0534 5.1898 -2.0016 0.9749
-3.9319 4.5604 -2.0016 0.9749
-4.2494 4.2662 -2.0016 0.9749
-4.5448 3.9500 -2.0016 0.9749
-4.6838 3.7841 -2.0016 0.9749
-4.9435 3.4379 -2.0016 0.9749
-5.1777 3.0740 -2.0016 0.9749
-5.2848 2.8859 -2.0016 0.9749
-5.4785 2.4989 -2.0016 0.9749
-5.5647 2.3004 -2.0016 0.9749
-5.6438 2.0989 -2.0016 0.9749
-5.8369 1.4793 -2.0016 0.9749
-5.9281 1.0562 -2.0016 0.9749
-5.9886 0.6277 -2.0016 0.9749
-6.0168 -0.2368 -2.0016 0.9749
-5.9842 -0.6684 -2.0016 0.9749
-5.8267 -1.5189 -2.0016 0.9749
-5.7026 -1.9335 -2.0016 0.9749
-5.6294 -2.1372 -2.0016 0.9749
-4.8848 -2.7107 -1.8570 0.9767
-4.7842 -2.8845 -1.8570 0.9767
-4.6775 -3.0545 -1.8570 0.9767
-4.5647 -3.2207 -1.8570 0.9767
-4.4460 -3.3826 -1.8570 0.9767
-4.3216 -3.5402 -1.8570 0.9767
-4.0561 -3.8415 -1.8570 0.9767
-3.9154 -3.9847 -1.8570 0.9767
-3.6191 -4.2557 -1.8570 0.9767
-3.4638 -4.3830 -1.8570 0.9767
-3.1401 -4.6205 -1.8570 0.9767
-2.9720 -4.7303 -1.8570 0.9767
-2.8001 -4.8341 -1.8570 0.9767
-2.6246 -4.9316 -1.8570 0.9767
-2.2636 -5.1074 -1.8570 0.9767
-2.0786 -5.1854 -1.8570 0.9767
-1.3141 -5.4297 -1.8570 0.9767
-0.9207 -5.5101 -1.8570 0.9767
-0.7228 -5.5447 -1.8587 0.9767
-0.5226 -5.5620 -1.8570 0.9767
0.2797 -5.5795 -1.8570 0.9767
0.6799 -5.5461 -1.8573 0.9767
1.2726 -5.4396 -1.8570 0.9767
1.6600 -5.3342 -1.8570 0.9767
2.0389 -5.2011 -1.8570 0.9767
2.2245 -5.1245 -1.8570 0.9767
2.0620 -4.3184 -1.5907 0.9800
2.1271 -4.0715 -1.5270 0.9808
2.3141 -4.0664 -1.5553 0.9805
2.9358 -4.7529 -1.8570 0.9767
3.4302 -4.4093 -1.8570 0.9767
4.1873 -4.3271 -2.0016 0.9749
4.8934 -3.5089 -2.0016 0.9749
5.1328 -3.1484 -2.0016 0.9749
5.2426 -2.9619 -2.0016 0.9749
5.3457 -2.7716 -2.0016 0.9749
5.6876 -1.9770 -2.0016 0.9749
5.7550 -1.7714 -2.0016 0.9749
5.8674 -1.3534 -2.0016 0.9749
5.9789 -0.7141 -2.0016 0.9749
5.9685 0.7969 -2.0016 0.9749
5.9360 1.0109 -2.0016 0.9749
5.8480 1.4347 -2.0016 0.9749
5.6597 2.0557 -2.0016 0.9749
5.5821 2.2578 -2.0016 0.9749
5.2010 3.0343 -2.0016 0.9749
4.8443 3.5764 -2.0016 0.9749
4.7126 3.7482 -2.0016 0.9749
3.9667 4.5302 -2.0016 0.9749
3.8013 4.6699 -2.0016 0.9749
3.4561 4.9308 -2.0016 0.9749
3.0930 5.1663 -2.0016 0.9749
2.9053 5.2742 -2.0016 0.9749
2.7139 5.3752 -2.0016 0.9749
2.1197 5.6360 -2.0016 0.9749
1.9158 5.7086 -2.0016 0.9749
0.8645 5.9591 -2.0016 0.9749
0.2181 6.0175 -2.0016 0.9749
-0.4308 6.0060 -2.0016 0.9749
-0.6463 5.9867 -2.0016 0.9749
-1.0747 5.9248 -2.0016 0.9749
-1.2869 5.8823 -2.0016 0.9749
-1.4975 5.8323 -2.0016 0.9749
-1.7061 5.7747 -2.0016 0.9749
-2.3177 5.5575 -2.0016 0.9749
-2.7109 5.3767 -2.0016 0.9749
-2.9023 5.2758 -2.0016 0.9749
-3.0900 5.1681 -2.0016 0.9749
-3.2738 5.0537 -2.0016 0.9749
-3.4533 4.9328 -2.0016 0.9749
-3.6283 4.8055 -2.0016 0.9749
-3.9641 4.5325 -2.0016 0.9749
-4.4289 4.0795 -2.0016 0.9749
-4.7105 3.7509 -2.0016 0.9749
-4.8422 3.5792 -2.0016 0.9749
-4.9677 3.4029 -2.0016 0.9749
-5.3051 2.8484 -2.0016 0.9749
-5.4040 2.6560 -2.0016 0.9749
-5.4960 2.4600 -2.0016 0.9749
-5.5808 2.2609 -2.0016 0.9749
-5.6585 2.0589 -2.0016 0.9749
-5.7918 1.6472 -2.0016 0.9749
-5.8472 1.4380 -2.0016 0.9749
-5.8951 1.2269 -2.0016 0.9749
-5.9354 1.0143 -2.0016 0.9749
-5.9680 0.8003 -2.0016 0.9749
-6.0101 0.3696 -2.0016 0.9749
-6.0195 0.1534 -2.0016 0.9749
-6.0211 -0.0630 -2.0016 0.9749
-5.9794 -0.7107 -2.0016 0.9749
-5.9500 -0.9251 -2.0016 0.9749
-5.5841 -0.3815 -2.0016 0.9765
-5.5106 -0.9802 -2.0016 0.9765
-5.4259 -1.3735 -2.0016 0.9765
-5.3731 -1.5676 -2.0016 0.9765
-4.8950 -2.2311 -1.9237 0.9774
-4.6447 -2.3220 -1.8570 0.9782
-4.4659 -2.6497 -1.8570 0.9782
-4.3678 -2.8084 -1.8570 0.9782
-4.1548 -3.1149 -1.8570 0.9782
-4.0402 -3.2622 -1.8570 0.9782
-3.9203 -3.4053 -1.8570 0.9782
-3.5311 -3.8074 -1.8570 0.9782
-3.3920 -3.9319 -1.8570 0.9782
-2.6345 -4.4749 -1.8570 0.9782
-1.0753 -5.0802 -1.8570 0.9782
-0.7077 -5.1443 -1.8570 0.9782
-0.5223 -5.1665 -1.8570 0.9782
-0.1499 -5.1906 -1.8570 0.9782
0.0367 -5.1927 -1.8570 0.9782
0.4096 -5.1766 -1.8570 0.9782
1.1471 -5.0645 -1.8570 0.9782
1.5079 -4.9690 -1.8570 0.9782
1.6855 -4.9116 -1.8570 0.9782
1.8609 -4.8479 -1.8570 0.9782
2.0074 -4.2817 -1.6911 0.9801
2.4437 -4.0197 -1.6823 0.9802
3.1594 -4.1211 -1.8570 0.9782
3.3055 -4.0049 -1.8570 0.9782
4.0067 -3.9082 -2.0016 0.9765
4.1446 -3.7616 -2.0016 0.9765
4.4040 -3.4542 -2.0016 0.9765
4.5253 -3.2937 -2.0016 0.9765
4.8535 -2.7876 -2.0016 0.9765
5.1254 -2.2490 -2.0016 0.9765
5.2029 -2.0634 -2.0016 0.9765
5.2737 -1.8751 -2.0016 0.9765
5.3376 -1.6843 -2.0016 0.9765
5.3947 -1.4914 -2.0016 0.9765
5.4448 -1.2966 -2.0016 0.9765
5.4879 -1.1001 -2.0016 0.9765
5.5239 -0.9022 -2.0016 0.9765
5.5744 -0.5031 -2.0016 0.9765
5.5962 0.0998 -2.0016 0.9765
5.5890 0.3008 -2.0016 0.9765
5.5746 0.5015 -2.0016 0.9765
5.5530 0.7015 -2.0016 0.9765
5.5242 0.9006 -2.0016 0.9765
5.3951 1.4899 -2.0016 0.9765
5.3381 1.6828 -2.0016 0.9765
5.2035 2.0619 -2.0016 0.9765
5.1260 2.2476 -2.0016 0.9765
5.0419 2.4303 -2.0016 0.9765
4.9513 2.6099 -2.0016 0.9765
4.6417 3.1277 -2.0016 0.9765
4.4050 3.4530 -2.0016 0.9765
4.2781 3.6091 -2.0016 0.9765
4.1456 3.7605 -2.0016 0.9765
4.0078 3.9070 -2.0016 0.9765
3.5641 4.3157 -2.0016 0.9765
3.0789 4.6742 -2.0016 0.9765
2.5579 4.9784 -2.0016 0.9765
2.3774 5.0671 -2.0016 0.9765
2.1938 5.1493 -2.0016 0.9765
1.0410 5.4994 -2.0016 0.9765
0.2423 5.5918 -2.0016 0.9765
0.0412 5.5969 -2.0016 0.9765
-0.1600 5.5948 -2.0016 0.9765
-0.5614 5.5689 -2.0016 0.9765
-1.1575 5.4761 -2.0016 0.9765
-1.3535 5.4310 -2.0016 0.9765
-1.7401 5.3197 -2.0016 0.9765
-1.9302 5.2537 -2.0016 0.9765
-2.3026 5.1015 -2.0016 0.9765
-2.6630 4.9230 -2.0016 0.9765
-3.0098 4.7190 -2.0016 0.9765
-3.1774 4.6078 -2.0016 0.9765
-3.3409 4.4906 -2.0016 0.9765
-3.5001 4.3676 -2.0016 0.9765
-3.8048 4.1050 -2.0016 0.9765
-4.3537 3.5174 -2.0016 0.9765
-4.4773 3.3587 -2.0016 0.9765
-4.7070 3.0284 -2.0016 0.9765
-4.8128 2.8573 -2.0016 0.9765
-4.9124 2.6825 -2.0016 0.9765
-5.3726 1.5692 -2.0016 0.9765
-5.4256 1.3751 -2.0016 0.9765
-5.5103 0.9818 -2.0016 0.9765
-5.5840 0.3831 -2.0016 0.9765
-5.5941 0.1821 -2.0016 0.9765
-5.5971 -0.0190 -2.0016 0.9765
-5.5928 -0.2201 -2.0016 0.9765
-5.5625 -0.6213 -2.0016 0.9765
-5.5035 -1.0192 -2.0016 0.9765
-5.4161 -1.4119 -2.0016 0.9765
-5.3619 -1.6056 -2.0016 0.9765
-5.2327 -1.9866 -2.0016 0.9765
-4.8148 -2.2358 -1.8984 0.9777
-4.5405 -2.5197 -1.8570 0.9782
-4.4471 -2.6812 -1.8570 0.9782
-4.2430 -2.9937 -1.8570 0.9782
-4.1327 -3.1442 -1.8570 0.9782
-4.0170 -3.2907 -1.8570 0.9782
-3.8961 -3.4329 -1.8570 0.9782
-3.7703 -3.5707 -1.8570 0.9782
-3.6395 -3.7039 -1.8570 0.9782
-3.0712 -4.1872 -1.8570 0.9782
-2.6028 -4.4934 -1.8570 0.9782
-2.4396 -4.5840 -1.8570 0.9782
-2.1040 -4.7474 -1.8570 0.9782
-1.7576 -4.8863 -1.8570 0.9782
-1.4021 -4.9999 -1.8570 0.9782
-0.8559 -5.1218 -1.8570 0.9782
-0.6712 -5.1492 -1.8570 0.9782
-0.2997 -5.1841 -1.8570 0.9782
0.2600 -5.1863 -1.8570 0.9782
0.4462 -5.1736 -1.8570 0.9782
0.6319 -5.1542 -1.8570 0.9782
0.8167 -5.1282 -1.8570 0.9782
1.5430 -4.9582 -1.8570 0.9782
2.0270 -4.2451 -1.6823 0.9802
2.8859 -4.3170 -1.8570 0.9782
3.0392 -4.2105 -1.8570 0.9782
3.4747 -3.8590 -1.8570 0.9782
3.8922 -4.0222 -2.0016 0.9765
4.0343 -3.8797 -2.0016 0.9765
4.4284 -3.4230 -2.0016 0.9765
4.5485 -3.2616 -2.0016 0.9765
4.6628 -3.0961 -2.0016 0.9765
4.9689 -2.5763 -2.0016 0.9765
5.2868 -1.8377 -2.0016 0.9765
5.4051 -1.4532 -2.0016 0.9765
5.4539 -1.2581 -2.0016 0.9765
5.4956 -1.0612 -2.0016 0.9765
5.5576 -0.6638 -2.0016 0.9765
5.5779 -0.4636 -2.0016 0.9765
5.5909 -0.2629 -2.0016 0.9765
5.5968 -0.0618 -2.0016 0.9765
5.5709 0.5409 -2.0016 0.9765
5.5479 0.7408 -2.0016 0.9765
5.5177 0.9397 -2.0016 0.9765
5.3261 1.7205 -2.0016 0.9765
5.1887 2.0987 -2.0016 0.9765
4.6194 3.1604 -2.0016 0.9765
4.5029 3.3244 -2.0016 0.9765
4.3805 3.4841 -2.0016 0.9765
4.2525 3.6392 -2.0016 0.9765
4.1189 3.7897 -2.0016 0.9765
3.9801 3.9353 -2.0016 0.9765
3.8361 4.0758 -2.0016 0.9765
3.3752 4.4649 -2.0016 0.9765
2.8750 4.8023 -2.0016 0.9765
2.1573 5.1646 -2.0016 0.9765
1.7808 5.3063 -2.0016 0.9765
1.5889 5.3668 -2.0016 0.9765
1.3950 5.4205 -2.0016 0.9765
1.0021 5.5067 -2.0016 0.9765
0.8035 5.5391 -2.0016 0.9765
0.6040 5.5644 -2.0016 0.9765
-0.1996 5.5935 -2.0016 0.9765
-0.4004 5.5828 -2.0016 0.9765
-1.1962 5.4678 -2.0016 0.9765
-1.7777 5.3073 -2.0016 0.9765
-1.9673 5.2400 -2.0016 0.9765
-2.5198 4.9978 -2.0016 0.9765
-2.6978 4.9040 -2.0016 0.9765
-2.8723 4.8039 -2.0016 0.9765
-3.2099 4.5852 -2.0016 0.9765
-3.3726 4.4669 -2.0016 0.9765
-3.8338 4.0779 -2.0016 0.9765
-3.9779 3.9375 -2.0016 0.9765
-4.5010 3.3270 -2.0016 0.9765
-4.6176 3.1631 -2.0016 0.9765
-4.7283 2.9951 -2.0016 0.9765
-5.0232 2.4688 -2.0016 0.9765
-5.1875 2.1016 -2.0016 0.9765
-5.2597 1.9138 -2.0016 0.9765
-5.3251 1.7236 -2.0016 0.9765
-5.4351 1.3366 -2.0016 0.9765
-5.5706 0.5441 -2.0016 0.9765
-5.5953 0.1426 -2.0016 0.9765
-5.5911 -0.2597 -2.0016 0.9765
-5.5781 -0.4604 -2.0016 0.9765
-5.2109 -0.3560 -2.0016 0.9779
-5.1947 -0.5430 -2.0016 0.9779
-5.1061 -1.0989 -2.0016 0.9779
-5.0633 -1.2817 -2.0016 0.9779
-4.8274 -1.9940 -2.0016 0.9779
-4.2536 -2.3212 -1.8570 0.9795
-4.1675 -2.4726 -1.8570 0.9795
-4.0759 -2.6208 -1.8570 0.9795
-3.8771 -2.9067 -1.8570 0.9795
-3.7702 -3.0442 -1.8570 0.9795
-3.5418 -3.3071 -1.8570 0.9795
-3.4206 -3.4323 -1.8570 0.9795
-3.2951 -3.5530 -1.8570 0.9795
-2.8936 -3.8870 -1.8570 0.9795
-2.7520 -3.9885 -1.8570 0.9795
-2.4584 -4.1758 -1.8570 0.9795
-2.3068 -4.2615 -1.8570 0.9795
-1.8347 -4.4850 -1.8570 0.9795
-1.6724 -4.5480 -1.8570 0.9795
-1.5079 -4.6052 -1.8570 0.9795
-1.3414 -4.6564 -1.8570 0.9795
-1.1732 -4.7016 -1.8570 0.9795
-0.8325 -4.7737 -1.8570 0.9795
-0.6604 -4.8005 -1.8570 0.9795
0.0343 -4.8456 -1.8570 0.9795
0.7282 -4.7907 -1.8570 0.9795
1.2396 -4.6845 -1.8570 0.9795
1.5729 -4.5834 -1.8570 0.9795
1.7366 -4.5239 -1.8570 0.9795
2.0009 -4.2679 -1.8063 0.9800
2.2392 -4.0003 -1.7568 0.9806
2.8082 -3.9491 -1.8570 0.9795
2.9483 -3.8456 -1.8570 0.9795
3.0846 -3.7372 -1.8570 0.9795
3.3450 -3.5060 -1.8570 0.9795
3.8676 -3.5102 -2.0016 0.9779
4.1097 -3.2234 -2.0016 0.9779
4.3306 -2.9199 -2.0016 0.9779
4.4328 -2.7624 -2.0016 0.9779
4.5292 -2.6013 -2.0016 0.9779
4.7043 -2.2692 -2.0016 0.9779
4.9809 -1.5718 -2.0016 0.9779
5.0810 -1.2100 -2.0016 0.9779
5.1547 -0.8419 -2.0016 0.9779
5.2222 -0.0946 -2.0016 0.9779
5.2222 0.0931 -2.0016 0.9779
5.2020 0.4680 -2.0016 0.9779
5.0346 1.3903 -2.0016 0.9779
4.9217 1.7484 -2.0016 0.9779
4.4336 2.7611 -2.0016 0.9779
4.2238 3.0724 -2.0016 0.9779
4.1107 3.2222 -2.0016 0.9779
3.9922 3.3679 -2.0016 0.9779
3.7400 3.6459 -2.0016 0.9779
3.6065 3.7779 -2.0016 0.9779
3.3259 4.0272 -2.0016 0.9779
3.0280 4.2557 -2.0016 0.9779
2.8731 4.3618 -2.0016 0.9779
2.5524 4.5569 -2.0016 0.9779
2.2185 4.7285 -2.0016 0.9779
1.8731 4.8756 -2.0016 0.9779
1.3375 5.0489 -2.0016 0.9779
1.1552 5.0937 -2.0016 0.9779
0.7864 5.1635 -2.0016 0.9779
0.6003 5.1884 -2.0016 0.9779
-0.1493 5.2209 -2.0016 0.9779
-0.7103 5.1745 -2.0016 0.9779
-0.8958 5.1456 -2.0016 0.9779
-1.6238 4.9642 -2.0016 0.9779
-1.8012 4.9026 -2.0016 0.9779
-1.9762 4.8347 -2.0016 0.9779
-2.3184 4.6803 -2.0016 0.9779
-2.4851 4.5940 -2.0016 0.9779
-2.6485 4.5017 -2.0016 0.9779
-2.8086 4.4036 -2.0016 0.9779
-2.9650 4.2998 -2.0016 0.9779
-3.2662 4.0758 -2.0016 0.9779
-3.5505 3.8306 -2.0016 0.9779
-3.6859 3.7006 -2.0016 0.9779
-4.0628 3.2824 -2.0016 0.9779
-4.5841 2.5033 -2.0016 0.9779
-4.7520 2.1675 -2.0016 0.9779
-4.8269 1.9954 -2.0016 0.9779
-4.8955 1.8206 -2.0016 0.9779
-4.9577 1.6435 -2.0016 0.9779
-5.1058 1.1004 -2.0016 0.9779
-5.1717 0.7308 -2.0016 0.9779
-5.1946 0.5445 -2.0016 0.9779
-5.2190 -0.2054 -2.0016 0.9779
-5.1908 -0.5798 -2.0016 0.9779
-5.1666 -0.7659 -2.0016 0.9779
-5.1357 -0.9511 -2.0016 0.9779
-4.9465 -1.6771 -2.0016 0.9779
-4.8830 -1.8538 -2.0016 0.9779
-4.2371 -2.3513 -1.8570 0.9795
-4.1498 -2.5020 -1.8570 0.9795
-3.9594 -2.7936 -1.8570 0.9795
-3.8565 -2.9341 -1.8570 0.9795
-3.5183 -3.3321 -1.8570 0.9795
-3.0046 -3.8018 -1.8570 0.9795
-2.8660 -3.9074 -1.8570 0.9795
-2.2766 -4.2777 -1.8570 0.9795
-2.1214 -4.3567 -1.8570 0.9795
-1.9634 -4.4302 -1.8570 0.9795
-1.4752 -4.6157 -1.8570 0.9795
-1.3084 -4.6658 -1.8570 0.9795
-0.6264 -4.8051 -1.8570 0.9795
-0.2796 -4.8377 -1.8570 0.9795
-0.1056 -4.8446 -1.8570 0.9795
0.2426 -4.8397 -1.8570 0.9795
0.7621 -4.7854 -1.8570 0.9795
0.9336 -4.7550 -1.8570 0.9795
1.1039 -4.7183 -1.8570 0.9795
1.4399 -4.6269 -1.8570 0.9795
1.6052 -4.5721 -1.8570 0.9795
2.0011 -4.1909 -1.7797 0.9803
2.2766 -4.0004 -1.7639 0.9805
2.4713 -4.0010 -1.8022 0.9801
2.9754 -3.8247 -1.8570 0.9795
3.1109 -3.7153 -1.8570 0.9795
3.2424 -3.6011 -1.8570 0.9795
3.7646 -3.6204 -2.0016 0.9779
3.8923 -3.4828 -2.0016 0.9779
4.0150 -3.3407 -2.0016 0.9779
4.1324 -3.1942 -2.0016 0.9779
4.3512 -2.8892 -2.0016 0.9779
4.4522 -2.7309 -2.0016 0.9779
4.6369 -2.4041 -2.0016 0.9779
4.8687 -1.8911 -2.0016 0.9779
4.9335 -1.7149 -2.0016 0.9779
4.9919 -1.5365 -2.0016 0.9779
5.0894 -1.1740 -2.0016 0.9779
5.1283 -0.9903 -2.0016 0.9779
5.1606 -0.8054 -2.0016 0.9779
5.1862 -0.6194 -2.0016 0.9779
5.2051 -0.4326 -2.0016 0.9779
5.2173 -0.2453 -2.0016 0.9779
5.2214 0.1301 -2.0016 0.9779
5.2134 0.3176 -2.0016 0.9779
5.1489 0.8769 -2.0016 0.9779
5.0726 1.2444 -2.0016 0.9779
4.9701 1.6056 -2.0016 0.9779
4.9092 1.7831 -2.0016 0.9779
4.7685 2.1311 -2.0016 0.9779
4.6888 2.3011 -2.0016 0.9779
4.5114 2.6320 -2.0016 0.9779
4.3107 2.9492 -2.0016 0.9779
4.2019 3.1022 -2.0016 0.9779
3.9683 3.3960 -2.0016 0.9779
3.8437 3.5364 -2.0016 0.9779
3.7141 3.6723 -2.0016 0.9779
3.5797 3.8034 -2.0016 0.9779
3.2973 4.0507 -2.0016 0.9779
3.1496 4.1665 -2.0016 0.9779
2.9978 4.2770 -2.0016 0.9779
2.8422 4.3820 -2.0016 0.9779
2.5201 4.5748 -2.0016 0.9779
2.3541 4.6624 -2.0016 0.9779
1.1192 5.1017 -2.0016 0.9779
0.5636 5.1925 -2.0016 0.9779
0.1892 5.2196 -2.0016 0.9779
0.0015 5.2230 -2.0016 0.9779
-0.1862 5.2197 -2.0016 0.9779
-0.3737 5.2097 -2.0016 0.9779
-0.5606 5.1929 -2.0016 0.9779
-0.7469 5.1694 -2.0016 0.9779
-1.1163 5.1024 -2.0016 0.9779
-1.6589 4.9526 -2.0016 0.9779
-1.8358 4.8898 -2.0016 0.9779
-2.0104 4.8206 -2.0016 0.9779
-2.5175 4.5763 -2.0016 0.9779
-2.8397 4.3836 -2.0016 0.9779
-2.9954 4.2787 -2.0016 0.9779
-3.1472 4.1683 -2.0016 0.9779
-3.4385 3.9315 -2.0016 0.9779
-3.5776 3.8054 -2.0016 0.9779
-3.7120 3.6744 -2.0016 0.9779
-3.9663 3.3983 -2.0016 0.9779
-4.2002 3.1046 -2.0016 0.9779
-4.4123 2.7949 -2.0016 0.9779
-4.5099 2.6345 -2.0016 0.9779
-4.6875 2.3038 -2.0016 0.9779
-4.7672 2.1339 -2.0016 0.9779
-4.8409 1.9612 -2.0016 0.9779
-4.9082 1.7859 -2.0016 0.9779
-5.0238 1.4288 -2.0016 0.9779
-5.0719 1.2473 -2.0016 0.9779
-5.1484 0.8798 -2.0016 0.9779
-5.1767 0.6942 -2.0016 0.9779
-5.2213 0.1330 -2.0016 0.9779
-5.2174 -0.2423 -2.0016 0.9779
-5.1865 -0.6165 -2.0016 0.9779
-5.1610 -0.8024 -2.0016 0.9779
-1.9510 -0.1333 -0.8004 0.9916
-1.9463 -0.2745 -0.8045 0.9915
-2.1601 -0.3843 -0.8980 0.9906
-4.7810 -1.0290 -2.0016 0.9791
-4.7410 -1.2001 -2.0016 0.9791
-4.6425 -1.5376 -2.0016 0.9791
-4.5201 -1.8670 -2.0016 0.9791
-4.3743 -2.1869 -2.0016 0.9791
-3.9021 -2.3152 -1.8570 0.9806
-3.7258 -2.5895 -1.8570 0.9806
-3.6303 -2.7217 -1.8570 0.9806
-3.3163 -3.0966 -1.8570 0.9806
-3.2029 -3.2138 -1.8570 0.9806
-3.0853 -3.3268 -1.8570 0.9806
-2.9638 -3.4355 -1.8570 0.9806
-2.8384 -3.5398 -1.8570 0.9806
-2.7093 -3.6395 -1.8570 0.9806
-2.3019 -3.9100 -1.8570 0.9806
-2.1599 -3.9902 -1.8570 0.9806
-2.0151 -4.0652 -1.8570 0.9806
-1.8677 -4.1350 -1.8570 0.9806
-1.5659 -4.2585 -1.8570 0.9806
-0.9396 -4.4389 -1.8570 0.9806
-0.6183 -4.4949 -1.8570 0.9806
-0.2939 -4.5277 -1.8570 0.9806
0.1951 -4.5330 -1.8570 0.9806
0.3579 -4.5231 -1.8570 0.9806
0.5202 -4.5073 -1.8570 0.9806
0.8426 -4.4583 -1.8570 0.9806
1.0023 -4.4252 -1.8570 0.9806
1.1607 -4.3863 -1.8570 0.9806
1.4727 -4.2916 -1.8570 0.9806
1.6260 -4.2359 -1.8570 0.9806
2.0555 -4.0033 -1.8418 0.9807
2.2162 -3.9592 -1.8570 0.9806
2.3570 -3.8770 -1.8570 0.9806
2.6294 -3.6977 -1.8570 0.9806
2.8882 -3.4993 -1.8570 0.9806
3.1321 -3.2828 -1.8570 0.9806
3.6214 -3.2868 -2.0016 0.9791
3.7371 -3.1545 -2.0016 0.9791
3.8481 -3.0182 -2.0016 0.9791
3.9541 -2.8779 -2.0016 0.9791
4.0549 -2.7340 -2.0016 0.9791
4.4048 -2.1248 -2.0016 0.9791
4.4783 -1.9651 -2.0016 0.9791
4.7951 -0.9612 -2.0016 0.9791
4.8266 -0.7883 -2.0016 0.9791
4.8518 -0.6143 -2.0016 0.9791
4.8834 -0.2642 -2.0016 0.9791
4.8897 0.0872 -2.0016 0.9791
4.8268 0.7869 -2.0016 0.9791
4.6642 1.4704 -2.0016 0.9791
4.5466 1.8016 -2.0016 0.9791
4.4789 1.9638 -2.0016 0.9791
4.4054 2.1235 -2.0016 0.9791
4.3263 2.2805 -2.0016 0.9791
4.2415 2.4345 -2.0016 0.9791
4.0557 2.7328 -2.0016 0.9791
3.7380 3.1534 -2.0016 0.9791
3.6223 3.2857 -2.0016 0.9791
3.3769 3.5374 -2.0016 0.9791
3.1141 3.7708 -2.0016 0.9791
2.9766 3.8803 -2.0016 0.9791
2.6902 4.0841 -2.0016 0.9791
2.3899 4.2668 -2.0016 0.9791
2.2350 4.3499 -2.0016 0.9791
1.7539 4.5652 -2.0016 0.9791
1.5887 4.6253 -2.0016 0.9791
1.0817 4.7694 -2.0016 0.9791
0.9096 4.8052 -2.0016 0.9791
0.5621 4.8581 -2.0016 0.9791
0.0360 4.8904 -2.0016 0.9791
-0.1398 4.8885 -2.0016 0.9791
-0.3154 4.8803 -2.0016 0.9791
-0.8388 4.8180 -2.0016 0.9791
-1.0114 4.7848 -2.0016 0.9791
-1.1827 4.7453 -2.0016 0.9791
-1.3524 4.6998 -2.0016 0.9791
-1.5205 4.6481 -2.0016 0.9791
-1.8504 4.5269 -2.0016 0.9791
-2.0119 4.4575 -2.0016 0.9791
-2.1708 4.3823 -2.0016 0.9791
-2.6298 4.1232 -2.0016 0.9791
-2.9192 3.9237 -2.0016 0.9791
-3.3245 3.5867 -2.0016 0.9791
-3.5735 3.3387 -2.0016 0.9791
-3.8041 3.0734 -2.0016 0.9791
-3.9121 2.9347 -2.0016 0.9791
-4.2922 2.3439 -2.0016 0.9791
-4.3737 2.1881 -2.0016 0.9791
-4.4495 2.0295 -2.0016 0.9791
-4.5196 1.8683 -2.0016 0.9791
-4.5838 1.7047 -2.0016 0.9791
-4.6421 1.5389 -2.0016 0.9791
-4.6944 1.3711 -2.0016 0.9791
-4.7406 1.2015 -2.0016 0.9791
-1.9511 0.1339 -0.8004 0.9916
-1.9284 0.0628 -0.7896 0.9917
-1.9014 -0.0065 -0.7782 0.9918
-1.9336 -0.0761 -0.7920 0.9917
-1.9541 -0.1474 -0.8020 0.9916
-1.9562 -0.2185 -0.8056 0.9915
-1.9457 -0.2884 -0.8050 0.9915
-2.1896 -0.4055 -0.9114 0.9904
-4.7323 -1.2336 -2.0016 0.9791
-4.6850 -1.4029 -2.0016 0.9791
-4.5721 -1.7358 -2.0016 0.9791
-4.3568 -2.2168 -2.0007 0.9791
-4.0326 -2.2378 -1.8875 0.9803
-3.6109 -2.7473 -1.8570 0.9806
-3.4043 -2.9996 -1.8570 0.9806
-3.2943 -3.1200 -1.8570 0.9806
-3.0617 -3.3485 -1.8570 0.9806
-2.8133 -3.5598 -1.8570 0.9806
-2.6835 -3.6586 -1.8570 0.9806
-2.5503 -3.7527 -1.8570 0.9806
-2.4138 -3.8419 -1.8570 0.9806
-2.2742 -3.9262 -1.8570 0.9806
-2.1316 -4.0053 -1.8570 0.9806
-1.6882 -4.2115 -1.8570 0.9806
-1.5357 -4.2694 -1.8570 0.9806
-1.3813 -4.3219 -1.8570 0.9806
-1.2251 -4.3687 -1.8570 0.9806
-1.0673 -4.4099 -1.8570 0.9806
-0.7478 -4.4752 -1.8570 0.9806
-0.5865 -4.4992 -1.8570 0.9806
-0.4244 -4.5173 -1.8570 0.9806
-0.2618 -4.5297 -1.8570 0.9806
0.2272 -4.5316 -1.8570 0.9806
0.3899 -4.5205 -1.8570 0.9806
0.7136 -4.4808 -1.8570 0.9806
0.8741 -4.4522 -1.8570 0.9806
1.3482 -4.3323 -1.8570 0.9806
1.5030 -4.2811 -1.8570 0.9806
2.0897 -3.9999 -1.8470 0.9807
2.2441 -3.9434 -1.8570 0.9806
2.3844 -3.8602 -1.8570 0.9806
2.6555 -3.6790 -1.8570 0.9806
3.2704 -3.1451 -1.8570 0.9806
3.6445 -3.2611 -2.0016 0.9791
3.7594 -3.1280 -2.0016 0.9791
4.1688 -2.5571 -2.0016 0.9791
4.2579 -2.4056 -2.0016 0.9791
4.4197 -2.0935 -2.0016 0.9791
4.5587 -1.7707 -2.0016 0.9791
4.6194 -1.6057 -2.0016 0.9791
4.6741 -1.4387 -2.0016 0.9791
4.7228 -1.2698 -2.0016 0.9791
4.7654 -1.0992 -2.0016 0.9791
4.8018 -0.9273 -2.0016 0.9791
4.8320 -0.7541 -2.0016 0.9791
4.8560 -0.5800 -2.0016 0.9791
4.8737 -0.4051 -2.0016 0.9791
4.8851 -0.2297 -2.0016 0.9791
4.8902 -0.0540 -2.0016 0.9791
4.8815 0.2974 -2.0016 0.9791
4.8475 0.6472 -2.0016 0.9791
4.7885 0.9938 -2.0016 0.9791
4.7497 1.1652 -2.0016 0.9791
4.6537 1.5033 -2.0016 0.9791
4.4649 1.9955 -2.0016 0.9791
4.2242 2.4644 -2.0016 0.9791
4.1329 2.6146 -2.0016 0.9791
4.0363 2.7614 -2.0016 0.9791
3.8275 3.0442 -2.0016 0.9791
3.7156 3.1798 -2.0016 0.9791
3.3518 3.5612 -2.0016 0.9791
3.2217 3.6794 -2.0016 0.9791
3.0874 3.7928 -2.0016 0.9791
2.9491 3.9013 -2.0016 0.9791
2.6612 4.1030 -2.0016 0.9791
2.3597 4.2836 -2.0016 0.9791
2.2042 4.3656 -2.0016 0.9791
2.0459 4.4420 -2.0016 0.9791
1.7216 4.5775 -2.0016 0.9791
1.3883 4.6893 -2.0016 0.9791
1.2189 4.7362 -2.0016 0.9791
1.0479 4.7769 -2.0016 0.9791
0.8756 4.8115 -2.0016 0.9791
0.7021 4.8398 -2.0016 0.9791
0.3527 4.8778 -2.0016 0.9791
0.0014 4.8905 -2.0016 0.9791
-0.6993 4.8402 -2.0016 0.9791
-1.2162 4.7369 -2.0016 0.9791
-1.3856 4.6901 -2.0016 0.9791
-1.7189 4.5785 -2.0016 0.9791
-2.3572 4.2849 -2.0016 0.9791
-2.9469 3.9030 -2.0016 0.9791
-3.0852 3.7945 -2.0016 0.9791
-3.2196 3.6812 -2.0016 0.9791
-3.4757 3.4405 -2.0016 0.9791
-3.7138 3.1819 -2.0016 0.9791
-3.8258 3.0464 -2.0016 0.9791
-4.1314 2.6170 -2.0016 0.9791
-4.3087 2.3135 -2.0016 0.9791
-4.3891 2.1571 -2.0016 0.9791
-4.4637 1.9980 -2.0016 0.9791
-4.5327 1.8363 -2.0016 0.9791
-4.5957 1.6722 -2.0016 0.9791
-4.7040 1.3378 -2.0016 0.9791
-4.7879 0.9965 -2.0016 0.9791
-1.9579 0.1912 -0.8051 0.9915
-1.9476 0.1198 -0.7986 0.9916
-1.9225 0.0490 -0.7871 0.9917
-1.9546 -0.2323 -0.8056 0.9915
-4.8023 -0.9245 -2.0016 0.9791
-1.5295 -0.1045 -0.6681 0.9933
-1.5255 -0.1595 -0.6684 0.9933
-1.5160 -0.2138 -0.6673 0.9933
-1.5013 -0.2671 -0.6646 0.9934
-1.5471 -0.3916 -0.6955 0.9931
-1.5869 -0.5256 -0.7286 0.9927
-1.5981 -0.5938 -0.7430 0.9926
-4.2448 -1.7533 -2.0016 0.9802
-4.1791 -1.9047 -2.0016 0.9802
-4.1079 -2.0537 -2.0016 0.9802
-3.7653 -2.2340 -1.9080 0.9811
-3.5840 -2.3045 -1.8570 0.9816
-3.3151 -2.6768 -1.8570 0.9816
-3.2168 -2.7942 -1.8570 0.9816
-3.0078 -3.0180 -1.8570 0.9816
-2.5443 -3.4179 -1.8570 0.9816
-2.2923 -3.5918 -1.8570 0.9816
-2.1617 -3.6718 -1.8570 0.9816
-2.0284 -3.7472 -1.8570 0.9816
-1.8924 -3.8176 -1.8570 0.9816
-1.4705 -3.9991 -1.8570 0.9816
-1.3259 -4.0494 -1.8570 0.9816
-1.0316 -4.1342 -1.8570 0.9816
-0.8824 -4.1686 -1.8570 0.9816
-0.5807 -4.2212 -1.8570 0.9816
-0.1230 -4.2591 -1.8570 0.9816
0.1832 -4.2570 -1.8570 0.9816
0.9413 -4.1557 -1.8570 0.9816
1.0900 -4.1191 -1.8570 0.9816
1.2373 -4.0773 -1.8570 0.9816
1.8087 -3.8580 -1.8570 0.9816
2.2135 -3.6409 -1.8570 0.9816
2.7123 -3.2862 -1.8570 0.9816
3.0502 -2.9752 -1.8570 0.9816
3.5095 -2.9624 -2.0016 0.9802
4.0622 -2.1427 -2.0016 0.9802
4.1366 -1.9954 -2.0016 0.9802
4.2056 -1.8454 -2.0016 0.9802
4.2692 -1.6931 -2.0016 0.9802
4.3273 -1.5386 -2.0016 0.9802
4.4266 -1.2238 -2.0016 0.9802
4.4677 -1.0639 -2.0016 0.9802
4.5031 -0.9027 -2.0016 0.9802
4.5563 -0.5769 -2.0016 0.9802
4.5741 -0.4128 -2.0016 0.9802
4.5919 -0.0832 -2.0016 0.9802
4.5919 0.0819 -2.0016 0.9802
4.5860 0.2469 -2.0016 0.9802
4.5565 0.5756 -2.0016 0.9802
4.5033 0.9014 -2.0016 0.9802
4.4680 1.0627 -2.0016 0.9802
4.4270 1.2225 -2.0016 0.9802
4.1371 1.9942 -2.0016 0.9802
3.9832 2.2862 -2.0016 0.9802
3.8087 2.5664 -2.0016 0.9802
3.7140 2.7016 -2.0016 0.9802
3.6145 2.8333 -2.0016 0.9802
3.5104 2.9614 -2.0016 0.9802
3.4017 3.0856 -2.0016 0.9802
3.0498 3.4338 -2.0016 0.9802
2.9245 3.5412 -2.0016 0.9802
2.7953 3.6440 -2.0016 0.9802
2.6626 3.7421 -2.0016 0.9802
2.2444 4.0069 -2.0016 0.9802
1.9508 4.1578 -2.0016 0.9802
1.8001 4.2252 -2.0016 0.9802
1.4920 4.3436 -2.0016 0.9802
1.0158 4.4789 -2.0016 0.9802
0.8542 4.5125 -2.0016 0.9802
0.0338 4.5925 -2.0016 0.9802
-0.1313 4.5908 -2.0016 0.9802
-0.4607 4.5695 -2.0016 0.9802
-0.6246 4.5500 -2.0016 0.9802
-1.4279 4.3651 -2.0016 0.9802
-1.5838 4.3109 -2.0016 0.9802
-1.7377 4.2512 -2.0016 0.9802
-1.8893 4.1860 -2.0016 0.9802
-2.0385 4.1154 -2.0016 0.9802
-2.3289 3.9584 -2.0016 0.9802
-2.4696 3.8721 -2.0016 0.9802
-2.6072 3.7809 -2.0016 0.9802
-2.7414 3.6847 -2.0016 0.9802
-2.8720 3.5839 -2.0016 0.9802
-2.9990 3.4783 -2.0016 0.9802
-3.2411 3.2539 -2.0016 0.9802
-3.4664 3.0127 -2.0016 0.9802
-3.5724 2.8862 -2.0016 0.9802
-3.6739 2.7560 -2.0016 0.9802
-3.7705 2.6222 -2.0016 0.9802
-3.9491 2.3446 -2.0016 0.9802
-4.0308 2.2011 -2.0016 0.9802
-4.1073 2.0549 -2.0016 0.9802
-4.1785 1.9059 -2.0016 0.9802
-1.5982 0.5944 -0.7431 0.9926
-1.5870 0.5261 -0.7287 0.9927
-1.5012 0.2675 -0.6646 0.9934
-1.5254 0.1599 -0.6684 0.9933
-1.5294 0.1049 -0.6681 0.9933
-1.5240 -0.1702 -0.6683 0.9933
-1.5136 -0.2244 -0.6668 0.9933
-1.4978 -0.2774 -0.6639 0.9934
-1.5519 -0.4046 -0.6990 0.9930
-1.5896 -0.5390 -0.7315 0.9927
-4.2936 -1.6301 -2.0016 0.9802
-4.2323 -1.7833 -2.0016 0.9802
-4.1655 -1.9343 -2.0016 0.9802
-3.7112 -2.2376 -1.8886 0.9813
-3.5676 -2.3298 -1.8570 0.9816
-3.1970 -2.8169 -1.8570 0.9816
-2.9864 -3.0392 -1.8570 0.9816
-2.7604 -3.2459 -1.8570 0.9816
-2.5201 -3.4358 -1.8570 0.9816
-2.1357 -3.6870 -1.8570 0.9816
-2.0018 -3.7614 -1.8570 0.9816
-1.7265 -3.8955 -1.8570 0.9816
-1.5854 -3.9550 -1.8570 0.9816
-1.4422 -4.0094 -1.8570 0.9816
-1.2972 -4.0587 -1.8570 0.9816
-0.3986 -4.2422 -1.8570 0.9816
-0.0929 -4.2599 -1.8570 0.9816
0.0603 -4.2605 -1.8570 0.9816
0.3662 -4.2452 -1.8570 0.9816
0.9706 -4.1489 -1.8570 0.9816
1.1191 -4.1113 -1.8570 0.9816
1.2661 -4.0685 -1.8570 0.9816
1.4115 -4.0203 -1.8570 0.9816
1.5551 -3.9670 -1.8570 0.9816
1.8360 -3.8451 -1.8570 0.9816
1.9730 -3.7766 -1.8570 0.9816
2.1074 -3.7033 -1.8570 0.9816
2.2392 -3.6251 -1.8570 0.9816
2.4938 -3.4549 -1.8570 0.9816
2.6163 -3.3631 -1.8570 0.9816
2.8511 -3.1665 -1.8570 0.9816
2.9631 -3.0620 -1.8570 0.9816
3.0712 -2.9535 -1.8570 0.9816
3.5304 -2.9375 -2.0016 0.9802
3.7323 -2.6763 -2.0016 0.9802
3.9149 -2.4013 -2.0016 0.9802
4.1506 -1.9660 -2.0016 0.9802
4.2185 -1.8156 -2.0016 0.9802
4.2811 -1.6628 -2.0016 0.9802
4.3381 -1.5079 -2.0016 0.9802
4.4352 -1.1924 -2.0016 0.9802
4.4752 -1.0323 -2.0016 0.9802
4.5377 -0.7082 -2.0016 0.9802
4.5769 -0.3804 -2.0016 0.9802
4.5876 -0.2157 -2.0016 0.9802
4.5912 0.1144 -2.0016 0.9802
4.5842 0.2793 -2.0016 0.9802
4.4182 1.2538 -2.0016 0.9802
4.3703 1.4118 -2.0016 0.9802
4.3167 1.5679 -2.0016 0.9802
4.2576 1.7220 -2.0016 0.9802
4.1229 2.0234 -2.0016 0.9802
4.0475 2.1703 -2.0016 0.9802
3.9669 2.3143 -2.0016 0.9802
3.6948 2.7278 -2.0016 0.9802
3.5944 2.8588 -2.0016 0.9802
3.3798 3.1096 -2.0016 0.9802
3.2658 3.2291 -2.0016 0.9802
3.0255 3.4553 -2.0016 0.9802
2.6360 3.7608 -2.0016 0.9802
2.4992 3.8531 -2.0016 0.9802
2.3591 3.9405 -2.0016 0.9802
2.2160 4.0227 -2.0016 0.9802
1.9213 4.1715 -2.0016 0.9802
1.6167 4.2987 -2.0016 0.9802
0.9841 4.4860 -2.0016 0.9802
0.8223 4.5185 -2.0016 0.9802
0.6593 4.5451 -2.0016 0.9802
0.4956 4.5658 -2.0016 0.9802
0.1664 4.5897 -2.0016 0.9802
0.0013 4.5927 -2.0016 0.9802
-1.1421 4.4484 -2.0016 0.9802
-1.4587 4.3549 -2.0016 0.9802
-1.7677 4.2388 -2.0016 0.9802
-2.0676 4.1009 -2.0016 0.9802
-2.2137 4.0240 -2.0016 0.9802
-2.3568 3.9418 -2.0016 0.9802
-2.4970 3.8546 -2.0016 0.9802
-2.6339 3.7623 -2.0016 0.9802
-2.7674 3.6653 -2.0016 0.9802
-2.8973 3.5634 -2.0016 0.9802
-3.0235 3.4570 -2.0016 0.9802
-3.1458 3.3461 -2.0016 0.9802
-3.2640 3.2309 -2.0016 0.9802
-3.3780 3.1115 -2.0016 0.9802
-3.4876 2.9881 -2.0016 0.9802
-3.5928 2.8609 -2.0016 0.9802
-3.6933 2.7299 -2.0016 0.9802
-3.9656 2.3166 -2.0016 0.9802
-4.0463 2.1726 -2.0016 0.9802
-4.2566 1.7245 -2.0016 0.9802
-1.5965 0.5809 -0.7404 0.9926
-1.5841 0.5127 -0.7257 0.9928
-1.5658 0.4453 -0.7095 0.9929
-1.5423 0.3793 -0.6922 0.9931
-1.5045 0.2571 -0.6652 0.9934
-1.5271 0.0389 -0.6658 0.9934
-1.5245 -0.0160 -0.6645 0.9934
-1.5109 -0.2349 -0.6664 0.9934
-1.5006 -0.2889 -0.6660 0.9934
-1.3280 -0.1873 -0.6208 0.9941
-1.3169 -0.2342 -0.6191 0.9941
-1.3023 -0.2803 -0.6166 0.9941
-1.3235 -0.3861 -0.6382 0.9939
-1.3325 -0.4951 -0.6580 0.9938
-1.3265 -0.5479 -0.6643 0.9937
-1.3153 -0.5995 -0.6691 0.9936
-3.7188 -2.2064 -2.0016 0.9811
-3.2098 -2.4065 -1.8570 0.9825
-3.0287 -2.6308 -1.8570 0.9825
-2.9322 -2.7379 -1.8570 0.9825
-2.8319 -2.8416 -1.8570 0.9825
-2.6205 -3.0376 -1.8570 0.9825
-2.5096 -3.1298 -1.8570 0.9825
-2.3956 -3.2180 -1.8570 0.9825
-1.7817 -3.5944 -1.8570 0.9825
-0.8308 -3.9248 -1.8570 0.9825
-0.5467 -3.9743 -1.8570 0.9825
-0.4035 -3.9914 -1.8570 0.9825
-0.2598 -4.0033 -1.8570 0.9825
0.0284 -4.0117 -1.8570 0.9825
0.1725 -4.0080 -1.8570 0.9825
0.4600 -3.9853 -1.8570 0.9825
0.6029 -3.9662 -1.8570 0.9825
1.5713 -3.6912 -1.8570 0.9825
1.9595 -3.5007 -1.8570 0.9825
2.5537 -3.0940 -1.8570 0.9825
2.6632 -3.0002 -1.8570 0.9825
2.7693 -2.9026 -1.8570 0.9825
2.8718 -2.8012 -1.8570 0.9825
3.3043 -2.7892 -2.0016 0.9811
3.4961 -2.5446 -2.0016 0.9811
3.5853 -2.4173 -2.0016 0.9811
3.7497 -2.1536 -2.0016 0.9811
3.8947 -1.8787 -2.0016 0.9811
3.9597 -1.7375 -2.0016 0.9811
4.0195 -1.5941 -2.0016 0.9811
4.0742 -1.4486 -2.0016 0.9811
4.1237 -1.3013 -2.0016 0.9811
4.1678 -1.1522 -2.0016 0.9811
4.2065 -1.0017 -2.0016 0.9811
4.3234 -0.0783 -2.0016 0.9811
4.3234 0.0771 -2.0016 0.9811
4.3179 0.2324 -2.0016 0.9811
4.3067 0.3874 -2.0016 0.9811
4.2678 0.6958 -2.0016 0.9811
4.2068 1.0005 -2.0016 0.9811
4.1240 1.3001 -2.0016 0.9811
4.0746 1.4474 -2.0016 0.9811
3.9602 1.7364 -2.0016 0.9811
3.8952 1.8776 -2.0016 0.9811
3.8252 2.0163 -2.0016 0.9811
3.5860 2.4163 -2.0016 0.9811
3.4968 2.5436 -2.0016 0.9811
3.4032 2.6676 -2.0016 0.9811
2.8715 3.2330 -2.0016 0.9811
2.6319 3.4309 -2.0016 0.9811
2.5069 3.5233 -2.0016 0.9811
2.3786 3.6111 -2.0016 0.9811
2.2473 3.6942 -2.0016 0.9811
1.5508 4.0365 -2.0016 0.9811
1.1073 4.1799 -2.0016 0.9811
0.8042 4.2486 -2.0016 0.9811
0.6510 4.2748 -2.0016 0.9811
0.1872 4.3200 -2.0016 0.9811
-0.1236 4.3223 -2.0016 0.9811
-0.2788 4.3151 -2.0016 0.9811
-0.5881 4.2839 -2.0016 0.9811
-0.7416 4.2600 -2.0016 0.9811
-0.8942 4.2306 -2.0016 0.9811
-1.0457 4.1958 -2.0016 0.9811
-1.1958 4.1555 -2.0016 0.9811
-1.3444 4.1098 -2.0016 0.9811
-1.6361 4.0026 -2.0016 0.9811
-1.7789 3.9413 -2.0016 0.9811
-2.1927 3.7269 -2.0016 0.9811
-2.3252 3.6457 -2.0016 0.9811
-2.4547 3.5598 -2.0016 0.9811
-2.5811 3.4693 -2.0016 0.9811
-2.8236 3.2749 -2.0016 0.9811
-2.9395 3.1713 -2.0016 0.9811
-3.1597 2.9520 -2.0016 0.9811
-3.2637 2.8366 -2.0016 0.9811
-3.3635 2.7174 -2.0016 0.9811
-3.4590 2.5948 -2.0016 0.9811
-3.5500 2.4688 -2.0016 0.9811
-3.6365 2.3397 -2.0016 0.9811
-3.8671 1.9347 -2.0016 0.9811
-1.3152 0.5999 -0.6691 0.9936
-1.3265 0.5483 -0.6644 0.9937
-1.3236 0.3866 -0.6383 0.9939
-1.3168 0.2346 -0.6191 0.9941
-1.3279 0.1877 -0.6208 0.9941
-1.3385 0.0918 -0.6210 0.9941
-1.3378 -0.0527 -0.6197 0.9941
-1.3343 -0.1490 -0.6215 0.9941
-1.3261 -0.1966 -0.6205 0.9941
-1.3143 -0.2434 -0.6187 0.9941
-1.2990 -0.2892 -0.6160 0.9942
-1.3137 -0.3424 -0.6284 0.9940
-1.3256 -0.3969 -0.6405 0.9939
-1.3334 -0.4521 -0.6517 0.9938
-1.3125 -0.6095 -0.6699 0.9936
-3.8539 -1.9609 -2.0016 0.9811
-3.6803 -2.2189 -1.9892 0.9812
-3.2780 -2.3128 -1.8570 0.9825
-3.1927 -2.4291 -1.8570 0.9825
-3.1034 -2.5423 -1.8570 0.9825
-2.9128 -2.7586 -1.8570 0.9825
-2.8117 -2.8615 -1.8570 0.9825
-2.4874 -3.1475 -1.8570 0.9825
-2.3727 -3.2349 -1.8570 0.9825
-2.1342 -3.3969 -1.8570 0.9825
-1.8847 -3.5415 -1.8570 0.9825
-1.6255 -3.6677 -1.8570 0.9825
-1.4927 -3.7237 -1.8570 0.9825
-1.3579 -3.7750 -1.8570 0.9825
-0.5186 -3.9781 -1.8570 0.9825
-0.2315 -4.0051 -1.8570 0.9825
-0.0874 -4.0108 -1.8570 0.9825
0.0568 -4.0114 -1.8570 0.9825
0.3447 -3.9969 -1.8570 0.9825
0.6309 -3.9618 -1.8570 0.9825
0.7729 -3.9366 -1.8570 0.9825
0.9139 -3.9063 -1.8570 0.9825
1.1921 -3.8305 -1.8570 0.9825
1.3290 -3.7852 -1.8570 0.9825
1.4641 -3.7350 -1.8570 0.9825
1.5974 -3.6800 -1.8570 0.9825
1.7286 -3.6202 -1.8570 0.9825
2.2295 -3.3352 -1.8570 0.9825
2.3479 -3.2529 -1.8570 0.9825
2.5755 -3.0759 -1.8570 0.9825
2.6844 -2.9813 -1.8570 0.9825
2.8916 -2.7808 -1.8570 0.9825
3.3240 -2.7657 -2.0016 0.9811
3.4212 -2.6445 -2.0016 0.9811
3.5140 -2.5198 -2.0016 0.9811
3.9719 -1.7094 -2.0016 0.9811
4.0307 -1.5656 -2.0016 0.9811
4.0844 -1.4197 -2.0016 0.9811
4.2457 -0.8199 -2.0016 0.9811
4.2724 -0.6668 -2.0016 0.9811
4.2936 -0.5128 -2.0016 0.9811
4.3193 -0.2031 -2.0016 0.9811
4.3228 0.1077 -2.0016 0.9811
4.3161 0.2630 -2.0016 0.9811
4.1598 1.1805 -2.0016 0.9811
4.0643 1.4762 -2.0016 0.9811
3.9478 1.7644 -2.0016 0.9811
3.8108 2.0433 -2.0016 0.9811
3.6542 2.3118 -2.0016 0.9811
3.5688 2.4416 -2.0016 0.9811
3.4787 2.5683 -2.0016 0.9811
2.9636 3.1488 -2.0016 0.9811
2.8486 3.2532 -2.0016 0.9811
2.6075 3.4494 -2.0016 0.9811
2.4819 3.5409 -2.0016 0.9811
2.0864 3.7875 -2.0016 0.9811
1.9489 3.8600 -2.0016 0.9811
