ply
format ascii 1.0
element vertex 1595
property float32 x
property float32 y
property float32 z
property float32 I
end_header
8.5005 0.5203 -2.0016 0.9656
8.3955 1.4303 -2.0016 0.9656
8.3388 1.7304 -2.0016 0.9656
8.1933 2.3237 -2.0016 0.9656
8.0057 2.9050 -2.0016 0.9656
7.8964 3.1902 -2.0016 0.9656
7.7769 3.4713 -2.0016 0.9656
7.6474 3.7480 -2.0016 0.9656
7.3591 4.2865 -2.0016 0.9656
7.0329 4.8029 -2.0016 0.9656
6.6706 5.2947 -2.0016 0.9656
6.2739 5.7592 -2.0016 0.9656
5.6191 6.3997 -2.0016 0.9656
5.3860 6.5971 -2.0016 0.9656
4.3874 7.2994 -2.0016 0.9656
3.5780 7.7284 -2.0016 0.9656
3.0149 7.9650 -2.0016 0.9656
2.1375 8.2256 -1.9974 0.9657
1.8392 8.2881 -1.9953 0.9657
0.6191 8.2510 -1.9446 0.9666
-0.5662 8.2427 -1.9418 0.9666
-0.8640 8.2416 -1.9476 0.9665
-1.1639 8.2401 -1.9558 0.9664
-1.7731 8.2356 -1.9799 0.9660
-2.0821 8.2252 -1.9941 0.9657
-3.5375 6.8736 -2.0016 0.9686
-3.7817 6.7423 -2.0016 0.9686
-4.2553 6.4539 -2.0016 0.9686
-4.7069 6.1323 -2.0016 0.9686
-5.3383 5.5913 -2.0016 0.9686
-5.5354 5.3963 -2.0016 0.9686
-5.9079 4.9856 -2.0016 0.9686
-6.2501 4.5494 -2.0016 0.9686
-6.4092 4.3223 -2.0016 0.9686
-6.5601 4.0897 -2.0016 0.9686
-6.8364 3.6089 -2.0016 0.9686
-6.9614 3.3615 -2.0016 0.9686
-7.2822 2.5944 -2.0016 0.9686
-7.3705 2.3315 -2.0016 0.9686
-7.4494 2.0657 -2.0016 0.9686
-7.5187 1.7973 -2.0016 0.9686
-7.5783 1.5265 -2.0016 0.9686
-7.6281 1.2537 -2.0016 0.9686
-7.6682 0.9794 -2.0016 0.9686
-7.7290 0.1501 -2.0016 0.9686
-7.6711 -0.9566 -2.0016 0.9686
-7.6318 -1.2310 -2.0016 0.9686
-7.5828 -1.5039 -2.0016 0.9686
-7.5240 -1.7749 -2.0016 0.9686
-7.1214 -2.2295 -1.9321 0.9696
-6.6733 -2.6279 -1.8570 0.9708
-6.4678 -3.0994 -1.8570 0.9708
-6.2290 -3.5551 -1.8570 0.9708
-6.0975 -3.7762 -1.8570 0.9708
-5.8111 -4.2035 -1.8570 0.9708
-5.4949 -4.6092 -1.8570 0.9708
-5.3261 -4.8033 -1.8570 0.9708
-4.9681 -5.1727 -1.8570 0.9708
-4.5846 -5.5155 -1.8570 0.9708
-4.2744 -6.4412 -2.0016 0.9686
-4.0407 -6.5904 -2.0016 0.9686
-3.8018 -6.7310 -2.0016 0.9686
-3.3095 -6.9862 -2.0016 0.9686
-3.0568 -7.1004 -2.0016 0.9686
-2.2766 -7.3877 -2.0016 0.9686
-2.0102 -7.4646 -2.0016 0.9686
-0.6464 -7.7034 -2.0016 0.9686
-0.3697 -7.7216 -2.0016 0.9686
-0.0926 -7.7299 -2.0016 0.9686
0.1847 -7.7283 -2.0016 0.9686
0.4617 -7.7167 -2.0016 0.9686
0.7382 -7.6952 -2.0016 0.9686
1.0137 -7.6637 -2.0016 0.9686
1.2878 -7.6225 -2.0016 0.9686
2.6269 -7.2705 -2.0016 0.9686
3.1413 -7.0635 -2.0016 0.9686
2.1076 -4.3153 -1.2435 0.9804
2.3860 -4.1093 -1.2303 0.9806
4.1190 -6.5417 -2.0016 0.9686
4.3509 -6.3898 -2.0016 0.9686
5.4210 -5.5112 -2.0016 0.9686
5.6151 -5.3132 -2.0016 0.9686
5.9815 -4.8971 -2.0016 0.9686
6.1533 -4.6794 -2.0016 0.9686
6.4729 -4.2264 -2.0016 0.9686
6.6203 -3.9915 -2.0016 0.9686
6.7592 -3.7515 -2.0016 0.9686
6.8894 -3.5067 -2.0016 0.9686
7.1230 -3.0039 -2.0016 0.9686
7.2261 -2.7465 -2.0016 0.9686
7.4044 -2.2215 -2.0016 0.9686
7.4793 -1.9546 -2.0016 0.9686
7.5446 -1.6851 -2.0016 0.9686
7.6819 -0.8650 -2.0016 0.9686
7.7080 -0.5890 -2.0016 0.9686
7.7242 -0.3122 -2.0016 0.9686
7.7267 0.2423 -2.0016 0.9686
7.6895 0.7955 -2.0016 0.9686
7.6560 1.0707 -2.0016 0.9686
7.5595 1.6167 -2.0016 0.9686
7.4967 1.8868 -2.0016 0.9686
7.4242 2.1544 -2.0016 0.9686
7.2507 2.6810 -2.0016 0.9686
7.0399 3.1938 -2.0016 0.9686
6.9208 3.4442 -2.0016 0.9686
6.6562 3.9314 -2.0016 0.9686
6.3572 4.3984 -2.0016 0.9686
6.1954 4.6235 -2.0016 0.9686
6.0256 4.8427 -2.0016 0.9686
5.6630 5.2622 -2.0016 0.9686
5.4707 5.4619 -2.0016 0.9686
5.2713 5.6546 -2.0016 0.9686
5.0651 5.8400 -2.0016 0.9686
4.8524 6.0179 -2.0016 0.9686
4.6335 6.1880 -2.0016 0.9686
4.1780 6.5042 -2.0016 0.9686
3.9421 6.6498 -2.0016 0.9686
3.7011 6.7869 -2.0016 0.9686
2.9508 7.1452 -2.0016 0.9686
2.6926 7.2464 -2.0016 0.9686
1.8988 7.4937 -2.0016 0.9686
1.6288 7.5569 -2.0016 0.9686
1.3568 7.6105 -2.0016 0.9686
0.8078 7.6882 -2.0016 0.9686
0.2547 7.7263 -2.0016 0.9686
-0.0226 7.7304 -2.0016 0.9686
-0.2998 7.7247 -2.0016 0.9686
-0.5766 7.7090 -2.0016 0.9686
-1.1277 7.6478 -2.0016 0.9686
-1.4012 7.6024 -2.0016 0.9686
-1.6730 7.5473 -2.0016 0.9686
-2.2096 7.4080 -2.0016 0.9686
-2.4739 7.3240 -2.0016 0.9686
-2.7349 7.2305 -2.0016 0.9686
-3.2461 7.0159 -2.0016 0.9686
-3.7407 6.7652 -2.0016 0.9686
-4.2160 6.4797 -2.0016 0.9686
-4.4456 6.3243 -2.0016 0.9686
-4.8875 5.9894 -2.0016 0.9686
-5.0991 5.8103 -2.0016 0.9686
-5.5025 5.4298 -2.0016 0.9686
-5.6937 5.2290 -2.0016 0.9686
-5.8775 5.0215 -2.0016 0.9686
-6.0538 4.8075 -2.0016 0.9686
-6.3828 4.3612 -2.0016 0.9686
-6.5351 4.1295 -2.0016 0.9686
-6.6790 3.8925 -2.0016 0.9686
-6.8143 3.6504 -2.0016 0.9686
-7.0584 3.1526 -2.0016 0.9686
-7.4367 2.1110 -2.0016 0.9686
-7.5689 1.5725 -2.0016 0.9686
-7.6204 1.3001 -2.0016 0.9686
-7.6621 1.0260 -2.0016 0.9686
-7.6940 0.7505 -2.0016 0.9686
-7.7159 0.4741 -2.0016 0.9686
-7.7280 0.1971 -2.0016 0.9686
-7.7301 -0.0802 -2.0016 0.9686
-7.7222 -0.3573 -2.0016 0.9686
-7.7044 -0.6340 -2.0016 0.9686
-7.6767 -0.9099 -2.0016 0.9686
-7.6392 -1.1846 -2.0016 0.9686
-7.5918 -1.4578 -2.0016 0.9686
-7.5346 -1.7291 -2.0016 0.9686
-7.4678 -1.9982 -2.0016 0.9686
-7.2564 -2.2234 -1.9650 0.9691
-6.7776 -2.3457 -1.8570 0.9708
-6.6892 -2.5873 -1.8570 0.9708
-6.5921 -2.8255 -1.8570 0.9708
-6.4865 -3.0601 -1.8570 0.9708
-6.2505 -3.5171 -1.8570 0.9708
-6.1203 -3.7390 -1.8570 0.9708
-5.9823 -3.9561 -1.8570 0.9708
-5.5228 -4.5757 -1.8570 0.9708
-5.3552 -4.7708 -1.8570 0.9708
-4.4182 -5.6496 -1.8570 0.9708
-4.5408 -6.2563 -2.0016 0.9686
-4.3135 -6.4151 -2.0016 0.9686
-4.0807 -6.5657 -2.0016 0.9686
-3.3519 -6.9660 -2.0016 0.9686
-2.8440 -7.1883 -2.0016 0.9686
-2.3215 -7.3737 -2.0016 0.9686
-2.0555 -7.4522 -2.0016 0.9686
-1.5161 -7.5804 -2.0016 0.9686
-1.2433 -7.6299 -2.0016 0.9686
-0.9689 -7.6695 -2.0016 0.9686
-0.4166 -7.7192 -2.0016 0.9686
0.1377 -7.7293 -2.0016 0.9686
0.9670 -7.6698 -2.0016 0.9686
1.5143 -7.5807 -2.0016 0.9686
1.7852 -7.5215 -2.0016 0.9686
2.5827 -7.2863 -2.0016 0.9686
3.0983 -7.0824 -2.0016 0.9686
2.1055 -4.3784 -1.2579 0.9801
2.1626 -4.1126 -1.2031 0.9810
4.5393 -6.2574 -2.0016 0.9686
5.1851 -5.7337 -2.0016 0.9686
6.1248 -4.7168 -2.0016 0.9686
6.4471 -4.2656 -2.0016 0.9686
6.8679 -3.5485 -2.0016 0.9686
7.3047 -2.5301 -2.0016 0.9686
7.3908 -2.2665 -2.0016 0.9686
7.4673 -2.0000 -2.0016 0.9686
7.6389 -1.1864 -2.0016 0.9686
7.7043 -0.6358 -2.0016 0.9686
7.7301 -0.0820 -2.0016 0.9686
7.7160 0.4723 -2.0016 0.9686
7.6623 1.0241 -2.0016 0.9686
7.6207 1.2983 -2.0016 0.9686
7.5692 1.5707 -2.0016 0.9686
7.5080 1.8412 -2.0016 0.9686
7.4372 2.1092 -2.0016 0.9686
7.3568 2.3746 -2.0016 0.9686
6.8152 3.6488 -2.0016 0.9686
6.6799 3.8909 -2.0016 0.9686
6.2234 4.5858 -2.0016 0.9686
5.6949 5.2277 -2.0016 0.9686
4.8889 5.9882 -2.0016 0.9686
4.6710 6.1597 -2.0016 0.9686
4.4471 6.3233 -2.0016 0.9686
3.4973 6.8942 -2.0016 0.9686
2.9941 7.1271 -2.0016 0.9686
2.7366 7.2299 -2.0016 0.9686
2.2114 7.4074 -2.0016 0.9686
1.1295 7.6475 -2.0016 0.9686
0.8545 7.6831 -2.0016 0.9686
0.3016 7.7246 -2.0016 0.9686
0.0244 7.7304 -2.0016 0.9686
-0.5297 7.7123 -2.0016 0.9686
-0.8060 7.6884 -2.0016 0.9686
-1.3550 7.6108 -2.0016 0.9686
-1.8970 7.4941 -2.0016 0.9686
-3.0079 6.3986 -2.0016 0.9710
-3.8919 5.9028 -2.0016 0.9710
-4.5033 5.4507 -2.0016 0.9710
-4.8824 5.1138 -2.0016 0.9710
-5.2364 4.7507 -2.0016 0.9710
-5.8619 3.9532 -2.0016 0.9710
-6.2526 3.3007 -2.0016 0.9710
-6.4731 2.8441 -2.0016 0.9710
-6.8132 1.8893 -2.0016 0.9710
-6.8766 1.6438 -2.0016 0.9710
-6.9767 1.1467 -2.0016 0.9710
-7.0595 0.3907 -2.0016 0.9710
-7.0690 0.1373 -2.0016 0.9710
-6.9801 -1.1259 -2.0016 0.9710
-6.8815 -1.6233 -2.0016 0.9710
-6.8188 -1.8691 -2.0016 0.9710
-6.3335 -2.2352 -1.9014 0.9725
-6.1034 -2.4035 -1.8570 0.9731
-6.0133 -2.6208 -1.8570 0.9731
-5.3149 -3.8445 -1.8570 0.9731
-5.1736 -4.0327 -1.8570 0.9731
-5.0257 -4.2156 -1.8570 0.9731
-4.7106 -4.5650 -1.8570 0.9731
-4.1931 -5.0445 -1.8570 0.9731
-4.0095 -5.1916 -1.8570 0.9731
-3.8207 -5.3321 -1.8570 0.9731
-3.2541 -6.2770 -2.0016 0.9710
-3.0269 -6.3896 -2.0016 0.9710
-2.3231 -6.6778 -2.0016 0.9710
-2.0822 -6.7568 -2.0016 0.9710
-1.5925 -6.8886 -2.0016 0.9710
-1.0947 -6.9851 -2.0016 0.9710
0.1689 -7.0683 -2.0016 0.9710
0.6751 -7.0380 -2.0016 0.9710
0.9271 -7.0093 -2.0016 0.9710
1.1779 -6.9715 -2.0016 0.9710
1.6745 -6.8692 -2.0016 0.9710
1.9198 -6.8047 -2.0016 0.9710
2.4026 -6.6496 -2.0016 0.9710
2.6395 -6.5592 -2.0016 0.9710
2.8730 -6.4603 -2.0016 0.9710
2.3776 -4.0948 -1.3405 0.9805
3.7672 -5.9831 -2.0016 0.9710
4.1864 -5.6977 -2.0016 0.9710
4.5840 -5.3830 -2.0016 0.9710
4.7741 -5.2151 -2.0016 0.9710
4.9581 -5.0406 -2.0016 0.9710
5.6279 -4.2798 -2.0016 0.9710
5.7777 -4.0753 -2.0016 0.9710
5.9201 -3.8654 -2.0016 0.9710
6.4120 -2.9792 -2.0016 0.9710
6.5147 -2.7474 -2.0016 0.9710
6.6091 -2.5120 -2.0016 0.9710
6.7721 -2.0318 -2.0016 0.9710
6.8406 -1.7876 -2.0016 0.9710
6.9003 -1.5412 -2.0016 0.9710
7.0498 -0.5387 -2.0016 0.9710
7.0646 -0.2855 -2.0016 0.9710
7.0669 0.2216 -2.0016 0.9710
7.0544 0.4749 -2.0016 0.9710
6.9626 1.2298 -2.0016 0.9710
6.6315 2.4520 -2.0016 0.9710
6.4387 2.9211 -2.0016 0.9710
6.3298 3.1501 -2.0016 0.9710
6.0877 3.5957 -2.0016 0.9710
5.8144 4.0228 -2.0016 0.9710
5.6664 4.2287 -2.0016 0.9710
5.5111 4.4292 -2.0016 0.9710
5.1794 4.8128 -2.0016 0.9710
5.0035 4.9955 -2.0016 0.9710
4.8211 5.1717 -2.0016 0.9710
4.2378 5.6596 -2.0016 0.9710
3.6055 6.0820 -2.0016 0.9710
3.3850 6.2073 -2.0016 0.9710
3.1602 6.3248 -2.0016 0.9710
2.9314 6.4340 -2.0016 0.9710
2.4627 6.6276 -2.0016 0.9710
2.2234 6.7116 -2.0016 0.9710
1.9813 6.7871 -2.0016 0.9710
1.7366 6.8537 -2.0016 0.9710
0.9905 7.0006 -2.0016 0.9710
0.7388 7.0316 -2.0016 0.9710
0.4862 7.0536 -2.0016 0.9710
-0.0207 7.0703 -2.0016 0.9710
-0.2742 7.0650 -2.0016 0.9710
-0.5274 7.0506 -2.0016 0.9710
-0.7799 7.0272 -2.0016 0.9710
-1.0314 6.9947 -2.0016 0.9710
-1.2816 6.9532 -2.0016 0.9710
-1.5301 6.9028 -2.0016 0.9710
-1.7767 6.8435 -2.0016 0.9710
-2.0209 6.7754 -2.0016 0.9710
-2.2626 6.6985 -2.0016 0.9710
-2.5014 6.6131 -2.0016 0.9710
-2.9689 6.4168 -2.0016 0.9710
-3.1971 6.3062 -2.0016 0.9710
-3.8559 5.9263 -2.0016 0.9710
-4.2708 5.6347 -2.0016 0.9710
-4.6637 5.3141 -2.0016 0.9710
-5.0326 4.9661 -2.0016 0.9710
-5.2075 4.7825 -2.0016 0.9710
-5.6910 4.1955 -2.0016 0.9710
-5.8378 3.9888 -2.0016 0.9710
-5.9770 3.7768 -2.0016 0.9710
-6.2324 3.3387 -2.0016 0.9710
-6.4557 2.8834 -2.0016 0.9710
-6.6457 2.4133 -2.0016 0.9710
-6.7280 2.1734 -2.0016 0.9710
-6.8016 1.9307 -2.0016 0.9710
-6.8665 1.6856 -2.0016 0.9710
-7.0369 0.6864 -2.0016 0.9710
-7.0680 0.1803 -2.0016 0.9710
-7.0700 -0.0733 -2.0016 0.9710
-7.0628 -0.3268 -2.0016 0.9710
-6.9868 -1.0835 -2.0016 0.9710
-6.9435 -1.3333 -2.0016 0.9710
-6.8300 -1.8276 -2.0016 0.9710
-6.7601 -2.0713 -2.0016 0.9710
-6.4430 -2.2299 -1.9301 0.9721
-6.1179 -2.3663 -1.8570 0.9731
-6.0291 -2.5842 -1.8570 0.9731
-5.9326 -2.7987 -1.8570 0.9731
-5.7167 -3.2168 -1.8570 0.9731
-5.4715 -3.6183 -1.8570 0.9731
-4.8979 -4.3634 -1.8570 0.9731
-4.5725 -4.7033 -1.8570 0.9731
-4.0410 -5.1671 -1.8570 0.9731
-3.6602 -5.4435 -1.8570 0.9731
-3.4626 -5.5712 -1.8570 0.9731
-3.5145 -6.1350 -2.0016 0.9710
-3.2922 -6.2571 -2.0016 0.9710
-3.0657 -6.3711 -2.0016 0.9710
-2.6011 -6.5745 -2.0016 0.9710
-2.1232 -6.7440 -2.0016 0.9710
-1.8800 -6.8158 -2.0016 0.9710
-1.6344 -6.8788 -2.0016 0.9710
-1.1371 -6.9783 -2.0016 0.9710
-0.8861 -7.0146 -2.0016 0.9710
-0.3811 -7.0601 -2.0016 0.9710
-0.1276 -7.0692 -2.0016 0.9710
0.1260 -7.0692 -2.0016 0.9710
0.3794 -7.0601 -2.0016 0.9710
0.6323 -7.0420 -2.0016 0.9710
1.3850 -6.9333 -2.0016 0.9710
1.6327 -6.8792 -2.0016 0.9710
1.8784 -6.8162 -2.0016 0.9710
2.1216 -6.7445 -2.0016 0.9710
2.3621 -6.6641 -2.0016 0.9710
2.5996 -6.5751 -2.0016 0.9710
2.8337 -6.4776 -2.0016 0.9710
2.0914 -4.3490 -1.3661 0.9801
4.5512 -5.4107 -2.0016 0.9710
4.9273 -5.0706 -2.0016 0.9710
5.1060 -4.8906 -2.0016 0.9710
5.7528 -4.1103 -2.0016 0.9710
5.8965 -3.9014 -2.0016 0.9710
6.0326 -3.6874 -2.0016 0.9710
6.1610 -3.4687 -2.0016 0.9710
6.2814 -3.2455 -2.0016 0.9710
6.3938 -3.0182 -2.0016 0.9710
6.7596 -2.0729 -2.0016 0.9710
6.8296 -1.8292 -2.0016 0.9710
6.8908 -1.5831 -2.0016 0.9710
6.9432 -1.3350 -2.0016 0.9710
7.0210 -0.8339 -2.0016 0.9710
7.0464 -0.5815 -2.0016 0.9710
7.0681 0.1786 -2.0016 0.9710
7.0571 0.4320 -2.0016 0.9710
7.0080 0.9367 -2.0016 0.9710
6.9229 1.4366 -2.0016 0.9710
6.8669 1.6839 -2.0016 0.9710
6.1095 3.5586 -2.0016 0.9710
5.9779 3.7754 -2.0016 0.9710
5.8387 3.9874 -2.0016 0.9710
5.5379 4.3956 -2.0016 0.9710
5.3767 4.5914 -2.0016 0.9710
5.0338 4.9649 -2.0016 0.9710
4.6649 5.3130 -2.0016 0.9710
4.4714 5.4769 -2.0016 0.9710
4.2721 5.6337 -2.0016 0.9710
4.0673 5.7833 -2.0016 0.9710
3.6424 6.0599 -2.0016 0.9710
3.4227 6.1867 -2.0016 0.9710
3.1986 6.3054 -2.0016 0.9710
2.0225 6.7749 -2.0016 0.9710
0.2759 7.0649 -2.0016 0.9710
-0.4845 7.0537 -2.0016 0.9710
-0.7371 7.0318 -2.0016 0.9710
-0.9888 7.0008 -2.0016 0.9710
-1.2393 6.9609 -2.0016 0.9710
-1.4881 6.9120 -2.0016 0.9710
-1.7350 6.8541 -2.0016 0.9710
-2.7684 5.8892 -2.0016 0.9731
-2.9779 5.7862 -2.0016 0.9731
-3.5821 5.4329 -2.0016 0.9731
-4.3221 4.8649 -2.0016 0.9731
-4.6597 4.5426 -2.0016 0.9731
-4.9733 4.1969 -2.0016 0.9731
-5.1206 4.0158 -2.0016 0.9731
-5.6422 3.2424 -2.0016 0.9731
-5.7548 3.0380 -2.0016 0.9731
-5.8601 2.8297 -2.0016 0.9731
-5.9578 2.6177 -2.0016 0.9731
-6.1301 2.1839 -2.0016 0.9731
-6.2044 1.9627 -2.0016 0.9731
-6.3794 1.2850 -2.0016 0.9731
-6.4213 1.0554 -2.0016 0.9731
-6.4805 0.5924 -2.0016 0.9731
-6.4986 -0.3403 -2.0016 0.9731
-6.4822 -0.5731 -2.0016 0.9731
-6.4575 -0.8052 -2.0016 0.9731
-6.4244 -1.0363 -2.0016 0.9731
-6.3831 -1.2660 -2.0016 0.9731
-6.2760 -1.7203 -2.0016 0.9731
-5.5346 -2.4122 -1.8570 0.9751
-5.4446 -2.6091 -1.8570 0.9751
-5.3475 -2.8027 -1.8570 0.9751
-5.1328 -3.1787 -1.8570 0.9751
-4.8918 -3.5385 -1.8570 0.9751
-4.7618 -3.7116 -1.8570 0.9751
-4.4835 -4.0434 -1.8570 0.9751
-4.3356 -4.2016 -1.8570 0.9751
-4.0233 -4.5015 -1.8570 0.9751
-3.8593 -4.6429 -1.8570 0.9751
-3.6903 -4.7783 -1.8570 0.9751
-3.5165 -4.9076 -1.8570 0.9751
-3.1557 -5.1470 -1.8570 0.9751
-2.9691 -5.2569 -1.8570 0.9751
-2.7787 -5.3600 -1.8570 0.9751
-2.5847 -5.4562 -1.8570 0.9751
-2.3877 -5.5462 -1.8573 0.9750
-2.1382 -6.1462 -2.0016 0.9731
-1.9164 -6.2189 -2.0016 0.9731
-1.6922 -6.2836 -2.0016 0.9731
-0.5441 -6.4847 -2.0016 0.9731
0.3887 -6.4959 -2.0016 0.9731
0.6214 -6.4777 -2.0016 0.9731
0.8533 -6.4513 -2.0016 0.9731
1.0841 -6.4165 -2.0016 0.9731
1.3135 -6.3735 -2.0016 0.9731
1.5412 -6.3223 -2.0016 0.9731
1.7670 -6.2630 -2.0016 0.9731
1.9904 -6.1956 -2.0016 0.9731
2.2539 -5.6009 -1.8570 0.9751
2.4533 -5.5165 -1.8570 0.9751
2.0797 -4.2581 -1.4576 0.9804
2.1790 -4.0833 -1.4236 0.9808
4.0387 -5.1026 -2.0016 0.9731
4.3941 -4.7999 -2.0016 0.9731
4.8842 -4.3003 -2.0016 0.9731
5.3178 -3.7508 -2.0016 0.9731
5.5729 -3.3600 -2.0016 0.9731
5.6898 -3.1580 -2.0016 0.9731
5.7994 -2.9519 -2.0016 0.9731
5.9961 -2.5287 -2.0016 0.9731
6.2960 -1.6453 -2.0016 0.9731
6.5074 -0.0295 -2.0016 0.9731
6.4928 0.4371 -2.0016 0.9731
6.4729 0.6696 -2.0016 0.9731
6.4083 1.1319 -2.0016 0.9731
6.3107 1.5883 -2.0016 0.9731
6.2497 1.8136 -2.0016 0.9731
6.1036 2.2569 -2.0016 0.9731
6.0187 2.4743 -2.0016 0.9731
5.8259 2.8993 -2.0016 0.9731
5.7182 3.1064 -2.0016 0.9731
5.6031 3.3094 -2.0016 0.9731
5.3515 3.7025 -2.0016 0.9731
5.2153 3.8921 -2.0016 0.9731
5.0723 4.0766 -2.0016 0.9731
4.9229 4.2559 -2.0016 0.9731
4.4373 4.7600 -2.0016 0.9731
4.2638 4.9160 -2.0016 0.9731
3.5170 5.4752 -2.0016 0.9731
3.3184 5.5978 -2.0016 0.9731
2.9087 5.8213 -2.0016 0.9731
2.6980 5.9218 -2.0016 0.9731
2.4839 6.0148 -2.0016 0.9731
2.0464 6.1773 -2.0016 0.9731
1.5984 6.3081 -2.0016 0.9731
1.3711 6.3614 -2.0016 0.9731
1.1421 6.4065 -2.0016 0.9731
0.9116 6.4433 -2.0016 0.9731
-0.0190 6.5075 -2.0016 0.9731
-0.7178 6.4678 -2.0016 0.9731
-0.9493 6.4379 -2.0016 0.9731
-1.1795 6.3997 -2.0016 0.9731
-1.6352 6.2987 -2.0016 0.9731
-2.0825 6.1653 -2.0016 0.9731
-2.5190 6.0001 -2.0016 0.9731
-2.7326 5.9059 -2.0016 0.9731
-2.9426 5.8042 -2.0016 0.9731
-3.7423 5.3238 -2.0016 0.9731
-4.1143 5.0418 -2.0016 0.9731
-4.2924 4.8911 -2.0016 0.9731
-4.6320 4.5708 -2.0016 0.9731
-4.7929 4.4018 -2.0016 0.9731
-4.9477 4.2270 -2.0016 0.9731
-5.3730 3.6712 -2.0016 0.9731
-5.5012 3.4762 -2.0016 0.9731
-5.7362 3.0729 -2.0016 0.9731
-5.8427 2.8652 -2.0016 0.9731
-5.9417 2.6539 -2.0016 0.9731
-6.2602 1.7770 -2.0016 0.9731
-6.3198 1.5514 -2.0016 0.9731
-6.3714 1.3237 -2.0016 0.9731
-6.4499 0.8636 -2.0016 0.9731
-6.4767 0.6318 -2.0016 0.9731
-6.4952 0.3991 -2.0016 0.9731
-6.5054 0.1659 -2.0016 0.9731
-6.5071 -0.0675 -2.0016 0.9731
-6.5005 -0.3008 -2.0016 0.9731
-6.4622 -0.7659 -2.0016 0.9731
-6.3907 -1.2272 -2.0016 0.9731
-6.3426 -1.4556 -2.0016 0.9731
-6.2863 -1.6821 -2.0016 0.9731
-6.2220 -1.9064 -2.0016 0.9731
-5.7771 -2.2345 -1.9052 0.9744
-5.3644 -2.7701 -1.8570 0.9751
-5.0359 -3.3302 -1.8570 0.9751
-4.5080 -4.0160 -1.8570 0.9751
-4.3610 -4.1751 -1.8570 0.9751
-4.2085 -4.3288 -1.8570 0.9751
-4.0506 -4.4770 -1.8570 0.9751
-3.8874 -4.6194 -1.8570 0.9751
-3.5463 -4.8861 -1.8570 0.9751
-3.0010 -5.2387 -1.8570 0.9751
-2.8112 -5.3430 -1.8570 0.9751
-2.4210 -5.5307 -1.8570 0.9751
-2.1755 -6.1331 -2.0016 0.9731
-1.9542 -6.2071 -2.0016 0.9731
-1.2762 -6.3811 -2.0016 0.9731
-0.3507 -6.4980 -2.0016 0.9731
-0.1175 -6.5064 -2.0016 0.9731
0.1159 -6.5064 -2.0016 0.9731
0.3492 -6.4981 -2.0016 0.9731
1.0451 -6.4230 -2.0016 0.9731
1.5028 -6.3316 -2.0016 0.9731
1.7289 -6.2736 -2.0016 0.9731
1.9527 -6.2076 -2.0016 0.9731
2.3364 -4.0808 -1.4463 0.9805
3.4338 -5.5278 -2.0016 0.9731
4.0076 -5.1270 -2.0016 0.9731
4.3648 -4.8266 -2.0016 0.9731
4.6995 -4.5013 -2.0016 0.9731
4.8579 -4.3299 -2.0016 0.9731
5.0101 -4.1529 -2.0016 0.9731
5.4271 -3.5908 -2.0016 0.9731
5.6705 -3.1925 -2.0016 0.9731
5.8848 -2.7779 -2.0016 0.9731
6.0688 -2.3489 -2.0016 0.9731
6.2859 -1.6836 -2.0016 0.9731
6.3904 -1.2287 -2.0016 0.9731
6.4621 -0.7675 -2.0016 0.9731
6.4854 -0.5352 -2.0016 0.9731
6.5004 -0.3023 -2.0016 0.9731
6.4953 0.3976 -2.0016 0.9731
6.3717 1.3222 -2.0016 0.9731
6.3202 1.5499 -2.0016 0.9731
6.1929 1.9989 -2.0016 0.9731
6.0337 2.4376 -2.0016 0.9731
5.6231 3.2753 -2.0016 0.9731
5.5021 3.4749 -2.0016 0.9731
5.0970 4.0457 -2.0016 0.9731
4.2936 4.8900 -2.0016 0.9731
3.5503 5.4537 -2.0016 0.9731
2.9440 5.8035 -2.0016 0.9731
2.3037 6.0861 -2.0016 0.9731
2.0839 6.1648 -2.0016 0.9731
1.8615 6.2355 -2.0016 0.9731
1.6367 6.2983 -2.0016 0.9731
1.4098 6.3529 -2.0016 0.9731
0.9508 6.4376 -2.0016 0.9731
0.4869 6.4892 -2.0016 0.9731
0.0205 6.5074 -2.0016 0.9731
-0.4459 6.4922 -2.0016 0.9731
-0.9101 6.4435 -2.0016 0.9731
-1.1406 6.4067 -2.0016 0.9731
-1.5969 6.3085 -2.0016 0.9731
-2.9457 5.2517 -2.0016 0.9749
-3.3145 5.0271 -2.0016 0.9749
-3.4927 4.9050 -2.0016 0.9749
-3.6663 4.7766 -2.0016 0.9749
-3.8353 4.6420 -2.0016 0.9749
-3.9993 4.5015 -2.0016 0.9749
-4.1581 4.3552 -2.0016 0.9749
-4.3116 4.2033 -2.0016 0.9749
-4.6018 3.8834 -2.0016 0.9749
-4.8683 3.5436 -2.0016 0.9749
-5.2208 3.0002 -2.0016 0.9749
-5.3250 2.8111 -2.0016 0.9749
-5.4224 2.6183 -2.0016 0.9749
-5.5128 2.4222 -2.0016 0.9749
-5.5961 2.2229 -2.0016 0.9749
-5.6722 2.0208 -2.0016 0.9749
-5.7410 1.8161 -2.0016 0.9749
-5.8564 1.3999 -2.0016 0.9749
-5.9964 0.5481 -2.0016 0.9749
-6.0203 0.1169 -2.0016 0.9749
-6.0132 -0.3149 -2.0016 0.9749
-5.9980 -0.5303 -2.0016 0.9749
-5.9064 -1.1715 -2.0016 0.9749
-5.1439 -2.2419 -1.8652 0.9766
-4.9481 -2.5933 -1.8570 0.9767
-4.8519 -2.7691 -1.8570 0.9767
-4.7495 -2.9413 -1.8570 0.9767
-4.6409 -3.1098 -1.8570 0.9767
-4.5264 -3.2742 -1.8570 0.9767
-4.4061 -3.4344 -1.8570 0.9767
-4.2801 -3.5902 -1.8570 0.9767
-4.1486 -3.7414 -1.8570 0.9767
-3.8698 -4.0291 -1.8570 0.9767
-3.7228 -4.1653 -1.8570 0.9767
-3.5710 -4.2961 -1.8570 0.9767
-3.4146 -4.4214 -1.8570 0.9767
-3.2539 -4.5410 -1.8570 0.9767
-3.0890 -4.6548 -1.8570 0.9767
-2.9200 -4.7626 -1.8570 0.9767
-2.3916 -5.0487 -1.8570 0.9767
-2.2091 -5.1312 -1.8570 0.9767
-2.0236 -5.2071 -1.8570 0.9767
-1.4527 -5.3943 -1.8570 0.9767
-1.0623 -5.4846 -1.8570 0.9767
-0.8649 -5.5191 -1.8570 0.9767
-0.6664 -5.5466 -1.8570 0.9767
-0.4671 -5.5669 -1.8570 0.9767
-0.2672 -5.5801 -1.8570 0.9767
-0.0669 -5.5861 -1.8570 0.9767
0.5334 -5.5610 -1.8570 0.9767
0.7333 -5.5444 -1.8590 0.9767
0.9307 -5.5084 -1.8570 0.9767
1.5169 -5.3766 -1.8570 0.9767
1.8984 -5.2541 -1.8570 0.9767
2.9766 -4.7274 -1.8570 0.9767
3.9040 -4.5844 -2.0016 0.9749
4.2225 -4.2928 -2.0016 0.9749
4.3738 -4.1386 -2.0016 0.9749
4.7929 -3.6449 -2.0016 0.9749
5.0419 -3.2920 -2.0016 0.9749
5.1567 -3.1091 -2.0016 0.9749
5.2649 -2.9221 -2.0016 0.9749
5.4608 -2.5373 -2.0016 0.9749
5.7017 -1.9361 -2.0016 0.9749
5.8258 -1.5224 -2.0016 0.9749
5.8766 -1.3125 -2.0016 0.9749
6.0214 -0.0272 -2.0016 0.9749
5.9634 0.8340 -2.0016 0.9749
5.9297 1.0473 -2.0016 0.9749
5.6477 2.0883 -2.0016 0.9749
5.5692 2.2895 -2.0016 0.9749
5.4835 2.4877 -2.0016 0.9749
5.1846 3.0623 -2.0016 0.9749
4.9518 3.4260 -2.0016 0.9749
4.6935 3.7721 -2.0016 0.9749
4.2612 4.2544 -2.0016 0.9749
4.1059 4.4045 -2.0016 0.9749
3.9453 4.5489 -2.0016 0.9749
3.7796 4.6874 -2.0016 0.9749
3.6091 4.8200 -2.0016 0.9749
3.4339 4.9463 -2.0016 0.9749
3.0706 5.1797 -2.0016 0.9749
2.8829 5.2865 -2.0016 0.9749
2.6914 5.3865 -2.0016 0.9749
2.4965 5.4795 -2.0016 0.9749
2.2984 5.5655 -2.0016 0.9749
1.6874 5.7802 -2.0016 0.9749
1.0568 5.9280 -2.0016 0.9749
0.8436 5.9621 -2.0016 0.9749
0.6292 5.9885 -2.0016 0.9749
0.4141 6.0072 -2.0016 0.9749
0.1984 6.0182 -2.0016 0.9749
-0.0176 6.0214 -2.0016 0.9749
-0.4491 6.0047 -2.0016 0.9749
-0.8784 5.9570 -2.0016 0.9749
-1.5131 5.8282 -2.0016 0.9749
-2.1303 5.6320 -2.0016 0.9749
-2.3309 5.5520 -2.0016 0.9749
-2.9137 5.2695 -2.0016 0.9749
-3.1008 5.1617 -2.0016 0.9749
-3.2839 5.0472 -2.0016 0.9749
-3.4628 4.9261 -2.0016 0.9749
-3.6372 4.7988 -2.0016 0.9749
-3.8070 4.6653 -2.0016 0.9749
-4.1316 4.3804 -2.0016 0.9749
-4.2860 4.2294 -2.0016 0.9749
-4.4349 4.0730 -2.0016 0.9749
-4.8467 3.5731 -2.0016 0.9749
-4.9717 3.3970 -2.0016 0.9749
-5.0903 3.2165 -2.0016 0.9749
-5.2024 3.0319 -2.0016 0.9749
-5.3078 2.8434 -2.0016 0.9749
-5.4064 2.6512 -2.0016 0.9749
-5.4980 2.4556 -2.0016 0.9749
-5.6598 2.0552 -2.0016 0.9749
-5.7299 1.8510 -2.0016 0.9749
-5.8955 1.2249 -2.0016 0.9749
-5.9357 1.0126 -2.0016 0.9749
-5.9930 0.5846 -2.0016 0.9749
-6.0195 0.1535 -2.0016 0.9749
-6.0211 -0.0624 -2.0016 0.9749
-5.9796 -0.7087 -2.0016 0.9749
-5.9503 -0.9227 -2.0016 0.9749
-5.7572 -1.7640 -2.0016 0.9749
-5.6903 -1.9694 -2.0016 0.9749
-5.6160 -2.1722 -2.0016 0.9749
-5.2207 -2.2377 -1.8881 0.9763
-5.0525 -2.3835 -1.8570 0.9767
-4.9637 -2.5632 -1.8570 0.9767
-4.7673 -2.9124 -1.8570 0.9767
-4.6598 -3.0815 -1.8570 0.9767
-4.5463 -3.2466 -1.8570 0.9767
-4.4269 -3.4076 -1.8570 0.9767
-4.3019 -3.5641 -1.8570 0.9767
-4.1713 -3.7161 -1.8570 0.9767
-4.0353 -3.8633 -1.8570 0.9767
-3.8942 -4.0055 -1.8570 0.9767
-3.4415 -4.4006 -1.8570 0.9767
-3.2814 -4.5212 -1.8570 0.9767
-2.7769 -4.8474 -1.8570 0.9767
-2.6013 -4.9439 -1.8570 0.9767
-2.4223 -5.0340 -1.8570 0.9767
-2.2402 -5.1177 -1.8570 0.9767
-1.6776 -5.3286 -1.8570 0.9767
-1.4854 -5.3854 -1.8570 0.9767
-1.0956 -5.4780 -1.8570 0.9767
-0.5009 -5.5640 -1.8570 0.9767
0.0995 -5.5856 -1.8570 0.9767
0.2998 -5.5784 -1.8570 0.9767
0.6992 -5.5455 -1.8579 0.9767
0.8972 -5.5140 -1.8570 0.9767
1.0943 -5.4783 -1.8570 0.9767
1.2901 -5.4355 -1.8570 0.9767
1.6764 -5.3290 -1.8570 0.9767
2.1400 -4.0695 -1.5283 0.9808
2.9478 -4.7454 -1.8570 0.9767
3.1161 -4.6367 -1.8570 0.9767
3.2804 -4.5219 -1.8570 0.9767
3.4404 -4.4014 -1.8570 0.9767
3.8760 -4.6080 -2.0016 0.9749
4.0388 -4.4661 -2.0016 0.9749
4.1964 -4.3184 -2.0016 0.9749
4.3485 -4.1651 -2.0016 0.9749
4.4951 -4.0065 -2.0016 0.9749
4.7707 -3.6740 -2.0016 0.9749
4.8994 -3.5005 -2.0016 0.9749
5.0218 -3.3226 -2.0016 0.9749
5.1377 -3.1404 -2.0016 0.9749
5.2470 -2.9541 -2.0016 0.9749
5.3496 -2.7640 -2.0016 0.9749
5.4452 -2.5704 -2.0016 0.9749
5.6898 -1.9707 -2.0016 0.9749
5.7568 -1.7654 -2.0016 0.9749
5.8164 -1.5578 -2.0016 0.9749
5.8686 -1.3482 -2.0016 0.9749
5.9131 -1.1369 -2.0016 0.9749
5.9501 -0.9241 -2.0016 0.9749
5.9794 -0.7102 -2.0016 0.9749
6.0149 -0.2797 -2.0016 0.9749
6.0211 -0.0639 -2.0016 0.9749
5.9931 0.5832 -2.0016 0.9749
5.9684 0.7977 -2.0016 0.9749
5.9359 1.0113 -2.0016 0.9749
5.8958 1.2235 -2.0016 0.9749
5.8482 1.4341 -2.0016 0.9749
5.6603 2.0539 -2.0016 0.9749
5.4985 2.4543 -2.0016 0.9749
5.4070 2.6499 -2.0016 0.9749
5.3085 2.8421 -2.0016 0.9749
5.2031 3.0307 -2.0016 0.9749
5.0911 3.2153 -2.0016 0.9749
4.8475 3.5720 -2.0016 0.9749
4.7163 3.7435 -2.0016 0.9749
4.5790 3.9102 -2.0016 0.9749
4.2870 4.2284 -2.0016 0.9749
4.1326 4.3794 -2.0016 0.9749
3.8081 4.6644 -2.0016 0.9749
3.6384 4.7979 -2.0016 0.9749
3.2851 5.0464 -2.0016 0.9749
2.5298 5.4642 -2.0016 0.9749
2.1316 5.6315 -2.0016 0.9749
1.9283 5.7043 -2.0016 0.9749
1.5145 5.8279 -2.0016 0.9749
1.3045 5.8784 -2.0016 0.9749
1.0928 5.9214 -2.0016 0.9749
0.6656 5.9845 -2.0016 0.9749
0.4506 6.0046 -2.0016 0.9749
0.2349 6.0169 -2.0016 0.9749
0.0190 6.0214 -2.0016 0.9749
-0.8421 5.9623 -2.0016 0.9749
-2.3811 5.0653 -2.0016 0.9765
-2.5613 4.9767 -2.0016 0.9765
-2.7381 4.8816 -2.0016 0.9765
-2.9114 4.7803 -2.0016 0.9765
-3.0809 4.6728 -2.0016 0.9765
-3.2465 4.5593 -2.0016 0.9765
-3.4079 4.4400 -2.0016 0.9765
-3.5650 4.3149 -2.0016 0.9765
-3.7174 4.1843 -2.0016 0.9765
-4.0078 3.9071 -2.0016 0.9765
-4.1453 3.7608 -2.0016 0.9765
-4.2775 3.6097 -2.0016 0.9765
-4.4042 3.4540 -2.0016 0.9765
-4.5252 3.2939 -2.0016 0.9765
-4.6405 3.1295 -2.0016 0.9765
-4.8528 2.7888 -2.0016 0.9765
-4.9497 2.6130 -2.0016 0.9765
-5.3365 1.6881 -2.0016 0.9765
-5.4437 1.3013 -2.0016 0.9765
-5.4869 1.1052 -2.0016 0.9765
-5.5520 0.7091 -2.0016 0.9765
-5.5885 0.3093 -2.0016 0.9765
-5.5960 0.1087 -2.0016 0.9765
-5.5963 -0.0921 -2.0016 0.9765
-5.4902 -1.0889 -2.0016 0.9765
-5.4476 -1.2851 -2.0016 0.9765
-5.2078 -2.0508 -2.0016 0.9765
-5.0924 -2.2194 -1.9865 0.9767
-4.5994 -2.4106 -1.8570 0.9782
-4.5100 -2.5740 -1.8570 0.9782
-4.3139 -2.8906 -1.8570 0.9782
-4.2074 -3.0434 -1.8570 0.9782
-4.0956 -3.1924 -1.8570 0.9782
-3.9785 -3.3372 -1.8570 0.9782
-3.8562 -3.4777 -1.8570 0.9782
-3.3194 -3.9934 -1.8570 0.9782
-3.1740 -4.1098 -1.8570 0.9782
-3.0246 -4.2210 -1.8570 0.9782
-2.8713 -4.3268 -1.8570 0.9782
-1.3503 -5.0142 -1.8570 0.9782
-0.6195 -5.1557 -1.8570 0.9782
-0.4342 -5.1746 -1.8570 0.9782
-0.2483 -5.1869 -1.8570 0.9782
0.4958 -5.1691 -1.8570 0.9782
1.4100 -4.9977 -1.8570 0.9782
1.5883 -4.9439 -1.8570 0.9782
1.7646 -4.8838 -1.8570 0.9782
2.0036 -4.5053 -1.7633 0.9793
2.0465 -4.1902 -1.6676 0.9804
2.1636 -4.0544 -1.6434 0.9807
2.5299 -4.0179 -1.6979 0.9800
3.3667 -3.9535 -1.8570 0.9782
3.5063 -3.8302 -1.8570 0.9782
4.2009 -3.6987 -2.0016 0.9765
4.3308 -3.5456 -2.0016 0.9765
4.4552 -3.3881 -2.0016 0.9765
4.7933 -2.8900 -2.0016 0.9765
4.8938 -2.7162 -2.0016 0.9765
4.9881 -2.5390 -2.0016 0.9765
5.0759 -2.3584 -2.0016 0.9765
5.1573 -2.1749 -2.0016 0.9765
5.2999 -1.7997 -2.0016 0.9765
5.3610 -1.6084 -2.0016 0.9765
5.4625 -1.2200 -2.0016 0.9765
5.5027 -1.0234 -2.0016 0.9765
5.5619 -0.6263 -2.0016 0.9765
5.5808 -0.4264 -2.0016 0.9765
5.5925 -0.2260 -2.0016 0.9765
5.5943 0.1754 -2.0016 0.9765
5.5845 0.3759 -2.0016 0.9765
5.5674 0.5759 -2.0016 0.9765
5.5431 0.7752 -2.0016 0.9765
5.4733 1.1705 -2.0016 0.9765
5.3753 1.5598 -2.0016 0.9765
5.2497 1.9411 -2.0016 0.9765
5.1767 2.1281 -2.0016 0.9765
5.0971 2.3124 -2.0016 0.9765
4.9182 2.6718 -2.0016 0.9765
4.8192 2.8465 -2.0016 0.9765
4.7141 3.0175 -2.0016 0.9765
4.6028 3.1846 -2.0016 0.9765
4.3627 3.5063 -2.0016 0.9765
4.1002 3.8100 -2.0016 0.9765
3.9609 3.9546 -2.0016 0.9765
3.8166 4.0941 -2.0016 0.9765
3.5133 4.3571 -2.0016 0.9765
3.3548 4.4803 -2.0016 0.9765
3.1919 4.5977 -2.0016 0.9765
3.0250 4.7092 -2.0016 0.9765
2.3206 5.0934 -2.0016 0.9765
1.7601 5.3131 -2.0016 0.9765
1.3748 5.4256 -2.0016 0.9765
0.5849 5.5665 -2.0016 0.9765
0.3849 5.5838 -2.0016 0.9765
-0.0163 5.5971 -2.0016 0.9765
-0.6174 5.5629 -2.0016 0.9765
-0.8165 5.5372 -2.0016 0.9765
-1.0145 5.5044 -2.0016 0.9765
-1.4065 5.4175 -2.0016 0.9765
-1.5998 5.3636 -2.0016 0.9765
-1.7911 5.3028 -2.0016 0.9765
-1.9802 5.2351 -2.0016 0.9765
-2.1666 5.1607 -2.0016 0.9765
-2.7083 4.8982 -2.0016 0.9765
-2.8823 4.7979 -2.0016 0.9765
-3.0525 4.6915 -2.0016 0.9765
-3.5387 4.3365 -2.0016 0.9765
-4.3831 3.4807 -2.0016 0.9765
-4.5051 3.3213 -2.0016 0.9765
-4.6213 3.1576 -2.0016 0.9765
-4.7316 2.9899 -2.0016 0.9765
-4.8358 2.8183 -2.0016 0.9765
-5.0254 2.4644 -2.0016 0.9765
-5.1891 2.0978 -2.0016 0.9765
-5.3261 1.7205 -2.0016 0.9765
-5.3844 1.5284 -2.0016 0.9765
-5.4357 1.3343 -2.0016 0.9765
-5.4801 1.1385 -2.0016 0.9765
-5.5174 0.9413 -2.0016 0.9765
-5.5707 0.5434 -2.0016 0.9765
-5.5953 0.1427 -2.0016 0.9765
-5.5911 -0.2587 -2.0016 0.9765
-5.5782 -0.4591 -2.0016 0.9765
-5.5310 -0.8577 -2.0016 0.9765
-5.4967 -1.0555 -2.0016 0.9765
-5.4553 -1.2519 -2.0016 0.9765
-5.3515 -1.6397 -2.0016 0.9765
-4.6139 -2.3826 -1.8570 0.9782
-4.4313 -2.7072 -1.8570 0.9782
-4.2259 -3.0178 -1.8570 0.9782
-4.1149 -3.1674 -1.8570 0.9782
-3.4839 -3.8507 -1.8570 0.9782
-3.3436 -3.9731 -1.8570 0.9782
-3.0502 -4.2026 -1.8570 0.9782
-2.4179 -4.5955 -1.8570 0.9782
-2.2516 -4.6793 -1.8570 0.9782
-1.5594 -4.9531 -1.8570 0.9782
-1.0184 -5.0919 -1.8570 0.9782
-0.8351 -5.1252 -1.8570 0.9782
-0.2799 -5.1852 -1.8570 0.9782
-0.0937 -5.1919 -1.8570 0.9782
0.0925 -5.1920 -1.8570 0.9782
0.4644 -5.1720 -1.8570 0.9782
0.6496 -5.1520 -1.8570 0.9782
0.8339 -5.1254 -1.8570 0.9782
2.0812 -4.7575 -1.8570 0.9782
2.1323 -4.0550 -1.6384 0.9807
2.3164 -4.0459 -1.6672 0.9804
2.4907 -4.0096 -1.6880 0.9801
3.0492 -4.2033 -1.8570 0.9782
3.3426 -3.9739 -1.8570 0.9782
4.0421 -3.8716 -2.0016 0.9765
4.1783 -3.7241 -2.0016 0.9765
4.5541 -3.2538 -2.0016 0.9765
4.9726 -2.5692 -2.0016 0.9765
5.0615 -2.3893 -2.0016 0.9765
5.1439 -2.2062 -2.0016 0.9765
5.3511 -1.6410 -2.0016 0.9765
5.4550 -1.2532 -2.0016 0.9765
5.5580 -0.6601 -2.0016 0.9765
5.5953 0.1414 -2.0016 0.9765
5.5866 0.3420 -2.0016 0.9765
5.5478 0.7415 -2.0016 0.9765
5.5176 0.9400 -2.0016 0.9765
5.4803 1.1372 -2.0016 0.9765
5.4360 1.3330 -2.0016 0.9765
5.3265 1.7193 -2.0016 0.9765
5.1896 2.0966 -2.0016 0.9765
4.6221 3.1565 -2.0016 0.9765
4.3840 3.4797 -2.0016 0.9765
4.2564 3.6347 -2.0016 0.9765
4.1233 3.7850 -2.0016 0.9765
3.9849 3.9304 -2.0016 0.9765
3.6929 4.2059 -2.0016 0.9765
3.0536 4.6907 -2.0016 0.9765
2.7095 4.8975 -2.0016 0.9765
2.5321 4.9916 -2.0016 0.9765
2.3515 5.0792 -2.0016 0.9765
2.1678 5.1602 -2.0016 0.9765
1.9814 5.2346 -2.0016 0.9765
1.4077 5.4172 -2.0016 0.9765
1.2126 5.4642 -2.0016 0.9765
0.8178 5.5370 -2.0016 0.9765
-0.5835 5.5666 -2.0016 0.9765
-0.7828 5.5421 -2.0016 0.9765
-0.9810 5.5104 -2.0016 0.9765
-1.3735 5.4260 -2.0016 0.9765
-2.2220 4.7268 -2.0016 0.9779
-2.5551 4.5554 -2.0016 0.9779
-3.0296 4.2546 -2.0016 0.9779
-3.1802 4.1432 -2.0016 0.9779
-3.4690 3.9046 -2.0016 0.9779
-3.7399 3.6459 -2.0016 0.9779
-3.8683 3.5095 -2.0016 0.9779
-3.9916 3.3685 -2.0016 0.9779
-4.2228 3.0737 -2.0016 0.9779
-4.3303 2.9203 -2.0016 0.9779
-4.4323 2.7631 -2.0016 0.9779
-4.5285 2.6024 -2.0016 0.9779
-4.6189 2.4383 -2.0016 0.9779
-4.8541 1.9282 -2.0016 0.9779
-4.9798 1.5753 -2.0016 0.9779
-5.0331 1.3957 -2.0016 0.9779
-5.1202 1.0313 -2.0016 0.9779
-5.1810 0.6617 -2.0016 0.9779
-5.2013 0.4755 -2.0016 0.9779
-5.2027 -0.4600 -2.0016 0.9779
-5.1829 -0.6463 -2.0016 0.9779
-5.1232 -1.0161 -2.0016 0.9779
-5.0835 -1.1992 -2.0016 0.9779
-5.0372 -1.3807 -2.0016 0.9779
-4.9845 -1.5605 -2.0016 0.9779
-4.7881 -2.0868 -2.0016 0.9779
-4.6375 -2.2224 -1.9707 0.9782
-4.2920 -2.2495 -1.8570 0.9795
-4.1197 -2.5513 -1.8570 0.9795
-3.8219 -2.9790 -1.8570 0.9795
-3.4798 -3.3723 -1.8570 0.9795
-3.3567 -3.4949 -1.8570 0.9795
-3.2292 -3.6130 -1.8570 0.9795
-3.0975 -3.7265 -1.8570 0.9795
-2.8225 -3.9389 -1.8570 0.9795
-2.6794 -4.0376 -1.8570 0.9795
-2.3831 -4.2193 -1.8570 0.9795
-2.2302 -4.3020 -1.8570 0.9795
-2.0745 -4.3792 -1.8570 0.9795
-1.7553 -4.5167 -1.8570 0.9795
-1.5922 -4.5767 -1.8570 0.9795
-1.4271 -4.6309 -1.8570 0.9795
-1.0915 -4.7212 -1.8570 0.9795
-0.9214 -4.7573 -1.8570 0.9795
-0.7502 -4.7873 -1.8570 0.9795
-0.5781 -4.8111 -1.8570 0.9795
-0.4052 -4.8288 -1.8570 0.9795
0.2894 -4.8371 -1.8570 0.9795
0.4627 -4.8236 -1.8570 0.9795
0.9781 -4.7460 -1.8570 0.9795
1.1477 -4.7079 -1.8570 0.9795
1.3158 -4.6637 -1.8570 0.9795
1.4822 -4.6135 -1.8570 0.9795
1.9691 -4.4276 -1.8570 0.9795
2.1346 -4.0000 -1.7375 0.9808
2.3229 -4.0006 -1.7728 0.9804
2.5243 -4.0090 -1.8155 0.9799
3.1417 -3.6893 -1.8570 0.9795
3.9201 -3.4515 -2.0016 0.9779
4.2681 -3.0105 -2.0016 0.9779
4.3733 -2.8555 -2.0016 0.9779
4.4729 -2.6968 -2.0016 0.9779
4.7367 -2.2008 -2.0016 0.9779
4.8126 -2.0296 -2.0016 0.9779
4.9457 -1.6794 -2.0016 0.9779
5.0027 -1.5009 -2.0016 0.9779
5.1350 -0.9550 -2.0016 0.9779
5.1659 -0.7702 -2.0016 0.9779
5.2079 -0.3979 -2.0016 0.9779
5.2188 -0.2109 -2.0016 0.9779
5.2205 0.1637 -2.0016 0.9779
5.1953 0.5374 -2.0016 0.9779
5.1727 0.7234 -2.0016 0.9779
5.1075 1.0923 -2.0016 0.9779
5.0651 1.2748 -2.0016 0.9779
4.9607 1.6345 -2.0016 0.9779
4.7564 2.1579 -2.0016 0.9779
4.6760 2.3270 -2.0016 0.9779
4.5895 2.4932 -2.0016 0.9779
4.4972 2.6562 -2.0016 0.9779
4.3990 2.8158 -2.0016 0.9779
4.1859 3.1239 -2.0016 0.9779
4.0712 3.2720 -2.0016 0.9779
3.9512 3.4159 -2.0016 0.9779
3.8262 3.5554 -2.0016 0.9779
3.5615 3.8205 -2.0016 0.9779
3.4222 3.9457 -2.0016 0.9779
3.2785 4.0659 -2.0016 0.9779
2.9786 4.2904 -2.0016 0.9779
2.5006 4.5855 -2.0016 0.9779
1.9937 4.8276 -2.0016 0.9779
1.8193 4.8960 -2.0016 0.9779
1.6425 4.9580 -2.0016 0.9779
1.1005 5.1058 -2.0016 0.9779
0.7317 5.1715 -2.0016 0.9779
0.1721 5.2202 -2.0016 0.9779
-0.2025 5.2191 -2.0016 0.9779
-0.3896 5.2085 -2.0016 0.9779
-0.5761 5.1912 -2.0016 0.9779
-1.1303 5.0993 -2.0016 0.9779
-1.3125 5.0554 -2.0016 0.9779
-1.4929 5.0051 -2.0016 0.9779
-1.8478 4.8852 -2.0016 0.9779
-2.0218 4.8158 -2.0016 0.9779
-2.3618 4.6585 -2.0016 0.9779
-2.5273 4.5708 -2.0016 0.9779
-2.8485 4.3779 -2.0016 0.9779
-3.0036 4.2730 -2.0016 0.9779
-3.3022 4.0467 -2.0016 0.9779
-3.4452 3.9257 -2.0016 0.9779
-3.7177 3.6686 -2.0016 0.9779
-4.0902 3.2481 -2.0016 0.9779
-4.3125 2.9466 -2.0016 0.9779
-4.5126 2.6299 -2.0016 0.9779
-4.6040 2.4664 -2.0016 0.9779
-4.8423 1.9576 -2.0016 0.9779
-4.9701 1.6055 -2.0016 0.9779
-5.1768 0.6932 -2.0016 0.9779
-5.2132 0.3203 -2.0016 0.9779
-5.2175 -0.2414 -2.0016 0.9779
-5.2054 -0.4284 -2.0016 0.9779
-5.1614 -0.8004 -2.0016 0.9779
-5.0907 -1.1683 -2.0016 0.9779
-5.0455 -1.3501 -2.0016 0.9779
-4.9939 -1.5301 -2.0016 0.9779
-4.8714 -1.8842 -2.0016 0.9779
-4.8006 -2.0576 -2.0016 0.9779
-4.1352 -2.5262 -1.8570 0.9795
-3.7315 -3.0915 -1.8570 0.9795
-3.6182 -3.2234 -1.8570 0.9795
-2.9852 -3.8171 -1.8570 0.9795
-2.5579 -4.1156 -1.8570 0.9795
-2.4087 -4.2047 -1.8570 0.9795
-2.1011 -4.3665 -1.8570 0.9795
-1.9432 -4.4391 -1.8570 0.9795
-1.7827 -4.5059 -1.8570 0.9795
-1.6200 -4.5669 -1.8570 0.9795
-1.4552 -4.6221 -1.8570 0.9795
-1.2885 -4.6713 -1.8570 0.9795
-0.9503 -4.7516 -1.8570 0.9795
-0.7793 -4.7827 -1.8570 0.9795
-0.6073 -4.8075 -1.8570 0.9795
-0.4345 -4.8262 -1.8570 0.9795
-0.2612 -4.8387 -1.8570 0.9795
0.2600 -4.8388 -1.8570 0.9795
0.4334 -4.8263 -1.8570 0.9795
0.7782 -4.7829 -1.8570 0.9795
0.9492 -4.7519 -1.8570 0.9795
1.1190 -4.7148 -1.8570 0.9795
1.4541 -4.6224 -1.8570 0.9795
1.6189 -4.5673 -1.8570 0.9795
1.7817 -4.5063 -1.8570 0.9795
2.0012 -4.1615 -1.7696 0.9804
2.4854 -4.0010 -1.8050 0.9800
2.7029 -4.0219 -1.8570 0.9795
2.9843 -3.8178 -1.8570 0.9795
3.3770 -3.4752 -1.8570 0.9795
3.7719 -3.6128 -2.0016 0.9779
3.8991 -3.4752 -2.0016 0.9779
4.1381 -3.1868 -2.0016 0.9779
4.3559 -2.8820 -2.0016 0.9779
4.4565 -2.7240 -2.0016 0.9779
4.7232 -2.2296 -2.0016 0.9779
4.8002 -2.0588 -2.0016 0.9779
4.9354 -1.7094 -2.0016 0.9779
4.9935 -1.5313 -2.0016 0.9779
5.0452 -1.3513 -2.0016 0.9779
5.1291 -0.9862 -2.0016 0.9779
5.2227 -0.0554 -2.0016 0.9779
5.1488 0.8772 -2.0016 0.9779
5.0727 1.2440 -2.0016 0.9779
5.0249 1.4251 -2.0016 0.9779
4.9098 1.7816 -2.0016 0.9779
4.8427 1.9565 -2.0016 0.9779
4.7695 2.1289 -2.0016 0.9779
4.6900 2.2986 -2.0016 0.9779
4.6046 2.4653 -2.0016 0.9779
4.5132 2.6288 -2.0016 0.9779
4.4161 2.7890 -2.0016 0.9779
4.2048 3.0984 -2.0016 0.9779
3.9719 3.3918 -2.0016 0.9779
3.8477 3.5320 -2.0016 0.9779
3.7186 3.6677 -2.0016 0.9779
3.4461 3.9248 -2.0016 0.9779
3.1559 4.1618 -2.0016 0.9779
2.5284 4.5702 -2.0016 0.9779
2.0230 4.8154 -2.0016 0.9779
1.8490 4.8848 -2.0016 0.9779
0.7631 5.1670 -2.0016 0.9779
0.2038 5.2191 -2.0016 0.9779
0.0165 5.2230 -2.0016 0.9779
-0.3579 5.2108 -2.0016 0.9779
-0.7305 5.1717 -2.0016 0.9779
-1.0993 5.1060 -2.0016 0.9779
-1.2817 5.0633 -2.0016 0.9779
-2.2379 4.3484 -2.0016 0.9791
-2.5438 4.1768 -2.0016 0.9791
-2.6920 4.0829 -2.0016 0.9791
-2.8367 3.9837 -2.0016 0.9791
-3.5018 3.4138 -2.0016 0.9791
-3.7375 3.1540 -2.0016 0.9791
-3.8482 3.0180 -2.0016 0.9791
-4.4774 1.9672 -2.0016 0.9791
-4.5450 1.8054 -2.0016 0.9791
-4.6069 1.6413 -2.0016 0.9791
-4.6628 1.4750 -2.0016 0.9791
-4.7565 1.1370 -2.0016 0.9791
-4.7942 0.9657 -2.0016 0.9791
-1.9519 0.2493 -0.8054 0.9915
-1.9579 0.1790 -0.8047 0.9915
-1.9143 -0.0315 -0.7836 0.9918
-4.7599 -1.1228 -2.0016 0.9791
-4.7165 -1.2928 -2.0016 0.9791
-4.6117 -1.6276 -2.0016 0.9791
-4.5504 -1.7919 -2.0016 0.9791
-4.4832 -1.9539 -2.0016 0.9791
-3.9412 -2.2493 -1.8573 0.9806
-3.5786 -2.7894 -1.8570 0.9806
-3.2583 -3.1576 -1.8570 0.9806
-3.0236 -3.3830 -1.8570 0.9806
-2.7733 -3.5910 -1.8570 0.9806
-2.6428 -3.6881 -1.8570 0.9806
-2.5088 -3.7806 -1.8570 0.9806
-2.3716 -3.8681 -1.8570 0.9806
-2.2314 -3.9506 -1.8570 0.9806
-2.0882 -4.0281 -1.8570 0.9806
-1.9424 -4.1004 -1.8570 0.9806
-0.5413 -4.5048 -1.8570 0.9806
0.1084 -4.5359 -1.8570 0.9806
0.2710 -4.5291 -1.8570 0.9806
0.5949 -4.4981 -1.8570 0.9806
0.7559 -4.4738 -1.8570 0.9806
0.9158 -4.4439 -1.8570 0.9806
1.0746 -4.4082 -1.8570 0.9806
1.2320 -4.3668 -1.8570 0.9806
1.5418 -4.2672 -1.8570 0.9806
1.8437 -4.1458 -1.8570 0.9806
2.5537 -3.7504 -1.8570 0.9806
2.6865 -3.6564 -1.8570 0.9806
2.8159 -3.5577 -1.8570 0.9806
2.9417 -3.4544 -1.8570 0.9806
3.6705 -3.2317 -2.0016 0.9791
3.7841 -3.0980 -2.0016 0.9791
3.8927 -2.9603 -2.0016 0.9791
3.9964 -2.8188 -2.0016 0.9791
4.2760 -2.3733 -2.0016 0.9791
4.4351 -2.0607 -2.0016 0.9791
4.5062 -1.9003 -2.0016 0.9791
4.6308 -1.5725 -2.0016 0.9791
4.8370 -0.7212 -2.0016 0.9791
4.8763 -0.3726 -2.0016 0.9791
4.8865 -0.1975 -2.0016 0.9791
4.8904 -0.0221 -2.0016 0.9791
4.8881 0.1533 -2.0016 0.9791
4.8795 0.3285 -2.0016 0.9791
4.8434 0.6774 -2.0016 0.9791
4.7824 1.0228 -2.0016 0.9791
4.6448 1.5305 -2.0016 0.9791
4.5232 1.8595 -2.0016 0.9791
4.4536 2.0205 -2.0016 0.9791
4.1189 2.6365 -2.0016 0.9791
3.9194 2.9250 -2.0016 0.9791
2.7890 4.0173 -2.0016 0.9791
2.1859 4.3748 -2.0016 0.9791
2.0276 4.4504 -2.0016 0.9791
1.8667 4.5202 -2.0016 0.9791
1.7034 4.5843 -2.0016 0.9791
1.3705 4.6946 -2.0016 0.9791
1.0304 4.7807 -2.0016 0.9791
0.8583 4.8146 -2.0016 0.9791
0.6851 4.8423 -2.0016 0.9791
0.1611 4.8878 -2.0016 0.9791
-0.3648 4.8769 -2.0016 0.9791
-0.5394 4.8607 -2.0016 0.9791
-1.2289 4.7336 -2.0016 0.9791
-1.5650 4.6333 -2.0016 0.9791
-2.0536 4.4384 -2.0016 0.9791
-2.5184 4.1922 -2.0016 0.9791
-2.6671 4.0992 -2.0016 0.9791
-2.8124 4.0009 -2.0016 0.9791
-2.9541 3.8975 -2.0016 0.9791
-3.0919 3.7890 -2.0016 0.9791
-3.8298 3.0413 -2.0016 0.9791
-4.0379 2.7590 -2.0016 0.9791
-4.1343 2.6124 -2.0016 0.9791
-4.2253 2.4625 -2.0016 0.9791
-4.5340 1.8330 -2.0016 0.9791
-4.5968 1.6692 -2.0016 0.9791
-4.6537 1.5033 -2.0016 0.9791
-4.7046 1.3355 -2.0016 0.9791
-4.7495 1.1659 -2.0016 0.9791
-1.9476 0.1197 -0.7986 0.9916
-1.9225 0.0490 -0.7871 0.9917
-1.9982 -0.3099 -0.8276 0.9913
-4.7666 -1.0939 -2.0016 0.9791
-4.7243 -1.2641 -2.0016 0.9791
-4.6759 -1.4327 -2.0016 0.9791
-4.4230 -2.0866 -2.0016 0.9791
-3.7846 -2.5027 -1.8570 0.9806
-3.6924 -2.6368 -1.8570 0.9806
-3.5954 -2.7676 -1.8570 0.9806
-3.2774 -3.1377 -1.8570 0.9806
-3.0441 -3.3645 -1.8570 0.9806
-2.9215 -3.4715 -1.8570 0.9806
-2.7951 -3.5741 -1.8570 0.9806
-2.6651 -3.6720 -1.8570 0.9806
-2.5317 -3.7652 -1.8570 0.9806
-2.3951 -3.8536 -1.8570 0.9806
-1.6692 -4.2190 -1.8570 0.9806
-1.3625 -4.3278 -1.8570 0.9806
-0.8898 -4.4491 -1.8570 0.9806
-0.2445 -4.5307 -1.8570 0.9806
-0.0819 -4.5365 -1.8570 0.9806
0.4058 -4.5191 -1.8570 0.9806
0.5676 -4.5016 -1.8570 0.9806
1.0478 -4.4146 -1.8570 0.9806
1.3615 -4.3281 -1.8570 0.9806
1.5158 -4.2765 -1.8570 0.9806
1.8185 -4.1569 -1.8570 0.9806
1.9664 -4.0890 -1.8570 0.9806
2.1034 -4.0000 -1.8496 0.9807
2.5308 -3.7658 -1.8570 0.9806
2.6643 -3.6726 -1.8570 0.9806
2.9206 -3.4722 -1.8570 0.9806
3.1620 -3.2540 -1.8570 0.9806
3.7652 -3.1210 -2.0016 0.9791
4.2615 -2.3993 -2.0016 0.9791
4.6756 -1.4338 -2.0016 0.9791
4.8025 -0.9234 -2.0016 0.9791
4.8564 -0.5768 -2.0016 0.9791
4.8739 -0.4022 -2.0016 0.9791
4.8814 0.2988 -2.0016 0.9791
4.8474 0.6479 -2.0016 0.9791
4.8210 0.8213 -2.0016 0.9791
4.7050 1.3343 -2.0016 0.9791
4.6541 1.5022 -2.0016 0.9791
4.5972 1.6682 -2.0016 0.9791
4.5344 1.8319 -2.0016 0.9791
4.4658 1.9934 -2.0016 0.9791
4.3915 2.1522 -2.0016 0.9791
4.1349 2.6114 -2.0016 0.9791
4.0386 2.7580 -2.0016 0.9791
3.9371 2.9011 -2.0016 0.9791
3.6027 3.3072 -2.0016 0.9791
3.0929 3.7883 -2.0016 0.9791
2.5194 4.1916 -2.0016 0.9791
2.3675 4.2793 -2.0016 0.9791
2.2125 4.3614 -2.0016 0.9791
2.0546 4.4380 -2.0016 0.9791
1.7313 4.5738 -2.0016 0.9791
1.3990 4.6861 -2.0016 0.9791
1.0595 4.7744 -2.0016 0.9791
0.7146 4.8380 -2.0016 0.9791
0.3659 4.8768 -2.0016 0.9791
0.0154 4.8905 -2.0016 0.9791
-0.1599 4.8879 -2.0016 0.9791
-0.3351 4.8790 -2.0016 0.9791
-0.5099 4.8639 -2.0016 0.9791
-1.9538 4.1563 -2.0016 0.9802
-2.6639 3.7411 -2.0016 0.9802
-2.7964 3.6432 -2.0016 0.9802
-2.9252 3.5406 -2.0016 0.9802
-3.2886 3.2059 -2.0016 0.9802
-3.6139 2.8342 -2.0016 0.9802
-3.7132 2.7028 -2.0016 0.9802
-3.8077 2.5679 -2.0016 0.9802
-3.8973 2.4297 -2.0016 0.9802
-3.9820 2.2883 -2.0016 0.9802
-4.0615 2.1441 -2.0016 0.9802
-4.1358 1.9970 -2.0016 0.9802
-4.2047 1.8474 -2.0016 0.9802
-4.2683 1.6955 -2.0016 0.9802
-1.5812 0.5002 -0.7228 0.9928
-1.5619 0.4331 -0.7064 0.9930
-1.5375 0.3675 -0.6890 0.9931
-1.5082 0.3038 -0.6705 0.9933
-1.5201 0.1941 -0.6679 0.9933
-1.5275 0.1396 -0.6685 0.9933
-1.5296 0.0847 -0.6676 0.9933
-1.5257 -0.0251 -0.6650 0.9934
-1.5295 -0.0801 -0.6675 0.9933
-1.5209 -0.1896 -0.6680 0.9933
-1.5600 -0.4276 -0.7050 0.9930
-1.5798 -0.4946 -0.7214 0.9928
-4.2733 -1.6828 -2.0016 0.9802
-4.1417 -1.9847 -2.0016 0.9802
-4.0678 -2.1320 -2.0016 0.9802
-3.8986 -2.2250 -1.9563 0.9806
-3.6280 -2.2468 -1.8598 0.9816
-3.5397 -2.3719 -1.8570 0.9816
-3.4524 -2.4973 -1.8570 0.9816
-3.3606 -2.6195 -1.8570 0.9816
-3.1642 -2.8536 -1.8570 0.9816
-3.0598 -2.9653 -1.8570 0.9816
-2.8394 -3.1770 -1.8570 0.9816
-2.3560 -3.5503 -1.8570 0.9816
-2.0955 -3.7100 -1.8570 0.9816
-1.8242 -3.8507 -1.8570 0.9816
-1.6849 -3.9136 -1.8570 0.9816
-1.5435 -3.9715 -1.8570 0.9816
-1.2548 -4.0720 -1.8570 0.9816
-1.1080 -4.1143 -1.8570 0.9816
-0.5083 -4.2305 -1.8570 0.9816
-0.3563 -4.2460 -1.8570 0.9816
-0.2038 -4.2560 -1.8570 0.9816
0.1018 -4.2597 -1.8570 0.9816
0.2545 -4.2533 -1.8570 0.9816
0.4069 -4.2414 -1.8570 0.9816
0.5587 -4.2241 -1.8570 0.9816
1.0092 -4.1397 -1.8570 0.9816
1.1570 -4.1008 -1.8570 0.9816
2.0060 -3.7592 -1.8570 0.9816
2.1396 -3.6848 -1.8570 0.9816
2.2703 -3.6057 -1.8570 0.9816
2.6444 -3.3410 -1.8570 0.9816
2.8771 -3.1429 -1.8570 0.9816
2.9880 -3.0377 -1.8570 0.9816
3.0950 -2.9286 -1.8570 0.9816
3.4470 -3.0349 -2.0016 0.9802
3.7530 -2.6472 -2.0016 0.9802
3.8455 -2.5109 -2.0016 0.9802
3.9331 -2.3713 -2.0016 0.9802
4.0930 -2.0833 -2.0016 0.9802
4.1650 -1.9352 -2.0016 0.9802
4.2318 -1.7846 -2.0016 0.9802
4.3989 -1.3198 -2.0016 0.9802
4.4822 -1.0011 -2.0016 0.9802
4.5152 -0.8397 -2.0016 0.9802
4.5425 -0.6773 -2.0016 0.9802
4.5926 -0.0208 -2.0016 0.9802
4.5823 0.3085 -2.0016 0.9802
4.5484 0.6361 -2.0016 0.9802
4.2477 1.7462 -2.0016 0.9802
4.1824 1.8974 -2.0016 0.9802
4.1117 2.0462 -2.0016 0.9802
3.9544 2.3356 -2.0016 0.9802
3.8681 2.4760 -2.0016 0.9802
3.6807 2.7468 -2.0016 0.9802
3.4743 3.0036 -2.0016 0.9802
3.2501 3.2449 -2.0016 0.9802
3.0092 3.4695 -2.0016 0.9802
2.8828 3.5752 -2.0016 0.9802
2.4822 3.8641 -2.0016 0.9802
2.1988 4.0321 -2.0016 0.9802
2.0528 4.1084 -2.0016 0.9802
1.9041 4.1793 -2.0016 0.9802
1.4443 4.3597 -2.0016 0.9802
1.1281 4.4520 -2.0016 0.9802
0.9677 4.4896 -2.0016 0.9802
0.8061 4.5214 -2.0016 0.9802
0.4799 4.5675 -2.0016 0.9802
0.3158 4.5818 -2.0016 0.9802
0.1513 4.5902 -2.0016 0.9802
-0.6700 4.5435 -2.0016 0.9802
-0.8325 4.5166 -2.0016 0.9802
-2.0768 4.0963 -2.0016 0.9802
-2.2223 4.0192 -2.0016 0.9802
-2.3650 3.9369 -2.0016 0.9802
-2.5047 3.8496 -2.0016 0.9802
-2.9037 3.5583 -2.0016 0.9802
-3.2690 3.2259 -2.0016 0.9802
-3.4918 2.9832 -2.0016 0.9802
-3.5966 2.8561 -2.0016 0.9802
-3.8825 2.4533 -2.0016 0.9802
-4.1235 2.0221 -2.0016 0.9802
-4.2579 1.7214 -2.0016 0.9802
-1.5963 0.5797 -0.7402 0.9926
-1.5046 0.2567 -0.6652 0.9934
-1.5183 0.2033 -0.6676 0.9933
-1.5271 0.0390 -0.6658 0.9934
-1.5292 -0.0708 -0.6672 0.9933
-1.5110 -0.2343 -0.6664 0.9934
-1.5306 -0.3513 -0.6844 0.9932
-1.5562 -0.4164 -0.7021 0.9930
-4.2834 -1.6568 -2.0016 0.9802
-4.0807 -2.1072 -2.0016 0.9802
-3.6674 -2.2405 -1.8730 0.9814
-3.5541 -2.3503 -1.8570 0.9816
-3.2811 -2.7184 -1.8570 0.9816
-3.0778 -2.9466 -1.8570 0.9816
-2.9702 -3.0551 -1.8570 0.9816
-1.9840 -3.7708 -1.8570 0.9816
-1.4245 -4.0158 -1.8570 0.9816
-1.2796 -4.0643 -1.8570 0.9816
-0.9849 -4.1455 -1.8570 0.9816
-0.5340 -4.2273 -1.8570 0.9816
-0.0769 -4.2602 -1.8570 0.9816
0.0759 -4.2602 -1.8570 0.9816
0.2286 -4.2548 -1.8570 0.9816
0.3811 -4.2438 -1.8570 0.9816
0.5330 -4.2274 -1.8570 0.9816
0.6843 -4.2056 -1.8570 0.9816
0.8347 -4.1784 -1.8570 0.9816
1.5666 -3.9625 -1.8570 0.9816
1.8466 -3.8400 -1.8570 0.9816
1.9831 -3.7713 -1.8570 0.9816
2.1171 -3.6977 -1.8570 0.9816
2.5020 -3.4490 -1.8570 0.9816
2.6241 -3.3570 -1.8570 0.9816
2.7428 -3.2608 -1.8570 0.9816
2.9694 -3.0558 -1.8570 0.9816
3.1808 -2.8351 -1.8570 0.9816
3.5359 -2.9309 -2.0016 0.9802
3.7369 -2.6699 -2.0016 0.9802
3.8302 -2.5342 -2.0016 0.9802
3.9186 -2.3952 -2.0016 0.9802
4.0020 -2.2531 -2.0016 0.9802
4.0802 -2.1082 -2.0016 0.9802
4.1532 -1.9605 -2.0016 0.9802
4.2208 -1.8103 -2.0016 0.9802
4.2830 -1.6578 -2.0016 0.9802
4.3397 -1.5031 -2.0016 0.9802
4.3908 -1.3465 -2.0016 0.9802
4.4363 -1.1882 -2.0016 0.9802
4.5101 -0.8671 -2.0016 0.9802
4.5383 -0.7049 -2.0016 0.9802
4.5606 -0.5416 -2.0016 0.9802
4.5877 -0.2134 -2.0016 0.9802
4.4184 1.2531 -2.0016 0.9802
4.2583 1.7204 -2.0016 0.9802
4.1938 1.8720 -2.0016 0.9802
4.0489 2.1678 -2.0016 0.9802
3.8831 2.4524 -2.0016 0.9802
3.4925 2.9824 -2.0016 0.9802
3.1520 3.3403 -2.0016 0.9802
2.9045 3.5576 -2.0016 0.9802
2.7750 3.6595 -2.0016 0.9802
2.5056 3.8490 -2.0016 0.9802
2.2233 4.0187 -2.0016 0.9802
1.6258 4.2953 -2.0016 0.9802
1.3138 4.4007 -2.0016 0.9802
1.1551 4.4450 -2.0016 0.9802
0.5077 4.5645 -2.0016 0.9802
0.1792 4.5892 -2.0016 0.9802
0.0145 4.5926 -2.0016 0.9802
-0.4788 4.5676 -2.0016 0.9802
-0.6423 4.5475 -2.0016 0.9802
-0.8050 4.5216 -2.0016 0.9802
-0.9666 4.4898 -2.0016 0.9802
-1.8396 3.9133 -2.0016 0.9811
-2.1153 3.7714 -2.0016 0.9811
-2.2492 3.6931 -2.0016 0.9811
-2.3802 3.6100 -2.0016 0.9811
-2.8719 3.2326 -2.0016 0.9811
-3.2025 2.9055 -2.0016 0.9811
-3.3046 2.7888 -2.0016 0.9811
-3.6694 2.2876 -2.0016 0.9811
-3.8240 2.0187 -2.0016 0.9811
-3.8939 1.8803 -2.0016 0.9811
-1.3202 0.5801 -0.6675 0.9937
-1.3294 0.5281 -0.6621 0.9937
-1.3334 0.4751 -0.6552 0.9938
-1.3294 0.4205 -0.6454 0.9939
-1.3193 0.3658 -0.6337 0.9940
-1.3052 0.3120 -0.6212 0.9941
-1.3080 0.2635 -0.6176 0.9941
-1.3214 0.2172 -0.6198 0.9941
-1.3385 0.0741 -0.6205 0.9941
-1.3361 0.0260 -0.6186 0.9941
-1.3384 -0.0701 -0.6204 0.9941
-1.3376 -0.1183 -0.6216 0.9941
-1.3223 -0.2133 -0.6200 0.9941
-1.3183 -0.3613 -0.6327 0.9940
-1.3288 -0.4160 -0.6445 0.9939
-1.3212 -0.5758 -0.6671 0.9937
-3.8995 -1.8687 -2.0016 0.9811
-3.7555 -2.1434 -2.0016 0.9811
-3.3460 -2.2420 -1.8644 0.9824
-3.2505 -2.3512 -1.8570 0.9825
-3.0736 -2.5782 -1.8570 0.9825
-2.8809 -2.7919 -1.8570 0.9825
-2.7789 -2.8934 -1.8570 0.9825
-2.5644 -3.0851 -1.8570 0.9825
-2.0969 -3.4201 -1.8570 0.9825
-1.4532 -3.7393 -1.8570 0.9825
-1.1814 -3.8338 -1.8570 0.9825
-0.9036 -3.9087 -1.8570 0.9825
-0.7629 -3.9386 -1.8570 0.9825
-0.6211 -3.9634 -1.8570 0.9825
-0.4786 -3.9831 -1.8570 0.9825
-0.3354 -3.9977 -1.8570 0.9825
-0.0480 -4.0115 -1.8570 0.9825
0.3831 -3.9934 -1.8570 0.9825
0.5260 -3.9771 -1.8570 0.9825
0.9501 -3.8976 -1.8570 0.9825
2.1376 -3.3949 -1.8570 0.9825
2.2579 -3.3160 -1.8570 0.9825
2.3754 -3.2329 -1.8570 0.9825
